VERSION 0.7
FIELDS x y z
SIZE 4 4 4
TYPE I I I
COUNT 1 1 1
WIDTH 3990
HEIGHT 1
VIEWPOINT 0.0 0.0 0.0 1.0 0.0 0.0 0.0
POINTS 3990
DATA ascii
130 89 405
126 86 390
133 90 408
135 90 409
134 89 403
131 86 387
131 85 385
177 114 519
187 120 543
146 93 419
145 91 411
154 96 431
151 93 418
151 93 417
122 74 331
99 59 263
88 52 230
83 49 215
77 45 195
65 38 162
46 26 110
71 40 175
58 33 139
55 31 129
54 30 126
70 39 166
61 33 142
42 23 92
52 28 118
59 32 134
43 23 94
84 44 192
85 45 192
95 49 213
103 53 231
109 56 242
121 62 267
138 70 304
154 78 339
173 86 377
183 91 398
186 92 401
185 91 396
185 90 392
187 90 393
195 93 406
190 90 393
188 89 385
192 90 391
198 92 400
192 89 384
200 92 398
235 107 465
208 94 408
200 90 388
201 90 387
208 92 397
225 99 427
237 104 449
241 105 452
233 101 432
237 102 437
241 104 442
241 103 438
241 102 434
238 100 426
251 105 446
248 103 437
247 102 433
258 106 448
279 114 482
275 112 473
-2386 999 4072
-2397 1009 4120
-2398 1015 4152
-2421 1031 4224
-456 197 802
-544 236 964
-673 293 1201
-678 297 1220
-674 297 1222
-685 304 1250
-712 317 1309
-725 325 1343
-674 304 1258
-645 293 1213
-616 282 1169
-482 222 922
-312 146 602
-210 99 408
-159 76 311
-130 63 256
-113 56 226
-102 51 205
-88 45 179
-94 48 192
-102 52 210
-124 63 257
-158 80 330
-364 181 764
-568 283 1202
-586 295 1251
-582 294 1252
-575 293 1246
-584 299 1277
-597 308 1316
-603 313 1340
-567 297 1270
-590 311 1334
-585 311 1334
-585 313 1344
-587 316 1360
-582 315 1360
-580 317 1367
-575 316 1368
-564 313 1354
-572 319 1384
-541 305 1321
-578 327 1422
-565 322 1403
-559 321 1400
-520 302 1315
-566 331 1444
-531 313 1367
-517 307 1344
-532 318 1395
-552 333 1461
-548 333 1463
-517 317 1392
-509 315 1384
-531 331 1457
-499 313 1381
-509 322 1422
-540 345 1525
-505 326 1440
-525 341 1512
-508 333 1478
-491 325 1441
-489 327 1450
-475 320 1422
-486 330 1468
-472 324 1440
-473 327 1459
-467 326 1455
-448 316 1410
-460 328 1465
-456 328 1468
-452 328 1469
-447 328 1468
-443 328 1472
-442 331 1484
-436 329 1480
-434 331 1490
-426 328 1477
-421 328 1476
-419 330 1487
-412 328 1480
-410 330 1487
-404 329 1485
-402 331 1495
-395 328 1485
-389 327 1482
-385 327 1482
-380 327 1484
-372 324 1468
-366 323 1464
-362 323 1467
-357 322 1463
-357 326 1481
-349 323 1469
-345 323 1471
-343 325 1482
-339 326 1486
-326 318 1449
-335 330 1508
-321 321 1465
-315 319 1458
-310 318 1456
-304 317 1449
-299 316 1448
-295 316 1447
-294 320 1468
-258 285 1308
-171 194 884
-144 167 760
-143 168 766
-139 166 757
-135 163 744
-130 160 732
-130 163 745
-126 160 732
-123 160 730
-122 161 739
-117 157 718
-116 159 730
-113 158 726
-106 152 695
-105 153 700
-105 155 713
-101 152 698
-95 147 676
-95 150 689
-94 151 694
-93 152 700
-92 154 710
-86 148 681
-85 151 693
-80 144 662
-78 145 668
-76 145 667
-72 141 649
-74 148 681
-68 141 649
-68 143 661
-66 144 665
-68 153 704
-64 148 682
-62 148 685
-58 144 664
-56 145 668
-55 147 678
-56 154 711
-55 157 727
-53 158 731
-49 152 702
-48 153 710
-45 151 700
-44 156 721
-42 155 717
-40 156 721
-37 153 708
-34 149 689
-31 144 665
-29 146 675
-26 140 648
-24 137 636
-21 136 629
-18 129 598
-17 130 602
-14 126 584
-13 128 593
-11 130 602
-10 134 623
-8 135 624
-6 134 623
-4 128 593
-3 128 591
0 118 544
0 129 596
2 132 612
3 131 609
5 135 628
7 135 625
9 137 634
11 137 634
13 136 630
15 137 634
17 136 632
18 136 631
20 131 609
21 132 612
23 131 606
25 130 604
26 126 586
25 112 520
27 118 544
30 121 561
31 119 549
30 110 508
30 104 480
32 106 489
33 105 485
35 106 487
35 102 473
38 107 495
39 106 488
39 101 468
41 102 470
42 101 468
45 105 487
46 104 478
47 103 475
46 99 455
48 99 454
51 102 472
51 100 463
50 96 442
51 95 437
54 99 453
56 100 460
55 95 436
61 103 475
61 101 465
62 99 457
63 100 461
64 99 455
63 96 441
68 101 463
71 104 478
69 99 454
85 120 552
68 93 428
69 93 427
67 88 404
70 91 417
72 92 421
82 103 471
77 95 434
77 93 424
75 90 410
79 92 423
81 93 425
80 91 415
83 93 424
83 91 417
84 92 418
87 93 426
87 91 416
88 92 418
89 91 415
91 92 420
94 93 424
94 92 418
92 89 404
97 93 422
100 95 431
99 92 419
101 92 420
101 91 415
103 92 419
99 88 397
101 89 402
113 98 445
107 92 414
107 91 410
111 92 417
118 97 441
111 91 410
115 92 418
119 95 431
125 99 447
115 90 406
122 94 424
123 94 422
124 94 422
122 91 411
119 88 395
125 92 412
124 90 402
127 91 409
124 88 394
124 87 390
127 88 395
129 89 399
130 89 396
132 89 399
136 91 408
140 93 415
132 87 387
170 111 499
192 124 558
190 122 545
148 94 420
154 97 432
144 90 400
108 67 294
97 59 259
89 54 236
79 47 204
72 43 185
47 28 115
84 49 212
43 25 102
67 39 165
59 34 142
69 39 167
45 26 105
50 28 116
54 30 124
49 27 111
54 30 123
59 32 132
56 30 124
82 44 186
93 50 211
104 55 235
110 58 248
119 62 265
133 69 295
148 76 328
163 83 358
179 91 392
183 92 396
184 92 396
190 94 406
183 90 387
189 92 397
196 95 410
195 94 404
188 90 385
193 92 392
198 94 401
215 101 431
200 93 397
208 96 411
205 95 402
206 94 401
208 95 401
213 96 408
228 102 434
231 103 436
232 103 435
239 105 445
239 104 440
231 101 423
239 103 435
237 102 427
245 104 438
239 102 425
249 105 439
255 107 447
274 114 477
275 114 475
279 115 479
-2478 1052 4226
-2489 1062 4275
-2463 1057 4263
-247 109 432
-626 274 1100
-639 281 1132
-787 347 1403
-713 317 1281
-741 331 1341
-704 316 1284
-717 324 1317
-671 305 1242
-683 312 1275
-683 314 1284
-611 283 1157
-503 235 960
-344 163 663
-214 102 415
-157 77 308
-122 61 242
-109 55 217
-108 54 216
-92 47 186
-91 47 185
-102 52 209
-127 65 263
-152 78 318
-318 161 668
-551 279 1165
-584 297 1245
-583 299 1254
-573 296 1243
-587 305 1282
-595 311 1312
-610 321 1354
-586 311 1314
-592 316 1337
-593 319 1351
-583 316 1340
-585 319 1356
-584 321 1364
-581 322 1369
-574 320 1364
-569 320 1365
-579 328 1400
-575 327 1401
-563 324 1386
-566 327 1404
-562 327 1406
-540 317 1363
-563 333 1434
-517 309 1329
-536 322 1391
-531 322 1390
-532 325 1407
-511 315 1363
-499 310 1342
-523 327 1420
-506 320 1388
-518 330 1433
-557 358 1557
-488 317 1378
-500 327 1424
-490 323 1408
-496 329 1440
-493 331 1446
-485 328 1437
-482 329 1443
-478 329 1443
-473 329 1445
-468 328 1442
-464 329 1447
-459 328 1446
-457 330 1453
-453 330 1457
-449 330 1457
-444 330 1457
-438 329 1453
-432 328 1451
-431 330 1461
-422 327 1448
-421 329 1461
-411 325 1441
-412 329 1460
-404 326 1450
-402 328 1458
-393 324 1442
-389 324 1444
-387 326 1455
-387 330 1471
-380 328 1464
-375 327 1462
-371 328 1465
-373 333 1491
-367 332 1487
-364 333 1491
-363 336 1507
-355 332 1491
-353 335 1503
-350 336 1510
-346 337 1514
-337 332 1494
-327 327 1471
-319 323 1454
-311 320 1442
-308 321 1446
-305 323 1456
-301 323 1457
-303 329 1486
-295 325 1468
-276 309 1398
-184 211 950
-147 171 771
-139 165 744
-138 166 748
-134 164 739
-134 167 751
-128 162 730
-125 162 728
-123 161 728
-122 163 735
-121 165 743
-115 160 723
-109 155 700
-105 152 688
-105 155 698
-102 153 694
-100 153 692
-97 152 688
-96 154 698
-92 151 683
-88 147 668
-89 152 687
-88 153 694
-83 148 672
-79 146 661
-80 150 683
-77 148 672
-75 148 670
-72 146 662
-70 146 665
-69 149 679
-67 149 677
-66 150 681
-64 150 682
-63 152 693
-58 146 666
-57 148 673
-55 149 677
-55 154 702
-53 154 702
-54 162 739
-53 165 753
-47 153 699
-43 148 674
-39 142 648
-37 140 640
-33 133 604
-31 131 598
-29 130 594
-27 130 593
-25 127 578
-23 127 580
-21 125 568
-19 126 573
-17 124 565
-16 124 566
-14 122 557
-12 122 555
-10 123 561
-9 128 585
-8 128 585
-6 127 582
-4 126 575
-2 116 530
0 116 529
0 113 515
2 119 541
3 126 574
5 127 581
7 128 584
8 124 565
10 126 576
12 127 581
13 122 559
15 125 571
17 124 564
19 128 583
21 131 601
23 130 595
24 130 593
26 130 594
27 123 562
29 124 569
29 120 549
31 119 543
32 118 537
31 107 488
33 112 509
33 106 483
34 103 468
35 104 474
37 104 472
39 106 480
39 102 464
43 108 492
43 104 474
46 109 494
46 105 477
50 112 509
49 106 480
49 103 466
48 99 448
54 109 494
50 96 436
51 97 439
55 101 456
51 92 415
53 93 422
63 107 488
61 102 462
59 96 436
62 99 447
65 103 465
68 104 474
67 101 457
69 102 462
70 101 457
73 103 468
86 120 545
70 95 429
68 91 409
67 88 398
73 94 426
79 100 453
79 99 448
80 98 442
76 91 411
78 92 416
79 92 415
82 94 423
85 96 433
83 93 417
85 94 422
86 93 417
89 94 425
88 92 414
89 92 415
91 93 416
94 95 425
94 93 419
95 93 418
97 94 420
101 97 433
100 94 422
101 94 423
102 94 421
103 94 419
107 96 430
105 93 414
107 94 421
111 96 428
119 102 456
111 94 420
106 89 396
108 89 397
120 99 439
126 102 454
118 95 422
119 94 417
116 91 405
133 103 459
116 89 395
117 89 393
124 93 414
119 88 390
124 91 404
124 90 398
126 90 400
130 93 409
129 91 404
128 90 395
131 91 401
134 92 405
132 90 395
144 97 427
152 101 447
159 106 466
176 115 509
186 121 533
183 118 521
139 89 388
99 63 271
90 56 242
80 49 211
77 48 202
72 44 185
45 27 111
74 45 189
81 48 204
69 41 172
58 34 140
55 32 131
47 27 110
62 36 148
81 46 192
63 35 146
66 37 154
93 51 217
84 46 194
81 44 184
91 50 208
99 53 225
107 57 242
120 64 269
126 67 282
139 73 310
165 86 365
177 92 391
182 93 398
179 91 388
182 92 391
180 91 384
193 96 408
182 90 381
192 94 399
191 93 395
188 91 386
201 97 408
186 89 374
202 96 403
211 100 420
219 103 433
200 94 392
211 98 410
202 93 389
217 99 415
219 100 416
225 102 425
222 100 416
232 104 431
228 101 420
238 105 436
235 103 427
239 104 430
253 110 453
246 106 437
236 101 416
255 109 447
269 114 468
270 113 465
270 113 463
-42 20 71
-2467 1067 4235
-49 24 85
-154 70 268
-690 305 1212
-791 352 1400
-790 353 1408
-763 343 1370
-741 335 1340
-721 328 1315
-732 335 1346
-694 320 1285
-692 320 1290
-691 322 1299
-641 301 1213
-528 250 1008
-362 173 697
-232 112 449
-159 78 311
-122 61 242
-111 56 221
-105 54 211
-90 47 182
-95 50 195
-103 54 212
-122 64 253
-153 79 319
-291 150 611
-525 270 1111
-580 300 1237
-586 304 1259
-573 300 1241
-583 307 1274
-594 315 1308
-561 299 1245
-579 311 1296
-590 319 1331
-588 321 1340
-585 321 1343
-586 324 1357
-583 325 1361
-578 324 1362
-576 325 1368
-576 328 1379
-585 335 1414
-547 316 1333
-544 317 1338
-539 316 1337
-557 329 1395
-531 316 1340
-555 333 1413
-532 322 1367
-536 327 1390
-537 330 1405
-528 327 1396
-490 306 1307
-523 330 1408
-518 329 1408
-515 330 1412
-513 331 1420
-505 329 1411
-502 329 1415
-499 331 1422
-499 333 1433
-492 332 1429
-487 331 1429
-484 332 1434
-481 333 1438
-474 331 1431
-470 331 1434
-465 331 1432
-459 330 1430
-458 332 1440
-450 329 1429
-441 326 1416
-442 330 1437
-432 326 1418
-431 328 1430
-428 329 1436
-423 329 1435
-419 329 1436
-417 331 1447
-411 329 1442
-409 331 1451
-406 332 1455
-405 334 1467
-397 332 1459
-394 333 1465
-394 337 1481
-391 338 1486
-388 339 1492
-381 337 1486
-377 337 1488
-375 339 1497
-371 339 1499
-368 341 1506
-362 340 1502
-360 342 1515
-353 340 1505
-353 344 1526
-347 342 1516
-341 340 1511
-331 336 1490
-303 312 1383
-283 295 1310
-295 312 1387
-303 324 1444
-306 332 1480
-304 335 1494
-298 333 1483
-284 322 1438
-197 229 1017
-150 178 788
-140 169 751
-134 165 731
-135 167 744
-133 168 748
-127 164 727
-126 166 737
-122 163 725
-120 162 723
-116 161 715
-116 163 727
-110 158 704
-105 153 682
-106 158 706
-100 153 682
-98 152 678
-97 154 688
-98 158 706
-92 153 683
-93 157 700
-88 153 684
-85 151 674
-83 151 673
-81 151 673
-79 150 671
-76 150 669
-75 151 676
-72 148 661
-69 146 655
-69 149 670
-68 152 680
-66 153 685
-61 146 654
-59 145 653
-59 150 672
-55 146 654
-55 150 675
-55 155 696
-53 156 703
-51 157 705
-46 147 661
-40 134 603
-34 122 545
-32 119 534
-29 116 519
-28 115 516
-26 113 508
-23 109 490
-22 111 498
-21 112 504
-19 110 495
-18 112 500
-16 110 494
-14 109 488
-13 108 486
-12 114 512
-10 111 497
-9 110 495
-7 110 493
-6 111 499
-5 112 504
-3 115 517
-2 113 509
0 107 480
0 107 480
2 108 483
3 111 497
5 112 503
6 116 520
8 122 550
10 120 541
11 117 528
13 117 528
15 121 543
16 119 537
17 118 532
19 117 528
21 123 553
23 125 562
25 123 552
26 122 551
27 118 532
29 120 540
28 111 500
31 116 520
33 116 523
34 115 517
34 111 501
35 108 485
35 104 467
37 107 481
39 106 477
40 106 474
41 107 478
42 105 472
45 108 482
47 109 489
47 105 472
49 106 477
49 105 471
50 103 463
48 97 435
49 95 426
52 100 449
53 99 444
50 90 401
49 87 389
55 96 428
61 104 466
58 96 427
61 98 440
61 96 429
65 101 451
66 100 449
68 101 453
71 104 465
71 103 458
94 133 598
86 119 532
73 99 440
68 91 405
71 93 415
73 94 418
75 95 425
85 106 472
81 99 440
77 93 412
79 94 417
82 95 423
83 95 421
84 95 421
86 96 425
86 94 418
89 96 426
88 94 418
89 93 414
92 95 423
91 93 414
95 95 422
96 96 425
99 97 428
99 96 425
100 96 424
97 91 403
103 96 426
106 98 433
101 92 406
104 93 411
105 93 411
105 92 406
110 95 420
108 93 407
117 99 437
118 99 435
107 89 388
124 101 446
121 98 430
127 102 446
119 94 413
126 99 432
138 107 470
118 91 396
116 88 383
125 94 410
124 93 404
124 91 398
127 93 403
129 94 407
126 90 392
130 92 400
129 90 392
134 93 406
142 98 425
146 100 433
143 97 419
150 101 438
156 104 450
166 109 474
152 99 429
119 77 330
89 57 241
76 48 203
73 46 191
70 44 183
77 48 200
51 31 126
76 46 193
60 36 149
62 37 151
42 25 99
53 31 126
57 33 136
40 23 91
60 34 140
33 19 72
44 25 97
77 43 177
82 46 190
86 48 198
90 49 204
104 57 237
118 64 268
126 68 283
138 74 310
153 81 340
172 91 382
177 93 391
183 95 400
187 97 405
187 96 401
190 97 405
183 93 387
188 94 394
186 93 386
188 93 387
195 96 399
196 96 399
205 99 413
203 98 407
199 95 394
195 93 384
206 97 403
207 97 402
212 99 408
207 96 396
221 102 419
232 106 437
221 101 412
236 107 439
224 101 411
233 104 426
240 107 436
221 98 398
232 102 414
246 107 437
254 110 447
253 109 442
261 112 453
265 113 458
265 112 453
-14 9 24
-6 5 10
-33 17 57
-175 80 304
-593 266 1041
-758 341 1340
-763 346 1360
-801 365 1437
-794 364 1435
-733 338 1336
-732 340 1344
-710 331 1314
-705 331 1314
-681 322 1279
-648 308 1226
-539 258 1029
-376 182 723
-243 119 472
-172 86 337
-135 68 266
-113 58 224
-110 57 220
-96 50 194
-92 48 187
-96 51 198
-119 63 246
-149 78 310
-261 136 548
-513 267 1084
-576 301 1227
-583 307 1252
-576 305 1248
-579 309 1263
-592 318 1304
-575 311 1276
-588 320 1316
-592 325 1336
-589 325 1341
-586 326 1346
-588 329 1360
-587 331 1369
-579 329 1362
-578 331 1371
-573 331 1373
-572 332 1382
-562 329 1370
-561 331 1379
-558 331 1383
-555 332 1388
-547 330 1381
-544 331 1385
-540 331 1387
-537 331 1391
-535 333 1399
-530 332 1398
-524 332 1396
-521 333 1402
-514 331 1396
-510 331 1398
-505 331 1398
-504 332 1407
-497 331 1401
-491 329 1397
-490 332 1409
-481 328 1395
-475 327 1391
-479 333 1417
-471 331 1409
-463 328 1398
-466 333 1422
-463 334 1426
-453 329 1409
-454 333 1427
-451 335 1434
-447 335 1436
-446 337 1446
-439 335 1438
-437 337 1448
-431 336 1446
-429 337 1454
-426 339 1461
-420 337 1456
-416 337 1457
-415 340 1469
-412 342 1478
-410 343 1485
-405 343 1484
-402 344 1492
-397 344 1491
-391 342 1486
-389 344 1495
-382 342 1489
-380 345 1500
-376 345 1501
-374 347 1511
-366 344 1500
-362 345 1503
-355 342 1493
-354 345 1508
-348 343 1500
-345 345 1509
-344 348 1525
-330 339 1483
-306 319 1397
-294 311 1361
-301 322 1413
-304 330 1446
-304 334 1467
-306 342 1502
-299 339 1491
-282 325 1428
-202 237 1041
-141 170 742
-145 177 776
-136 169 739
-133 167 733
-133 171 749
-127 165 724
-127 169 741
-121 164 720
-121 167 732
-116 163 715
-117 166 731
-109 159 700
-109 162 712
-107 162 712
-100 155 682
-101 158 697
-96 154 678
-95 157 690
-93 156 686
-92 159 699
-88 154 679
-86 154 678
-83 153 674
-80 151 668
-79 152 670
-77 152 671
-73 149 659
-69 146 643
-70 149 661
-66 146 646
-65 148 656
-66 154 680
-62 149 659
-60 150 662
-58 150 663
-58 156 690
-58 159 707
-56 160 708
-53 159 705
-48 150 667
-39 129 571
-33 113 500
-30 110 485
-27 104 456
-25 103 453
-24 103 453
-22 99 438
-21 100 442
-19 100 443
-17 97 428
-17 99 439
-15 99 438
-14 97 430
-12 98 432
-11 97 430
-10 98 432
-9 97 430
-8 102 452
-6 100 444
-5 105 462
-4 106 470
-3 107 473
-1 109 482
0 109 484
1 103 454
2 105 464
3 103 456
5 106 467
6 108 477
8 110 486
9 111 490
10 109 484
12 114 506
14 116 516
15 116 513
17 114 504
18 113 502
20 115 510
21 116 513
23 114 504
24 115 510
26 113 502
27 113 500
29 117 517
31 119 527
33 120 534
33 115 510
34 110 489
36 114 505
36 107 474
37 108 478
38 106 469
38 103 454
42 111 490
43 108 476
47 115 510
47 111 491
45 104 459
47 105 465
46 99 437
48 100 442
49 101 444
51 101 445
50 98 430
52 98 433
54 99 435
53 95 419
54 94 413
56 96 424
57 96 421
53 87 384
59 95 417
64 101 444
64 99 438
64 97 428
68 101 445
67 97 429
74 106 466
84 118 519
77 106 468
71 95 418
70 93 409
74 96 422
72 92 404
73 91 400
79 98 429
91 111 488
83 100 437
83 98 428
85 99 435
83 96 418
85 96 422
88 98 428
87 95 417
89 96 419
88 94 410
94 99 433
93 97 422
96 98 429
95 96 417
97 97 422
95 93 407
97 94 408
99 95 413
100 95 412
103 96 417
104 95 415
103 94 409
105 95 412
103 92 397
103 91 394
117 102 443
112 96 416
111 94 409
119 100 435
119 99 427
115 94 408
122 99 428
116 93 402
129 103 444
137 108 468
133 103 447
133 103 443
128 98 423
123 93 401
128 96 413
128 95 408
125 92 394
128 93 399
180 130 560
121 86 368
130 92 393
136 95 406
166 115 493
142 98 418
148 101 430
147 99 423
127 85 360
110 73 308
104 68 287
90 59 245
72 46 192
71 45 187
69 43 179
42 26 104
59 36 148
76 47 194
46 28 111
52 31 125
48 28 113
61 36 146
59 35 141
71 41 168
54 31 124
59 34 137
78 45 183
82 47 192
92 52 213
98 55 225
106 59 242
115 64 262
127 70 289
140 76 315
154 83 345
169 91 378
176 94 390
182 97 401
187 98 408
184 96 398
190 99 408
185 95 394
190 97 401
192 97 402
188 95 391
196 98 404
195 97 400
199 98 403
206 101 416
219 107 438
214 104 424
216 104 426
200 96 391
206 98 399
210 99 404
212 100 405
215 100 407
220 102 414
216 100 403
222 102 412
240 109 442
243 110 443
235 106 426
246 110 442
235 105 420
253 112 449
253 111 445
261 114 456
303 132 527
237 102 408
255 110 436
-30 16 52
-7 5 12
-23 13 40
-191 88 332
-631 287 1106
-708 323 1250
-810 372 1442
-760 351 1363
-755 350 1363
-784 366 1427
-774 363 1420
-708 335 1309
-720 342 1340
-685 328 1286
-662 319 1252
-569 276 1085
-425 208 816
-273 135 528
-185 93 361
-132 68 261
-112 58 223
-107 56 215
-98 52 198
-92 49 188
-100 53 205
-113 61 235
-141 75 294
-238 126 500
-466 246 984
-572 303 1219
-577 308 1239
-579 311 1252
-581 314 1267
-591 322 1301
-575 315 1274
-608 336 1360
-590 328 1330
-585 327 1331
-579 326 1327
-583 331 1347
-579 331 1350
-576 332 1354
-572 332 1358
-570 333 1363
-565 333 1364
-562 333 1369
-554 331 1361
-547 330 1357
-545 331 1363
-543 332 1369
-539 332 1371
-534 332 1372
-529 331 1372
-525 331 1373
-518 329 1366
-516 331 1375
-515 333 1385
-504 329 1368
-507 333 1387
-497 329 1373
-492 329 1372
-493 332 1389
-490 333 1394
-484 332 1390
-481 333 1396
-478 333 1399
-476 335 1409
-472 335 1409
-471 338 1421
-467 338 1425
-464 339 1430
-462 340 1436
-455 339 1430
-455 342 1445
-452 343 1451
-448 343 1453
-443 343 1454
-440 344 1460
-434 343 1455
-430 342 1455
-430 347 1474
-426 346 1474
-420 345 1471
-416 346 1474
-412 345 1474
-410 348 1486
-401 344 1470
-400 347 1484
-397 348 1491
-393 348 1492
-386 347 1486
-383 347 1490
-379 348 1494
-373 346 1487
-370 348 1496
-365 347 1494
-361 347 1496
-357 348 1498
-354 350 1506
-348 348 1502
-347 351 1516
-340 349 1508
-331 345 1489
-316 333 1441
-316 338 1460
-317 343 1485
-312 343 1483
-313 348 1510
-306 346 1499
-300 344 1494
-286 334 1448
-222 264 1145
-163 197 853
-143 177 765
-138 174 751
-132 169 730
-129 168 725
-129 171 739
-126 170 735
-122 167 723
-121 169 732
-117 166 721
-114 165 716
-111 163 706
-111 166 721
-104 160 693
-104 162 704
-101 161 699
-97 158 687
-95 159 689
-94 159 692
-91 158 688
-86 154 669
-87 159 692
-83 154 670
-81 154 672
-82 161 700
-77 154 669
-72 149 651
-72 152 663
-72 157 683
-68 152 661
-65 151 657
-64 153 668
-60 147 643
-61 155 679
-59 154 673
-58 156 681
-58 162 707
-55 158 693
-48 147 641
-41 131 573
-35 119 516
-29 103 447
-27 101 438
-25 97 422
-23 95 410
-21 94 409
-20 96 415
-19 96 416
-17 94 406
-16 92 398
-15 93 402
-14 97 420
-12 92 399
-12 94 407
-10 91 394
-9 95 415
-8 94 408
-7 94 408
-6 95 411
-5 98 426
-3 96 416
-2 100 433
-1 104 452
0 105 459
0 109 477
2 103 449
3 95 414
5 101 438
6 102 444
7 107 465
9 106 463
10 109 474
12 110 479
13 111 486
15 116 507
17 117 510
17 110 480
20 116 506
20 108 474
22 111 485
22 104 454
24 107 469
25 107 470
27 107 467
28 107 469
27 99 431
32 111 486
35 116 506
36 114 500
36 109 478
39 115 503
38 108 471
40 110 481
40 106 461
42 108 471
44 109 477
45 108 472
47 110 480
46 103 451
48 106 462
49 104 451
47 96 420
50 100 437
49 96 415
51 97 421
53 98 427
52 94 410
53 95 411
55 95 413
57 97 422
56 92 401
59 97 420
63 100 434
60 94 406
62 95 413
63 94 406
70 103 445
71 103 445
72 102 441
75 104 452
71 98 423
71 95 411
70 92 398
74 96 414
75 96 415
78 98 426
81 100 435
78 94 408
88 105 455
83 98 424
85 98 426
89 101 438
88 99 427
88 98 422
90 98 423
91 98 424
90 96 412
92 97 416
93 96 415
95 97 418
96 97 415
100 99 427
98 97 415
100 97 418
101 97 416
104 99 424
101 94 405
105 96 413
106 97 415
109 98 420
109 97 417
108 95 407
116 101 431
113 97 416
114 97 414
112 95 404
118 98 419
121 100 425
111 91 386
126 101 432
123 98 417
107 85 359
123 96 410
112 87 367
126 97 410
145 110 468
129 96 409
122 91 385
132 97 413
137 100 424
128 92 390
127 91 382
155 110 464
145 102 429
148 103 434
143 99 416
122 83 350
109 73 306
93 62 257
83 55 227
82 54 221
85 55 228
55 35 141
63 40 162
72 45 185
71 44 180
55 34 136
48 30 116
52 32 125
65 39 158
61 37 146
63 37 149
59 35 139
45 26 102
74 43 173
85 50 200
94 54 221
102 58 237
111 63 256
124 70 286
133 75 306
147 82 335
163 90 370
165 91 371
182 99 407
177 96 393
175 94 385
184 98 401
188 99 406
186 98 398
188 98 399
189 98 399
191 99 401
196 100 407
198 101 409
197 100 404
199 100 405
198 99 398
196 97 391
206 101 409
199 97 392
202 98 393
208 100 402
196 94 377
216 103 413
228 108 432
219 103 411
226 105 421
233 108 431
234 108 429
243 111 443
234 107 424
250 114 451
249 112 445
275 123 489
233 104 409
267 118 466
240 105 414
234 102 402
275 119 469
-74 36 126
-47 24 81
1 2 -2
-171 80 298
-536 247 940
-797 368 1407
-763 355 1357
-815 381 1460
-787 370 1421
-798 377 1451
-775 369 1421
-714 342 1319
-723 348 1347
-717 348 1345
-679 331 1284
-605 297 1152
-466 231 895
-283 142 547
-196 100 382
-138 72 272
-121 63 240
-105 56 210
-97 52 196
-86 47 175
-93 50 190
-103 56 212
-137 74 285
-203 109 426
-427 229 902
-571 306 1215
-575 311 1234
-580 316 1254
-578 316 1259
-596 328 1310
-601 334 1332
-599 335 1338
-590 332 1330
-585 331 1329
-578 330 1325
-567 326 1310
-570 330 1327
-563 329 1325
-557 327 1320
-555 329 1329
-554 331 1337
-549 330 1336
-546 330 1339
-540 330 1338
-540 332 1350
-534 331 1346
-532 332 1353
-530 333 1360
-527 334 1364
-524 335 1370
-518 334 1366
-518 336 1378
-513 336 1378
-509 336 1379
-511 340 1399
-503 338 1389
-499 338 1392
-501 342 1412
-497 342 1412
-490 341 1408
-489 343 1418
-485 343 1421
-482 344 1424
-476 343 1422
-475 345 1433
-471 345 1436
-467 346 1438
-462 345 1435
-461 347 1447
-456 347 1449
-451 346 1447
-445 345 1441
-445 348 1457
-442 350 1465
-436 349 1460
-433 349 1465
-427 349 1463
-424 350 1468
-421 351 1474
-413 348 1463
-411 350 1473
-406 349 1472
-401 348 1468
-397 349 1472
-398 354 1493
-394 354 1496
-386 351 1483
-382 351 1485
-378 352 1491
-374 352 1490
-367 350 1483
-364 351 1489
-362 353 1500
-360 356 1512
-353 353 1502
-346 351 1494
-345 354 1507
-339 353 1502
-329 347 1478
-325 347 1479
-322 349 1488
-324 356 1519
-320 357 1524
-317 357 1528
-315 360 1541
-304 353 1513
-296 349 1496
-265 318 1362
-178 218 931
-148 186 791
-138 176 750
-134 173 739
-129 170 725
-128 171 729
-125 170 728
-124 172 735
-121 170 729
-117 168 720
-114 166 711
-114 170 726
-108 164 702
-102 158 677
-100 158 676
-98 158 677
-97 160 684
-97 163 699
-91 158 676
-95 166 714
-89 160 687
-84 154 662
-83 157 673
-81 157 675
-75 149 641
-77 156 670
-73 153 656
-70 151 649
-69 153 656
-67 152 655
-66 154 665
-63 152 655
-63 157 678
-62 158 682
-61 162 701
-62 170 732
-59 168 724
-50 147 635
-41 128 549
-36 118 509
-31 108 464
-27 98 418
-26 100 427
-23 94 402
-22 95 405
-21 93 396
-19 91 391
-18 92 395
-17 91 391
-15 89 379
-14 90 386
-13 89 380
-12 91 389
-11 91 390
-10 93 397
-9 97 415
-7 91 391
-7 96 410
-6 96 412
-4 96 411
-3 98 421
-2 97 417
-1 101 433
0 105 453
1 104 447
2 101 434
3 103 444
4 98 422
6 103 443
7 104 448
9 105 454
10 103 444
12 108 467
13 109 468
14 110 474
16 113 486
18 112 483
19 113 485
20 109 471
21 107 461
22 104 446
23 102 440
25 106 458
26 105 451
27 105 454
28 101 435
33 116 502
36 122 526
33 106 459
38 117 503
38 114 493
40 114 492
41 114 490
42 112 481
44 114 492
46 116 500
42 102 437
43 101 432
46 104 448
47 104 448
46 100 427
50 104 448
49 99 424
51 101 434
50 96 413
51 96 411
55 101 432
53 96 410
54 96 409
56 96 409
56 95 406
60 98 421
62 100 428
61 97 416
65 100 429
63 96 412
62 92 394
65 95 405
65 93 399
69 98 418
64 88 375
72 98 418
73 98 419
76 100 427
79 102 437
76 96 410
79 99 424
82 101 430
89 108 463
75 90 381
87 102 435
87 101 430
86 98 415
173 196 843
88 98 416
90 98 416
92 99 419
94 99 423
93 98 416
94 98 415
94 96 406
97 98 416
98 97 413
99 97 412
102 99 417
102 97 413
102 97 410
100 94 395
104 96 407
106 97 409
108 97 411
110 98 415
105 92 388
113 98 415
116 100 421
112 95 401
123 104 438
117 98 411
126 104 439
124 101 427
121 98 410
133 106 446
138 109 460
126 98 412
141 110 461
133 102 429
129 98 412
141 106 444
121 90 377
132 97 406
130 95 396
126 91 379
126 91 377
147 105 437
159 112 468
140 98 407
114 79 326
116 79 328
75 50 204
81 54 220
48 32 124
75 50 200
45 29 112
47 30 119
74 48 191
63 40 159
69 43 173
67 42 167
57 35 138
66 41 162
61 37 147
77 47 187
55 33 128
70 41 164
88 52 209
100 59 236
108 63 254
122 71 286
123 71 285
137 78 317
148 84 341
165 93 378
173 97 393
182 101 410
184 102 413
179 98 397
181 99 399
185 100 403
182 98 393
190 101 408
191 101 405
191 101 404
194 101 407
193 100 401
185 95 380
197 101 403
201 102 408
203 102 408
203 102 406
198 99 392
194 96 381
204 101 398
212 103 410
212 103 407
222 107 424
220 105 416
231 110 435
236 112 441
235 111 436
243 113 446
236 110 430
238 110 430
252 116 454
227 104 404
267 121 473
243 110 427
291 131 509
280 125 486
283 125 486
263 116 448
-45 23 76
-35 18 60
-86 42 148
-151 72 263
-627 292 1098
-796 372 1404
-775 365 1378
-838 396 1500
-782 372 1411
-781 374 1421
-782 376 1432
-734 356 1355
-736 359 1369
-685 336 1285
-703 347 1328
-634 315 1206
-495 248 950
-320 163 620
-212 109 415
-159 83 313
-122 65 242
-106 57 212
-98 53 198
-84 47 172
-93 51 192
-103 57 214
-125 69 259
-171 94 358
-374 203 790
-556 302 1181
-578 316 1238
-578 319 1250
-572 317 1247
-592 330 1300
-596 335 1321
-605 342 1350
-587 335 1322
-586 337 1332
-567 328 1300
-543 316 1254
-561 329 1308
-558 330 1312
-565 336 1339
-566 339 1352
-560 338 1349
-550 335 1337
-554 340 1360
-551 340 1363
-549 341 1370
-543 340 1367
-541 342 1374
-536 341 1374
-531 341 1374
-526 341 1374
-527 344 1389
-526 346 1400
-518 344 1392
-516 345 1398
-513 346 1402
-511 347 1410
-505 346 1406
-504 348 1418
-499 348 1416
-493 347 1414
-490 348 1420
-485 347 1419
-481 348 1422
-481 351 1435
-473 348 1427
-472 351 1438
-466 349 1433
-460 348 1430
-460 351 1443
-455 351 1444
-449 350 1441
-446 350 1444
-441 350 1445
-439 352 1454
-437 354 1464
-429 351 1451
-426 352 1456
-423 353 1462
-420 354 1469
-412 351 1457
-408 351 1459
-404 352 1464
-405 356 1482
-399 355 1479
-396 356 1485
-390 355 1481
-385 355 1480
-383 356 1488
-380 358 1496
-374 356 1489
-369 356 1488
-366 357 1497
-362 357 1498
-361 361 1515
-356 361 1514
-352 361 1516
-350 364 1529
-343 361 1520
-335 358 1505
-333 360 1515
-332 364 1535
-332 369 1555
-327 368 1553
-322 368 1552
-319 370 1561
-311 366 1546
-301 360 1522
-290 351 1486
-207 256 1080
-142 181 760
-134 172 725
-135 177 745
-131 174 733
-128 174 733
-125 172 726
-122 172 724
-122 174 735
-112 163 688
-111 165 694
-107 163 686
-107 165 696
-105 165 697
-101 163 687
-98 161 682
-96 161 680
-94 161 681
-93 162 687
-91 163 689
-89 162 688
-87 162 687
-83 159 674
-81 159 673
-78 156 663
-74 154 652
-74 157 664
-72 156 662
-70 155 660
-66 151 643
-64 152 646
-63 155 658
-64 160 682
-61 159 676
-59 159 677
-69 190 809
-57 164 699
-44 134 571
-37 118 501
-33 109 461
-28 100 423
-26 97 408
-24 93 394
-23 93 394
-21 91 385
-20 90 381
-18 89 376
-17 90 378
-16 91 382
-15 91 384
-14 89 375
-13 93 395
-12 92 388
-11 91 385
-10 92 391
-9 93 395
-8 97 412
-7 96 408
-5 96 406
-5 100 422
-3 102 433
-2 101 427
-1 101 427
0 102 433
1 104 443
2 104 443
3 100 425
4 99 420
6 95 403
7 102 433
8 104 442
10 107 454
11 104 443
13 107 455
14 103 439
16 114 483
18 114 485
18 109 463
20 110 469
21 106 452
22 107 456
22 102 433
24 103 439
25 101 428
26 102 432
27 99 421
30 108 457
32 110 468
33 107 457
37 115 490
40 121 517
39 113 481
39 109 465
40 108 460
42 110 466
46 117 497
41 101 429
39 91 386
47 109 462
49 109 464
48 105 446
48 102 431
51 106 449
51 103 435
52 102 431
52 99 420
54 101 426
54 98 415
54 96 406
56 97 410
58 98 414
58 97 409
60 97 412
60 96 404
62 98 413
65 100 424
63 95 400
66 97 411
63 92 386
61 86 362
60 83 350
67 92 385
66 90 377
72 96 405
77 101 427
78 101 424
80 101 427
83 104 437
81 100 421
85 102 431
85 101 425
89 105 440
85 99 414
87 99 414
91 102 428
88 97 407
90 99 414
95 102 429
95 101 425
95 99 415
94 97 408
98 100 417
96 96 403
97 97 405
100 99 412
101 98 409
99 95 395
102 96 402
102 95 397
106 98 407
106 97 404
106 96 398
108 96 401
109 96 401
114 99 412
116 100 415
118 100 418
118 99 412
117 97 404
115 95 393
119 98 404
131 106 441
128 102 424
134 106 439
119 94 386
133 103 426
125 96 398
120 91 376
134 101 416
133 100 411
133 99 406
146 107 442
130 94 387
134 97 397
102 73 295
107 76 308
80 56 225
102 70 286
76 52 208
68 46 182
68 46 181
56 37 144
53 35 135
69 45 178
57 37 144
59 38 147
57 36 141
40 25 94
57 36 138
65 40 158
77 48 188
100 62 246
118 72 288
120 73 291
100 60 239
127 76 302
133 79 316
141 83 331
147 86 344
158 91 366
171 99 395
178 102 407
175 99 398
181 102 408
175 98 390
184 102 409
186 103 409
185 101 404
187 102 405
189 102 405
183 98 389
194 103 410
201 106 421
192 101 398
204 107 421
198 103 404
206 106 418
192 98 386
200 102 398
202 102 399
206 104 406
214 107 417
216 107 418
218 107 419
228 112 436
226 110 427
232 112 436
237 114 443
239 114 443
235 112 432
239 112 435
245 115 444
238 111 428
273 126 488
277 127 490
262 120 461
273 124 477
247 112 427
270 121 464
265 118 453
-11 8 19
-43 22 73
-36 19 62
-129 62 223
-460 218 805
-749 355 1320
-803 383 1426
-829 397 1484
-801 386 1445
-788 382 1431
-768 375 1406
-747 367 1377
-738 364 1371
-726 361 1360
-700 350 1320
-672 338 1277
-531 269 1018
-377 193 729
-236 123 460
-160 85 315
-128 68 253
-107 58 215
-98 54 199
-86 48 175
-88 49 181
-98 55 202
-114 64 237
-144 81 303
-320 176 675
-538 296 1143
-578 320 1239
-570 318 1231
-579 325 1262
-593 335 1302
-597 340 1321
-601 344 1341
-589 340 1326
-586 341 1330
-565 331 1292
-542 320 1252
-566 336 1318
-574 343 1347
-572 344 1354
-566 343 1351
-563 344 1356
-559 344 1359
-558 346 1367
-552 345 1366
-551 347 1376
-547 348 1378
-539 345 1370
-541 349 1386
-533 347 1379
-533 349 1392
-532 352 1402
-524 349 1392
-521 350 1398
-519 351 1404
-511 349 1396
-508 350 1402
-504 350 1403
-501 351 1409
-500 353 1420
-491 350 1408
-493 354 1427
-484 351 1416
-480 351 1418
-478 353 1426
-474 353 1429
-471 354 1434
-467 354 1435
-462 354 1436
-458 354 1436
-452 352 1432
-452 356 1447
-444 353 1439
-441 355 1445
-437 355 1447
-432 354 1444
-427 354 1445
-426 357 1458
-422 357 1459
-419 358 1465
-412 355 1456
-411 359 1471
-404 356 1461
-398 355 1458
-399 359 1476
-395 360 1481
-394 363 1495
-389 363 1494
-384 362 1491
-383 365 1507
-376 363 1498
-377 368 1521
-369 365 1510
-366 366 1515
-362 367 1520
-360 369 1530
-356 370 1535
-351 369 1532
-351 374 1552
-341 369 1531
-335 366 1523
-334 371 1542
-334 376 1565
-330 377 1570
-325 376 1567
-320 375 1565
-314 375 1562
-307 371 1550
-299 367 1531
-242 303 1265
-142 183 760
-138 180 746
-135 180 747
-131 177 736
-125 172 717
-127 178 740
-123 174 726
-124 180 749
-118 174 726
-112 169 703
-109 167 697
-108 169 703
-105 167 697
-105 170 708
-99 164 685
-95 162 675
-95 164 685
-93 165 688
-91 164 685
-86 159 666
-85 161 675
-85 165 692
-80 159 665
-79 160 671
-75 156 654
-73 156 655
-73 160 670
-68 153 643
-66 154 647
-65 155 650
-64 158 662
-62 158 665
-59 156 654
-62 168 705
-62 175 735
-54 158 664
-43 132 553
-34 111 463
-29 101 420
-27 96 401
-25 93 386
-23 91 377
-22 92 381
-21 91 377
-20 92 382
-17 86 358
-18 94 393
-16 88 368
-15 93 386
-14 91 381
-12 88 367
-12 94 393
-11 93 389
-9 90 377
-9 94 393
-8 97 405
-7 98 411
-6 99 415
-4 98 408
-3 102 427
-2 102 428
-1 101 421
0 102 428
1 106 446
2 108 453
3 110 461
5 110 462
6 107 447
7 105 439
9 112 470
10 115 482
12 113 476
13 107 448
14 110 462
15 107 447
17 110 461
19 112 470
20 110 460
21 108 454
22 105 442
22 102 429
24 103 433
25 102 428
26 101 422
27 101 422
28 100 417
29 101 422
33 110 460
35 112 470
41 125 525
37 109 455
43 123 516
42 116 487
44 118 493
46 118 495
44 108 452
43 103 433
47 110 462
52 119 501
53 116 488
48 104 434
52 108 454
52 107 446
55 109 458
53 103 430
53 100 419
55 101 421
57 102 427
57 100 416
59 103 428
59 99 414
63 104 435
63 101 423
63 101 421
65 101 422
65 100 416
70 105 439
69 102 423
64 92 381
64 91 378
63 87 360
70 96 400
72 97 404
70 92 383
75 97 404
81 103 430
80 101 419
90 112 467
83 101 420
89 107 444
83 99 409
89 104 432
90 104 433
87 99 408
93 104 430
179 199 834
91 99 411
95 102 424
97 103 426
94 98 405
94 97 402
98 99 411
97 97 401
100 99 410
99 97 401
100 97 401
104 99 408
105 99 408
103 96 394
105 97 399
107 98 403
106 96 392
114 101 417
111 98 401
109 95 389
120 103 424
117 100 411
124 105 430
114 95 389
122 101 413
123 101 413
131 107 436
119 96 390
124 99 402
119 93 379
124 97 395
130 100 409
124 95 385
125 95 384
141 106 430
146 108 441
122 90 363
121 88 357
115 83 335
116 83 334
82 58 229
65 46 179
84 59 232
67 46 181
76 52 204
64 43 167
64 43 166
36 24 88
59 39 149
79 52 202
58 37 143
60 38 148
58 37 141
87 55 217
104 65 257
117 73 289
129 80 315
144 89 353
142 87 344
145 88 347
157 94 373
150 90 355
190 113 447
178 105 415
185 108 427
184 107 421
187 107 424
185 106 418
189 107 421
184 104 408
185 104 407
188 104 409
184 102 398
192 105 412
190 103 403
194 105 410
198 106 414
194 103 403
204 108 421
207 109 424
198 103 402
204 106 410
207 107 413
210 108 416
210 106 411
219 110 427
225 113 436
243 121 468
238 118 454
230 113 435
236 116 444
239 116 446
229 111 424
265 127 487
261 125 477
253 120 457
248 117 445
241 113 428
259 121 458
246 114 432
266 122 463
275 126 475
261 118 447
246 111 418
-48 25 81
-28 15 47
-2479 1163 4269
-25 15 44
-389 187 679
-715 343 1259
-800 386 1420
-754 366 1348
-817 398 1471
-765 376 1389
-768 379 1404
-745 370 1374
-760 380 1411
-711 358 1331
-696 352 1312
-698 355 1326
-579 297 1110
-417 216 805
-260 137 507
-184 98 362
-131 71 259
-111 61 222
-103 57 209
-85 48 172
-90 51 184
-91 52 189
-114 65 237
-124 70 260
-249 140 526
-510 285 1084
-563 316 1205
-576 325 1242
-575 327 1250
-588 337 1291
-595 343 1317
-584 339 1303
-591 345 1329
-583 343 1323
-570 338 1304
-534 319 1233
-568 342 1322
-577 349 1353
-574 350 1359
-570 351 1362
-565 350 1360
-560 350 1361
-553 348 1355
-550 348 1358
-549 351 1370
-546 351 1374
-545 353 1384
-537 351 1377
-532 351 1376
-529 351 1381
-529 354 1393
-522 352 1386
-519 353 1392
-516 353 1396
-511 353 1396
-507 354 1399
-502 353 1397
-499 354 1403
-496 355 1408
-495 357 1419
-489 356 1416
-485 356 1417
-480 355 1416
-475 355 1415
-470 354 1415
-469 357 1426
-463 356 1424
-462 358 1433
-455 356 1427
-453 358 1436
-448 357 1433
-446 360 1445
-440 358 1439
-437 359 1445
-434 360 1450
-433 363 1462
-426 360 1454
-424 363 1464
-418 362 1462
-416 364 1471
-413 364 1475
-410 366 1483
-408 368 1491
-403 367 1490
-399 368 1495
-398 371 1508
-392 370 1506
-388 370 1507
-385 372 1515
-381 373 1519
-378 374 1524
-375 376 1533
-372 377 1539
-365 375 1532
-363 377 1543
-360 379 1552
-354 377 1543
-349 376 1542
-342 374 1533
-333 369 1514
-336 378 1550
-334 381 1564
-329 381 1564
-326 382 1571
-322 383 1574
-317 382 1573
-306 374 1542
-299 372 1533
-269 340 1403
-172 223 915
-135 178 730
-132 178 729
-130 178 730
-127 176 724
-127 179 735
-119 172 706
-124 182 749
-113 168 691
-112 171 701
-110 170 700
-107 170 698
-104 167 689
-101 166 684
-100 168 693
-97 166 683
-97 169 698
-90 161 663
-88 161 666
-87 164 675
-85 162 670
-81 159 657
-80 162 668
-75 156 643
-76 161 664
-73 158 654
-70 157 649
-67 153 634
-69 162 669
-65 159 657
-64 160 662
-61 157 649
-60 160 662
-57 157 651
-52 149 619
-46 138 571
-44 138 569
-33 108 444
-29 101 417
-26 95 389
-23 91 372
-23 92 377
-21 89 366
-20 90 370
-19 91 372
-17 87 357
-17 91 375
-15 88 362
-14 86 354
-14 92 379
-13 92 377
-11 90 368
-11 92 380
-9 90 368
-8 93 383
-7 93 384
-6 94 386
-5 95 393
-4 100 413
-3 98 406
-2 100 414
-1 104 428
0 102 422
1 104 432
2 113 469
3 116 480
5 120 499
6 121 503
7 111 459
9 115 478
11 120 496
12 117 487
14 120 498
14 111 460
15 108 448
17 112 464
18 110 456
19 105 436
20 108 446
21 103 427
22 102 422
23 100 414
24 99 407
24 96 395
26 100 411
28 101 416
30 102 422
31 104 431
32 103 426
34 104 430
39 117 486
41 116 482
42 118 488
43 117 483
43 111 461
47 118 489
41 100 414
44 105 432
52 119 491
51 114 472
50 110 453
56 118 490
54 112 464
52 103 427
55 108 446
55 105 433
58 109 450
57 105 433
59 106 438
61 106 438
61 105 434
63 105 433
63 104 428
65 105 432
66 105 431
67 103 423
69 105 431
66 99 405
70 103 423
68 97 398
70 98 403
67 93 380
72 98 403
69 92 378
78 103 421
72 93 381
79 101 416
80 100 410
84 104 428
83 101 414
86 103 422
89 106 433
83 96 393
93 107 439
90 102 416
90 101 412
93 102 418
92 100 408
92 99 404
97 103 420
93 97 396
96 99 404
98 100 407
98 99 401
100 99 402
98 96 390
100 97 393
106 102 413
105 100 404
106 100 404
111 102 416
106 97 391
111 100 406
109 97 393
108 95 385
111 97 391
115 99 402
118 101 407
120 101 409
118 99 400
121 100 403
121 99 400
134 109 440
128 103 415
126 101 405
115 91 363
133 104 419
121 94 376
124 95 381
133 101 405
114 85 340
111 82 328
108 80 316
106 77 306
85 62 242
71 51 197
74 52 204
59 42 160
49 34 129
58 40 152
55 37 141
46 31 115
58 39 147
45 30 112
70 46 177
62 40 154
40 26 94
82 53 205
106 68 265
118 75 293
133 84 330
148 93 365
168 105 411
148 91 357
197 121 477
177 108 423
187 113 445
174 104 408
194 115 452
183 108 422
189 111 432
182 106 414
222 128 501
183 105 408
192 109 425
192 108 421
190 107 413
190 106 410
197 109 422
197 109 419
202 111 427
203 110 426
208 112 433
204 109 420
208 111 425
202 107 409
207 109 417
209 109 416
216 112 428
221 114 434
208 106 405
247 125 479
237 120 456
227 114 433
228 114 430
229 113 429
229 113 426
212 103 390
241 117 441
250 121 456
264 127 477
236 112 422
251 119 447
257 121 454
268 126 470
248 116 432
254 117 438
256 118 438
266 122 453
-22 13 38
-22 13 38
-2430 1155 4182
-2464 1177 4272
-266 130 464
-733 356 1290
-718 351 1273
-788 387 1408
-767 379 1382
-801 398 1453
-752 376 1375
-758 381 1396
-739 374 1372
-728 370 1361
-713 365 1343
-670 346 1273
-579 301 1108
-439 230 846
-286 152 557
-199 107 390
-140 77 278
-113 63 226
-100 56 201
-81 47 166
-85 49 175
-92 53 190
-101 58 211
-122 70 256
-174 99 366
-464 263 986
-562 319 1202
-576 329 1241
-569 328 1238
-585 339 1284
-598 349 1323
-586 344 1305
-617 365 1386
-586 349 1328
-572 343 1307
-526 318 1213
-559 340 1300
-574 352 1345
-570 352 1348
-570 354 1359
-567 355 1364
-559 353 1358
-555 353 1359
-551 353 1361
-546 353 1360
-542 353 1363
-539 353 1367
-537 355 1375
-529 352 1366
-530 356 1382
-525 356 1381
-521 356 1384
-519 357 1390
-514 357 1390
-508 356 1387
-508 358 1399
-501 357 1395
-500 359 1406
-494 357 1400
-488 356 1398
-486 358 1407
-481 357 1405
-480 360 1416
-474 359 1412
-473 361 1422
-466 359 1416
-467 363 1435
-462 363 1434
-457 362 1433
-453 362 1434
-456 368 1460
-449 366 1453
-443 365 1448
-443 368 1463
-436 367 1458
-433 368 1463
-430 368 1467
-429 372 1482
-423 370 1477
-422 373 1490
-418 374 1494
-413 373 1492
-411 375 1502
-406 375 1501
-399 373 1495
-400 378 1515
-396 378 1518
-390 377 1514
-387 379 1523
-382 378 1522
-379 380 1530
-374 379 1525
-372 381 1537
-368 382 1540
-365 384 1551
-359 383 1546
-355 383 1549
-352 385 1556
-345 382 1548
-337 378 1533
-337 383 1553
-334 386 1564
-330 386 1566
-328 389 1578
-322 388 1577
-318 389 1580
-308 382 1552
-297 373 1519
-278 356 1447
-175 229 928
-135 181 731
-135 183 742
-133 184 746
-132 185 752
-126 180 732
-123 180 730
-116 173 702
-114 173 702
-114 175 710
-113 177 718
-110 176 714
-104 170 692
-101 169 687
-98 167 681
-100 173 703
-96 169 689
-94 170 692
-92 170 693
-86 164 667
-81 157 640
-85 169 691
-81 165 672
-77 162 659
-73 157 639
-74 162 660
-72 162 660
-70 163 668
-66 157 640
-64 159 648
-62 158 648
-61 159 650
-59 160 655
-56 156 640
-47 137 559
-41 126 515
-39 125 509
-35 116 472
-29 103 420
-25 94 381
-24 92 372
-22 90 363
-20 88 356
-20 89 363
-19 93 377
-16 84 339
-16 87 352
-16 92 373
-13 85 344
-13 87 353
-12 92 372
-11 89 360
-10 89 361
-9 93 377
-8 95 385
-7 92 372
-6 93 377
-5 97 396
-4 97 396
-3 95 386
-2 95 388
0 96 392
0 101 410
1 107 439
2 112 457
3 123 504
5 122 500
6 112 457
7 107 438
9 114 464
11 119 485
12 121 496
13 119 486
15 118 482
16 112 458
16 108 443
18 112 458
18 101 412
19 102 418
21 105 428
21 100 410
22 95 388
23 98 402
24 95 385
26 99 405
27 98 400
29 100 406
31 104 423
33 107 437
35 110 451
42 126 517
45 131 539
41 115 472
43 117 478
44 114 468
41 104 422
42 104 422
41 96 392
50 117 477
48 108 441
54 119 485
56 121 496
55 115 470
55 112 456
56 112 456
55 107 437
58 110 448
58 108 439
59 106 431
61 107 437
63 109 446
64 109 444
65 108 442
64 105 426
66 106 429
70 109 443
69 106 430
70 106 429
72 106 431
72 105 427
73 105 426
72 102 412
74 102 412
65 89 358
67 89 359
69 90 362
79 102 411
77 98 394
79 99 401
85 105 423
84 102 411
87 104 421
87 103 417
99 115 467
94 108 436
96 109 440
92 103 415
93 102 412
95 104 418
92 98 395
95 100 404
97 101 407
97 100 403
98 100 400
98 99 397
100 99 398
100 98 394
102 98 395
105 101 404
107 101 405
105 99 394
109 101 402
116 106 425
104 94 377
112 100 400
116 103 410
113 99 395
116 101 402
120 103 412
126 107 426
123 103 412
126 105 418
128 105 419
133 109 432
127 102 406
121 97 384
118 93 368
152 119 472
127 99 391
119 91 360
92 70 272
94 71 277
72 54 207
94 69 269
92 67 261
89 65 251
71 51 194
60 42 160
69 48 185
47 33 121
66 46 174
52 35 131
44 29 108
55 37 138
45 30 109
57 38 141
86 57 217
108 71 272
114 74 286
119 77 296
162 104 405
151 96 371
147 93 358
169 106 411
176 110 425
172 106 410
175 107 414
175 106 411
178 107 413
197 118 455
191 114 438
182 107 412
197 115 443
189 110 422
191 110 422
195 112 428
191 109 416
212 120 458
192 108 411
211 117 448
177 98 372
202 111 423
224 122 465
205 111 421
247 133 506
249 133 507
207 110 416
218 115 434
236 124 467
208 108 407
211 109 410
230 118 446
232 119 446
224 114 425
225 114 425
226 113 423
206 103 382
198 98 363
219 108 400
229 112 416
250 121 451
236 114 423
242 116 429
247 118 435
243 115 425
278 131 484
250 117 432
240 112 410
266 123 453
-20 12 34
-2457 1175 4194
-2428 1168 4175
-2428 1174 4206
-77 40 135
-633 312 1113
-779 385 1380
-774 385 1382
-791 396 1423
-781 393 1415
-800 405 1461
-733 373 1349
-744 381 1380
-733 378 1369
-693 359 1304
-679 354 1289
-589 310 1127
-448 237 864
-293 157 569
-195 106 382
-136 76 270
-111 62 221
-100 57 201
-88 50 178
-85 50 175
-86 50 178
-96 56 200
-114 67 240
-139 81 293
-398 228 845
-543 312 1161
-567 328 1222
-573 334 1245
-589 346 1291
-598 353 1320
-627 372 1396
-591 354 1328
-585 353 1325
-574 349 1311
-527 322 1213
-554 341 1287
-574 356 1346
-571 357 1349
-564 355 1345
-566 359 1360
-560 358 1359
-554 357 1356
-554 359 1367
-544 356 1354
-545 359 1370
-536 356 1359
-534 357 1366
-527 355 1360
-529 360 1379
-524 359 1378
-521 360 1381
-516 360 1382
-515 362 1391
-510 361 1391
-504 360 1389
-503 363 1400
-497 361 1394
-494 362 1402
-489 362 1401
-486 363 1406
-486 366 1419
-481 365 1419
-479 367 1426
-476 368 1432
-471 368 1432
-468 369 1437
-463 368 1435
-462 370 1447
-459 371 1452
-455 372 1455
-450 372 1456
-449 374 1467
-444 374 1466
-442 376 1476
-437 375 1475
-435 377 1484
-432 379 1490
-429 380 1499
-422 378 1491
-421 381 1503
-418 382 1509
-410 379 1499
-408 381 1508
-405 382 1514
-399 382 1512
-396 383 1518
-393 384 1524
-390 386 1531
-384 385 1529
-380 385 1531
-373 383 1522
-376 390 1553
-369 388 1544
-364 387 1544
-362 390 1557
-357 390 1558
-352 389 1555
-346 388 1549
-341 387 1550
-339 391 1565
-335 392 1568
-333 394 1579
-326 392 1570
-323 393 1576
-316 391 1570
-303 381 1529
-287 367 1472
-271 352 1413
-174 231 925
-134 182 727
-138 190 758
-128 179 715
-125 178 713
-128 186 743
-125 184 739
-121 182 731
-117 179 716
-111 173 692
-110 176 704
-107 173 696
-106 174 700
-103 173 694
-102 175 703
-98 171 689
-95 171 688
-92 169 680
-87 163 657
-87 167 671
-84 165 666
-83 166 668
-78 162 651
-76 161 647
-78 168 678
-75 166 669
-71 163 658
-68 161 650
-66 159 642
-65 161 649
-62 160 645
-61 162 655
-58 158 636
-55 155 628
-48 141 567
-39 120 483
-36 117 471
-33 113 453
-31 109 437
-25 93 373
-24 93 372
-21 89 355
-22 94 377
-19 89 355
-19 94 377
-17 88 353
-16 89 355
-16 92 370
-14 89 357
-12 85 339
-12 92 368
-10 87 347
-10 92 370
-8 88 352
-8 90 362
-7 93 374
-6 90 361
-4 89 355
-4 98 392
-2 93 372
-1 93 374
0 93 374
0 94 376
1 100 403
2 104 418
3 110 444
4 103 415
6 104 420
7 102 411
9 110 444
11 126 511
13 130 526
14 128 517
14 114 459
15 109 438
16 108 437
17 106 426
19 107 433
18 97 391
20 103 415
21 100 401
23 101 407
23 96 386
24 95 381
25 95 383
26 97 391
28 99 399
31 105 423
32 104 419
34 107 433
37 112 453
41 122 491
42 118 478
42 114 461
45 119 483
43 110 443
44 110 445
42 101 405
50 119 480
51 116 467
57 126 511
56 121 487
59 125 506
58 119 482
58 117 471
58 114 458
58 111 446
58 109 437
60 110 441
60 107 431
61 108 432
65 112 449
66 111 445
66 109 439
68 109 439
69 109 438
69 107 430
70 107 431
69 104 416
73 108 431
71 102 408
77 110 441
74 104 416
73 100 399
77 103 414
71 95 378
75 99 394
78 100 401
79 100 398
87 108 433
88 108 432
91 110 440
88 105 421
87 103 409
94 109 435
82 94 374
92 104 414
92 102 407
92 102 404
93 101 402
198 214 859
95 100 399
98 103 408
97 100 397
97 98 390
101 101 401
102 101 402
102 100 395
103 99 393
108 103 409
109 104 410
107 100 396
108 101 397
111 102 401
117 106 418
118 106 418
116 102 404
116 102 402
117 101 398
118 101 397
124 106 416
114 96 376
128 106 418
130 107 420
102 83 322
125 101 394
115 92 360
135 107 420
116 91 355
103 80 311
85 65 250
81 62 237
85 64 246
78 58 223
64 47 177
77 56 215
73 53 200
53 38 140
53 37 139
48 34 125
43 30 109
56 39 144
75 51 194
44 30 107
56 37 138
92 62 236
106 71 270
111 74 281
115 76 288
141 92 354
154 100 382
180 116 446
163 104 400
178 113 433
186 117 449
189 118 452
183 113 432
182 112 427
166 101 385
173 104 397
178 107 407
194 116 440
177 105 398
208 122 465
201 117 445
202 117 443
186 107 405
207 118 446
206 117 440
193 109 410
209 117 440
192 107 401
216 119 447
205 113 422
209 114 427
219 119 444
214 115 429
229 122 457
208 110 410
238 125 467
204 107 396
181 94 348
220 114 422
224 115 425
225 115 424
210 107 393
218 110 404
227 114 419
261 130 479
239 118 434
234 115 421
250 122 447
245 119 436
246 119 434
268 129 470
257 123 446
261 124 450
249 117 425
260 122 442
-2450 1179 4148
-2460 1191 4196
-2438 1186 4189
-2409 1179 4170
-53 29 93
-690 344 1213
-779 390 1380
-791 398 1411
-802 406 1441
-779 396 1410
-753 386 1374
-748 385 1376
-751 389 1391
-720 375 1345
-709 372 1334
-678 358 1287
-619 329 1183
-460 247 886
-299 162 580
-196 108 384
-129 73 255
-111 63 221
-93 54 188
-90 52 182
-82 48 168
-83 49 172
-91 54 188
-99 59 207
-116 69 245
-312 182 662
-515 300 1101
-561 328 1207
-554 327 1204
-582 345 1273
-600 359 1325
-598 360 1331
-594 360 1333
-588 359 1331
-580 356 1324
-522 323 1201
-547 341 1271
-562 353 1315
-567 359 1339
-567 361 1350
-564 362 1356
-554 358 1343
