VERSION 0.7
FIELDS x y z
SIZE 4 4 4
TYPE I I I
COUNT 1 1 1
WIDTH 4009
HEIGHT 1
VIEWPOINT 0.0 0.0 0.0 1.0 0.0 0.0 0.0
POINTS 4009
DATA ascii
-125 112 787
-119 109 767
-118 110 771
-114 108 761
-112 108 760
-110 109 769
-107 108 760
-105 109 765
-103 108 761
-101 109 769
-98 108 762
-97 109 769
-93 108 760
-90 107 754
-88 107 753
-88 109 773
-84 108 760
-83 108 767
-81 109 768
-78 108 764
-77 109 773
-74 108 766
-73 110 776
-71 110 779
-67 107 761
-66 110 779
-62 107 760
-62 110 783
-61 113 805
-59 114 806
-57 115 816
-59 122 871
-56 121 865
-54 122 871
-53 126 895
-50 125 888
-47 124 887
-45 125 888
-42 125 891
-38 121 859
-36 122 871
-34 124 883
-31 122 867
-28 122 869
-26 122 874
-23 120 858
-21 123 876
-18 121 867
-16 122 869
-13 121 865
-11 121 867
-8 122 870
-6 120 860
-3 121 862
-1 124 885
1 121 868
3 122 873
6 122 870
8 120 855
11 122 875
13 121 864
16 123 881
19 123 879
21 121 869
24 123 879
27 123 882
29 124 890
31 122 875
34 123 880
37 122 876
39 122 873
42 124 891
45 123 883
48 126 900
51 127 908
53 125 895
55 124 887
59 127 913
62 128 916
65 129 926
68 129 928
71 130 933
74 129 926
77 130 930
81 132 950
80 126 906
83 127 914
83 122 877
81 116 830
70 97 692
58 77 549
53 70 492
53 67 470
54 67 474
55 66 467
57 67 476
58 66 469
61 68 479
61 67 472
63 67 476
62 65 458
65 66 466
66 66 464
65 64 450
68 65 461
70 66 468
73 68 477
71 64 455
73 65 459
74 64 453
79 68 477
76 64 452
77 64 449
78 63 444
79 63 443
80 63 440
82 63 445
82 62 439
83 62 436
85 63 442
87 63 442
85 61 425
90 63 445
90 62 437
93 63 445
93 63 439
92 61 430
94 61 431
98 63 443
96 61 428
97 61 428
100 62 434
102 63 438
103 62 435
107 64 447
108 64 446
107 63 438
115 66 464
115 65 456
116 65 457
116 64 448
118 65 451
116 63 440
118 63 442
119 63 438
119 62 433
121 63 435
124 64 443
126 64 444
128 64 446
129 64 447
130 64 445
131 64 442
133 64 444
136 65 449
147 69 480
174 81 568
271 126 882
318 146 1024
327 148 1043
335 151 1060
332 148 1038
341 150 1055
346 151 1060
345 150 1048
342 147 1027
343 146 1021
339 143 999
333 139 969
333 138 960
337 138 964
329 134 931
338 136 948
342 137 951
345 136 948
350 137 953
346 135 936
348 134 931
351 134 932
351 133 921
360 136 938
360 135 930
363 134 928
364 134 924
356 130 894
368 133 916
356 128 878
359 128 878
376 133 914
380 133 915
382 133 911
379 131 896
389 134 914
385 131 895
381 129 880
392 132 897
402 134 913
400 132 901
373 122 831
331 108 730
292 95 638
256 83 555
211 67 450
155 49 325
131 42 272
107 34 218
91 29 183
83 26 163
78 24 152
80 25 156
82 25 158
84 25 161
91 27 174
112 33 214
131 39 250
144 42 274
149 43 281
161 47 303
150 43 280
186 53 346
190 54 350
154 44 280
168 47 304
160 45 287
173 48 308
225 62 401
186 51 328
165 45 287
160 43 276
167 45 288
-2247 634 3885
-2249 638 3917
0 0 0
-651 188 1151
-691 201 1231
-666 195 1195
-517 153 936
-327 98 596
-223 68 410
-149 46 275
-118 37 220
-105 33 197
-107 34 203
-99 32 189
-93 30 179
-90 30 175
-99 33 194
-115 38 227
-145 47 288
-202 66 403
-521 167 1048
-629 202 1275
-629 204 1285
-633 206 1303
-626 205 1299
-617 203 1289
-601 199 1266
-588 197 1249
-597 201 1280
-590 200 1273
-584 199 1271
-586 201 1286
-596 206 1319
-596 207 1328
-619 217 1392
-587 207 1331
-578 205 1321
-532 190 1226
-569 205 1321
-579 210 1356
-570 208 1346
-566 208 1349
-535 198 1285
-589 220 1427
-576 216 1408
-583 221 1439
-537 205 1335
-569 219 1427
-512 199 1298
-540 211 1380
-538 212 1386
-532 211 1382
-529 211 1388
-522 210 1383
-520 211 1389
-517 211 1392
-516 213 1404
-514 214 1410
-506 212 1402
-505 213 1412
-498 212 1406
-497 214 1418
-492 213 1416
-490 214 1424
-488 215 1432
-482 215 1429
-477 214 1428
-473 214 1430
-472 216 1441
-467 216 1441
-462 215 1439
-458 215 1442
-456 216 1448
-447 214 1435
-446 216 1447
-407 199 1334
-426 210 1413
-429 213 1436
-430 216 1455
-432 219 1477
-416 214 1441
-427 221 1495
-412 216 1459
-420 222 1505
-401 215 1452
-400 216 1464
-400 219 1482
-409 226 1534
-388 217 1472
-388 219 1490
-383 219 1488
-373 215 1465
-375 219 1493
-368 217 1481
-370 221 1509
-351 213 1453
-359 220 1501
-355 221 1507
-340 214 1461
-341 217 1487
-344 221 1516
-327 214 1464
-351 232 1591
-320 215 1472
-306 208 1426
-307 211 1452
-305 213 1463
-272 193 1324
-189 137 941
-159 118 804
-156 117 803
-154 117 801
-152 118 806
-147 116 792
-145 116 792
-143 116 798
-143 118 806
-135 113 777
-132 112 771
-131 114 784
-128 113 779
-124 112 767
-122 112 771
-118 111 760
-117 112 768
-110 107 734
-110 109 749
-111 112 774
-106 110 755
-106 111 766
-102 110 758
-100 110 761
-97 109 754
-96 111 764
-95 111 768
-91 109 757
-88 109 752
-87 110 762
-85 110 762
-82 110 760
-82 112 776
-80 112 779
-77 112 778
-74 111 767
-72 111 769
-69 109 757
-69 114 789
-64 108 751
-64 112 776
-61 111 774
-60 113 783
-56 111 772
-59 120 836
-55 118 818
-55 121 845
-55 127 889
-52 126 876
-50 127 886
-47 127 887
-44 124 868
-41 126 878
-39 126 882
-36 126 879
-34 126 882
-31 124 870
-28 123 859
-26 126 878
-24 126 884
-21 126 884
-18 122 853
-16 124 865
-13 126 880
-11 123 858
-8 123 861
-6 123 859
-3 125 876
-1 125 873
1 123 864
3 124 865
6 126 882
8 124 866
11 124 872
13 122 857
16 123 864
19 126 881
21 126 881
24 126 881
27 126 884
29 127 888
32 127 894
34 126 881
38 129 907
40 127 893
43 129 905
46 130 912
48 128 900
52 131 920
55 132 930
56 129 906
60 131 917
62 131 921
66 134 937
68 132 928
72 134 938
74 133 933
75 130 910
78 129 908
80 129 906
79 123 862
72 109 763
65 94 658
51 72 500
51 69 480
52 69 476
52 67 460
54 68 469
56 68 473
56 67 467
58 68 468
59 67 464
60 67 465
62 68 470
63 67 467
65 67 466
67 69 475
67 67 460
67 66 455
71 68 471
70 66 458
72 66 456
74 67 463
75 67 463
75 66 453
75 65 445
76 64 443
77 64 440
80 65 450
79 63 435
82 64 443
84 65 450
83 63 434
86 64 443
87 64 442
87 64 438
84 60 414
89 63 432
89 62 428
93 64 440
93 63 435
94 63 430
95 63 429
95 62 425
97 62 425
98 62 423
99 62 424
102 63 429
104 64 435
105 63 431
104 62 422
105 61 420
114 66 453
114 65 447
120 68 465
118 66 452
119 66 449
117 64 436
119 64 440
122 65 446
122 65 442
124 65 441
122 63 429
127 65 442
129 65 445
130 65 445
131 65 442
135 66 450
139 68 461
143 69 467
142 68 460
180 85 581
282 132 907
320 148 1021
329 151 1038
323 147 1010
328 148 1014
333 149 1020
336 149 1020
345 151 1035
328 142 974
335 144 986
337 144 982
340 144 982
340 142 972
344 143 973
334 137 935
340 139 945
343 139 944
356 143 970
345 137 932
345 136 924
353 138 935
349 135 916
357 137 929
361 138 931
350 132 895
359 135 911
370 138 929
366 135 913
360 132 890
386 141 946
392 142 952
373 134 898
383 136 913
390 138 924
387 136 908
381 133 886
380 131 876
389 133 890
383 130 868
330 111 740
272 91 604
221 74 485
172 57 372
146 48 312
125 41 263
106 35 219
90 29 184
83 27 167
76 25 151
79 25 156
79 25 153
80 25 156
83 26 159
96 30 184
109 34 210
134 41 259
145 44 278
147 44 280
165 49 313
181 54 341
180 53 337
203 59 379
213 62 394
207 60 380
213 61 388
179 51 322
197 56 354
220 62 393
206 58 365
222 62 390
219 61 383
191 53 329
-2246 647 3881
-2242 649 3904
0 0 0
0 0 0
-728 216 1296
-700 209 1255
-691 207 1248
-509 154 927
-313 96 575
-199 62 368
-134 43 250
-112 36 210
-102 33 193
-105 35 201
-95 32 183
-93 31 180
-96 32 187
-106 36 209
-128 43 255
-154 52 308
-365 120 734
-622 204 1261
-635 209 1296
-631 209 1297
-642 214 1331
-621 209 1298
-604 205 1274
-607 207 1289
-591 203 1266
-589 203 1270
-581 202 1264
-592 207 1297
-601 212 1328
-575 204 1282
-589 210 1323
-588 211 1332
-579 210 1323
-538 196 1240
-562 206 1305
-577 214 1353
-574 214 1356
-565 212 1346
-564 213 1356
-563 214 1364
-556 213 1360
-554 214 1366
-552 215 1374
-546 214 1369
-542 214 1371
-542 216 1383
-534 214 1376
-531 215 1380
-527 215 1381
-525 216 1390
-524 217 1399
-517 216 1392
-514 216 1398
-508 216 1394
-507 217 1406
-502 217 1404
-500 217 1411
-496 217 1413
-492 218 1415
-491 219 1426
-488 220 1432
-485 220 1435
-477 219 1428
-475 220 1436
-470 219 1434
-467 220 1440
-467 222 1454
-461 221 1449
-455 220 1444
-454 222 1456
-441 218 1432
-434 216 1422
-425 214 1408
-410 208 1372
-441 226 1491
-427 221 1462
-434 227 1501
-416 220 1457
-419 224 1482
-412 222 1473
-399 218 1445
-419 231 1533
-401 224 1485
-397 224 1488
-390 222 1478
-396 228 1520
-384 224 1493
-370 218 1453
-372 222 1479
-356 215 1436
-365 223 1489
-363 224 1501
-355 222 1487
-349 221 1480
-349 224 1500
-338 220 1473
-338 222 1493
-333 222 1488
-332 224 1508
-331 226 1521
-327 226 1523
-309 218 1464
-304 217 1461
-277 200 1349
-190 141 945
-153 116 775
-154 118 791
-158 123 825
-152 120 804
-151 121 814
-143 117 784
-141 117 785
-139 117 788
-136 116 782
-135 118 792
-131 116 782
-130 117 788
-126 116 779
-123 115 776
-120 115 773
-120 116 785
-115 114 769
-111 112 757
-110 114 768
-109 115 777
-105 113 763
-103 113 765
-101 113 763
-98 113 761
-96 112 759
-94 113 764
-92 113 764
-90 114 769
-87 112 760
-83 111 750
-83 112 763
-80 112 758
-79 113 767
-77 114 772
-75 114 775
-72 113 768
-71 116 788
-69 115 781
-66 114 774
-65 116 793
-62 116 791
-60 116 792
-58 116 793
-57 119 814
-54 118 806
-57 129 883
-54 127 867
-52 128 877
-49 129 881
-48 132 900
-44 129 880
-41 127 871
-39 130 887
-37 130 887
-34 128 874
-31 127 866
-29 129 881
-26 128 874
-24 129 885
-20 125 857
-18 127 868
-16 126 864
-13 126 862
-11 125 858
-8 125 860
-5 122 837
-3 124 847
-1 126 864
1 126 863
3 128 876
6 125 859
9 128 882
11 126 862
14 128 879
16 126 866
19 128 878
21 127 875
24 130 891
27 130 891
29 130 894
33 132 909
35 132 907
37 129 890
41 134 918
44 135 925
46 132 907
49 135 925
52 134 923
55 135 931
58 135 929
60 133 917
62 132 906
64 132 905
68 135 926
69 130 894
71 130 896
73 129 884
74 126 863
73 119 820
67 106 725
58 89 607
55 81 552
49 71 480
50 69 469
50 67 453
53 69 471
53 68 460
55 69 469
56 69 466
58 69 467
59 69 469
61 70 473
63 70 476
64 70 472
65 70 471
66 69 467
68 70 471
68 68 458
69 68 460
71 68 460
72 68 457
73 67 454
73 66 446
75 66 449
79 69 465
78 67 452
78 66 447
79 66 446
81 66 446
81 65 442
83 66 444
85 66 444
84 65 435
85 64 430
85 63 424
87 64 429
88 64 428
89 64 427
89 63 422
92 64 428
91 62 419
95 64 428
96 64 427
98 64 429
96 62 415
100 64 427
100 63 422
100 63 419
105 65 435
103 62 418
103 62 412
106 63 422
112 66 439
115 67 447
121 69 465
119 67 449
119 66 443
118 65 436
122 67 444
121 66 437
122 65 435
124 66 439
125 65 436
126 65 433
132 67 450
135 68 455
136 68 456
135 67 448
134 66 437
136 66 441
149 72 478
191 91 609
272 129 866
337 158 1064
330 153 1030
331 152 1023
345 157 1056
352 159 1066
321 143 961
325 144 966
335 147 984
334 145 972
340 146 980
343 146 979
335 142 947
341 143 955
351 146 974
346 143 952
349 143 951
350 142 945
354 143 948
362 144 959
361 143 947
373 146 971
362 141 935
374 145 957
376 144 953
378 144 951
369 139 920
387 145 956
377 140 923
382 141 927
395 144 950
393 143 938
381 137 902
374 134 876
371 132 862
360 127 829
332 116 758
283 98 639
204 70 454
160 55 350
148 51 322
130 44 277
114 39 241
101 34 210
89 30 182
79 26 158
78 26 157
75 25 149
76 25 149
80 26 156
81 26 157
94 30 181
124 39 241
149 47 290
175 54 341
177 55 342
189 58 363
189 58 361
185 56 350
221 66 415
216 64 403
199 59 369
207 61 380
232 68 424
215 63 390
212 62 382
216 62 385
227 65 403
208 59 365
214 61 373
214 60 371
-2240 658 3870
-2243 662 3902
-2366 702 4148
-741 223 1309
-716 216 1273
-768 233 1377
-713 218 1288
-632 195 1151
-445 138 816
-253 80 468
-165 53 307
-129 42 242
-117 39 221
-112 37 213
-105 36 203
-97 33 189
-95 33 185
-109 37 214
-115 40 229
-146 50 292
-248 84 498
-535 179 1083
-629 212 1283
-631 214 1298
-632 215 1309
-628 215 1311
-612 211 1288
-604 210 1282
-600 210 1283
-583 206 1259
-579 205 1260
-591 211 1296
-598 215 1323
-575 208 1281
-597 217 1341
-587 215 1329
-576 213 1316
-545 203 1255
-564 211 1309
-577 218 1352
-571 217 1350
-564 216 1344
-563 217 1351
-559 217 1355
-558 218 1363
-551 217 1358
-550 218 1366
-549 220 1377
-543 219 1373
-535 217 1366
-534 219 1375
-534 220 1386
-530 220 1389
-525 220 1388
-522 221 1394
-519 221 1399
-517 222 1406
-511 221 1403
-508 221 1406
-507 223 1417
-502 223 1417
-499 223 1422
-496 224 1428
-490 223 1424
-486 223 1425
-474 219 1403
-479 224 1432
-468 221 1413
-478 227 1458
-468 225 1441
-474 230 1475
-451 221 1418
-455 224 1444
-452 225 1451
-443 223 1437
-434 221 1423
-427 219 1415
-427 221 1430
-445 233 1505
-434 229 1483
-420 224 1454
-407 220 1423
-420 229 1484
-409 225 1465
-412 229 1489
-400 225 1464
-398 226 1473
-407 234 1525
-408 237 1546
-397 233 1524
-384 228 1491
-387 232 1519
-371 226 1476
-368 226 1481
-375 233 1529
-364 229 1502
-355 226 1485
-351 227 1487
-335 219 1440
-333 221 1451
-327 219 1443
-338 230 1511
-337 232 1526
-320 223 1470
-320 226 1491
-309 221 1461
-308 224 1476
-286 211 1395
-193 146 960
-158 122 800
-160 125 819
-157 125 819
-153 123 810
-150 123 806
-143 119 784
-142 120 791
-142 122 802
-137 120 789
-133 118 778
-131 118 781
-129 119 784
-124 116 767
-120 114 756
-121 117 776
-115 114 755
-114 115 760
-112 115 762
-109 114 756
-108 116 766
-104 114 753
-102 114 757
-100 115 760
-97 114 754
-95 114 753
-94 116 767
-92 115 764
-89 115 763
-86 114 754
-84 114 759
-81 113 750
-79 113 750
-77 113 755
-77 116 772
-75 116 774
-72 115 769
-70 116 771
-68 117 778
-66 117 781
-63 116 773
-62 117 784
-61 120 804
-59 121 807
-56 118 791
-53 119 792
-55 128 855
-54 131 879
-52 132 881
-49 132 883
-47 132 888
-44 131 880
-41 130 872
-40 133 894
-37 133 891
-34 130 871
-31 131 882
-28 129 865
-26 130 873
-24 132 889
-21 133 894
-18 128 858
-16 129 868
-13 128 857
-10 127 852
-8 130 876
-6 130 870
-3 126 845
-1 128 861
1 130 875
3 130 872
6 129 865
9 129 864
11 129 865
14 131 883
16 129 867
19 131 881
21 131 881
25 135 906
27 132 892
30 137 925
34 140 942
35 135 908
38 135 909
41 136 916
44 136 920
46 135 912
49 136 920
52 137 922
55 137 924
58 138 933
59 134 904
61 132 890
64 133 896
62 125 843
63 122 819
62 115 772
62 111 744
64 110 738
61 101 677
56 90 600
53 82 550
48 72 477
48 70 467
50 70 467
51 70 466
51 68 455
53 70 463
54 69 459
55 69 457
57 70 462
59 70 463
63 73 482
63 71 475
64 71 471
65 70 468
67 71 471
69 72 477
67 69 455
70 70 464
71 70 463
73 70 463
73 69 458
75 69 460
76 70 461
77 69 458
78 69 454
78 67 446
79 67 443
81 67 445
81 66 440
83 67 442
83 66 437
84 66 436
86 66 438
88 66 439
88 66 434
88 65 426
90 65 429
92 66 436
93 66 432
93 65 425
93 64 419
96 65 428
96 64 421
99 66 431
100 65 427
102 66 432
101 64 422
104 65 428
103 64 420
104 64 418
106 64 421
108 64 421
107 63 415
118 69 452
120 69 454
120 69 449
122 69 450
122 68 444
122 67 441
122 67 436
124 67 436
127 68 442
129 68 444
131 68 445
134 69 453
136 69 453
139 70 459
141 71 461
141 70 455
143 70 457
147 72 466
178 86 562
258 123 811
313 148 975
338 158 1044
341 159 1044
332 153 1005
332 151 996
332 150 985
335 150 983
341 151 993
343 151 989
347 151 992
342 148 967
354 152 992
345 147 957
349 147 959
355 148 967
363 150 980
349 143 934
357 146 947
368 148 966
367 147 954
365 145 943
385 152 984
383 150 972
371 144 931
378 146 942
374 143 923
374 142 914
376 142 913
371 139 893
367 136 875
361 133 852
347 127 811
331 120 768
311 112 714
258 92 586
199 71 445
156 55 345
130 46 283
108 38 231
100 35 212
102 35 214
90 31 187
79 27 161
76 26 152
78 26 156
74 25 145
80 26 157
81 27 158
94 31 184
133 43 261
166 53 327
193 61 378
199 63 388
190 60 366
194 61 372
188 58 358
191 59 360
201 62 378
181 55 336
205 62 378
198 60 363
181 54 327
204 61 369
220 65 394
188 55 333
163 48 285
171 50 298
133 39 228
167 48 286
-2240 671 3868
-2226 670 3871
-2324 703 4072
0 0 0
-579 179 1030
-669 207 1199
-732 228 1322
-703 220 1278
-542 171 994
-377 120 696
-209 68 389
-144 48 270
-134 45 253
-114 39 217
-109 37 210
-103 36 199
-94 33 184
-102 36 202
-110 39 219
-137 48 274
-190 66 382
-408 140 827
-606 208 1236
-630 217 1295
-622 216 1288
-611 214 1276
-608 214 1279
-604 214 1282
-594 212 1271
-588 211 1267
-578 209 1256
-588 214 1289
-598 219 1321
-587 216 1307
-606 225 1360
-587 220 1330
-585 220 1335
-574 218 1321
-577 220 1340
-577 222 1350
-571 221 1349
-571 223 1360
-566 222 1359
-564 223 1365
-564 225 1378
-560 225 1380
-554 224 1377
-552 225 1384
-544 224 1377
-531 220 1355
-542 226 1395
-532 224 1381
-539 228 1413
-534 228 1412
-562 242 1499
-540 234 1453
-509 223 1383
-510 225 1400
-515 229 1427
-512 230 1431
-531 240 1499
-486 222 1385
-514 236 1477
-524 243 1521
-491 230 1441
-481 227 1424
-468 223 1399
-488 235 1474
-481 233 1466
-499 244 1535
-471 233 1467
-448 223 1409
-469 236 1488
-446 227 1433
-443 227 1435
-439 227 1437
-427 223 1415
-426 225 1427
-408 218 1381
-397 214 1359
-422 230 1459
-416 229 1456
-416 231 1471
-404 227 1446
-418 237 1511
-405 232 1483
-414 240 1533
-396 232 1482
-414 245 1569
-388 232 1486
-383 232 1488
-382 234 1502
-370 229 1470
-375 235 1508
-361 229 1472
-360 231 1487
-365 237 1525
-347 228 1469
-341 227 1464
-336 227 1464
-340 233 1499
-321 222 1434
-332 233 1505
-329 234 1514
-315 227 1468
-310 227 1466
-306 227 1468
-290 218 1413
-198 152 981
-167 131 841
-158 126 809
-149 121 777
-149 122 786
-148 123 795
-143 122 785
-141 122 786
-140 123 794
-135 121 779
-132 120 775
-133 122 790
-132 124 800
-125 119 772
-123 120 778
-117 116 752
-116 117 760
-115 118 766
-114 119 775
-109 117 757
-107 117 758
-105 118 765
-102 117 760
-102 119 771
-98 116 756
-97 118 766
-94 117 761
-91 116 756
-91 119 775
-85 115 746
-84 116 757
-82 117 762
-81 117 765
-78 117 764
-76 118 768
-74 118 769
-74 121 788
-69 117 765
-67 118 769
-65 118 769
-64 119 780
-63 121 791
-61 121 795
-58 121 794
-56 121 790
-54 123 807
-53 125 821
-54 132 868
-52 133 874
-51 137 901
-47 136 893
-43 131 864
-40 130 855
-39 133 877
-37 135 887
-34 133 876
-32 135 888
-29 133 877
-26 132 870
-24 133 879
-21 131 865
-19 135 889
-16 131 861
-13 132 871
-11 132 867
-8 130 856
-6 131 866
-3 131 860
-1 131 863
1 130 855
3 130 854
6 130 860
9 132 868
11 133 876
14 136 900
16 135 891
19 136 897
22 135 892
24 134 884
28 139 916
30 139 915
33 137 907
33 130 855
36 132 870
37 126 829
41 132 870
44 133 875
46 131 867
50 134 887
53 134 886
54 132 870
53 122 803
54 121 795
56 118 778
55 113 744
56 109 717
57 108 709
61 112 735
56 97 640
56 95 623
56 92 600
49 77 503
50 76 495
49 72 471
49 70 457
51 72 469
52 71 462
52 69 453
54 70 453
56 70 459
58 71 465
59 71 465
59 70 455
63 73 476
64 72 470
63 70 454
67 72 472
69 73 474
69 71 463
70 71 462
70 70 454
72 71 459
73 70 456
74 70 454
74 69 448
77 70 455
76 68 442
77 68 441
80 69 446
78 67 432
81 68 441
83 68 440
84 68 439
85 68 439
88 69 450
88 68 439
89 68 439
90 67 436
90 66 428
91 67 430
93 67 433
91 65 418
93 65 421
94 65 419
96 66 423
96 64 414
100 66 428
101 66 428
102 66 425
101 65 416
104 66 423
106 66 425
109 67 434
111 67 433
110 66 424
111 66 425
117 69 442
120 70 448
122 70 449
122 69 445
122 69 440
123 68 439
127 70 449
127 69 441
129 70 445
134 71 456
134 71 453
139 73 465
137 71 454
137 70 446
140 71 454
145 73 463
147 73 465
144 71 453
157 77 489
240 116 745
312 149 962
325 154 994
333 156 1007
340 158 1018
348 160 1033
342 156 1005
341 154 992
352 158 1016
347 154 990
344 152 974
343 150 961
356 154 989
352 151 966
361 154 982
359 152 969
365 153 975
357 148 945
356 147 934
381 156 992
371 150 956
370 149 945
357 143 905
365 145 917
365 144 909
366 142 901
363 141 888
362 139 877
334 127 801
319 121 759
304 114 715
283 105 660
263 97 608
198 73 450
144 53 322
108 39 236
96 35 207
102 37 220
97 35 207
91 32 191
80 28 166
75 26 154
75 26 151
73 25 146
75 26 148
78 26 154
79 27 156
95 32 187
128 42 253
155 51 307
176 58 348
182 59 357
199 64 388
197 63 381
190 61 364
180 57 341
164 52 308
129 41 239
115 36 210
100 31 180
150 46 273
177 54 321
170 51 304
154 46 273
149 45 263
92 28 157
70 21 116
102 30 172
106 31 177
-2235 682 3857
-2235 686 3886
-2304 710 4035
0 0 0
-759 238 1350
-709 224 1270
-769 244 1387
-773 247 1406
-656 211 1201
-468 152 864
-272 90 507
-178 60 334
-147 50 277
-116 40 222
-113 39 217
-109 38 212
-94 34 184
-93 33 183
-103 37 204
-120 43 239
-162 58 326
-294 103 595
-555 194 1132
-619 218 1271
-616 218 1275
-615 219 1284
-618 222 1300
-606 219 1286
-596 217 1274
-587 215 1266
-582 215 1266
-591 219 1295
-602 225 1330
-596 224 1328
-603 228 1353
-593 226 1343
-590 226 1347
-585 226 1347
-584 227 1354
-579 227 1355
-578 228 1363
-561 223 1334
-578 231 1387
-549 222 1330
-587 238 1432
-589 241 1451
-583 240 1448
-561 233 1407
-549 230 1388
-543 229 1385
-542 230 1395
-538 230 1396
-555 239 1453
-554 241 1463
-528 232 1408
-531 235 1429
-545 243 1481
-515 231 1411
-522 237 1446
-513 234 1433
-505 233 1425
-503 234 1432
-487 229 1401
-493 233 1432
-475 227 1392
-501 241 1483
-486 236 1452
-473 232 1429
-464 229 1415
-478 239 1473
-473 238 1472
-459 233 1443
-454 233 1442
-465 241 1492
-472 246 1529
-441 233 1444
-432 230 1430
-423 228 1417
-420 228 1421
-428 235 1464
-421 234 1457
-400 224 1399
-401 227 1418
-394 225 1408
-405 234 1465
-403 235 1472
-396 234 1467
-387 231 1447
-390 235 1477
-395 241 1515
-381 235 1478
-369 231 1451
-361 229 1438
-361 231 1452
-354 229 1445
-356 233 1470
-353 234 1477
-341 229 1446
-352 239 1510
-344 237 1497
-333 232 1468
-342 241 1527
-330 236 1495
-339 246 1559
-321 236 1495
-309 230 1461
-305 231 1465
-291 223 1419
-202 159 1004
-162 130 819
-154 125 787
-152 125 790
-148 124 784
-151 128 809
-150 129 818
-139 122 773
-140 125 794
-137 125 791
-133 123 778
-129 121 768
-127 121 770
-120 117 740
-120 119 756
-117 118 750
-116 119 757
-113 118 753
-113 121 771
-108 119 754
-106 118 751
-103 117 746
-104 121 770
-102 121 775
-100 121 772
-98 122 777
-94 120 764
-89 117 745
-88 118 754
-87 119 760
-83 117 747
-82 118 755
-79 117 747
-77 118 755
-75 118 753
-73 119 761
-71 118 756
-70 120 768
-69 123 786
-66 120 772
-64 122 784
-64 126 806
-61 124 796
-56 119 764
-56 124 795
-54 124 798
-53 128 825
-52 131 845
-52 138 890
-50 139 893
-47 138 890
-45 139 895
-42 138 888
-40 139 894
-37 137 881
-34 136 875
-31 137 882
-28 135 871
-26 133 860
-24 137 887
-21 134 868
-19 137 888
-16 136 880
-13 135 872
-11 136 882
-8 137 886
-5 133 858
-3 134 869
0 132 854
1 132 851
4 133 862
6 133 860
9 138 893
11 139 897
14 136 883
17 140 904
19 140 908
22 137 887
25 140 905
25 130 838
27 126 816
28 118 761
29 114 736
31 112 723
33 112 722
36 115 745
37 113 728
43 122 792
46 127 819
44 115 740
44 108 697
46 107 689
48 108 699
51 109 705
51 106 681
52 103 664
52 99 640
57 105 678
55 98 629
54 93 598
53 89 573
48 77 491
48 75 478
48 73 466
49 72 463
50 72 459
51 71 451
52 71 454
54 71 456
57 73 469
57 72 458
59 72 461
60 72 461
61 72 462
61 70 449
65 74 470
66 73 467
67 72 461
69 73 464
70 73 464
72 73 468
74 74 469
73 71 455
75 72 460
76 72 457
76 70 447
80 73 463
79 71 449
81 71 454
80 69 440
82 70 445
83 70 442
84 69 441
87 71 451
85 68 431
89 70 445
89 69 438
90 69 438
90 68 429
90 67 425
92 68 428
92 67 421
95 68 427
93 65 413
95 66 416
99 68 428
101 68 432
100 67 421
102 67 426
101 66 416
105 67 426
109 69 436
105 66 417
108 67 421
112 69 434
107 65 409
116 69 436
116 69 432
121 71 448
124 72 451
122 70 438
125 71 446
126 71 446
129 71 448
131 72 452
133 72 454
133 72 449
133 71 442
138 73 455
139 72 453
140 72 454
144 74 460
141 71 446
146 73 457
146 73 454
161 79 494
203 99 622
294 142 897
329 157 994
337 160 1010
344 161 1019
338 158 994
336 155 977
352 161 1013
354 161 1010
350 157 990
351 156 983
350 155 972
351 154 964
354 154 965
350 151 942
348 148 929
376 159 996
356 149 933
357 149 928
360 149 928
357 146 911
343 140 868
328 132 821
324 130 804
325 129 800
308 122 751
281 110 677
269 104 643
254 98 602
238 91 557
221 84 512
163 61 371
130 49 293
109 41 241
95 35 207
84 31 179
82 30 174
76 28 160
76 27 158
74 26 152
70 25 141
75 27 152
76 27 153
74 26 147
77 27 153
91 31 180
110 37 217
137 46 272
158 53 314
178 59 351
189 63 371
212 70 414
219 72 425
213 69 409
235 76 448
213 68 404
228 73 430
169 54 313
184 58 338
217 68 398
220 68 400
222 69 402
181 56 324
175 54 310
157 48 275
118 36 202
116 35 197
141 42 240
-2237 695 3860
-2251 703 3912
-2284 718 3999
-684 217 1206
-708 226 1258
-831 267 1487
-776 251 1400
-772 251 1403
-729 238 1334
-557 184 1028
-373 125 694
-229 78 429
-160 55 302
-137 48 260
-121 43 233
-122 43 236
-102 37 198
-101 37 200
-107 39 211
-122 44 243
-143 52 288
-215 77 435
-453 162 925
-615 220 1263
-629 227 1303
-607 221 1268
-601 220 1264
-605 223 1284
-593 219 1267
-587 219 1266
-588 221 1278
-588 222 1287
-599 228 1323
-588 225 1309
-587 226 1317
-592 230 1339
-590 230 1345
-586 231 1349
-588 233 1363
-581 232 1359
-577 232 1360
-585 237 1391
-541 221 1297
-579 238 1402
-586 242 1429
-596 248 1468
-541 227 1343
-537 227 1344
-545 232 1377
-570 245 1452
-558 242 1435
-544 237 1412
-568 250 1488
-519 230 1373
-527 236 1406
-531 239 1430
-527 239 1432
-569 260 1560
-515 238 1424
-520 242 1453
-489 230 1378
-515 244 1466
-495 236 1422
-516 249 1498
-505 245 1478
-503 246 1487
-499 246 1489
-499 249 1505
-492 248 1500
-480 244 1478
-489 250 1519
-476 246 1496
-470 245 1492
-448 236 1437
-490 261 1587
-442 238 1448
-431 234 1428
-424 233 1420
-422 234 1428
-397 222 1356
-439 248 1516
-433 247 1514
-412 238 1455
-406 236 1449
-427 251 1543
-402 239 1470
-389 234 1440
-392 239 1468
-391 240 1480
-384 239 1472
-392 247 1521
-378 240 1482
-389 250 1544
-365 238 1469
-356 235 1450
-362 242 1496
-361 244 1508
-345 236 1459
-349 241 1496
-332 233 1444
-332 236 1464
-317 228 1415
-328 239 1487
-333 246 1531
-326 244 1518
-315 239 1489
-304 234 1460
-293 229 1425
-209 166 1034
-162 132 818
-154 127 790
-152 128 793
-149 127 789
-150 130 808
-145 128 795
-144 128 798
-138 125 779
-136 125 779
-131 124 769
-128 122 761
-129 125 781
-122 121 754
-122 123 768
-120 124 772
-115 121 753
-111 119 741
-112 122 762
-109 121 756
-105 119 746
-105 121 759
-100 119 744
-99 120 750
-94 117 731
-95 121 758
-93 121 759
-90 120 749
-89 121 761
-86 121 757
-84 120 755
-81 119 748
-79 120 753
-75 117 736
-77 124 778
-73 120 754
-72 122 768
-69 121 762
-68 124 779
-66 123 776
-65 126 792
-61 124 778
-59 124 782
-58 127 798
-55 125 789
-54 127 801
-52 127 801
-52 133 838
-51 137 865
-49 138 869
-47 140 887
-44 139 881
-41 138 874
-39 139 882
-37 142 899
-34 141 890
-31 139 878
-29 139 883
-25 135 854
-24 139 882
-21 141 894
-18 139 878
-15 135 852
-13 138 873
-11 139 883
-8 136 861
-6 137 868
-3 139 880
-1 139 881
1 140 887
4 140 888
6 138 873
9 142 899
12 145 918
14 143 906
17 143 907
19 139 885
21 134 853
22 123 778
22 114 722
23 108 684
23 98 617
25 98 616
27 100 630
30 103 654
33 107 676
35 109 688
39 115 728
39 107 674
40 104 657
38 95 599
43 102 647
40 91 572
43 94 593
47 100 631
47 95 601
51 99 626
54 101 638
50 91 577
54 94 596
48 81 511
46 75 471
47 75 472
49 75 473
49 73 460
50 72 452
51 73 458
54 74 467
55 74 464
55 73 457
57 73 458
57 72 449
59 72 452
62 74 464
62 73 454
63 72 453
66 74 464
65 72 449
67 72 453
70 74 462
71 74 462
72 73 459
72 72 449
74 73 455
75 72 451
77 73 457
78 72 453
80 73 455
85 76 477
82 72 452
85 74 463
83 71 440
85 72 446
82 68 423
84 69 427
90 72 450
89 70 436
87 68 422
91 70 438
91 69 428
92 68 425
94 69 429
94 68 424
94 68 419
97 69 426
97 68 421
101 69 431
100 68 420
99 66 412
101 67 414
104 68 422
105 68 420
104 67 413
107 68 418
108 67 415
112 69 427
114 70 430
113 68 422
119 71 440
121 71 439
127 74 456
127 74 454
128 73 452
130 74 454
132 74 456
133 74 453
129 71 436
137 74 457
139 75 458
138 73 449
140 74 451
143 74 456
145 75 460
145 74 456
146 74 451
146 73 449
153 76 466
183 90 552
278 135 837
326 158 977
358 171 1062
351 166 1030
339 160 986
352 164 1015
352 163 1003
351 161 992
354 161 991
355 160 984
351 157 963
350 155 953
347 152 936
346 150 923
343 148 907
330 141 864
316 134 820
306 129 787
289 121 735
279 116 704
271 111 676
260 106 643
271 110 665
274 110 666
272 109 656
270 107 644
259 102 613
237 92 555
196 76 453
147 57 334
113 43 252
110 42 242
95 36 207
88 33 188
78 29 164
73 27 153
73 27 151
68 25 138
70 25 142
74 27 150
77 27 154
72 25 142
84 30 167
99 35 197
121 42 241
144 50 287
186 64 371
213 72 421
241 81 475
263 88 515
269 89 523
278 92 537
254 84 487
243 80 462
231 75 435
234 76 438
218 70 402
210 67 384
221 70 402
222 70 401
216 68 387
264 82 473
267 83 474
267 82 470
256 78 446
248 75 430
-2244 710 3870
-2244 714 3897
-2297 735 4019
0 0 0
-721 235 1281
-789 258 1412
-743 245 1340
-754 250 1370
-733 244 1341
-638 214 1176
-448 152 833
-292 100 548
-186 65 352
-164 58 312
-136 49 260
-121 44 233
-112 41 218
-98 36 194
-105 39 209
-115 43 230
-135 50 271
-175 65 355
-343 125 699
-583 213 1198
-615 226 1273
-619 229 1291
-610 227 1284
-601 225 1273
-596 225 1274
-587 223 1264
-588 225 1276
-582 224 1274
-592 229 1307
-576 224 1281
-595 233 1334
-592 234 1338
-586 233 1336
-593 238 1365
-591 239 1371
-585 238 1368
-583 239 1375
-573 236 1364
-572 238 1372
-553 231 1337
-559 235 1363
-569 242 1401
-553 237 1373
-561 242 1404
-539 234 1362
-536 235 1366
-547 241 1408
-548 243 1421
-567 254 1485
-533 241 1408
-538 245 1433
-539 247 1450
-540 249 1465
-494 231 1354
-503 236 1390
-501 237 1398
-509 243 1434
-494 238 1407
-498 242 1432
-509 249 1475
-478 237 1400
-495 247 1464
-469 236 1400
-481 244 1450
-499 256 1520
-482 249 1482
-460 240 1430
-490 258 1539
-449 239 1426
-455 245 1460
-450 244 1458
-443 243 1450
-436 241 1441
-424 237 1416
-421 237 1423
-418 238 1430
-433 249 1497
-421 245 1471
-423 248 1494
-409 243 1461
-406 243 1466
-403 244 1473
-390 239 1441
-410 254 1535
-405 254 1534
-391 248 1500
-383 245 1484
-378 245 1485
-384 252 1525
-357 237 1437
-371 249 1510
-364 247 1502
-358 246 1497
-348 243 1476
-345 244 1482
-344 246 1498
-346 250 1525
-325 238 1452
-327 243 1482
-315 237 1449
-323 247 1506
-326 252 1538
-306 240 1467
-296 236 1441
-216 175 1067
-171 142 864
-156 131 800
-156 134 814
-150 130 791
-150 132 807
-143 128 782
-139 126 770
-138 128 779
-135 127 777
-132 126 771
-129 126 769
-123 123 749
-119 120 736
-120 124 758
-115 121 742
-116 124 760
-114 124 761
-112 124 760
-108 123 753
-105 122 748
-106 125 766
-103 124 762
-98 122 747
-99 124 764
-94 121 746
-93 123 753
-89 120 739
-89 123 758
-86 122 753
-82 120 741
-81 121 744
-80 123 757
-75 119 735
-75 122 751
-74 125 769
-70 121 746
-70 124 767
-67 124 766
-65 124 767
-64 126 776
-62 126 780
-61 129 796
-59 130 805
-57 132 815
-54 129 801
-52 130 806
-51 135 835
-52 143 885
-50 144 891
-48 146 907
-44 142 879
-41 141 876
-40 143 891
-37 143 887
-34 142 885
-32 143 890
-29 144 893
-26 143 887
-23 139 865
-22 144 898
-19 146 911
-16 142 881
-13 142 885
-11 141 877
-8 140 871
-6 142 882
-3 147 913
-1 142 882
1 145 902
4 142 886
6 143 890
9 146 908
11 144 895
14 140 870
16 134 832
17 126 784
18 113 700
18 102 634
19 97 604
21 99 611
22 96 594
25 101 626
29 108 670
31 108 672
31 103 640
34 107 664
33 98 609
35 98 608
35 94 581
37 94 583
40 97 604
44 102 630
46 102 632
45 97 601
49 102 630
50 98 609
51 98 610
51 94 583
48 85 528
47 81 498
47 78 481
47 76 470
50 79 484
50 76 469
51 76 466
51 74 458
53 74 456
54 73 452
56 75 461
56 73 451
58 74 452
60 75 459
61 75 460
61 73 449
62 72 444
64 74 452
64 72 441
67 73 450
68 73 448
68 72 443
71 73 450
73 74 457
73 73 447
73 72 440
77 74 455
79 74 456
78 73 447
80 73 446
83 75 458
84 75 457
84 74 451
84 72 440
85 72 438
88 73 446
87 71 433
87 70 429
87 69 424
90 70 429
91 70 427
91 69 422
91 68 416
94 70 426
94 69 419
94 68 414
97 69 422
100 70 425
102 70 428
101 69 418
102 69 420
101 68 411
102 67 408
107 70 423
108 69 421
107 68 414
113 71 431
111 69 417
115 71 429
117 71 431
115 69 419
125 74 450
128 75 456
130 75 457
130 75 453
130 74 448
134 76 458
132 74 445
136 75 452
134 73 441
138 75 449
138 74 446
143 76 456
142 75 450
146 76 457
144 74 447
142 73 435
153 78 466
149 74 447
169 84 503
255 125 760
325 159 964
326 157 955
351 168 1020
351 167 1010
351 165 1000
340 159 960
344 159 961
344 158 952
331 150 907
313 141 849
284 127 762
246 109 653
234 103 614
226 99 589
215 93 555
233 100 594
239 102 606
233 99 585
239 100 594
228 95 562
234 97 572
253 104 615
264 107 635
260 105 621
247 99 585
197 78 459
162 64 372
125 49 282
89 35 196
92 36 202
96 37 209
83 32 178
79 30 167
73 28 153
68 25 139
71 26 145
70 26 141
73 27 147
75 27 150
85 31 170
108 39 217
131 46 263
165 58 333
193 68 387
216 75 431
214 74 423
231 79 455
280 95 548
284 96 552
281 95 544
251 84 481
244 81 462
244 81 459
226 74 422
212 69 392
205 67 376
225 73 409
226 72 408
241 77 432
263 83 469
276 87 489
266 83 468
255 80 446
257 80 446
-2245 723 3869
-2238 725 3885
-2291 746 4006
0 0 0
-789 261 1400
-696 232 1245
-766 256 1379
-722 243 1311
-749 254 1370
-692 236 1276
-546 188 1015
-335 117 628
-226 80 427
-171 61 325
-141 51 270
-127 47 245
-120 45 234
-102 39 202
-102 39 202
-106 40 211
-125 47 252
-157 59 318
-255 96 520
-527 196 1083
-613 229 1268
-620 233 1293
-609 231 1279
-600 229 1270
-598 229 1276
-589 228 1269
-579 225 1257
-585 229 1279
-595 234 1312
-579 230 1289
-616 246 1381
-591 238 1336
-585 237 1333
-592 241 1360
-583 240 1352
-588 243 1373
-575 240 1355
-590 248 1404
-585 247 1402
-602 256 1456
-577 247 1407
-558 241 1373
-573 250 1423
-542 238 1356
-555 245 1402
-546 243 1392
-559 251 1436
-539 244 1397
-544 248 1424
-525 241 1385
-523 243 1395
-554 259 1490
-515 242 1397
-528 251 1446
-515 246 1423
-499 241 1394
-520 253 1466
-508 249 1444
-492 244 1412
-482 241 1397
-510 257 1493
-482 245 1426
-480 246 1433
-486 251 1464
-487 254 1482
-474 250 1458
-487 259 1513
-471 253 1478
-466 252 1478
-451 247 1445
-451 249 1459
-466 260 1526
-442 249 1460
-442 251 1476
-424 243 1432
-429 249 1466
-415 243 1434
-418 247 1458
-419 251 1479
-407 246 1455
-413 252 1493
-390 241 1427
-407 254 1503
-393 248 1471
-391 249 1479
-389 251 1490
-385 251 1493
-376 248 1477
-371 248 1475
-373 252 1499
-369 252 1503
-358 248 1476
-358 251 1495
-334 237 1415
-343 246 1470
-342 249 1487
-323 238 1425
-331 247 1478
-322 243 1456
-334 256 1532
-322 250 1502
-314 247 1484
-309 246 1479
-297 241 1445
-225 186 1115
-167 141 841
-155 133 796
-155 135 806
-149 132 789
-146 131 783
-142 130 778
-141 130 781
-140 132 790
-134 129 771
-133 130 778
-126 125 752
-125 126 756
-123 127 761
-121 127 763
-118 126 759
-115 126 755
-117 130 780
-112 127 763
-107 124 746
-107 126 760
-103 124 745
-99 122 738
-99 125 754
-96 124 745
-94 124 749
-90 121 731
-89 123 745
-86 122 736
-86 125 757
-84 125 753
-81 123 744
-81 126 764
-75 122 738
-75 125 757
-73 125 758
-70 124 752
-71 128 778
-66 125 758
-65 126 763
-62 126 763
-62 129 781
-59 129 781
-59 133 805
-55 128 778
-54 131 795
-51 130 788
-52 139 844
-52 146 889
-49 144 880
-47 145 887
-45 146 893
-42 147 896
-40 147 898
-36 144 879
-34 146 892
-32 145 888
-30 149 907
-26 145 885
-24 148 907
-22 150 917
-19 149 910
-17 150 915
-14 150 918
-11 147 900
-8 144 881
-6 147 896
-3 146 891
-1 149 909
1 149 909
4 143 876
6 137 840
9 140 855
11 134 818
13 127 777
14 116 705
14 105 639
15 98 596
17 96 585
19 96 583
21 102 620
24 107 649
26 108 657
28 109 663
28 99 604
30 100 609
31 99 601
33 97 591
34 96 587
34 92 557
38 97 590
37 92 557
42 100 605
44 101 613
46 101 613
45 94 568
48 97 588
45 87 530
46 86 524
45 81 488
46 80 486
47 80 483
46 76 460
48 76 459
50 78 469
50 75 453
50 74 446
52 75 454
55 77 465
54 74 444
57 76 459
58 75 451
58 74 447
61 76 457
61 74 448
61 72 436
64 75 452
64 73 439
65 73 439
68 75 450
70 75 452
70 74 445
75 77 467
74 75 454
75 75 452
77 76 455
78 76 455
80 75 454
81 75 452
81 74 448
81 73 441
83 74 443
84 73 441
89 77 461
89 76 454
86 72 430
89 73 437
89 72 434
89 71 423
90 71 422
91 71 423
92 71 422
94 71 423
93 69 414
93 68 407
99 72 428
98 70 420
101 71 424
102 71 424
101 70 415
103 70 418
107 72 428
108 71 426
107 70 416
104 68 402
111 71 421
112 71 424
112 70 418
113 70 414
115 71 419
120 73 432
122 73 434
130 77 458
135 79 469
133 77 459
136 78 462
135 76 453
134 76 448
139 77 458
140 77 457
136 74 440
143 78 458
142 76 450
146 77 456
150 79 465
144 75 441
143 74 435
148 75 444
150 76 446
156 78 461
204 101 600
298 147 872
333 162 967
335 162 962
335 160 953
320 152 903
269 127 750
239 112 658
218 101 594
198 91 532
184 84 489
202 91 533
202 91 530
194 86 502
201 89 516
201 88 512
215 93 543
211 91 528
217 93 539
204 86 502
211 88 513
208 87 504
210 87 502
192 79 455
138 56 321
109 44 248
94 38 211
83 33 184
79 31 172
82 32 177
84 33 180
82 32 175
74 28 155
66 25 137
68 26 140
69 26 140
72 27 145
75 28 152
87 32 175
111 41 225
122 44 246
130 47 261
155 56 312
187 67 376
212 75 424
224 79 443
242 85 478
267 93 523
285 98 554
276 95 532
267 91 510
229 78 434
230 77 432
216 72 402
221 74 408
244 81 448
250 82 457
243 79 440
272 88 491
250 81 445
249 80 441
227 72 398
203 64 352
232 73 401
-2245 736 3867
-2243 739 3891
-2279 755 3984
0 0 0
-707 239 1255
-826 280 1477
-770 262 1387
-731 251 1327
-752 259 1375
-692 240 1276
-620 217 1151
-397 140 744
-261 94 492
-196 71 373
-156 57 298
-135 50 261
-119 45 232
-109 41 214
-97 38 193
-105 41 210
-115 45 232
-132 51 268
-193 74 393
-438 166 899
-602 229 1244
-615 235 1281
-602 232 1264
-597 232 1265
-603 235 1286
-585 230 1259
-576 228 1250
-589 235 1287
-597 239 1316
-606 245 1346
-613 249 1374
-585 240 1323
-590 243 1345
-591 245 1358
-587 245 1361
-587 247 1372
-579 246 1364
-582 248 1382
-604 260 1448
-576 250 1393
-558 244 1361
-547 241 1345
-552 245 1371
-566 253 1417
-545 245 1376
-560 254 1426
-565 258 1453
-539 248 1398
-551 256 1443
-537 251 1417
-497 235 1324
-521 247 1399
-536 257 1455
-526 254 1440
-514 250 1420
-491 241 1369
-507 251 1428
-513 256 1459
-498 251 1429
-514 261 1490
-499 256 1459
-502 259 1483
-467 244 1395
-485 255 1462
-470 249 1429
-470 252 1446
-467 252 1449
-466 254 1461
-462 255 1466
-452 252 1448
-453 254 1466
-449 255 1470
-445 255 1473
-433 251 1448
-449 262 1516
-416 245 1420
-422 252 1458
-415 250 1448
-403 245 1423
-407 250 1454
-415 258 1500
-406 255 1481
-395 251 1460
-386 248 1443
-396 257 1498
-396 260 1518
-384 255 1489
-378 254 1483
-381 259 1512
-363 250 1460
-366 255 1492
-365 257 1506
-357 254 1491
-351 254 1487
-345 252 1478
-346 256 1504
-334 250 1470
-323 246 1444
-325 250 1472
-319 249 1463
-316 250 1473
-313 251 1478
-307 250 1472
-301 249 1466
-231 194 1142
-166 143 837
-158 138 812
-155 137 805
-148 133 784
-146 134 786
-144 134 785
-142 134 787
-135 130 764
-129 126 743
-131 130 765
-128 130 764
-122 125 739
-122 128 755
-120 128 758
-119 129 761
-116 129 761
-114 129 762
-111 128 756
-107 126 745
-107 129 761
-102 125 738
-100 125 738
-98 125 743
-97 126 749
-95 128 756
-93 127 752
-91 127 755
-88 126 748
-83 122 726
-83 126 748
-82 128 759
-78 124 738
-78 128 761
-76 129 767
-74 128 762
-71 127 756
-70 129 767
-67 129 766
-66 130 773
-63 129 766
-61 130 777
-58 128 765
-57 131 781
-55 132 785
-55 136 814
-52 135 805
-51 138 826
-52 148 884
-50 149 892
-47 149 891
-44 148 884
-43 152 911
-40 150 899
-37 149 892
-35 151 907
-33 154 924
-30 152 913
-27 153 915
-25 154 926
-22 151 904
-19 154 922
-17 153 920
-14 155 930
-11 152 913
-8 150 899
-6 153 921
-3 147 885
0 141 843
1 141 847
4 138 828
6 134 802
8 118 709
9 112 672
10 102 612
12 100 595
14 101 604
16 102 607
18 107 642
20 109 650
22 104 624
25 110 661
24 101 601
26 99 593
27 96 573
28 95 564
30 97 579
31 93 553
33 94 559
35 97 577
38 100 598
38 95 565
44 107 639
44 102 610
47 104 622
45 96 572
43 88 527
42 83 492
42 80 477
43 79 469
45 80 473
46 79 470
47 79 468
47 76 453
50 80 473
50 77 455
50 74 442
53 77 459
54 77 459
55 77 454
55 74 439
58 77 456
58 75 442
60 76 452
61 75 446
62 75 447
62 73 433
63 73 432
65 74 436
67 74 439
67 73 434
68 73 432
71 75 444
72 75 443
77 78 462
77 77 456
79 77 456
80 77 457
82 78 460
80 75 443
84 77 455
83 75 443
85 75 445
85 74 436
87 75 444
89 75 445
88 74 435
89 73 430
90 73 431
91 73 429
91 72 423
92 71 418
94 72 425
96 73 429
94 70 414
96 71 416
97 71 414
99 71 416
101 72 420
104 73 428
103 71 417
103 70 410
104 70 411
108 72 423
110 72 423
110 72 419
111 72 418
112 71 415
115 72 422
115 71 416
119 73 426
124 76 441
130 79 458
133 80 465
133 79 459
135 79 458
135 78 454
137 79 458
136 77 448
138 78 451
141 78 454
139 77 445
144 78 454
145 78 454
146 78 451
150 79 460
146 77 444
146 76 439
150 77 447
145 74 427
152 77 444
172 86 499
226 112 652
263 130 755
213 104 601
191 92 533
178 85 490
181 86 494
167 79 452
154 72 411
149 69 394
159 73 417
164 75 426
166 75 428
171 77 439
189 84 481
215 95 543
221 97 553
214 93 530
215 93 528
196 84 477
208 88 501
169 71 402
139 58 325
115 48 265
96 40 219
91 37 205
84 34 186
84 34 183
77 31 167
76 30 162
70 28 148
70 28 147
68 27 141
67 26 137
73 28 149
74 28 150
85 32 174
105 39 214
116 43 236
125 46 252
142 52 286
185 68 375
229 83 462
261 94 523
291 104 580
299 106 591
289 102 567
294 103 572
273 95 525
257 89 492
250 86 474
235 81 441
243 83 453
253 86 468
242 81 444
258 86 471
234 78 423
226 75 405
240 79 428
238 78 421
224 73 391
226 73 394
215 69 371
-2240 747 3857
-2237 750 3880
-2267 764 3960
0 0 0
0 0 0
-567 196 1014
-713 247 1283
-657 229 1192
-739 259 1350
-720 254 1327
-623 221 1156
-474 170 886
-339 123 639
-226 83 430
-176 66 338
-140 53 270
-124 47 241
-117 45 230
-93 37 185
-102 40 204
-112 44 225
-127 50 257
-146 58 299
-332 129 681
-588 228 1214
-605 236 1261
-610 239 1280
-600 237 1269
-597 237 1275
-579 232 1246
-576 232 1250
-584 237 1277
-597 244 1316
-589 242 1309
-604 250 1352
-591 246 1335
-584 245 1329
-588 248 1350
-587 250 1360
-585 251 1366
-582 251 1371
-569 247 1352
-573 251 1373
-575 254 1389
-568 252 1385
-576 258 1416
-563 254 1397
-524 238 1310
-555 254 1400
-551 254 1403
-578 268 1484
-527 247 1365
-558 263 1458
-535 255 1412
-535 257 1425
-516 249 1386
-514 251 1394
-502 247 1374
-527 261 1456
-509 254 1420
-506 255 1423
-522 265 1483
-502 257 1441
-494 255 1430
-491 256 1435
-485 255 1433
-485 258 1448
-478 256 1439
-476 257 1447
-473 258 1452
-470 259 1460
-464 258 1456
-460 258 1457
-457 259 1464
-449 257 1454
-447 258 1462
-444 259 1466
-434 256 1450
-426 253 1438
-422 254 1442
-412 250 1422
-406 249 1416
-410 254 1445
-406 254 1450
-384 243 1385
-406 260 1482
-397 257 1467
-405 264 1513
-399 264 1510
-399 267 1527
-386 261 1497
-384 262 1504
-372 257 1478
-366 256 1472
-365 258 1484
-356 255 1470
-349 253 1459
-346 254 1463
-359 267 1537
-345 260 1498
-334 255 1471
-323 250 1442
-338 264 1528
-316 251 1449
-320 258 1492
-328 267 1549
-306 253 1465
-299 251 1453
-232 198 1147
-166 145 835
-154 136 787
-153 138 794
-150 137 791
-147 137 791
-142 135 777
-141 136 784
-138 134 777
-134 133 768
-129 130 754
-129 133 771
-125 131 757
-121 129 749
-121 131 762
-119 131 762
-112 127 734
-110 127 736
-108 127 735
-107 128 741
-104 127 740
-103 128 746
-99 126 733
-97 126 735
-96 128 746
-92 126 733
-92 129 749
-89 127 737
-85 125 728
-86 128 749
-83 127 743
-83 131 766
-80 130 762
-77 129 752
-75 129 756
-73 129 755
-70 128 751
-69 131 764
-68 132 770
-65 131 768
-65 135 788
-59 128 750
-59 133 778
-55 129 754
-54 132 775
-53 135 792
-52 138 811
-54 149 876
-52 149 877
-51 155 911
-49 157 925
-46 155 913
-44 157 927
-40 154 907
-39 160 941
-34 152 894
-33 158 934
-30 155 911
-28 156 921
-24 154 909
-21 151 889
-18 146 860
-16 149 877
-14 152 897
-11 153 903
-8 149 878
-5 136 800
-3 138 810
0 131 773
1 125 735
3 117 689
5 116 682
7 114 673
9 107 626
10 100 587
12 99 578
13 99 578
15 100 585
19 114 670
20 105 618
22 107 627
24 109 641
23 96 565
24 92 537
26 95 559
27 93 543
30 96 566
30 93 545
32 95 554
35 97 569
37 99 583
41 104 608
41 101 594
41 96 565
40 90 529
44 96 561
42 87 510
43 86 501
43 82 481
44 83 484
45 81 471
45 79 463
46 79 458
49 80 468
50 80 468
51 80 469
51 78 453
54 80 466
54 79 460
56 79 458
57 78 454
58 78 456
58 77 446
62 79 461
61 76 443
62 76 445
62 75 437
62 74 428
66 76 441
65 74 431
69 77 448
69 76 439
69 74 429
69 73 423
74 76 443
73 74 432
78 78 452
81 79 462
81 78 454
83 79 459
84 78 454
86 79 456
90 81 471
90 80 467
87 76 442
87 75 436
88 75 432
89 74 429
91 75 436
91 74 428
93 75 431
94 74 429
96 75 432
97 75 431
94 72 413
98 73 422
99 73 423
99 72 415
104 75 432
101 72 416
103 72 416
103 71 410
104 72 412
106 72 412
109 73 422
111 74 423
109 72 410
112 73 416
115 74 424
119 76 434
123 77 441
119 74 424
125 77 441
128 78 444
138 83 477
141 84 482
141 83 474
137 80 457
134 78 442
139 79 454
137 78 443
140 79 448
141 78 446
145 80 453
143 78 443
143 77 438
145 77 440
144 76 433
149 78 443
148 77 434
147 76 428
150 77 433
169 85 483
153 77 433
136 68 381
136 67 377
161 78 442
156 76 426
143 68 383
136 65 362
167 79 443
175 82 460
167 78 436
186 86 481
190 87 486
195 88 496
218 98 549
247 110 620
234 103 581
231 101 569
214 93 522
195 84 470
155 66 368
117 50 273
96 41 221
88 37 200
93 39 209
87 36 193
78 32 170
71 29 153
70 28 149
69 28 145
66 27 139
69 28 144
66 26 135
70 27 142
79 31 161
92 35 187
112 43 230
120 46 244
129 49 261
145 55 294
174 65 351
214 79 429
243 89 485
272 99 541
271 98 534
256 92 500
258 92 501
245 87 472
236 83 450
238 84 450
241 84 452
239 83 445
237 82 437
242 83 443
244 83 444
221 75 399
200 67 358
198 66 352
231 77 407
229 76 401
213 70 369
220 72 379
-2243 760 3859
-2244 765 3890
-2258 774 3944
0 0 0
0 0 0
0 0 0
-628 222 1130
-643 229 1167
-672 240 1228
-661 237 1216
-631 228 1170
-538 196 1005
-361 133 679
-253 94 480
-191 72 365
-146 56 282
-133 52 259
-121 47 237
-104 41 206
-101 40 202
-109 44 220
-121 49 246
-144 58 294
-234 93 481
-524 207 1083
-608 241 1266
-609 243 1279
-607 243 1283
-589 238 1255
-584 238 1256
-582 238 1261
-582 240 1272
-593 246 1307
-586 245 1301
-618 260 1384
-602 255 1360
-587 250 1336
-589 253 1352
-586 254 1357
-585 255 1365
-582 255 1369
-577 255 1371
-583 259 1395
-553 248 1335
-571 258 1392
-540 246 1326
-554 254 1372
-549 254 1372
-541 252 1364
-543 255 1382
-548 259 1407
-538 256 1394
-503 242 1316
-531 257 1402
-526 257 1399
-520 256 1397
-520 258 1411
-516 258 1411
-512 258 1415
-508 258 1415
-504 258 1418
-501 259 1424
-495 258 1420
-493 259 1427
-489 259 1430
-484 259 1429
-480 259 1432
-474 258 1426
-469 258 1428
-467 259 1433
-459 257 1426
-458 259 1437
-454 259 1438
-448 258 1433
-438 255 1417
-437 257 1430
-434 258 1435
-429 257 1431
-426 258 1439
-425 260 1450
-422 260 1456
-398 249 1390
-414 261 1462
-406 259 1450
-404 260 1459
-409 266 1492
-391 257 1444
-389 258 1453
-385 259 1458
-381 259 1456
-382 263 1481
-362 252 1418
-372 262 1476
-367 261 1475
-370 266 1505
-365 266 1506
-356 263 1486
-357 266 1509
-344 260 1473
-332 254 1442
-339 263 1492
-341 268 1522
-326 259 1473
-329 265 1508
-320 262 1491
-323 268 1526
-306 258 1466
-302 257 1466
-236 205 1168
-161 143 811
-160 144 818
-154 141 799
-146 136 771
-147 139 787
-144 138 784
-146 142 810
-138 137 777
-132 133 756
-129 133 756
-127 133 755
-125 133 757
-122 133 756
-121 133 759
-119 134 761
-113 130 739
-110 129 734
-105 126 718
-107 130 745
-106 131 751
-100 127 725
-102 132 753
-98 130 742
-96 130 741
-95 131 750
-91 129 736
-90 131 750
-88 132 755
-85 130 743
-84 132 755
-80 128 735
-79 130 747
-77 131 753
-75 131 752
-73 132 759
-72 134 769
-69 133 762
-67 133 766
-65 133 765
-64 136 781
-62 136 782
-60 138 794
-58 138 793
-54 134 770
-53 137 788
-52 139 804
-52 147 850
-53 156 899
-52 160 926
-50 162 939
-46 158 915
-42 153 883
-41 158 914
-39 163 941
-35 158 917
-33 158 916
-30 159 921
-26 149 864
-21 136 784
-18 130 754
-15 127 736
-13 127 733
-11 129 747
-9 134 774
-7 133 767
-4 121 700
-2 124 716
0 119 688
1 113 653
3 114 660
5 113 652
7 108 624
8 103 596
10 103 592
12 101 583
14 106 613
16 109 627
18 109 628
20 107 619
21 105 604
21 97 560
22 95 545
25 99 571
26 98 562
27 93 535
28 93 535
31 95 549
34 101 584
37 104 598
40 108 625
38 99 570
39 97 558
42 100 574
41 92 531
43 95 544
42 88 508
41 84 479
42 83 476
44 83 474
45 83 477
47 83 477
47 82 470
48 81 464
50 82 471
51 81 463
53 82 472
52 78 449
53 78 444
56 81 464
56 79 450
58 79 454
57 76 434
60 78 446
61 78 447
61 76 434
63 77 440
63 75 431
65 76 437
66 76 433
69 78 445
67 74 424
70 76 434
71 76 431
71 75 427
74 77 437
74 75 430
78 78 444
83 82 466
84 81 461
87 83 472
95 89 510
87 80 455
85 77 440
98 88 500
89 78 445
88 76 435
91 78 441
93 78 444
90 74 422
95 77 438
96 77 438
96 76 431
96 75 426
96 74 422
96 73 414
101 76 430
101 75 426
100 74 416
101 73 415
101 72 409
