VERSION 0.7
FIELDS x y z
SIZE 4 4 4
TYPE I I I
COUNT 1 1 1
WIDTH 3336
HEIGHT 1
VIEWPOINT 0.0 0.0 0.0 1.0 0.0 0.0 0.0
POINTS 3336
DATA ascii
4 -544 1583
8 -541 1575
13 -543 1579
18 -543 1579
23 -540 1570
27 -541 1573
32 -536 1558
37 -541 1572
41 -538 1564
46 -540 1569
51 -542 1575
56 -542 1575
60 -541 1572
65 -542 1575
70 -542 1575
75 -541 1572
79 -542 1573
84 -539 1563
88 -539 1563
94 -542 1574
98 -540 1565
103 -543 1574
108 -542 1572
112 -542 1572
117 -540 1564
121 -540 1564
125 -537 1556
131 -542 1569
136 -541 1566
141 -542 1568
145 -541 1565
149 -539 1560
154 -539 1559
159 -541 1563
164 -542 1566
169 -542 1564
173 -539 1555
178 -541 1562
182 -538 1554
187 -540 1557
192 -541 1561
197 -542 1562
201 -538 1550
206 -540 1556
211 -541 1559
215 -539 1552
219 -538 1549
224 -539 1549
229 -539 1549
233 -538 1546
239 -541 1555
244 -540 1551
248 -540 1549
253 -540 1549
257 -538 1542
262 -539 1544
268 -543 1554
271 -539 1543
277 -541 1547
280 -537 1536
286 -540 1543
292 -542 1549
293 -537 1533
301 -543 1548
303 -538 1533
308 -538 1533
314 -540 1537
318 -538 1533
321 -537 1528
328 -540 1535
333 -541 1538
339 -543 1542
341 -539 1530
347 -540 1531
352 -541 1533
357 -541 1532
360 -539 1526
365 -540 1527
369 -539 1522
377 -543 1533
378 -538 1518
384 -540 1523
387 -538 1516
394 -541 1522
402 -545 1533
402 -539 1517
406 -539 1513
413 -541 1520
417 -541 1517
422 -541 1517
427 -541 1516
429 -537 1504
436 -541 1512
445 -546 1525
443 -538 1502
448 -538 1501
457 -543 1514
459 -540 1504
463 -539 1500
469 -541 1503
472 -539 1497
476 -538 1493
480 -537 1489
486 -539 1492
496 -545 1507
498 -543 1499
501 -540 1491
507 -542 1494
510 -540 1489
515 -540 1487
518 -539 1482
523 -539 1481
530 -541 1485
533 -539 1478
538 -540 1478
542 -540 1476
547 -540 1475
550 -538 1469
556 -540 1470
563 -542 1476
562 -536 1458
569 -538 1462
578 -543 1473
584 -544 1474
585 -540 1463
588 -539 1457
589 -536 1447
599 -540 1457
605 -542 1459
608 -540 1452
617 -544 1462
613 -537 1440
624 -542 1452
629 -542 1450
629 -538 1439
638 -542 1446
642 -542 1443
644 -540 1436
654 -544 1446
652 -539 1429
661 -542 1435
667 -543 1437
674 -545 1439
673 -540 1425
681 -543 1430
675 -535 1407
688 -541 1422
691 -540 1417
697 -541 1417
698 -538 1408
705 -540 1410
709 -539 1406
712 -538 1401
716 -538 1398
721 -538 1396
725 -538 1394
732 -540 1396
739 -541 1398
736 -536 1381
743 -537 1382
751 -539 1387
755 -539 1383
759 -539 1381
754 -532 1361
763 -535 1366
768 -535 1364
773 -536 1362
771 -531 1348
783 -536 1359
770 -524 1326
776 -525 1325
769 -518 1305
772 -516 1299
-831 -525 1354
-834 -529 1368
-832 -531 1374
-822 -528 1369
-811 -524 1361
-819 -532 1385
-814 -532 1387
-801 -526 1374
-797 -527 1378
-800 -532 1394
-789 -528 1385
-789 -531 1396
-781 -529 1392
-779 -531 1400
-766 -525 1388
-764 -527 1394
-767 -533 1412
-760 -531 1410
-753 -529 1407
-748 -529 1409
-739 -526 1403
-741 -530 1417
-736 -530 1419
-726 -527 1411
-727 -531 1424
-727 -534 1435
-715 -530 1424
-709 -528 1423
-709 -532 1435
-708 -534 1444
-700 -533 1441
-697 -533 1445
-687 -529 1436
-687 -533 1447
-677 -529 1440
-679 -534 1454
-672 -533 1452
-666 -532 1453
-662 -532 1454
-654 -530 1450
-650 -530 1452
-643 -529 1451
-640 -530 1456
-639 -533 1467
-633 -532 1466
-629 -533 1469
-624 -532 1469
-622 -535 1478
-616 -534 1477
-606 -529 1464
-605 -532 1476
-603 -535 1485
-595 -532 1479
-592 -533 1483
-586 -532 1482
-576 -528 1471
-578 -534 1490
-574 -535 1494
-566 -532 1486
-565 -535 1498
-561 -536 1501
-553 -533 1494
-551 -535 1502
-546 -535 1503
-539 -533 1500
-536 -534 1504
-529 -533 1501
-529 -537 1514
-520 -533 1505
-519 -537 1518
-513 -535 1513
-510 -537 1520
-504 -537 1519
-505 -542 1536
-492 -534 1513
-490 -537 1525
-486 -538 1529
-478 -533 1517
-473 -533 1517
-468 -534 1520
-463 -533 1519
-464 -540 1541
-456 -536 1530
-454 -540 1541
-448 -538 1537
-441 -535 1529
-436 -535 1532
-430 -533 1528
-431 -541 1550
-421 -535 1533
-422 -542 1555
-415 -538 1546
-408 -535 1538
-406 -539 1551
-399 -537 1545
-396 -539 1552
-390 -537 1546
-385 -537 1549
-378 -534 1541
-377 -539 1555
-369 -534 1542
-365 -536 1549
-360 -535 1547
-358 -539 1560
-352 -537 1553
-345 -534 1545
-338 -531 1536
-338 -538 1559
-332 -537 1556
-328 -537 1558
-323 -537 1559
-318 -537 1559
-314 -538 1562
-310 -539 1566
-306 -540 1570
-299 -537 1562
-295 -538 1564
-289 -536 1559
-284 -536 1561
-280 -537 1565
-278 -542 1580
-271 -539 1570
-267 -540 1574
-261 -537 1567
-257 -539 1573
-252 -539 1573
-247 -538 1571
-242 -537 1570
-237 -536 1567
-232 -537 1569
-227 -534 1561
-223 -536 1568
-218 -537 1570
-212 -534 1562
-208 -536 1567
-205 -541 1583
-200 -539 1578
-194 -537 1572
-192 -542 1588
-185 -537 1573
-179 -534 1566
-176 -540 1582
-168 -529 1551
-151 -490 1437
-138 -460 1349
-133 -457 1339
-127 -451 1323
-122 -447 1313
-119 -452 1327
-114 -447 1312
-111 -450 1320
-106 -448 1315
-103 -449 1318
-100 -454 1332
-96 -457 1342
-93 -459 1349
-89 -461 1355
-86 -466 1370
-83 -474 1392
-81 -485 1425
-81 -514 1509
-79 -529 1554
-75 -529 1554
-71 -539 1584
-67 -539 1585
-62 -539 1585
-57 -540 1588
-53 -542 1592
-48 -542 1594
-43 -540 1588
-38 -539 1585
-33 -540 1588
-29 -540 1588
-24 -542 1593
-19 -545 1601
-15 -546 1604
-10 -541 1590
-5 -540 1586
0 -539 1583
4 -537 1579
8 -541 1589
13 -542 1592
18 -539 1584
23 -541 1590
27 -538 1580
32 -542 1593
37 -540 1587
42 -543 1593
47 -542 1592
51 -539 1581
56 -541 1587
61 -538 1577
65 -538 1579
70 -538 1576
75 -539 1582
80 -539 1579
85 -543 1592
89 -538 1575
94 -541 1585
99 -542 1588
104 -541 1583
108 -539 1577
113 -541 1585
118 -539 1578
123 -543 1589
127 -539 1576
132 -538 1574
137 -542 1585
141 -536 1567
146 -539 1575
151 -541 1580
155 -539 1573
160 -537 1567
166 -543 1585
169 -538 1570
176 -545 1589
180 -543 1583
185 -542 1580
187 -535 1560
193 -539 1568
199 -541 1573
202 -537 1562
207 -538 1564
212 -537 1563
216 -538 1563
221 -537 1561
226 -539 1565
232 -542 1572
236 -540 1566
242 -541 1569
244 -536 1555
250 -539 1560
256 -542 1570
261 -542 1568
267 -544 1574
271 -543 1569
275 -542 1565
278 -539 1558
284 -541 1562
288 -540 1557
295 -544 1570
298 -540 1558
302 -539 1553
308 -542 1560
313 -542 1559
316 -540 1552
320 -538 1546
325 -538 1546
331 -541 1553
335 -540 1548
339 -538 1541
345 -540 1548
350 -541 1550
355 -542 1550
361 -542 1551
364 -541 1545
370 -542 1547
371 -537 1532
377 -538 1535
382 -539 1536
388 -541 1540
393 -541 1539
395 -538 1530
401 -539 1532
406 -540 1532
408 -536 1519
419 -545 1544
424 -545 1544
424 -539 1526
427 -537 1519
438 -545 1539
438 -539 1520
443 -539 1521
447 -538 1515
457 -544 1532
456 -538 1513
465 -542 1524
466 -538 1512
474 -542 1520
477 -540 1514
483 -541 1516
487 -541 1512
491 -540 1509
496 -540 1509
501 -541 1510
506 -541 1507
512 -542 1510
519 -545 1515
520 -541 1504
524 -540 1499
527 -539 1494
534 -541 1498
542 -544 1505
541 -538 1488
547 -540 1490
560 -548 1510
558 -541 1492
559 -538 1480
567 -541 1486
571 -540 1483
574 -539 1478
577 -537 1470
588 -543 1485
596 -546 1493
595 -541 1477
597 -538 1467
602 -538 1466
608 -540 1468
614 -541 1470
620 -542 1469
626 -543 1471
628 -541 1463
632 -541 1461
640 -543 1465
638 -537 1448
649 -543 1461
653 -542 1458
657 -542 1454
666 -545 1461
677 -550 1472
672 -542 1449
673 -539 1440
679 -540 1440
684 -540 1438
690 -542 1440
698 -544 1445
701 -543 1438
701 -539 1427
707 -540 1427
714 -542 1429
714 -539 1419
724 -542 1426
721 -537 1410
726 -537 1407
736 -541 1415
744 -544 1420
745 -541 1410
748 -539 1404
750 -538 1398
754 -537 1393
756 -535 1387
766 -539 1394
773 -541 1397
769 -534 1378
773 -534 1375
776 -533 1370
775 -529 1357
776 -527 1348
776 -524 1338
769 -516 1315
768 -512 1304
771 -511 1299
-846 -529 1379
-838 -527 1376
-832 -526 1377
-834 -530 1390
-828 -530 1391
-822 -529 1391
-818 -529 1395
-812 -529 1396
-800 -524 1385
-802 -529 1400
-794 -526 1396
-798 -532 1414
-790 -530 1410
-786 -531 1414
-778 -528 1410
-774 -529 1414
-770 -530 1418
-761 -527 1413
-765 -533 1431
-756 -530 1426
-749 -528 1424
-751 -533 1439
-740 -529 1429
-741 -533 1441
-731 -529 1435
-731 -533 1446
-724 -531 1442
-720 -532 1447
-717 -533 1453
-713 -534 1457
-710 -535 1462
-699 -530 1451
-694 -530 1452
-688 -529 1453
-683 -529 1452
-683 -533 1466
-679 -534 1470
-672 -531 1465
-665 -530 1464
-656 -527 1456
-651 -526 1456
-655 -534 1480
-650 -534 1480
-643 -532 1478
-644 -536 1491
-639 -537 1494
-631 -534 1487
-622 -530 1480
-625 -537 1499
-618 -535 1496
-611 -533 1493
-608 -535 1498
-605 -536 1505
-595 -532 1493
-596 -537 1511
-582 -529 1489
-583 -533 1503
-577 -533 1503
-573 -533 1505
-575 -540 1525
-563 -533 1507
-560 -535 1514
-552 -531 1506
-551 -536 1520
-546 -536 1521
-540 -534 1519
-540 -538 1532
-529 -532 1516
-527 -535 1525
-522 -535 1527
-519 -537 1533
-514 -537 1535
-507 -534 1528
-504 -537 1536
-499 -536 1535
-493 -535 1535
-486 -533 1529
-484 -535 1538
-480 -537 1542
-477 -539 1549
-471 -538 1548
-465 -536 1543
-460 -536 1544
-455 -535 1544
-451 -536 1548
-447 -538 1553
-440 -535 1547
-437 -537 1553
-433 -538 1557
-427 -537 1555
-423 -538 1560
-415 -534 1549
-409 -533 1546
-408 -537 1559
-405 -540 1568
-399 -538 1564
-393 -537 1562
-390 -539 1568
-385 -538 1567
-381 -540 1572
-374 -537 1565
-369 -537 1567
-366 -539 1573
-359 -536 1565
-356 -539 1574
-350 -537 1571
-346 -538 1573
-341 -538 1575
-338 -541 1582
-330 -535 1567
-323 -532 1560
-319 -534 1564
-316 -536 1572
-312 -538 1579
-307 -537 1578
-305 -542 1591
-296 -535 1571
-291 -535 1573
-288 -538 1581
-283 -538 1581
-279 -539 1587
-270 -532 1565
-269 -538 1584
-264 -537 1582
-258 -537 1581
-253 -535 1578
-251 -541 1594
-246 -541 1596
-239 -536 1583
-235 -537 1586
-231 -539 1591
-226 -539 1591
-220 -536 1583
-217 -540 1596
-211 -538 1591
-207 -539 1594
-202 -540 1598
-196 -537 1587
-191 -537 1588
-187 -538 1592
-182 -537 1588
-177 -537 1590
-173 -539 1596
-159 -511 1513
-142 -470 1392
-134 -458 1356
-129 -454 1345
-123 -449 1330
-119 -448 1327
-115 -447 1325
-111 -448 1328
-106 -443 1315
-104 -451 1337
-100 -452 1339
-97 -454 1347
-94 -461 1366
-90 -460 1364
-86 -465 1379
-84 -471 1398
-83 -490 1453
-81 -508 1508
-79 -525 1557
-75 -530 1573
-72 -537 1593
-68 -542 1608
-63 -542 1609
-58 -545 1616
-53 -540 1603
-48 -542 1608
-44 -544 1614
-38 -540 1603
-34 -542 1608
-29 -544 1614
-24 -539 1600
-19 -539 1599
-14 -539 1598
-10 -543 1612
-5 -540 1602
0 -542 1609
4 -539 1598
9 -546 1619
13 -539 1598
18 -541 1605
23 -537 1593
28 -543 1609
33 -542 1607
38 -543 1610
42 -541 1603
47 -543 1609
52 -540 1600
57 -541 1604
61 -541 1603
66 -540 1599
71 -541 1601
76 -543 1608
81 -541 1602
85 -540 1598
90 -541 1601
95 -541 1599
100 -540 1597
104 -538 1592
109 -537 1588
114 -541 1600
119 -539 1592
124 -544 1606
130 -545 1610
133 -539 1593
137 -535 1579
142 -537 1584
147 -540 1592
153 -544 1604
157 -539 1589
162 -539 1589
167 -541 1595
173 -545 1605
176 -540 1588
181 -539 1587
186 -540 1590
191 -542 1595
194 -537 1578
200 -540 1588
206 -542 1591
209 -539 1583
215 -540 1586
219 -539 1581
224 -540 1585
229 -540 1585
234 -541 1586
237 -537 1574
243 -540 1580
246 -537 1571
252 -538 1575
256 -537 1570
262 -540 1578
268 -542 1584
272 -540 1576
277 -541 1578
280 -537 1566
286 -540 1575
290 -539 1571
295 -539 1570
300 -540 1572
306 -541 1573
307 -535 1556
314 -538 1564
318 -538 1562
325 -541 1569
329 -541 1569
334 -540 1565
336 -536 1553
343 -540 1562
347 -538 1557
356 -545 1576
360 -544 1571
363 -541 1563
366 -539 1555
371 -538 1552
376 -540 1555
380 -538 1548
383 -536 1543
390 -538 1548
395 -540 1550
401 -541 1554
402 -536 1537
409 -538 1543
412 -537 1538
419 -539 1543
425 -541 1547
428 -539 1541
432 -538 1536
436 -537 1533
444 -541 1541
446 -538 1531
455 -543 1546
456 -538 1529
463 -541 1536
468 -542 1538
474 -543 1540
477 -540 1531
483 -542 1534
486 -540 1528
492 -541 1530
494 -538 1519
500 -539 1521
504 -539 1520
511 -542 1526
514 -540 1517
519 -540 1518
528 -545 1529
530 -542 1518
534 -540 1514
537 -539 1508
543 -540 1509
544 -537 1498
553 -541 1507
561 -544 1515
562 -540 1503
568 -542 1506
571 -540 1499
578 -542 1502
579 -539 1492
585 -539 1492
593 -543 1499
597 -542 1496
598 -539 1486
606 -542 1492
607 -538 1480
614 -540 1484
616 -538 1476
621 -538 1473
629 -541 1479
633 -540 1476
633 -536 1463
641 -539 1468
648 -541 1472
653 -541 1470
660 -543 1473
665 -544 1474
667 -541 1464
672 -542 1464
684 -547 1477
675 -536 1445
687 -542 1459
689 -540 1451
692 -538 1445
701 -542 1453
705 -541 1449
710 -541 1446
717 -543 1449
718 -540 1438
723 -540 1437
731 -543 1442
731 -539 1430
732 -537 1421
739 -538 1423
749 -542 1430
748 -538 1418
754 -539 1418
760 -540 1418
765 -540 1416
773 -542 1420
773 -539 1408
774 -537 1400
774 -533 1389
777 -532 1384
775 -528 1370
775 -525 1359
774 -520 1346
772 -516 1333
774 -514 1325
772 -510 1312
765 -503 1290
-847 -525 1382
-847 -528 1393
-841 -527 1393
-838 -528 1398
-832 -528 1400
-827 -528 1402
-827 -530 1411
-823 -531 1416
-818 -531 1418
-811 -530 1418
-803 -528 1414
-798 -528 1416
-800 -532 1429
-791 -529 1424
-783 -527 1422
-780 -528 1427
-781 -532 1440
-776 -532 1442
-765 -528 1432
-764 -530 1441
-760 -531 1446
-754 -530 1445
-750 -531 1449
-745 -531 1451
-737 -529 1447
-738 -533 1461
-729 -530 1454
-724 -530 1456
-725 -534 1470
-717 -531 1465
-714 -533 1472
-705 -530 1464
-698 -529 1463
-691 -527 1461
-693 -532 1476
-688 -532 1477
-677 -527 1468
-677 -531 1479
-672 -531 1481
-670 -533 1489
-661 -530 1482
-662 -534 1496
-655 -533 1493
-652 -534 1498
-643 -531 1490
-642 -534 1502
-637 -534 1504
-625 -527 1487
-620 -528 1490
-625 -536 1514
-611 -529 1495
-616 -537 1520
-608 -534 1514
-599 -530 1505
-598 -534 1516
-593 -534 1517
-590 -535 1524
-585 -536 1526
-578 -533 1521
-579 -538 1537
-568 -533 1522
-567 -536 1534
-561 -536 1533
-552 -531 1522
-552 -536 1537
-547 -536 1539
-542 -536 1540
-533 -532 1530
-531 -535 1540
-527 -536 1543
-521 -535 1542
-515 -534 1540
-514 -537 1551
-506 -534 1545
-505 -538 1558
-496 -533 1544
-489 -532 1541
-491 -539 1562
-481 -533 1547
-479 -536 1558
-475 -538 1563
-470 -537 1561
-462 -533 1552
-460 -537 1564
-455 -537 1565
-449 -535 1562
-443 -534 1560
-442 -538 1573
-434 -535 1563
-430 -535 1566
-427 -539 1577
-423 -539 1580
-418 -539 1579
-412 -538 1578
-404 -533 1564
-404 -539 1584
-397 -536 1576
-391 -535 1574
-388 -538 1583
-385 -540 1590
-378 -537 1582
-374 -539 1589
-365 -533 1572
-363 -537 1584
-358 -537 1585
-356 -541 1598
-348 -536 1583
-344 -538 1589
-339 -538 1590
-331 -532 1573
-325 -531 1572
-324 -537 1590
-318 -536 1587
-314 -537 1591
-309 -536 1590
-303 -534 1583
-300 -537 1594
-295 -537 1593
-290 -537 1593
-285 -536 1591
-280 -536 1594
-277 -540 1604
-271 -538 1599
-267 -539 1602
-261 -537 1597
-257 -539 1606
-251 -537 1599
-246 -537 1599
-244 -542 1616
-237 -537 1600
-231 -535 1594
-230 -543 1619
-223 -538 1606
-217 -535 1597
-212 -536 1600
-207 -535 1597
-203 -537 1604
-197 -535 1597
-194 -540 1614
-188 -536 1602
-183 -537 1603
-179 -539 1610
-173 -534 1595
-166 -527 1576
-146 -480 1435
-136 -461 1380
-129 -449 1344
-124 -447 1337
-121 -451 1349
-117 -450 1348
-113 -450 1346
-109 -451 1349
-105 -451 1350
-101 -451 1350
-98 -456 1365
-93 -454 1359
-90 -460 1377
-87 -463 1387
-84 -471 1411
-82 -483 1446
-82 -508 1521
-80 -524 1571
-76 -531 1590
-73 -539 1615
-68 -542 1623
-63 -540 1619
-59 -543 1629
-54 -546 1636
-49 -543 1626
-44 -542 1624
-39 -541 1620
-34 -542 1624
-29 -542 1625
-24 -542 1625
-20 -544 1630
-15 -538 1613
-10 -541 1620
-5 -541 1620
0 -539 1616
4 -538 1613
9 -542 1623
13 -539 1615
18 -539 1614
23 -545 1631
28 -538 1611
33 -541 1620
38 -540 1617
42 -536 1605
48 -542 1621
52 -540 1616
57 -542 1621
62 -539 1612
67 -539 1612
72 -542 1619
77 -541 1618
81 -540 1614
86 -539 1611
91 -540 1614
96 -542 1619
100 -539 1611
106 -544 1624
110 -539 1608
116 -543 1621
120 -541 1613
125 -543 1621
129 -538 1604
134 -539 1607
140 -542 1615
145 -542 1616
149 -542 1614
153 -537 1600
159 -540 1608
164 -541 1610
168 -539 1604
173 -541 1610
178 -541 1609
181 -536 1593
187 -540 1604
192 -540 1605
196 -537 1593
201 -537 1595
207 -542 1607
212 -541 1604
217 -542 1607
221 -539 1597
226 -539 1596
230 -539 1596
235 -539 1596
241 -540 1598
244 -538 1590
249 -537 1587
254 -538 1589
259 -538 1587
265 -541 1596
270 -541 1596
274 -540 1593
279 -540 1591
283 -538 1584
290 -542 1595
293 -540 1588
299 -542 1592
302 -538 1580
309 -542 1591
312 -539 1584
316 -538 1579
320 -536 1571
327 -539 1580
331 -539 1580
337 -540 1580
340 -538 1573
349 -544 1589
350 -538 1571
356 -541 1578
359 -538 1569
366 -541 1576
371 -540 1574
374 -539 1569
381 -541 1575
384 -539 1568
392 -543 1578
390 -534 1551
397 -538 1560
406 -543 1575
410 -542 1569
411 -537 1553
419 -541 1564
425 -542 1568
429 -542 1565
434 -541 1562
436 -539 1553
442 -540 1555
452 -546 1573
451 -539 1550
455 -538 1547
462 -541 1553
467 -541 1553
470 -539 1544
477 -542 1551
480 -539 1543
487 -542 1549
486 -535 1529
496 -541 1544
499 -539 1536
505 -541 1539
510 -541 1538
517 -543 1543
524 -545 1549
524 -540 1533
529 -540 1532
533 -540 1529
539 -541 1529
543 -540 1527
547 -539 1522
551 -538 1518
559 -542 1525
561 -539 1516
565 -539 1514
574 -542 1522
580 -543 1523
581 -540 1513
586 -541 1512
595 -544 1520
599 -544 1517
600 -540 1505
606 -541 1505
613 -543 1509
611 -537 1492
620 -541 1500
628 -543 1506
629 -540 1496
634 -541 1494
634 -536 1480
643 -540 1489
647 -539 1484
649 -537 1477
661 -543 1490
669 -545 1495
671 -543 1488
675 -543 1484
679 -542 1479
686 -544 1483
687 -541 1473
691 -541 1470
700 -544 1476
702 -542 1469
710 -544 1473
711 -541 1463
716 -542 1462
719 -540 1456
723 -539 1450
729 -540 1452
737 -543 1456
738 -540 1447
739 -537 1436
747 -539 1440
751 -539 1436
759 -541 1441
761 -539 1433
767 -540 1432
770 -539 1427
771 -536 1417
777 -537 1418
769 -528 1392
775 -529 1392
778 -528 1386
774 -523 1370
771 -517 1353
771 -514 1342
764 -506 1320
767 -506 1316
767 -503 1305
767 -500 1295
-859 -528 1404
-847 -523 1394
-845 -525 1401
-844 -527 1410
-836 -525 1408
-840 -531 1425
-828 -526 1415
-825 -528 1422
-822 -529 1427
-812 -526 1420
-811 -528 1430
-814 -533 1446
-804 -530 1439
-801 -531 1445
-789 -527 1435
-786 -528 1440
-783 -529 1446
-779 -529 1449
-777 -532 1458
-769 -530 1454
-761 -527 1449
-769 -536 1477
-756 -531 1463
-751 -531 1465
-749 -532 1472
-740 -529 1466
-742 -534 1482
-737 -534 1484
-725 -530 1473
-718 -528 1470
-718 -531 1482
-710 -529 1477
-707 -530 1483
-705 -533 1491
-703 -535 1500
-691 -529 1485
-689 -531 1494
-688 -535 1504
-684 -535 1507
-671 -529 1492
-669 -532 1502
-663 -530 1499
-659 -531 1504
-657 -533 1512
-652 -534 1514
-647 -533 1515
-643 -534 1520
-636 -533 1517
-632 -533 1520
-628 -534 1524
-619 -530 1515
-619 -534 1528
-615 -535 1532
-607 -532 1526
-603 -533 1530
-596 -531 1525
-594 -534 1536
-589 -534 1537
-584 -534 1539
-584 -538 1552
-573 -533 1539
-570 -535 1545
-562 -531 1536
-560 -534 1547
-559 -538 1559
-550 -534 1549
-549 -537 1560
-539 -533 1548
-534 -533 1549
-531 -534 1555
-527 -536 1561
-521 -534 1558
-519 -538 1570
-515 -538 1572
-507 -535 1564
-502 -535 1566
-500 -538 1576
-492 -535 1566
-489 -537 1574
-480 -533 1564
-474 -532 1561
-474 -536 1576
-471 -539 1586
-461 -533 1568
-460 -538 1584
-454 -536 1580
-451 -538 1587
-442 -534 1574
-439 -536 1583
-434 -536 1584
-429 -536 1584
-425 -537 1589
-418 -534 1581
-416 -538 1593
-411 -538 1596
-406 -538 1597
-400 -537 1592
-396 -538 1596
-388 -534 1585
-386 -537 1595
-380 -536 1595
-374 -534 1589
-371 -537 1599
-365 -536 1596
-364 -540 1610
-354 -534 1591
-351 -537 1601
-347 -537 1604
-344 -541 1616
-336 -536 1600
-332 -537 1604
-326 -536 1603
-324 -540 1615
-316 -535 1602
-313 -539 1613
-308 -538 1610
-301 -535 1603
-297 -535 1605
-292 -535 1605
-287 -535 1604
-284 -539 1616
-279 -540 1620
-272 -535 1606
-270 -540 1622
-264 -538 1618
-259 -538 1618
-254 -537 1615
-250 -541 1627
-245 -539 1623
-238 -535 1609
-234 -537 1616
-229 -536 1615
-225 -539 1625
-220 -538 1620
-215 -538 1621
-211 -540 1628
-206 -539 1626
-199 -534 1611
-195 -539 1625
-190 -538 1624
-184 -535 1613
-181 -539 1627
-176 -538 1625
-170 -535 1615
-153 -495 1496
-137 -461 1391
-131 -451 1364
-127 -453 1369
-123 -455 1376
-118 -449 1358
-113 -448 1354
-110 -450 1361
-106 -450 1362
-102 -451 1363
-99 -457 1381
-95 -457 1381
-91 -461 1394
-88 -462 1399
-84 -467 1413
-83 -484 1464
-82 -505 1527
-80 -520 1575
-77 -528 1599
-73 -537 1626
-68 -540 1633
-64 -542 1641
-59 -542 1639
-54 -542 1639
-49 -542 1642
-44 -540 1636
-39 -537 1627
-34 -540 1633
-29 -539 1630
-24 -540 1634
-20 -541 1637
-15 -542 1641
-10 -537 1624
-5 -539 1632
0 -539 1631
4 -542 1641
9 -541 1637
14 -542 1641
18 -540 1632
23 -538 1628
28 -540 1633
33 -542 1637
38 -540 1631
43 -537 1624
48 -542 1638
53 -542 1637
57 -539 1627
63 -543 1639
67 -539 1627
73 -542 1637
77 -539 1626
82 -537 1622
87 -539 1627
92 -544 1643
96 -537 1620
101 -538 1622
107 -542 1634
111 -540 1627
116 -540 1628
121 -541 1631
126 -540 1626
130 -537 1617
136 -541 1628
141 -540 1626
146 -542 1630
151 -542 1630
155 -541 1626
159 -538 1617
166 -543 1632
170 -541 1627
174 -540 1621
180 -541 1624
185 -543 1630
189 -539 1617
194 -541 1623
199 -541 1622
204 -542 1623
209 -542 1624
213 -539 1613
218 -540 1616
222 -537 1606
228 -541 1617
233 -541 1617
239 -543 1624
242 -539 1609
247 -539 1610
253 -541 1614
256 -537 1601
263 -542 1615
268 -541 1613
269 -535 1594
275 -537 1600
282 -541 1609
287 -541 1608
294 -545 1621
296 -540 1604
302 -541 1607
305 -539 1599
309 -538 1596
316 -540 1602
319 -538 1596
323 -536 1587
333 -544 1611
334 -539 1595
341 -541 1600
345 -540 1596
350 -540 1595
356 -542 1600
360 -542 1597
364 -540 1592
368 -539 1587
374 -540 1589
377 -539 1584
386 -544 1598
390 -543 1593
392 -539 1581
398 -540 1583
404 -542 1587
408 -540 1582
415 -543 1589
417 -539 1577
422 -540 1578
425 -538 1570
430 -538 1570
437 -540 1575
441 -539 1569
444 -537 1563
451 -540 1569
456 -540 1568
462 -542 1572
465 -539 1564
471 -540 1565
476 -541 1567
479 -539 1560
485 -540 1561
491 -541 1563
494 -539 1555
501 -541 1560
507 -543 1564
510 -542 1558
514 -540 1552
518 -539 1547
524 -540 1550
525 -537 1539
532 -539 1543
539 -541 1547
543 -540 1543
546 -538 1536
554 -542 1544
557 -540 1537
560 -538 1530
571 -544 1547
576 -544 1545
578 -541 1534
583 -541 1533
587 -540 1528
590 -539 1524
597 -541 1527
603 -542 1529
604 -538 1515
611 -540 1519
616 -541 1518
617 -538 1509
624 -540 1512
626 -537 1503
638 -543 1517
640 -541 1509
645 -541 1508
654 -545 1516
658 -544 1511
663 -544 1509
666 -543 1505
672 -543 1504
677 -543 1503
676 -539 1488
687 -544 1500
694 -546 1503
698 -545 1499
698 -541 1484
704 -542 1486
706 -540 1478
716 -543 1486
713 -538 1468
722 -541 1474
728 -542 1475
734 -543 1475
735 -540 1465
744 -543 1471
747 -541 1464
748 -539 1455
756 -541 1459
756 -537 1447
762 -538 1447
770 -540 1450
768 -536 1436
777 -539 1441
779 -537 1434
774 -530 1413
774 -527 1402
773 -523 1391
771 -518 1375
767 -513 1357
773 -514 1358
769 -508 1341
765 -503 1323
768 -502 1318
763 -496 1300
767 -495 1297
-865 -526 1415
-856 -524 1411
-857 -528 1424
-847 -524 1417
-849 -529 1432
-842 -527 1430
-836 -527 1431
-830 -526 1431
-828 -528 1439
-824 -529 1444
-823 -531 1453
-822 -533 1461
-804 -525 1440
-809 -531 1460
-803 -531 1461
-797 -530 1461
-792 -530 1464
-780 -525 1453
-783 -530 1469
-776 -529 1468
-772 -530 1473
-768 -531 1476
-758 -527 1469
-756 -529 1475
-748 -527 1473
-753 -534 1494
-745 -532 1490
-737 -529 1486
-732 -529 1487
-734 -535 1505
-725 -531 1497
-718 -530 1495
-718 -534 1508
-710 -532 1504
-708 -534 1511
-704 -535 1516
-699 -534 1517
-685 -528 1500
-687 -533 1517
-685 -535 1524
-675 -531 1517
-671 -532 1520
-665 -531 1520
-665 -535 1533
-654 -530 1519
-655 -535 1535
-651 -536 1539
-647 -536 1543
-639 -534 1537
-633 -533 1538
-627 -532 1536
-623 -533 1539
-621 -536 1549
-614 -533 1545
-613 -538 1558
-603 -533 1546
-601 -535 1554
-596 -535 1556
-590 -535 1556
-585 -535 1558
-580 -535 1559
-575 -534 1560
-571 -535 1564
-564 -533 1559
-565 -539 1577
-558 -537 1574
-551 -535 1568
-547 -536 1573
-545 -539 1582
-536 -535 1574
-530 -533 1570
-528 -537 1581
-519 -533 1571
-521 -540 1593
-514 -537 1586
-509 -538 1588
-503 -537 1586
-499 -538 1591
-489 -532 1577
-488 -537 1591
-479 -533 1579
-477 -535 1587
-472 -535 1590
-468 -536 1594
-463 -536 1594
-456 -534 1590
-450 -533 1587
-451 -540 1609
-442 -534 1594
-438 -536 1599
-433 -536 1601
-427 -534 1597
-425 -538 1610
-416 -533 1596
-413 -536 1604
-413 -542 1625
-405 -538 1611
-398 -536 1607
-396 -539 1617
-388 -535 1606
-384 -536 1610
-378 -535 1609
-373 -534 1607
-369 -536 1614
-363 -534 1609
-361 -538 1622
-354 -536 1616
-348 -535 1613
-345 -537 1620
-339 -536 1616
-333 -533 1610
-329 -535 1617
-325 -537 1624
-324 -544 1643
-314 -535 1619
-308 -534 1615
-306 -539 1630
-300 -536 1622
-296 -538 1628
-291 -537 1628
-286 -538 1629
-281 -538 1631
-277 -539 1635
-272 -541 1640
-265 -536 1627
-260 -536 1627
-258 -541 1643
-249 -533 1619
-246 -538 1634
-242 -539 1639
-237 -539 1638
-230 -534 1624
-226 -536 1631
-221 -537 1633
-216 -537 1635
-212 -538 1639
-207 -538 1640
-201 -537 1635
-199 -542 1651
-193 -539 1643
-187 -536 1634
-182 -537 1637
-177 -537 1636
-170 -531 1618
-160 -513 1565
-141 -469 1432
-133 -456 1392
-127 -450 1374
-123 -451 1378
-119 -450 1375
-115 -451 1377
-111 -450 1374
-107 -453 1384
-103 -452 1380
-99 -453 1384
-96 -456 1395
-92 -459 1403
-89 -464 1416
-84 -463 1416
-82 -475 1453
-82 -500 1528
-81 -520 1589
-78 -530 1620
-74 -538 1644
-69 -538 1645
-64 -541 1655
-60 -547 1671
-55 -542 1657
-50 -545 1665
-45 -544 1664
-39 -538 1646
-35 -542 1656
-30 -540 1650
-25 -544 1662
-20 -539 1647
-15 -536 1639
-10 -546 1668
-5 -541 1653
0 -544 1662
4 -543 1659
9 -543 1660
14 -541 1652
19 -543 1658
24 -541 1652
29 -542 1654
34 -542 1656
38 -540 1648
43 -541 1651
48 -542 1654
53 -540 1648
58 -542 1653
63 -541 1649
68 -538 1640
73 -541 1649
78 -538 1640
83 -539 1643
88 -543 1656
93 -541 1647
98 -541 1647
102 -540 1644
107 -538 1638
112 -540 1645
117 -540 1645
123 -542 1651
127 -542 1648
132 -542 1648
137 -539 1640
142 -541 1644
149 -548 1665
151 -539 1638
157 -542 1645
161 -539 1638
166 -538 1632
171 -539 1637
176 -540 1639
181 -540 1637
184 -536 1624
190 -539 1632
196 -542 1641
200 -538 1630
206 -541 1637
210 -538 1627
217 -543 1642
220 -540 1631
225 -539 1628
229 -537 1623
236 -541 1634
241 -543 1638
245 -540 1630
251 -543 1637
255 -540 1628
258 -537 1617
266 -542 1633
269 -540 1625
276 -544 1636
278 -538 1619
284 -540 1623
288 -539 1619
294 -540 1622
298 -538 1614
305 -542 1625
310 -542 1625
316 -545 1632
320 -542 1624
323 -540 1617
328 -540 1615
332 -538 1608
337 -538 1608
341 -537 1604
346 -537 1603
354 -542 1617
357 -539 1605
362 -539 1606
369 -542 1614
370 -536 1595
375 -537 1596
381 -539 1601
389 -543 1612
392 -540 1601
397 -540 1601
400 -539 1595
408 -542 1606
414 -544 1610
415 -538 1590
419 -538 1587
428 -542 1600
428 -536 1581
436 -540 1591
439 -538 1585
446 -540 1590
451 -541 1589
455 -540 1586
463 -544 1595
466 -541 1587
469 -539 1578
474 -539 1578
484 -545 1594
486 -542 1584
494 -545 1590
491 -537 1565
501 -542 1579
503 -539 1569
512 -543 1579
515 -541 1573
520 -542 1572
521 -538 1559
532 -544 1575
533 -539 1561
538 -540 1561
547 -544 1572
546 -539 1554
555 -542 1563
557 -540 1554
563 -541 1555
568 -541 1554
572 -540 1549
579 -542 1555
584 -542 1551
585 -538 1539
595 -543 1551
599 -542 1548
602 -541 1542
607 -541 1540
616 -545 1549
617 -541 1536
623 -542 1538
624 -538 1525
631 -540 1529
638 -542 1533
647 -546 1540
648 -542 1529
652 -541 1525
652 -538 1513
660 -540 1517
670 -545 1528
676 -545 1528
682 -546 1528
680 -541 1511
691 -546 1523
693 -544 1514
695 -541 1506
698 -540 1500
709 -545 1511
708 -540 1497
716 -543 1501
717 -540 1490
725 -542 1495
724 -538 1481
730 -538 1480
739 -542 1487
743 -540 1481
751 -543 1486
749 -538 1471
758 -541 1476
762 -540 1472
764 -538 1464
769 -539 1463
768 -535 1450
778 -538 1457
776 -534 1442
780 -533 1437
769 -522 1407
772 -521 1401
772 -518 1389
770 -513 1375
769 -510 1363
767 -505 1348
768 -503 1340
766 -499 1327
768 -497 1320
761 -490 1299
764 -489 1293
-875 -528 1434
-870 -528 1437
-868 -530 1444
-864 -530 1447
-846 -522 1429
-852 -528 1448
-841 -525 1442
-839 -527 1448
-833 -526 1450
-835 -530 1463
-829 -530 1465
-819 -527 1459
-816 -528 1463
-810 -527 1464
-805 -527 1467
-805 -531 1478
-799 -530 1477
-789 -527 1472
-786 -528 1477
-785 -531 1487
-773 -525 1475
-776 -531 1493
-772 -532 1497
-766 -531 1497
-760 -530 1497
-753 -529 1495
-752 -532 1505
-746 -531 1505
-749 -537 1524
-739 -533 1516
-730 -531 1510
-720 -526 1501
-716 -527 1505
-724 -537 1534
-710 -530 1517
-711 -534 1531
-702 -531 1525
-699 -534 1533
-691 -531 1527
-690 -534 1538
-689 -537 1549
-675 -530 1531
-675 -534 1543
-674 -538 1555
-663 -533 1543
-662 -535 1553
-651 -531 1541
-647 -532 1546
-647 -535 1558
-643 -537 1563
-638 -537 1565
-631 -535 1562
-624 -533 1558
-618 -532 1557
-612 -532 1557
-610 -534 1565
-607 -536 1573
-602 -536 1574
-595 -534 1570
-593 -537 1580
-586 -535 1577
-581 -535 1578
-580 -538 1589
-569 -533 1574
-566 -535 1581
-558 -532 1575
-556 -535 1586
-552 -536 1589
-544 -533 1582
-541 -535 1589
-537 -536 1593
-530 -533 1587
-529 -538 1602
-522 -536 1596
-514 -533 1590
-513 -536 1601
-506 -535 1597
-500 -533 1595
-500 -539 1614
-491 -535 1601
-489 -538 1613
-482 -535 1605
-478 -537 1611
-472 -536 1608
-468 -536 1612
-461 -534 1606
-456 -535 1609
-456 -540 1627
-448 -537 1619
-445 -539 1626
-441 -540 1630
-435 -539 1628
-425 -534 1612
-424 -539 1628
-418 -537 1623
-414 -538 1628
-411 -541 1639
-402 -535 1621
-398 -537 1628
-393 -537 1627
-386 -535 1623
-384 -538 1633
-376 -535 1624
-371 -534 1623
-368 -537 1632
-362 -536 1630
-358 -537 1635
-355 -539 1642
-347 -536 1633
-345 -539 1644
-339 -539 1643
-332 -536 1635
-329 -538 1641
-325 -540 1649
-318 -536 1638
-316 -543 1658
-310 -541 1654
-305 -540 1650
-299 -539 1649
-294 -539 1651
-290 -540 1653
-283 -537 1644
-279 -538 1648
-275 -540 1655
-268 -537 1645
-265 -540 1655
-259 -538 1650
-253 -536 1646
-247 -535 1642
-244 -539 1655
-239 -538 1653
-232 -534 1640
-230 -540 1660
-224 -539 1658
-218 -535 1646
-214 -538 1656
-209 -538 1654
-204 -540 1660
-200 -541 1665
-195 -542 1668
-189 -538 1656
-183 -536 1649
-178 -535 1649
-173 -534 1647
-164 -521 1606
-144 -474 1462
-133 -452 1392
-131 -459 1414
-125 -453 1396
-120 -449 1385
-116 -451 1391
-111 -445 1374
-108 -450 1389
-104 -451 1391
-100 -452 1396
-96 -455 1404
-93 -458 1415
-89 -463 1429
-85 -464 1433
-83 -473 1461
-83 -500 1545
-82 -524 1617
-79 -535 1651
-74 -536 1656
-70 -539 1664
-65 -542 1673
-60 -540 1667
-55 -544 1678
-50 -542 1672
-45 -543 1678
-40 -541 1670
-35 -540 1668
-30 -538 1662
-25 -542 1673
-20 -540 1666
-15 -541 1669
-10 -539 1663
-5 -544 1679
0 -540 1668
4 -539 1664
9 -544 1678
14 -542 1673
19 -538 1659
24 -542 1673
29 -543 1676
34 -542 1673
39 -541 1669
44 -545 1679
49 -541 1669
54 -543 1673
59 -541 1668
63 -536 1652
69 -540 1665
74 -541 1666
79 -542 1670
84 -543 1671
89 -542 1669
94 -542 1668
99 -541 1664
104 -541 1664
109 -541 1665
113 -539 1659
118 -540 1660
123 -541 1662
128 -539 1655
134 -542 1664
139 -543 1668
143 -540 1658
149 -542 1664
153 -540 1658
158 -541 1659
163 -539 1654
168 -541 1657
174 -545 1670
179 -543 1664
183 -540 1654
189 -544 1665
192 -538 1646
198 -541 1655
202 -539 1648
207 -539 1647
212 -539 1649
218 -542 1655
222 -539 1646
226 -538 1641
233 -541 1651
236 -536 1635
241 -538 1641
247 -540 1645
252 -540 1644
257 -541 1646
262 -541 1645
266 -538 1637
270 -536 1629
277 -541 1643
281 -539 1636
284 -535 1625
294 -544 1650
298 -542 1644
301 -539 1633
306 -540 1635
311 -539 1632
318 -543 1643
320 -538 1627
326 -540 1632
332 -541 1634
335 -539 1627
342 -542 1636
346 -540 1628
351 -540 1629
354 -538 1620
363 -543 1634
367 -542 1629
372 -542 1629
376 -541 1625
383 -543 1631
384 -538 1614
390 -539 1617
397 -542 1624
400 -540 1616
405 -539 1613
409 -539 1611
418 -544 1624
422 -543 1619
428 -544 1622
429 -539 1606
436 -542 1615
441 -541 1610
445 -541 1608
452 -543 1613
456 -542 1608
462 -543 1610
466 -542 1605
473 -544 1612
474 -540 1598
484 -545 1612
487 -543 1605
488 -539 1590
493 -540 1591
499 -540 1592
507 -543 1599
507 -539 1584
518 -545 1601
517 -539 1582
526 -543 1592
529 -541 1584
533 -540 1580
541 -543 1587
548 -545 1591
555 -547 1595
559 -546 1592
557 -539 1570
562 -540 1570
567 -540 1568
577 -544 1580
578 -541 1568
584 -541 1567
591 -544 1572
596 -544 1572
601 -544 1569
602 -540 1556
605 -538 1550
614 -542 1560
619 -542 1556
623 -541 1553
627 -540 1548
635 -543 1555
638 -541 1547
644 -542 1548
646 -540 1539
653 -542 1544
661 -544 1548
660 -540 1533
671 -545 1545
673 -542 1536
676 -541 1530
681 -540 1527
686 -541 1526
692 -542 1527
694 -539 1517
700 -540 1518
710 -544 1527
712 -541 1518
719 -543 1521
724 -543 1518
726 -541 1510
732 -542 1509
738 -543 1511
745 -544 1511
739 -537 1489
749 -540 1497
754 -541 1495
760 -541 1494
762 -539 1485
767 -539 1484
772 -539 1481
782 -543 1489
776 -535 1466
774 -531 1451
777 -529 1445
773 -524 1427
769 -517 1407
765 -512 1390
766 -509 1381
765 -505 1368
767 -504 1362
767 -501 1351
764 -496 1334
768 -495 1331
766 -491 1318
763 -486 1302
763 -484 1293
-883 -527 1448
-881 -529 1455
-879 -531 1464
-870 -528 1459
-866 -529 1464
-857 -527 1458
-855 -528 1466
-854 -531 1477
-847 -530 1476
-846 -532 1484
-835 -529 1477
-835 -532 1488
-828 -531 1487
-819 -528 1483
-815 -529 1487
-809 -528 1487
-804 -528 1490
-804 -531 1500
-798 -531 1501
-794 -531 1505
-783 -528 1497
-788 -534 1517
-779 -532 1512
-774 -532 1514
-765 -529 1510
-764 -532 1520
-755 -529 1513
-751 -530 1518
-747 -531 1522
-737 -527 1514
-738 -531 1527
-734 -532 1533
-724 -528 1523
-724 -532 1535
-716 -530 1532
-715 -533 1542
-711 -534 1548
-706 -534 1549
-701 -534 1552
-700 -537 1562
-692 -534 1556
-687 -534 1558
-685 -537 1568
-670 -529 1546
-669 -532 1558
-663 -531 1556
-655 -529 1552
-655 -533 1567
-649 -532 1564
-639 -528 1555
-639 -532 1569
-631 -530 1563
-632 -535 1580
-625 -533 1576
-620 -533 1578
-613 -531 1574
-610 -534 1583
-605 -533 1582
-602 -535 1590
-598 -536 1594
-587 -531 1581
-587 -535 1595
-582 -535 1596
-575 -534 1593
-568 -532 1590
-565 -534 1597
-563 -536 1606
-555 -534 1600
-553 -537 1609
-545 -534 1602
-541 -534 1605
-537 -536 1611
-535 -539 1620
-530 -539 1622
-523 -537 1617
-517 -536 1615
-511 -535 1616
-500 -529 1599
-499 -533 1610
-498 -538 1626
-490 -534 1617
-487 -537 1626
-480 -534 1619
-476 -535 1624
-471 -536 1627
-468 -538 1633
-465 -540 1640
-454 -534 1624
-452 -537 1634
-443 -532 1621
-441 -536 1632
-438 -538 1642
-433 -538 1642
-428 -539 1645
-422 -537 1642
-414 -534 1632
-415 -541 1656
-407 -537 1645
-403 -539 1652
-395 -535 1638
-392 -538 1650
-384 -534 1636
-384 -540 1657
-377 -538 1651
-373 -540 1658
-365 -535 1646
-361 -537 1652
-356 -537 1652
-352 -538 1655
-348 -539 1660
-342 -538 1657
-333 -533 1641
-330 -535 1648
-322 -530 1634
-321 -538 1659
-318 -540 1669
-312 -539 1664
-306 -537 1659
-302 -539 1666
-295 -536 1657
-290 -535 1656
-285 -536 1657
-282 -539 1667
-276 -538 1665
-271 -537 1664
-266 -538 1667
-262 -540 1674
-257 -539 1672
-251 -538 1669
-245 -535 1659
-238 -531 1649
-235 -535 1661
-232 -541 1681
-226 -539 1675
-221 -538 1672
-216 -539 1674
-211 -539 1674
-206 -539 1674
-201 -539 1677
-196 -538 1673
-191 -538 1673
-186 -538 1674
-180 -538 1673
-174 -532 1655
-166 -522 1626
-151 -492 1531
-138 -465 1448
-131 -455 1417
-126 -450 1403
-120 -447 1394
-116 -447 1391
-114 -453 1412
-109 -453 1412
-105 -453 1411
-101 -453 1411
-98 -459 1431
-93 -458 1428
-90 -461 1438
-87 -468 1459
-84 -477 1488
-82 -490 1526
-83 -526 1640
-79 -528 1646
-75 -537 1675
-71 -543 1693
-66 -542 1692
-61 -541 1688
-56 -544 1697
-50 -542 1689
-46 -545 1701
-40 -542 1691
-35 -541 1686
-30 -540 1684
-25 -544 1695
-20 -542 1689
-15 -542 1689
-10 -544 1697
-5 -542 1689
0 -545 1700
4 -541 1686
9 -543 1692
14 -543 1691
19 -542 1688
24 -544 1694
29 -543 1692
34 -539 1679
40 -546 1702
44 -543 1692
49 -541 1686
54 -542 1687
59 -542 1688
64 -541 1683
69 -541 1683
74 -541 1684
79 -538 1673
85 -544 1692
90 -543 1689
94 -541 1681
99 -539 1676
105 -545 1693
110 -545 1693
115 -541 1681
120 -542 1683
125 -541 1681
129 -537 1668
134 -538 1670
139 -540 1676
145 -541 1678
148 -537 1664
154 -537 1665
159 -539 1669
165 -542 1679
169 -539 1669
174 -538 1667
180 -541 1676
184 -540 1670
189 -538 1663
194 -539 1666
199 -538 1663
205 -542 1674
210 -542 1673
214 -539 1665
220 -540 1667
223 -537 1655
229 -538 1660
235 -540 1666
240 -540 1664
245 -541 1665
249 -540 1662
254 -539 1660
260 -540 1662
265 -540 1661
270 -542 1665
274 -538 1653
279 -539 1654
286 -542 1664
290 -542 1662
293 -538 1650
300 -540 1656
304 -539 1650
309 -540 1652
315 -540 1653
319 -539 1648
323 -537 1642
329 -540 1649
332 -537 1639
341 -543 1657
346 -543 1656
347 -536 1632
354 -539 1641
360 -541 1645
364 -540 1643
367 -537 1632
377 -545 1654
377 -537 1629
385 -541 1642
392 -544 1648
394 -540 1635
403 -546 1652
405 -541 1635
407 -537 1623
416 -542 1637
421 -543 1639
421 -537 1619
431 -543 1636
433 -540 1624
438 -538 1620
445 -541 1627
450 -542 1627
453 -540 1619
462 -544 1630
463 -539 1616
469 -541 1619
474 -541 1618
479 -540 1615
484 -541 1616
488 -540 1611
500 -547 1630
497 -539 1604
506 -543 1615
508 -539 1604
514 -541 1607
518 -540 1603
527 -544 1613
531 -543 1608
531 -538 1592
540 -542 1601
543 -540 1596
552 -544 1606
557 -544 1602
558 -540 1589
565 -542 1595
569 -541 1589
574 -541 1589
581 -543 1591
585 -542 1588
591 -543 1588
595 -542 1584
599 -541 1581
604 -541 1578
612 -544 1584
613 -540 1572
618 -541 1572
625 -542 1574
631 -543 1575
632 -539 1562
641 -543 1571
645 -542 1567
644 -537 1549
653 -541 1557
663 -545 1569
672 -548 1576
670 -543 1558
674 -542 1553
681 -543 1555
679 -538 1537
689 -542 1548
697 -544 1552
695 -539 1535
707 -544 1547
709 -542 1540
714 -542 1536
717 -540 1530
726 -544 1538
732 -544 1537
732 -541 1524
741 -544 1530
743 -542 1522
745 -539 1513
754 -542 1520
757 -541 1514
758 -538 1504
760 -536 1495
769 -539 1501
778 -542 1507
780 -540 1498
775 -533 1477
779 -533 1474
769 -522 1443
772 -521 1437
767 -514 1416
768 -512 1406
767 -508 1395
768 -506 1385
768 -502 1374
768 -500 1365
766 -496 1351
770 -495 1346
763 -488 1325
766 -486 1319
762 -481 1302
768 -482 1303
-891 -527 1463
-888 -528 1469
-877 -525 1461
-881 -530 1479
-868 -525 1468
-867 -528 1479
-865 -530 1485
-858 -529 1485
-852 -528 1485
-850 -530 1494
-839 -526 1485
-836 -527 1491
-838 -532 1506
-831 -531 1505
-827 -531 1509
-818 -529 1506
-814 -530 1510
-807 -528 1508
-806 -531 1519
-804 -533 1525
-796 -531 1522
-788 -530 1520
-786 -532 1528
-782 -532 1532
-776 -532 1533
-774 -534 1541
-768 -533 1541
-762 -533 1542
-760 -535 1550
-753 -533 1547
-750 -535 1554
-738 -530 1542
-738 -534 1555
-734 -535 1560
-723 -530 1548
-716 -528 1545
-718 -534 1564
-714 -535 1568
-705 -532 1562
-704 -534 1571
-695 -532 1565
-690 -532 1568
-691 -536 1583
-682 -534 1576
-677 -533 1578
-672 -533 1580
-664 -531 1574
-664 -535 1589
-654 -531 1579
-652 -534 1588
-647 -534 1590
-641 -533 1589
-634 -531 1585
-634 -536 1600
-627 -534 1598
-620 -533 1596
-615 -533 1596
-611 -534 1600
-610 -537 1613
-605 -537 1614
-595 -533 1603
-589 -532 1602
-591 -538 1623
-577 -530 1600
-577 -536 1617
-574 -537 1623
-567 -535 1619
-558 -532 1611
-552 -531 1608
-554 -537 1629
-548 -537 1630
-543 -536 1629
-538 -537 1633
-527 -531 1615
-524 -534 1624
-523 -538 1638
-517 -536 1634
-510 -535 1632
-509 -538 1644
-502 -536 1639
-496 -536 1638
-493 -538 1646
-484 -534 1635
-484 -539 1651
-477 -537 1649
-471 -536 1646
-466 -536 1646
-462 -538 1652
-457 -538 1653
-448 -534 1642
-451 -543 1671
-439 -535 1648
-436 -536 1654
-428 -534 1646
-426 -537 1659
-423 -540 1667
-418 -540 1668
-409 -535 1653
-406 -538 1664
-399 -535 1656
-394 -536 1660
-387 -533 1652
-386 -538 1668
-380 -537 1665
-375 -537 1666
-370 -538 1669
-367 -541 1680
-358 -534 1661
-351 -532 1655
-351 -539 1677
-346 -539 1677
-339 -537 1672
-333 -535 1667
-326 -532 1659
-326 -540 1684
-319 -538 1677
-315 -539 1681
-308 -535 1671
-305 -539 1682
-299 -537 1678
-293 -537 1677
-288 -536 1675
-284 -538 1681
-280 -541 1691
-274 -539 1686
-269 -538 1685
-263 -537 1682
-258 -537 1681
-255 -541 1695
-248 -538 1687
-243 -537 1684
-238 -538 1688
-233 -539 1689
-228 -538 1686
-222 -537 1684
-217 -536 1683
-213 -538 1688
-209 -541 1699
-201 -535 1680
-197 -538 1689
-193 -539 1695
-187 -538 1690
-183 -540 1698
-178 -539 1694
-169 -529 1663
-158 -509 1600
-139 -463 1455
-133 -458 1440
-127 -452 1423
-123 -451 1419
-117 -445 1400
-112 -444 1397
-110 -452 1423
-105 -450 1417
-102 -455 1432
-98 -455 1433
-94 -458 1443
-91 -463 1457
-87 -466 1468
-84 -475 1495
-82 -486 1531
-82 -513 1615
-80 -532 1675
-76 -539 1698
-71 -542 1706
-66 -542 1707
-61 -544 1712
-56 -543 1711
-51 -542 1709
-46 -541 1705
-41 -543 1711
-36 -542 1707
-31 -543 1712
-25 -537 1693
-20 -541 1703
-15 -540 1702
-10 -541 1703
-5 -542 1706
0 -541 1705
4 -544 1713
9 -543 1710
14 -542 1705
19 -542 1706
24 -542 1707
30 -544 1713
35 -542 1705
40 -540 1700
45 -542 1705
49 -537 1691
55 -544 1710
60 -544 1711
65 -542 1703
69 -536 1684
75 -543 1706
81 -544 1710
84 -535 1681
91 -543 1707
96 -542 1702
101 -542 1702
106 -543 1704
111 -542 1701
116 -541 1698
122 -545 1710
125 -539 1691
130 -538 1687
136 -541 1697
141 -539 1690
145 -538 1685
152 -543 1702
156 -541 1695
161 -540 1692
166 -541 1693
171 -539 1686
176 -539 1687
182 -543 1699
188 -545 1702
191 -541 1689
196 -540 1687
201 -539 1684
205 -537 1675
212 -541 1687
217 -542 1689
221 -539 1680
227 -541 1686
231 -537 1674
237 -542 1686
242 -540 1682
248 -542 1687
251 -539 1676
256 -539 1675
262 -540 1679
266 -539 1674
271 -538 1669
277 -539 1673
281 -537 1666
287 -540 1673
292 -540 1674
300 -544 1686
301 -538 1665
306 -537 1662
312 -540 1670
319 -543 1678
321 -539 1663
329 -542 1674
333 -542 1670
337 -539 1662
344 -543 1672
346 -538 1657
351 -538 1656
359 -543 1669
365 -544 1671
366 -538 1653
376 -544 1671
380 -543 1665
385 -543 1664
387 -538 1650
393 -540 1653
399 -542 1657
400 -536 1638
409 -542 1655
415 -543 1657
417 -539 1644
424 -541 1649
429 -541 1649
432 -539 1641
439 -542 1647
446 -543 1652
448 -540 1640
455 -542 1645
459 -542 1642
465 -543 1645
469 -541 1638
473 -540 1633
477 -539 1629
486 -544 1642
490 -542 1635
494 -541 1629
499 -541 1630
501 -538 1617
509 -541 1627
516 -543 1632
517 -539 1618
525 -542 1626
529 -541 1620
533 -540 1617
540 -542 1619
542 -539 1610
552 -543 1621
556 -543 1619
557 -539 1603
562 -539 1602
573 -544 1617
576 -543 1612
583 -544 1614
587 -543 1609
590 -542 1604
598 -544 1609
603 -545 1608
607 -544 1604
609 -541 1593
613 -540 1590
620 -541 1591
628 -544 1597
634 -545 1599
636 -543 1590
646 -547 1600
647 -544 1588
650 -541 1580
648 -536 1561
666 -546 1590
664 -541 1572
669 -541 1571
677 -543 1575
683 -544 1575
687 -543 1571
692 -543 1570
701 -547 1577
691 -535 1540
706 -542 1559
710 -541 1555
714 -541 1552
721 -543 1555
724 -541 1548
730 -541 1547
732 -540 1539
738 -540 1539
745 -542 1541
753 -544 1543
753 -540 1533
758 -540 1529
761 -539 1523
761 -535 1510
769 -537 1514
774 -537 1512
777 -536 1506
777 -532 1493
772 -526 1473
767 -519 1452
773 -520 1452
771 -515 1436
773 -514 1430
771 -509 1415
766 -503 1394
765 -499 1381
766 -497 1373
765 -493 1361
767 -491 1353
763 -486 1336
765 -485 1330
767 -483 1321
769 -481 1316
767 -477 1302
-898 -527 1477
-888 -524 1471
-893 -529 1490
-890 -531 1497
-881 -528 1493
-879 -530 1500
-870 -528 1496
-865 -528 1499
-863 -530 1507
-859 -531 1512
-855 -532 1516
-847 -530 1513
-839 -528 1510
-838 -530 1519
-828 -527 1513
-830 -531 1528
-820 -529 1523
-817 -530 1529
-815 -532 1536
-807 -530 1534
-799 -528 1530
-792 -527 1530
-796 -533 1549
-790 -533 1550
-783 -531 1548
-775 -529 1545
-774 -532 1554
-762 -528 1544
-764 -532 1559
-760 -533 1563
-751 -530 1558
-751 -534 1571
-739 -529 1559
-734 -529 1561
-734 -533 1575
-731 -534 1580
-721 -531 1571
-720 -534 1584
-714 -533 1582
-711 -535 1589
-704 -534 1588
-692 -528 1573
-689 -530 1581
-683 -529 1580
-686 -535 1601
-681 -536 1604
-666 -528 1581
-663 -529 1587
-666 -536 1610
-658 -534 1605
-649 -531 1597
-649 -534 1610
-640 -532 1603
-636 -532 1607
-633 -534 1614
-624 -531 1606
-622 -534 1617
-615 -532 1613
-610 -532 1614
-607 -534 1621
-604 -536 1628
-598 -535 1629
-593 -536 1631
-587 -534 1628
-582 -535 1631
-572 -530 1619
-574 -537 1641
-569 -537 1642
-561 -535 1637
-559 -537 1646
-551 -535 1640
-545 -534 1638
-542 -535 1645
-538 -537 1649
-528 -532 1638
-528 -537 1653
-519 -534 1644
-514 -533 1645
-511 -535 1653
-507 -537 1658
-503 -539 1664
-495 -535 1654
-489 -534 1654
-484 -534 1654
-480 -536 1660
-479 -540 1674
-470 -536 1663
-464 -535 1662
-458 -534 1660
-456 -537 1670
-453 -540 1681
-445 -537 1672
-442 -540 1682
-436 -538 1676
-429 -536 1672
-426 -539 1682
-420 -537 1678
-416 -539 1685
-412 -540 1688
-404 -537 1681
-398 -536 1677
-396 -540 1690
-390 -538 1686
-383 -537 1682
-375 -533 1670
-372 -535 1677
-367 -535 1678
-366 -541 1698
-356 -535 1680
-352 -536 1685
-348 -537 1690
-343 -538 1693
-336 -534 1682
-333 -537 1692
-328 -538 1694
-323 -538 1695
-312 -529 1668
-314 -541 1705
-308 -540 1704
-301 -536 1693
-297 -538 1699
-293 -540 1706
-286 -537 1697
-281 -536 1695
-277 -539 1705
-272 -539 1703
-266 -538 1703
-261 -538 1702
-256 -538 1703
-250 -537 1701
-246 -539 1709
-241 -539 1706
-236 -539 1707
-230 -537 1704
-226 -541 1714
-220 -538 1705
-215 -538 1708
-209 -535 1698
-205 -538 1707
-200 -539 1711
-196 -542 1721
-190 -540 1715
-185 -539 1713
-180 -542 1720
-172 -531 1688
-164 -524 1665
-144 -476 1513
-134 -456 1450
-129 -454 1444
-125 -454 1444
-120 -452 1439
-115 -449 1427
-111 -450 1431
-107 -451 1435
-103 -453 1440
-99 -455 1447
-95 -457 1456
-91 -461 1466
-88 -463 1474
-85 -471 1499
-83 -487 1549
-83 -514 1636
-80 -527 1677
-77 -538 1711
-72 -542 1724
-67 -544 1731
-62 -543 1727
-57 -542 1726
-52 -545 1734
-46 -539 1716
-41 -541 1723
-36 -546 1738
-31 -542 1724
-26 -543 1728
-21 -543 1728
-16 -547 1741
-10 -541 1721
-5 -540 1719
0 -543 1729
4 -543 1727
9 -542 1725
14 -541 1722
20 -542 1724
24 -538 1711
30 -544 1729
35 -538 1710
40 -538 1709
45 -540 1715
50 -543 1726
55 -541 1720
61 -543 1725
66 -544 1728
71 -540 1714
76 -543 1726
81 -541 1718
86 -538 1709
91 -541 1718
96 -539 1711
101 -540 1712
106 -538 1707
111 -539 1708
117 -542 1720
122 -541 1716
127 -542 1717
133 -543 1719
137 -542 1715
143 -543 1719
148 -543 1717
152 -540 1710
157 -540 1708
163 -542 1714
167 -538 1701
173 -542 1712
178 -540 1705
182 -537 1697
188 -541 1708
192 -538 1699
200 -544 1718
203 -538 1697
209 -541 1707
212 -537 1694
220 -544 1713
225 -543 1710
229 -541 1702
235 -543 1708
240 -543 1707
243 -538 1691
248 -537 1689
254 -539 1692
259 -540 1697
265 -541 1699
269 -539 1691
277 -546 1711
281 -543 1701
285 -540 1691
288 -537 1683
295 -540 1691
300 -541 1691
305 -540 1689
309 -538 1681
315 -540 1686
321 -541 1688
327 -543 1695
332 -543 1692
336 -541 1685
341 -540 1682
347 -542 1687
351 -540 1680
355 -539 1674
360 -538 1673
364 -538 1670
371 -541 1678
373 -535 1660
383 -542 1681
389 -544 1686
391 -540 1671
398 -542 1677
405 -544 1683
408 -542 1673
410 -538 1660
418 -542 1672
425 -545 1679
427 -540 1663
435 -544 1673
437 -540 1661
442 -541 1661
447 -540 1658
449 -536 1645
459 -542 1663
460 -537 1646
468 -541 1657
471 -539 1648
478 -541 1653
485 -542 1656
489 -542 1654
492 -540 1645
498 -541 1647
505 -542 1650
507 -539 1639
515 -542 1647
518 -540 1640
524 -541 1640
530 -542 1642
536 -542 1642
537 -539 1628
545 -541 1635
549 -541 1632
554 -540 1629
565 -547 1647
565 -542 1629
570 -542 1628
578 -544 1634
581 -542 1627
586 -542 1623
592 -543 1626
596 -542 1621
598 -540 1611
607 -543 1619
608 -540 1608
617 -543 1615
619 -540 1605
627 -542 1610
631 -542 1608
642 -546 1619
642 -542 1605
648 -543 1606
648 -539 1591
658 -543 1601
665 -545 1605
669 -544 1600
677 -546 1604
675 -540 1585
679 -540 1582
690 -544 1592
694 -544 1588
696 -541 1579
704 -543 1583
709 -544 1583
717 -545 1585
722 -546 1584
724 -544 1575
725 -541 1565
730 -540 1562
736 -541 1562
745 -544 1567
743 -539 1550
748 -539 1548
756 -541 1552
757 -538 1542
765 -540 1545
767 -538 1537
771 -537 1532
776 -537 1530
779 -536 1523
781 -534 1515
775 -526 1491
770 -520 1471
770 -517 1459
772 -515 1451
764 -506 1425
764 -503 1414
764 -500 1403
768 -500 1400
764 -494 1382
769 -494 1380
768 -490 1366
769 -488 1359
