VERSION 0.7
FIELDS x y z
SIZE 4 4 4
TYPE I I I
COUNT 1 1 1
WIDTH 3265
HEIGHT 1
VIEWPOINT 0.0 0.0 0.0 1.0 0.0 0.0 0.0
POINTS 3265
DATA ascii
451 -545 2422
462 -549 2439
465 -544 2414
474 -546 2425
478 -543 2408
489 -547 2426
495 -546 2417
503 -546 2419
507 -543 2404
515 -544 2407
523 -545 2409
531 -546 2412
539 -547 2413
543 -543 2398
551 -544 2401
560 -547 2409
567 -547 2408
573 -545 2399
581 -546 2400
586 -544 2392
594 -545 2395
599 -543 2381
611 -547 2400
619 -549 2404
624 -547 2394
634 -549 2401
640 -548 2395
644 -545 2383
654 -547 2390
656 -544 2372
668 -547 2385
670 -544 2368
677 -543 2364
686 -545 2370
696 -547 2378
703 -547 2375
708 -546 2367
712 -543 2353
721 -544 2358
727 -543 2351
738 -547 2363
742 -544 2349
753 -547 2360
756 -544 2344
760 -542 2334
767 -542 2331
772 -540 2322
776 -538 2311
772 -530 2276
770 -524 2248
768 -519 2221
766 -513 2194
767 -509 2175
766 -504 2153
765 -499 2127
765 -495 2107
763 -489 2082
764 -486 2065
767 -483 2054
766 -479 2033
766 -475 2014
763 -470 1989
768 -469 1983
773 -468 1977
771 -464 1956
779 -464 1957
777 -460 1936
778 -457 1920
780 -455 1909
785 -454 1904
783 -450 1884
798 -455 1903
818 -463 1934
842 -473 1974
888 -495 2064
932 -516 2150
953 -524 2179
982 -536 2226
996 -540 2240
1001 -539 2232
1014 -542 2243
1015 -539 2227
1021 -539 2223
1031 -541 2226
1037 -540 2220
1041 -538 2211
1050 -539 2212
1061 -541 2217
1070 -543 2219
1079 -543 2218
1085 -543 2213
1085 -539 2195
1095 -541 2199
1101 -541 2194
1114 -544 2203
1106 -536 2170
1116 -537 2171
1128 -540 2179
1132 -539 2169
1136 -537 2160
1141 -536 2152
1158 -541 2169
1159 -538 2153
1176 -543 2170
1176 -540 2153
1179 -538 2142
1191 -540 2147
1203 -543 2153
1204 -540 2138
1221 -544 2152
1217 -539 2128
-1278 -526 2163
-1263 -523 2154
-1268 -528 2179
-1258 -527 2178
-1239 -522 2161
-1230 -522 2162
-1243 -530 2201
-1224 -525 2184
-1228 -530 2206
-1216 -528 2202
-1196 -522 2181
-1207 -530 2219
-1195 -528 2213
-1194 -531 2229
-1172 -525 2205
-1184 -533 2244
-1166 -528 2227
-1152 -525 2216
-1150 -528 2230
-1155 -533 2256
-1145 -532 2254
-1134 -531 2251
-1121 -528 2241
-1115 -529 2249
-1109 -529 2254
-1100 -528 2252
-1096 -530 2262
-1088 -530 2264
-1081 -530 2268
-1072 -529 2266
-1072 -532 2284
-1059 -530 2276
-1052 -530 2278
-1053 -534 2301
-1043 -533 2298
-1041 -535 2311
-1027 -532 2299
-1020 -532 2302
-1015 -533 2309
-1009 -534 2315
-999 -533 2313
-993 -534 2319
-974 -527 2293
-984 -537 2337
-974 -535 2333
-961 -532 2322
-961 -536 2340
-957 -538 2352
-933 -528 2312
-931 -531 2329
-934 -537 2356
-912 -529 2323
-911 -532 2339
-904 -533 2343
-905 -538 2367
-894 -536 2360
-884 -534 2354
-881 -537 2369
-871 -535 2364
-860 -532 2354
-861 -537 2379
-850 -535 2372
-838 -533 2361
-838 -537 2384
-825 -534 2370
-823 -537 2386
-814 -536 2384
-803 -533 2374
-805 -540 2404
-796 -539 2401
-789 -539 2404
-784 -541 2414
-772 -537 2401
-761 -535 2390
-758 -538 2406
-755 -541 2420
-743 -537 2408
-742 -542 2430
-729 -538 2413
-718 -535 2403
-712 -536 2409
-706 -538 2417
-701 -539 2425
-697 -542 2438
-687 -540 2429
-676 -537 2420
-670 -538 2424
-664 -539 2432
-657 -539 2433
-650 -539 2435
-643 -540 2438
-633 -538 2432
-629 -541 2444
-626 -545 2465
-617 -543 2458
-606 -539 2443
-599 -540 2447
-598 -546 2474
-584 -540 2447
-581 -544 2469
-567 -538 2441
-563 -541 2455
-558 -544 2470
-548 -541 2458
-544 -544 2473
-533 -540 2457
-524 -538 2449
-519 -541 2464
-511 -541 2463
-505 -542 2470
-496 -540 2462
-490 -542 2471
-481 -540 2462
-477 -544 2482
-467 -540 2464
-463 -544 2485
-454 -542 2474
-449 -545 2491
-441 -544 2487
-433 -544 2485
-424 -542 2478
-416 -541 2472
-409 -541 2476
-402 -542 2480
-395 -542 2480
-390 -545 2495
-379 -540 2475
-374 -543 2487
-366 -543 2486
-360 -545 2497
-352 -543 2490
-346 -546 2503
-336 -541 2483
-328 -540 2479
-323 -544 2496
-318 -548 2513
-309 -546 2506
-299 -542 2488
-292 -542 2490
-285 -541 2486
-278 -542 2491
-271 -543 2496
-265 -546 2509
-257 -544 2501
-250 -545 2504
-244 -549 2520
-236 -548 2516
-227 -543 2495
-220 -545 2507
-213 -545 2503
-207 -550 2526
-199 -548 2520
-192 -549 2523
-182 -541 2487
-174 -539 2479
-160 -517 2375
-139 -471 2165
-129 -459 2110
-119 -446 2051
-115 -451 2074
-108 -449 2064
-103 -453 2082
-98 -458 2105
-92 -459 2110
-88 -470 2162
-84 -482 2216
-82 -507 2332
-78 -529 2433
-73 -542 2492
-66 -547 2517
-59 -551 2532
-52 -551 2532
-44 -547 2516
-37 -551 2535
-30 -550 2529
-22 -554 2547
-15 -552 2538
-7 -549 2525
0 -550 2525
6 -549 2522
14 -553 2539
21 -550 2527
28 -549 2519
36 -550 2526
43 -545 2502
51 -550 2523
58 -550 2525
65 -547 2512
73 -550 2523
80 -552 2531
88 -551 2526
95 -553 2535
102 -550 2524
109 -547 2507
117 -550 2523
124 -549 2516
132 -552 2527
139 -549 2516
146 -548 2508
153 -547 2504
161 -550 2518
167 -546 2501
175 -546 2499
184 -551 2521
189 -545 2494
198 -550 2515
205 -549 2511
211 -545 2489
219 -549 2506
225 -545 2490
235 -550 2511
242 -549 2507
249 -550 2510
257 -550 2510
263 -548 2499
271 -550 2508
277 -548 2495
285 -547 2493
292 -547 2489
301 -550 2502
307 -548 2491
314 -548 2492
320 -546 2481
330 -550 2498
334 -544 2472
343 -547 2485
350 -546 2480
355 -543 2463
362 -543 2463
372 -547 2479
378 -546 2473
386 -546 2475
393 -546 2474
401 -547 2477
409 -548 2479
415 -546 2468
422 -546 2467
432 -549 2479
437 -547 2468
444 -546 2463
451 -546 2464
458 -546 2459
463 -543 2446
470 -543 2445
481 -547 2463
490 -549 2469
494 -545 2451
502 -546 2453
512 -549 2466
516 -545 2447
519 -542 2429
528 -543 2435
535 -543 2431
544 -545 2437
552 -545 2438
559 -545 2438
566 -545 2436
573 -545 2434
583 -547 2441
586 -544 2424
595 -545 2427
605 -548 2438
609 -545 2425
618 -546 2429
620 -542 2408
631 -545 2421
639 -546 2422
642 -542 2405
656 -548 2427
661 -546 2419
663 -542 2398
675 -546 2413
681 -545 2405
690 -546 2409
695 -545 2401
700 -543 2393
705 -541 2382
719 -546 2402
723 -544 2391
735 -548 2405
738 -544 2388
744 -544 2384
751 -543 2379
760 -545 2382
764 -543 2372
771 -542 2368
769 -536 2339
771 -533 2321
773 -529 2305
766 -520 2261
767 -515 2240
764 -509 2211
763 -504 2185
765 -501 2169
768 -498 2157
763 -491 2124
763 -487 2104
762 -482 2081
764 -479 2067
765 -476 2050
766 -473 2034
769 -471 2024
774 -470 2017
773 -466 1997
779 -466 1995
776 -460 1969
777 -457 1953
777 -454 1937
780 -452 1926
786 -452 1924
794 -453 1929
807 -457 1943
835 -470 1993
879 -491 2081
926 -514 2173
953 -525 2218
985 -539 2274
994 -540 2276
1000 -539 2269
1012 -542 2278
1013 -538 2261
1019 -538 2256
1026 -538 2253
1030 -536 2243
1046 -541 2260
1050 -540 2250
1048 -535 2227
1063 -539 2240
1063 -535 2222
1080 -541 2241
1093 -543 2249
1092 -539 2230
1097 -538 2223
1111 -542 2232
1120 -543 2233
1121 -540 2217
1131 -541 2220
1142 -543 2225
1144 -541 2211
1143 -537 2192
1156 -540 2200
1162 -539 2195
1179 -544 2209
1172 -537 2179
1177 -536 2172
1199 -543 2196
1200 -540 2181
1201 -538 2166
1207 -537 2160
1221 -540 2169
1222 -538 2156
1233 -539 2158
-1290 -524 2186
-1283 -524 2190
-1273 -523 2189
-1268 -524 2196
-1258 -523 2196
-1252 -523 2202
-1260 -530 2233
-1243 -526 2219
-1243 -529 2235
-1227 -525 2222
-1221 -526 2229
-1216 -527 2236
-1202 -524 2227
-1193 -523 2227
-1204 -531 2265
-1179 -524 2236
-1180 -527 2255
-1170 -526 2252
-1175 -532 2281
-1162 -529 2272
-1143 -524 2253
-1132 -522 2248
-1135 -527 2272
-1126 -526 2272
-1130 -532 2297
-1121 -531 2298
-1120 -534 2315
-1108 -532 2307
-1103 -533 2316
-1100 -535 2327
-1085 -531 2314
-1071 -528 2302
-1073 -533 2326
-1067 -534 2332
-1060 -534 2336
-1048 -532 2329
-1033 -528 2314
-1038 -534 2344
-1030 -534 2345
-1017 -531 2335
-1012 -532 2345
-992 -525 2316
-1004 -536 2366
-994 -534 2361
-978 -530 2344
-972 -531 2350
-973 -535 2372
-962 -533 2365
-950 -531 2357
-950 -535 2377
-937 -532 2365
-935 -535 2381
-922 -532 2370
-919 -534 2383
-904 -530 2366
-907 -536 2396
-903 -538 2407
-892 -536 2400
-882 -534 2395
-871 -532 2388
-867 -534 2399
-859 -534 2397
-853 -535 2405
-849 -537 2415
-844 -539 2426
-829 -533 2404
-831 -540 2435
-820 -537 2425
-816 -539 2437
-804 -537 2426
-798 -538 2433
-787 -535 2423
-782 -537 2432
-777 -539 2442
-771 -540 2449
-754 -533 2418
-751 -536 2436
-744 -536 2439
-745 -543 2468
-733 -539 2454
-726 -540 2459
-718 -539 2456
-713 -541 2469
-702 -538 2456
-691 -536 2447
-686 -538 2457
-682 -540 2469
-671 -538 2459
-662 -536 2455
-662 -542 2483
-647 -536 2455
-644 -540 2474
-638 -541 2480
-637 -546 2506
-623 -541 2482
-615 -540 2482
-606 -539 2479
-600 -540 2484
-592 -540 2485
-587 -542 2496
-580 -543 2498
-574 -544 2506
-564 -542 2496
-556 -541 2496
-552 -544 2511
-543 -543 2506
-534 -541 2498
-527 -542 2503
-517 -539 2490
-509 -538 2488
-504 -541 2500
-497 -541 2504
-490 -542 2509
-483 -543 2513
-475 -542 2509
-469 -544 2521
-461 -543 2516
-453 -543 2517
-445 -542 2513
-441 -546 2532
-426 -537 2491
-424 -543 2520
-418 -545 2530
-406 -540 2504
-400 -542 2516
-395 -545 2532
-387 -544 2526
-380 -545 2531
-374 -547 2540
-363 -542 2520
-355 -541 2517
-348 -542 2522
-341 -543 2526
-334 -543 2526
-325 -541 2516
-323 -550 2558
-315 -549 2556
-305 -545 2537
-298 -546 2540
-291 -547 2546
-281 -542 2522
-276 -546 2545
-268 -546 2543
-259 -541 2522
-254 -546 2546
-246 -546 2544
-238 -544 2535
-231 -545 2539
-223 -544 2536
-215 -544 2537
-209 -546 2546
-201 -545 2540
-194 -548 2555
-186 -545 2542
-178 -544 2538
-166 -529 2467
-143 -476 2221
-130 -457 2130
-122 -449 2095
-116 -449 2093
-110 -451 2104
-105 -453 2114
-98 -452 2107
-93 -456 2129
-88 -466 2173
-84 -475 2218
-82 -504 2350
-79 -527 2459
-74 -544 2538
-67 -547 2551
-60 -551 2569
-53 -552 2574
-45 -549 2559
-38 -550 2565
-30 -551 2567
-23 -552 2572
-15 -552 2570
-8 -548 2554
0 -549 2557
6 -552 2570
14 -548 2551
21 -549 2558
29 -550 2560
36 -549 2556
44 -550 2560
51 -547 2547
59 -552 2571
66 -547 2545
73 -547 2546
81 -551 2562
89 -552 2567
96 -549 2552
104 -550 2559
111 -552 2567
119 -551 2562
125 -546 2538
133 -547 2542
140 -547 2541
149 -551 2559
156 -551 2560
162 -547 2540
171 -550 2551
178 -550 2554
186 -551 2557
192 -546 2531
200 -548 2540
208 -549 2545
214 -547 2536
223 -550 2550
230 -549 2542
236 -547 2530
245 -549 2541
253 -550 2543
260 -550 2544
267 -549 2538
275 -551 2544
282 -548 2534
290 -551 2543
296 -548 2531
304 -548 2529
310 -546 2518
319 -549 2532
325 -546 2518
333 -548 2527
339 -546 2515
348 -547 2520
357 -550 2531
361 -545 2507
369 -547 2515
378 -548 2521
386 -549 2524
391 -547 2511
398 -546 2506
404 -544 2498
411 -544 2494
422 -548 2513
429 -548 2509
436 -547 2503
442 -545 2496
453 -550 2515
458 -547 2501
462 -544 2484
472 -546 2496
480 -547 2499
486 -545 2489
494 -546 2490
500 -545 2482
511 -548 2498
512 -542 2469
527 -550 2504
532 -547 2489
539 -547 2486
541 -542 2462
556 -549 2492
561 -547 2480
566 -545 2471
576 -547 2478
583 -547 2478
583 -540 2444
599 -548 2477
607 -549 2478
607 -542 2449
617 -545 2459
623 -543 2450
635 -548 2467
639 -544 2451
650 -548 2466
655 -546 2455
662 -546 2451
668 -545 2445
677 -546 2448
680 -542 2431
694 -548 2453
699 -546 2442
705 -545 2438
711 -544 2430
722 -547 2440
724 -543 2420
732 -544 2422
743 -546 2430
749 -546 2427
762 -549 2441
767 -547 2431
768 -543 2410
769 -539 2387
773 -536 2375
768 -528 2338
768 -523 2312
769 -519 2293
767 -513 2265
763 -506 2230
767 -504 2220
764 -498 2191
761 -492 2161
768 -492 2158
766 -486 2134
763 -480 2104
762 -476 2083
766 -474 2073
771 -473 2067
767 -467 2039
767 -464 2020
769 -461 2007
776 -461 2005
775 -457 1985
776 -454 1971
779 -452 1959
782 -450 1950
796 -455 1967
809 -459 1983
837 -471 2033
863 -482 2078
927 -515 2214
948 -523 2247
973 -532 2285
985 -535 2294
1000 -540 2310
1015 -544 2324
1012 -538 2297
1019 -538 2295
1037 -544 2316
1041 -542 2306
1041 -538 2286
1045 -537 2277
1058 -540 2286
1064 -539 2281
1072 -540 2280
1079 -540 2277
1079 -536 2258
1090 -538 2262
1098 -538 2261
1104 -538 2256
1113 -539 2256
1124 -541 2260
1128 -539 2251
1149 -546 2275
1139 -538 2238
1147 -538 2236
1158 -540 2240
1165 -540 2236
1165 -537 2218
1185 -543 2239
1192 -543 2236
1187 -537 2210
1204 -541 2224
1204 -538 2207
1211 -538 2202
1213 -536 2190
1222 -537 2190
1240 -542 2205
1238 -537 2184
1240 -535 2172
-1308 -524 2218
-1308 -527 2235
-1303 -528 2243
-1283 -523 2225
-1285 -527 2244
-1278 -527 2249
-1274 -529 2259
-1260 -526 2250
-1243 -522 2236
-1241 -524 2250
-1250 -531 2283
-1235 -528 2273
-1220 -525 2264
-1214 -525 2270
-1215 -529 2289
-1197 -524 2271
-1194 -526 2283
-1191 -528 2295
-1176 -525 2284
-1179 -530 2307
-1170 -529 2308
-1166 -531 2319
-1158 -530 2320
-1153 -532 2328
-1137 -528 2314
-1132 -529 2323
-1135 -534 2346
-1124 -532 2342
-1107 -528 2326
-1105 -530 2341
-1099 -531 2346
-1092 -531 2350
-1083 -530 2349
-1074 -530 2348
-1069 -531 2357
-1051 -526 2338
-1051 -530 2356
-1048 -532 2370
-1043 -533 2377
-1038 -534 2385
-1022 -530 2369
-1011 -528 2363
-1009 -531 2378
-1006 -534 2392
-998 -533 2394
-985 -530 2382
-982 -533 2395
-975 -533 2400
-972 -535 2413
-965 -536 2417
-955 -534 2412
-940 -530 2397
-942 -536 2423
-934 -536 2424
-933 -539 2443
-921 -536 2433
-912 -536 2432
-911 -540 2451
-901 -538 2448
-893 -538 2449
-884 -537 2447
-875 -536 2445
-870 -538 2455
-860 -536 2449
-854 -537 2455
-847 -538 2460
-843 -540 2470
-840 -543 2487
-819 -534 2448
-818 -538 2470
-807 -536 2460
-803 -539 2475
-791 -535 2461
-789 -540 2483
-780 -538 2477
-771 -537 2474
-763 -537 2477
-756 -538 2480
-753 -541 2497
-740 -536 2478
-737 -540 2496
-732 -542 2508
-718 -537 2486
-717 -542 2510
-702 -536 2484
-699 -540 2503
-693 -542 2512
-683 -540 2504
-677 -541 2511
-671 -542 2517
-664 -542 2520
-656 -542 2520
-645 -539 2509
-640 -541 2520
-632 -541 2521
-627 -543 2531
-618 -542 2528
-607 -539 2515
-602 -541 2525
-594 -541 2527
-590 -544 2541
-579 -541 2530
-574 -544 2542
-564 -542 2533
-558 -543 2539
-552 -544 2548
-539 -539 2526
-534 -541 2536
-527 -542 2541
-518 -540 2533
-512 -542 2541
-507 -546 2559
-496 -542 2541
-493 -546 2565
-483 -543 2551
-474 -542 2548
-467 -542 2548
-458 -541 2542
-458 -551 2589
-443 -542 2547
-437 -543 2556
-430 -544 2558
-420 -540 2543
-416 -546 2569
-409 -546 2569
-398 -541 2551
-388 -538 2534
-386 -547 2576
-376 -542 2556
-371 -546 2574
-364 -547 2581
-357 -548 2586
-348 -545 2573
-340 -545 2571
-333 -545 2574
-324 -544 2567
-316 -542 2561
-309 -544 2567
-301 -543 2564
-295 -546 2577
-287 -546 2580
-279 -545 2574
-272 -545 2577
-264 -546 2579
-256 -544 2573
-247 -540 2552
-242 -546 2579
-234 -544 2574
-226 -544 2570
-219 -547 2585
-211 -545 2575
-204 -546 2584
-198 -551 2604
-189 -548 2590
-181 -546 2584
-169 -530 2509
-149 -492 2326
-131 -454 2149
-126 -457 2162
-117 -447 2114
-112 -452 2140
-106 -452 2141
-99 -451 2136
-95 -460 2176
-89 -464 2196
-85 -476 2252
-82 -499 2359
-81 -536 2536
-74 -539 2551
-69 -551 2605
-61 -548 2593
-53 -551 2605
-45 -548 2591
-38 -549 2596
-30 -551 2604
-23 -548 2593
-15 -549 2596
-8 -550 2601
0 -546 2579
7 -550 2600
14 -554 2619
22 -549 2592
29 -551 2601
37 -548 2587
44 -549 2593
52 -551 2604
60 -552 2604
67 -550 2596
75 -550 2597
82 -550 2597
90 -551 2601
98 -551 2601
105 -550 2593
112 -547 2579
119 -543 2559
127 -546 2576
135 -549 2585
142 -547 2579
149 -546 2571
157 -545 2565
165 -548 2580
172 -547 2574
180 -548 2579
188 -548 2580
195 -547 2574
204 -551 2589
212 -552 2593
218 -549 2579
225 -548 2576
233 -549 2581
241 -550 2581
247 -547 2567
255 -548 2571
262 -547 2568
272 -551 2585
278 -548 2568
285 -548 2569
293 -548 2567
301 -550 2574
306 -546 2554
314 -545 2551
322 -547 2560
330 -548 2561
339 -551 2573
344 -546 2551
353 -548 2558
361 -549 2562
368 -548 2558
373 -545 2541
382 -547 2549
391 -549 2558
395 -544 2534
403 -544 2535
414 -549 2557
418 -545 2537
431 -552 2569
436 -549 2549
442 -548 2544
447 -544 2527
453 -543 2518
461 -543 2517
472 -547 2535
480 -548 2539
488 -548 2539
494 -546 2529
502 -548 2533
511 -549 2537
516 -546 2522
524 -547 2526
532 -547 2525
541 -549 2531
543 -544 2507
552 -546 2513
560 -546 2514
568 -546 2512
577 -547 2517
585 -548 2519
595 -551 2529
595 -544 2496
604 -545 2501
611 -545 2495
623 -549 2515
624 -543 2485
633 -545 2491
642 -546 2495
651 -548 2501
661 -550 2507
663 -545 2485
673 -547 2494
677 -544 2478
689 -548 2492
690 -543 2469
700 -545 2475
709 -546 2478
718 -548 2484
726 -548 2483
731 -546 2474
734 -543 2457
744 -545 2462
755 -547 2471
761 -547 2466
764 -543 2448
766 -539 2429
778 -543 2444
774 -535 2406
769 -527 2366
766 -520 2333
761 -511 2293
765 -510 2283
764 -504 2256
763 -499 2233
767 -497 2221
763 -490 2188
765 -487 2173
768 -485 2160
766 -480 2134
766 -476 2113
769 -473 2101
768 -469 2079
772 -467 2070
772 -463 2051
773 -461 2037
776 -458 2024
776 -455 2007
784 -456 2010
781 -451 1984
791 -453 1993
814 -463 2033
829 -468 2051
867 -486 2128
910 -506 2214
951 -525 2293
967 -530 2313
994 -541 2356
998 -539 2346
1005 -539 2342
1016 -541 2348
1024 -541 2347
1024 -537 2326
1041 -543 2346
1047 -542 2341
1050 -540 2328
1060 -541 2330
1071 -543 2334
1073 -541 2322
1075 -537 2305
1096 -544 2332
1096 -541 2313
1103 -541 2309
1111 -541 2308
1108 -536 2284
1124 -541 2299
1126 -538 2284
1129 -536 2273
1144 -539 2283
1146 -537 2270
1155 -538 2270
1162 -538 2266
1171 -539 2266
1173 -536 2253
1176 -534 2240
1179 -532 2228
1208 -542 2266
1211 -540 2254
1213 -538 2241
1232 -543 2259
1226 -537 2231
1243 -542 2246
1251 -542 2243
1253 -540 2229
1262 -540 2229
1272 -542 2231
-1321 -522 2243
-1324 -526 2264
-1319 -527 2271
-1301 -523 2257
-1307 -528 2285
-1295 -526 2280
-1280 -523 2271
-1270 -522 2270
-1264 -523 2276
-1273 -530 2309
-1258 -527 2300
-1253 -528 2308
-1252 -531 2323
-1240 -529 2319
-1225 -526 2308
-1222 -528 2321
-1215 -528 2325
-1201 -525 2315
-1206 -531 2343
-1197 -530 2344
-1175 -524 2320
-1182 -530 2351
-1171 -529 2348
-1163 -529 2351
-1157 -530 2357
-1155 -532 2370
-1142 -529 2362
-1129 -527 2354
-1133 -532 2381
-1134 -537 2404
-1115 -531 2381
-1109 -532 2388
-1093 -528 2373
-1090 -530 2385
-1075 -526 2371
-1077 -531 2396
-1065 -529 2388
-1061 -531 2400
-1061 -534 2419
-1048 -532 2410
-1040 -532 2413
-1033 -532 2416
-1017 -528 2400
-1023 -535 2434
-1012 -533 2428
-1006 -534 2435
-996 -532 2430
-994 -536 2446
-987 -536 2451
-980 -536 2454
-969 -534 2449
-964 -536 2459
-955 -536 2459
-949 -536 2463
-943 -537 2470
-921 -529 2435
-929 -538 2478
-913 -533 2459
-906 -534 2464
-905 -538 2483
-891 -534 2468
-885 -535 2475
-883 -538 2492
-868 -534 2472
-863 -535 2482
-859 -537 2494
-846 -534 2481
-838 -534 2483
-837 -539 2505
-825 -536 2493
-824 -540 2514
-812 -537 2505
-805 -538 2509
-790 -533 2488
-790 -538 2511
-781 -537 2508
-775 -538 2516
-777 -544 2549
-758 -537 2514
-756 -541 2535
-747 -540 2531
-732 -535 2510
-729 -538 2527
-725 -541 2539
-720 -543 2551
-702 -535 2518
-696 -536 2524
-688 -536 2523
-684 -539 2539
-680 -542 2553
-665 -536 2526
-662 -539 2546
-657 -542 2557
-647 -540 2550
-643 -543 2564
-634 -542 2562
-628 -543 2570
-616 -539 2553
-613 -544 2574
-605 -543 2574
-591 -538 2548
-589 -543 2575
-587 -548 2598
-573 -543 2575
-571 -547 2599
-558 -543 2577
-551 -543 2580
-539 -539 2562
-535 -543 2581
-530 -546 2596
-524 -548 2605
-511 -542 2578
-502 -541 2574
-499 -545 2598
-489 -543 2588
-482 -544 2591
-471 -540 2576
-467 -544 2592
-464 -549 2620
-452 -545 2598
-446 -546 2606
-435 -543 2591
-429 -545 2602
-420 -543 2592
-416 -548 2616
-407 -546 2610
-401 -548 2619
-389 -543 2597
-384 -546 2612
-374 -543 2597
-366 -543 2596
-359 -543 2598
-355 -548 2625
-344 -545 2608
-340 -549 2630
-330 -546 2615
-322 -546 2616
-314 -546 2616
-304 -541 2591
-301 -549 2630
-291 -546 2617
-284 -548 2625
-273 -541 2594
-270 -550 2638
-261 -548 2626
-255 -550 2638
-244 -544 2609
-236 -542 2598
-229 -543 2605
-222 -545 2614
-214 -544 2610
-206 -544 2608
-198 -544 2610
-191 -544 2610
-184 -548 2630
-174 -538 2584
-160 -520 2494
-139 -474 2274
-126 -453 2174
-118 -446 2141
-113 -450 2162
-107 -451 2166
-101 -451 2166
-96 -459 2201
-90 -461 2212
-84 -465 2233
-83 -494 2373
-82 -533 2560
-76 -541 2598
-69 -546 2622
-62 -550 2636
-54 -551 2643
-46 -550 2638
-38 -548 2628
-31 -549 2635
-23 -548 2627
-15 -550 2639
-8 -551 2643
0 -547 2623
7 -546 2617
14 -549 2630
22 -549 2633
30 -549 2630
37 -549 2631
45 -551 2638
53 -550 2634
60 -550 2634
68 -550 2634
76 -550 2631
84 -551 2636
91 -547 2619
99 -549 2627
106 -546 2612
114 -549 2624
122 -551 2634
130 -551 2636
137 -548 2620
145 -550 2627
152 -550 2626
161 -551 2634
167 -547 2614
176 -550 2627
184 -551 2632
191 -550 2624
199 -551 2627
205 -547 2608
212 -546 2602
221 -549 2618
230 -553 2633
236 -549 2616
242 -545 2598
252 -550 2621
259 -548 2609
267 -549 2612
276 -551 2622
282 -548 2604
290 -549 2609
297 -547 2601
305 -548 2605
314 -552 2622
320 -548 2600
328 -549 2606
334 -547 2595
341 -546 2587
351 -549 2604
357 -547 2593
366 -549 2599
373 -547 2591
381 -548 2595
383 -540 2554
398 -551 2604
402 -546 2582
411 -548 2590
416 -545 2572
428 -550 2597
433 -547 2581
442 -549 2587
451 -550 2593
457 -548 2581
463 -546 2572
473 -549 2585
476 -545 2562
486 -547 2572
491 -544 2556
503 -549 2576
505 -544 2550
516 -546 2562
524 -548 2566
530 -545 2555
539 -548 2563
543 -544 2545
555 -548 2561
557 -543 2537
565 -544 2538
570 -541 2523
579 -542 2528
592 -547 2550
601 -548 2555
608 -548 2553
611 -544 2530
619 -544 2531
623 -541 2515
635 -545 2531
643 -546 2534
653 -548 2541
659 -547 2533
667 -547 2530
677 -549 2539
683 -548 2532
691 -548 2532
695 -545 2517
704 -546 2519
714 -549 2528
717 -545 2510
734 -552 2540
737 -549 2523
740 -545 2505
750 -547 2510
756 -546 2505
759 -543 2487
772 -547 2504
775 -543 2485
774 -538 2458
776 -534 2437
767 -523 2383
767 -518 2361
765 -512 2331
765 -507 2307
770 -506 2298
765 -498 2261
763 -492 2234
759 -485 2198
762 -483 2185
764 -480 2172
767 -478 2160
768 -474 2141
768 -470 2121
771 -468 2109
767 -462 2077
772 -461 2073
774 -459 2059
776 -456 2046
785 -458 2051
780 -451 2018
790 -453 2027
802 -457 2038
823 -465 2075
862 -483 2153
899 -501 2227
942 -520 2312
969 -532 2359
990 -539 2390
1001 -541 2396
1004 -539 2383
1020 -543 2399
1025 -542 2391
1027 -539 2375
1035 -540 2374
1050 -543 2387
1046 -538 2359
1067 -545 2386
1072 -543 2377
1068 -538 2349
1076 -538 2348
1085 -539 2349
1097 -541 2355
1107 -542 2356
1107 -539 2337
1113 -538 2331
1122 -539 2331
1133 -541 2337
1131 -536 2313
1149 -542 2333
1151 -539 2317
1158 -539 2313
1162 -537 2304
1177 -541 2316
1180 -539 2304
1192 -541 2308
1205 -543 2316
1209 -542 2305
1210 -539 2290
1226 -543 2303
1219 -537 2272
1235 -540 2284
1235 -537 2268
1256 -543 2289
1250 -537 2259
1265 -541 2270
1271 -540 2264
1270 -537 2245
1282 -539 2250
-1349 -525 2292
-1343 -526 2297
-1336 -526 2302
-1319 -523 2291
-1321 -526 2310
-1315 -527 2317
-1304 -526 2316
-1284 -521 2298
-1296 -529 2337
-1291 -530 2344
-1287 -531 2354
-1259 -523 2321
-1252 -523 2326
-1255 -528 2349
-1255 -531 2367
-1238 -527 2352
-1239 -531 2372
-1224 -528 2362
-1222 -530 2377
-1209 -528 2369
-1192 -524 2354
-1191 -527 2370
-1193 -531 2394
-1180 -529 2387
-1174 -530 2393
-1168 -530 2398
-1160 -530 2401
-1155 -531 2410
-1146 -531 2410
-1142 -533 2421
-1131 -531 2418
-1127 -533 2428
-1106 -527 2403
-1110 -532 2432
-1106 -534 2442
-1101 -536 2452
-1083 -530 2431
-1076 -531 2435
-1062 -528 2423
-1059 -530 2438
-1065 -537 2472
-1053 -535 2463
-1042 -533 2460
-1037 -535 2469
-1031 -536 2476
-1029 -538 2491
-1016 -536 2481
-1011 -537 2490
-998 -534 2480
-990 -534 2482
-977 -532 2472
-981 -538 2504
-965 -533 2485
-956 -533 2484
-951 -534 2492
-950 -538 2514
-939 -536 2506
-932 -537 2511
-921 -535 2504
-916 -536 2513
-914 -540 2531
-905 -539 2531
-890 -535 2512
-886 -537 2526
-883 -540 2541
-878 -542 2551
-863 -537 2532
-860 -540 2548
-846 -536 2532
-841 -538 2543
-835 -539 2549
-825 -538 2546
-822 -541 2561
-803 -534 2529
-799 -536 2543
-798 -541 2564
-786 -538 2552
-776 -537 2549
-773 -540 2567
-763 -538 2559
-754 -537 2558
-742 -534 2543
-739 -538 2562
-734 -540 2575
-726 -540 2575
-715 -537 2564
-717 -544 2599
-704 -541 2583
-692 -537 2568
-681 -535 2560
-688 -547 2617
-674 -542 2595
-667 -543 2600
-660 -543 2604
-647 -539 2584
-645 -544 2609
-630 -537 2578
-629 -543 2608
-620 -542 2607
-609 -539 2591
-605 -543 2612
-594 -540 2598
-588 -542 2607
-581 -542 2612
-574 -543 2617
-564 -541 2607
-557 -541 2610
-552 -544 2625
-539 -539 2599
-534 -542 2615
-531 -547 2641
-520 -544 2627
-507 -539 2602
-503 -543 2622
-495 -542 2619
-487 -542 2620
-484 -547 2646
-475 -546 2642
-464 -542 2625
-460 -546 2645
-451 -545 2637
-443 -545 2639
-433 -542 2626
-431 -550 2664
-421 -547 2651
-409 -541 2622
-405 -546 2649
-397 -546 2651
-385 -541 2623
-380 -545 2644
-376 -550 2668
-366 -547 2656
-359 -547 2658
-347 -541 2629
-343 -547 2655
-333 -544 2645
-326 -544 2645
-316 -541 2628
-309 -542 2637
-302 -544 2647
-295 -544 2648
-285 -541 2632
-281 -548 2666
-272 -546 2654
-263 -544 2649
-255 -543 2642
-248 -544 2647
-241 -546 2655
-233 -546 2659
-225 -544 2649
-218 -547 2664
-208 -543 2642
-201 -545 2651
-194 -547 2662
-187 -547 2662
-178 -545 2652
-164 -526 2562
-142 -476 2319
-129 -456 2224
-121 -448 2184
-115 -452 2202
-109 -454 2213
-103 -455 2216
-97 -455 2216
-91 -460 2240
-86 -468 2277
-83 -490 2385
-81 -519 2527
-76 -538 2619
-70 -547 2661
-63 -552 2686
-54 -548 2667
-47 -547 2661
-39 -554 2696
-31 -553 2691
-23 -547 2662
-16 -550 2677
-8 -550 2675
0 -546 2655
7 -548 2666
15 -549 2670
22 -552 2685
30 -549 2671
38 -556 2704
45 -545 2651
53 -549 2667
61 -549 2667
69 -548 2660
77 -550 2673
85 -549 2669
92 -545 2648
100 -548 2661
109 -554 2689
115 -547 2653
124 -553 2685
130 -546 2648
139 -548 2658
146 -547 2652
154 -548 2659
162 -549 2661
170 -549 2662
177 -547 2650
185 -548 2655
193 -548 2655
201 -550 2664
209 -550 2662
217 -550 2662
223 -547 2644
230 -545 2634
239 -548 2648
249 -552 2666
255 -549 2653
262 -547 2639
269 -545 2633
279 -549 2650
285 -548 2642
293 -548 2644
301 -547 2638
308 -547 2634
317 -549 2643
324 -548 2639
330 -545 2623
338 -545 2622
349 -551 2649
357 -551 2648
363 -548 2633
372 -550 2641
376 -545 2616
385 -547 2626
392 -546 2619
399 -545 2612
409 -549 2630
417 -549 2629
421 -543 2603
430 -546 2613
440 -549 2626
447 -548 2619
453 -545 2607
461 -546 2608
468 -545 2601
476 -545 2603
485 -547 2609
491 -545 2597
498 -544 2594
513 -552 2629
513 -544 2591
522 -545 2594
532 -548 2605
534 -543 2579
550 -551 2617
552 -545 2588
559 -545 2584
568 -546 2588
572 -542 2570
587 -549 2602
590 -545 2580
595 -543 2566
601 -541 2558
610 -542 2561
619 -544 2565
632 -549 2588
637 -546 2572
643 -545 2566
653 -546 2572
658 -544 2559
671 -549 2580
673 -544 2557
678 -542 2544
693 -548 2568
701 -548 2569
709 -549 2569
715 -547 2560
723 -548 2560
729 -547 2554
734 -544 2540
747 -548 2557
756 -550 2561
761 -548 2550
768 -547 2544
768 -541 2517
772 -539 2503
772 -534 2479
765 -524 2430
772 -524 2427
763 -513 2372
763 -508 2349
762 -502 2321
765 -500 2308
769 -498 2296
762 -489 2253
762 -485 2231
764 -482 2216
764 -477 2193
766 -475 2178
768 -472 2162
769 -468 2144
772 -466 2132
770 -461 2107
775 -460 2101
776 -457 2086
781 -457 2080
783 -454 2064
788 -453 2059
803 -458 2079
818 -463 2100
845 -474 2149
896 -500 2261
944 -522 2360
973 -534 2411
988 -539 2428
1002 -542 2442
1015 -545 2452
1009 -538 2417
1017 -538 2414
1020 -536 2400
1029 -536 2401
1041 -539 2409
1054 -542 2419
1069 -546 2433
1062 -539 2397
1077 -542 2411
1076 -538 2389
1091 -542 2402
1092 -539 2384
1109 -543 2402
1108 -539 2379
1117 -540 2380
1128 -542 2384
1131 -539 2371
1141 -540 2373
1144 -539 2361
1162 -543 2379
1158 -538 2353
1180 -545 2378
1184 -543 2367
1181 -538 2342
1195 -541 2352
1210 -545 2363
1206 -540 2336
1219 -542 2343
1225 -541 2337
1235 -543 2339
1233 -539 2317
1236 -537 2305
1245 -537 2303
1262 -541 2317
1272 -543 2319
1274 -540 2305
1278 -539 2294
1293 -542 2305
1293 -539 2287
1297 -538 2278
-1379 -529 2344
-1359 -525 2328
-1356 -526 2340
-1340 -523 2328
-1339 -526 2345
-1329 -525 2345
-1334 -530 2371
-1320 -528 2363
-1308 -526 2359
-1303 -527 2369
-1301 -529 2381
-1285 -526 2370
-1289 -531 2396
-1265 -524 2370
-1255 -523 2368
-1257 -528 2391
-1257 -531 2410
-1234 -524 2383
-1245 -532 2423
-1224 -527 2401
-1217 -527 2406
-1217 -530 2424
-1206 -529 2421
-1195 -528 2418
-1194 -531 2435
-1194 -534 2454
-1164 -524 2411
-1179 -535 2462
-1165 -532 2451
-1152 -530 2444
-1143 -529 2444
-1142 -532 2462
-1133 -532 2463
-1129 -533 2474
-1122 -534 2479
-1105 -529 2461
-1107 -534 2486
-1093 -531 2476
-1087 -532 2481
-1086 -536 2500
-1074 -533 2493
-1071 -536 2507
-1065 -537 2514
-1053 -535 2508
-1048 -536 2517
-1035 -534 2507
-1028 -534 2512
-1019 -534 2513
-1013 -535 2519
-1005 -535 2522
-997 -535 2524
-990 -535 2529
-977 -532 2518
-970 -532 2521
-965 -535 2533
-961 -537 2545
-950 -535 2537
-947 -538 2555
-940 -538 2559
-933 -539 2564
-917 -534 2543
-914 -537 2559
-906 -536 2559
-900 -538 2567
-884 -533 2546
-879 -535 2556
-875 -537 2571
-866 -536 2567
-875 -547 2620
-851 -537 2574
-842 -536 2572
-836 -537 2580
-832 -540 2594
-819 -536 2580
-814 -539 2592
-810 -541 2605
-797 -538 2591
-787 -536 2585
-778 -535 2584
-782 -544 2625
-770 -541 2614
-757 -537 2598
-750 -538 2602
-747 -541 2620
-741 -543 2627
-722 -535 2590
-726 -543 2634
-712 -539 2615
-704 -539 2616
-697 -540 2622
-693 -543 2638
-677 -536 2606
-680 -545 2649
-668 -541 2635
-655 -537 2617
-653 -542 2640
-645 -542 2641
-632 -538 2624
-629 -542 2642
-622 -543 2650
-608 -538 2626
-606 -542 2649
-598 -543 2654
-586 -539 2636
-585 -545 2665
-572 -541 2646
-566 -542 2653
-560 -544 2665
-551 -543 2660
-543 -543 2661
-538 -546 2678
-530 -546 2679
-516 -540 2648
-509 -541 2654
-510 -550 2699
-496 -543 2668
-486 -541 2657
-480 -544 2671
-476 -547 2690
-464 -543 2668
-456 -543 2670
-448 -544 2673
-439 -542 2666
-434 -545 2682
-425 -544 2677
-419 -546 2688
-408 -543 2673
-401 -543 2674
-397 -550 2707
-387 -546 2691
-378 -544 2681
-370 -544 2681
-361 -543 2676
-351 -540 2660
-348 -547 2698
-338 -544 2685
-332 -547 2701
-321 -542 2676
-315 -545 2687
-308 -547 2699
-299 -546 2693
-290 -543 2680
-283 -544 2683
-277 -549 2710
-268 -546 2698
-260 -545 2690
-251 -544 2688
-245 -547 2702
-237 -548 2705
-227 -543 2684
-222 -549 2710
-213 -545 2695
-205 -546 2698
-196 -542 2679
-187 -540 2669
-181 -546 2698
-168 -531 2624
-148 -489 2418
-130 -453 2238
-125 -456 2257
-116 -449 2222
-110 -452 2236
-104 -453 2239
-98 -457 2258
-92 -458 2266
-86 -461 2276
-82 -477 2355
-82 -520 2570
-77 -537 2653
-71 -546 2700
-63 -546 2698
-56 -553 2731
-47 -549 2710
-39 -547 2701
-32 -550 2715
-24 -551 2720
-16 -548 2704
-8 -549 2711
0 -552 2724
7 -551 2722
15 -548 2704
23 -552 2723
30 -546 2692
39 -550 2714
46 -545 2690
54 -551 2716
62 -551 2717
69 -543 2678
78 -552 2724
86 -549 2704
93 -544 2682
102 -549 2706
109 -548 2699
118 -550 2711
126 -551 2713
133 -548 2696
142 -551 2713
148 -547 2692
156 -545 2680
165 -551 2709
173 -551 2711
177 -540 2653
187 -546 2682
195 -547 2688
203 -546 2682
211 -548 2691
219 -548 2689
227 -547 2686
234 -546 2681
242 -546 2679
253 -552 2709
257 -544 2668
267 -549 2692
274 -549 2688
284 -551 2699
290 -548 2683
298 -549 2689
305 -548 2680
314 -549 2686
320 -547 2673
331 -552 2698
338 -550 2689
343 -545 2663
352 -548 2674
360 -548 2674
367 -546 2664
374 -545 2658
383 -547 2667
390 -546 2660
401 -550 2677
408 -550 2676
415 -548 2664
424 -549 2672
430 -547 2659
436 -546 2651
448 -550 2670
456 -551 2673
459 -545 2642
468 -546 2648
480 -551 2670
486 -548 2657
491 -546 2642
499 -546 2642
505 -544 2631
515 -547 2643
525 -549 2653
532 -548 2644
539 -548 2643
547 -548 2641
554 -547 2634
561 -546 2631
570 -547 2633
574 -544 2617
590 -551 2650
594 -548 2635
602 -548 2630
604 -543 2607
617 -548 2628
621 -544 2608
627 -543 2600
640 -548 2622
643 -544 2600
656 -548 2618
660 -545 2602
668 -545 2601
674 -543 2591
688 -548 2614
693 -547 2603
704 -549 2612
713 -550 2614
717 -547 2598
723 -546 2591
732 -546 2592
737 -545 2583
742 -543 2572
753 -545 2579
760 -544 2574
764 -542 2560
768 -539 2545
775 -539 2542
779 -536 2527
766 -522 2458
763 -515 2425
761 -509 2392
760 -503 2364
769 -504 2367
764 -497 2330
765 -493 2309
765 -488 2284
767 -485 2268
764 -479 2238
764 -475 2216
765 -471 2198
766 -468 2180
769 -465 2165
777 -466 2167
776 -462 2144
775 -458 2123
778 -456 2111
774 -449 2080
784 -452 2088
802 -458 2117
816 -463 2134
848 -477 2197
893 -498 2294
936 -519 2384
965 -531 2437
980 -535 2452
991 -537 2458
1018 -547 2503
1015 -541 2473
1035 -548 2501
1018 -535 2439
1031 -538 2449
1044 -541 2458
1054 -542 2461
1058 -540 2450
1058 -536 2429
1073 -540 2443
1083 -541 2446
1088 -540 2437
1102 -543 2446
1105 -541 2433
1111 -540 2428
1113 -538 2412
1127 -541 2423
1136 -541 2422
1145 -542 2422
1148 -540 2408
1166 -545 2426
1170 -543 2416
1176 -542 2409
1179 -540 2397
1193 -543 2405
1193 -540 2386
1198 -539 2379
1209 -540 2382
1221 -542 2387
1224 -540 2374
1235 -542 2377
1251 -545 2389
1248 -541 2365
1253 -540 2356
1267 -543 2365
1274 -542 2359
1276 -540 2345
1271 -535 2319
1297 -542 2348
1314 -546 2361
1300 -537 2318
1322 -543 2340
1315 -537 2311
-1388 -525 2361
-1387 -527 2376
-1374 -525 2371
-1362 -524 2369
-1361 -527 2384
-1344 -523 2372
-1343 -526 2389
-1340 -528 2401
-1328 -526 2397
-1310 -522 2382
-1306 -524 2392
-1316 -531 2430
-1306 -530 2429
-1306 -533 2447
-1286 -528 2428
-1286 -532 2447
-1263 -526 2422
-1275 -534 2464
-1239 -522 2413
-1238 -525 2429
-1246 -532 2464
-1229 -528 2450
-1222 -528 2455
-1220 -531 2470
-1217 -533 2483
-1205 -531 2478
-1196 -531 2480
-1182 -528 2470
-1185 -533 2497
-1180 -535 2505
-1168 -533 2500
-1166 -535 2516
-1139 -527 2477
-1137 -529 2493
-1133 -531 2505
-1127 -532 2513
-1130 -538 2540
-1106 -530 2507
-1110 -536 2537
-1096 -533 2526
-1079 -528 2507
-1078 -532 2526
-1073 -533 2536
-1070 -536 2550
-1050 -530 2524
-1049 -533 2543
-1038 -532 2539
-1030 -532 2541
-1027 -534 2555
-1022 -536 2566
-1012 -535 2564
-999 -532 2553
-1005 -540 2591
-988 -535 2571
-987 -539 2591
-970 -534 2569
-959 -532 2565
-951 -532 2565
-952 -537 2593
-941 -535 2587
-930 -534 2581
-926 -536 2594
-921 -538 2604
-912 -537 2602
-909 -540 2619
-897 -538 2611
-885 -535 2599
-884 -540 2623
-869 -535 2605
-861 -535 2606
-856 -537 2617
-850 -538 2624
-852 -545 2659
-829 -535 2613
-824 -537 2623
-814 -536 2620
-806 -536 2622
-796 -535 2618
-803 -545 2668
-793 -543 2663
-783 -542 2658
-772 -540 2651
-767 -542 2660
-754 -539 2646
-749 -541 2660
-739 -539 2654
-736 -543 2671
-729 -544 2678
-717 -541 2664
-708 -540 2664
-697 -537 2651
-694 -541 2672
-688 -543 2681
-679 -543 2682
-660 -534 2639
-663 -543 2684
-655 -543 2686
-643 -540 2671
-642 -545 2698
-637 -548 2714
-617 -538 2665
-609 -537 2663
-607 -543 2693
-603 -546 2711
-599 -550 2731
-584 -544 2701
-571 -540 2681
-566 -542 2693
-554 -538 2675
-550 -542 2697
-546 -546 2716
-537 -545 2712
-528 -545 2711
-522 -546 2719
-513 -545 2715
-500 -540 2694
-490 -538 2684
-487 -543 2708
-477 -542 2702
-471 -543 2709
-464 -545 2718
-453 -542 2704
-444 -539 2694
-441 -546 2727
-431 -544 2718
-427 -549 2741
-414 -543 2712
-407 -544 2720
-399 -544 2718
-393 -547 2734
-385 -547 2735
-376 -546 2729
-365 -541 2705
-360 -545 2728
-351 -544 2723
-344 -546 2732
-337 -547 2739
-328 -545 2732
-319 -544 2723
-312 -545 2733
-306 -548 2748
-295 -545 2729
-290 -549 2751
-281 -549 2750
-270 -543 2721
-262 -542 2715
-256 -546 2738
-246 -542 2719
-239 -545 2732
-231 -543 2724
-224 -547 2745
-216 -546 2736
-207 -543 2722
-200 -548 2747
-191 -544 2728
-182 -542 2718
-172 -533 2676
-156 -508 2548
-135 -463 2322
-125 -451 2266
-117 -447 2242
-112 -451 2263
-106 -453 2273
-99 -453 2275
-93 -456 2290
-88 -464 2329
-84 -481 2416
-82 -509 2555
-78 -536 2687
-72 -548 2747
-64 -550 2756
-56 -549 2751
-48 -548 2749
-40 -550 2756
-32 -548 2749
-24 -549 2752
-16 -549 2751
-8 -549 2752
0 -546 2736
7 -546 2738
15 -546 2736
23 -550 2755
31 -546 2736
39 -549 2751
47 -546 2735
55 -547 2737
63 -550 2754
71 -548 2741
79 -548 2743
87 -549 2745
95 -548 2741
102 -545 2726
110 -544 2723
118 -545 2723
127 -548 2741
134 -546 2730
142 -545 2721
152 -553 2761
158 -546 2725
167 -550 2744
174 -544 2718
181 -543 2710
193 -555 2770
198 -546 2724
206 -545 2720
215 -549 2738
221 -545 2715
231 -548 2732
237 -544 2712
245 -544 2710
253 -546 2716
261 -546 2715
271 -549 2733
277 -546 2713
286 -548 2724
295 -550 2734
303 -550 2731
306 -542 2691
320 -552 2739
326 -548 2722
334 -548 2718
341 -547 2715
349 -547 2711
358 -548 2717
365 -547 2709
367 -539 2668
379 -544 2692
390 -549 2716
395 -545 2696
405 -548 2710
414 -549 2712
419 -546 2694
429 -549 2708
437 -548 2704
446 -549 2709
456 -551 2718
463 -551 2714
470 -550 2708
473 -544 2678
482 -546 2684
493 -549 2700
497 -545 2678
505 -545 2676
517 -549 2694
520 -544 2670
529 -545 2674
543 -551 2702
544 -544 2666
554 -547 2678
562 -546 2673
569 -546 2670
573 -542 2650
586 -547 2671
592 -545 2660
595 -541 2639
611 -549 2674
614 -544 2652
624 -546 2657
634 -548 2664
637 -543 2641
640 -539 2619
652 -543 2637
663 -545 2646
670 -545 2641
675 -543 2630
684 -544 2632
695 -546 2641
695 -540 2612
712 -547 2643
718 -546 2634
732 -550 2653
731 -543 2619
738 -543 2617
744 -542 2608
757 -546 2624
765 -546 2622
766 -541 2595
775 -542 2598
772 -534 2560
768 -526 2519
765 -519 2485
765 -514 2458
761 -507 2420
762 -502 2395
762 -498 2372
763 -494 2351
764 -490 2330
763 -485 2304
766 -482 2288
768 -479 2273
768 -475 2250
764 -468 2216
771 -469 2217
771 -464 2193
777 -464 2190
774 -458 2160
784 -460 2168
781 -455 2140
786 -454 2134
797 -456 2143
813 -461 2165
835 -470 2205
887 -496 2322
917 -509 2379
960 -528 2468
979 -535 2494
989 -536 2497
1008 -542 2523
1010 -539 2508
1025 -543 2522
1024 -539 2498
1040 -543 2516
1048 -543 2511
1052 -541 2500
1056 -539 2489
1067 -541 2493
1071 -539 2481
1080 -540 2481
1088 -540 2479
1092 -538 2467
1102 -539 2469
1107 -538 2459
1119 -540 2467
1130 -542 2471
1137 -541 2465
1142 -540 2456
1144 -537 2440
1167 -545 2470
1157 -536 2429
1180 -543 2457
1190 -545 2459
1192 -542 2443
1205 -544 2451
1206 -541 2433
1208 -539 2418
1225 -543 2434
1234 -544 2433
1244 -544 2432
1256 -546 2438
1245 -538 2398
1264 -543 2415
1267 -541 2402
1286 -546 2421
1283 -541 2396
1291 -542 2393
1309 -546 2409
1306 -541 2384
1307 -538 2367
1310 -537 2356
1328 -541 2371
1329 -538 2354
1346 -542 2367
-1403 -522 2387
-1397 -523 2395
-1387 -523 2396
-1391 -527 2420
-1377 -525 2414
-1371 -526 2421
-1389 -536 2472
-1356 -526 2431
-1364 -532 2463
-1340 -526 2439
-1344 -531 2464
-1321 -525 2441
-1319 -528 2456
-1313 -528 2462
-1308 -529 2471
-1297 -528 2469
-1296 -531 2488
-1274 -525 2463
-1271 -528 2478
-1260 -526 2474
-1263 -531 2499
-1257 -532 2507
-1239 -528 2491
-1232 -528 2497
-1245 -537 2541
-1230 -535 2532
-1222 -535 2536
-1210 -533 2530
-1199 -531 2526
-1196 -534 2542
-1186 -533 2539
-1176 -532 2538
-1172 -534 2550
-1151 -528 2525
-1148 -530 2539
-1139 -530 2539
-1138 -533 2559
-1125 -531 2551
-1115 -530 2549
-1114 -534 2569
-1096 -529 2548
-1104 -537 2589
-1090 -534 2577
-1084 -535 2586
-1071 -532 2576
-1071 -537 2599
-1062 -536 2599
-1044 -531 2577
-1040 -533 2591
-1035 -535 2601
-1027 -534 2602
-1021 -536 2610
-1012 -535 2611
-1006 -536 2618
-1003 -539 2634
-990 -536 2623
-983 -537 2628
-971 -535 2620
-965 -536 2630
-954 -534 2623
-953 -538 2644
-937 -534 2625
-929 -534 2627
-921 -534 2630
-916 -536 2643
-912 -539 2656
-903 -538 2654
-896 -539 2661
-882 -535 2645
-883 -541 2673
-871 -538 2663
-860 -537 2659
-855 -539 2669
-848 -539 2674
-842 -541 2685
-839 -544 2701
-817 -535 2657
-810 -536 2665
-808 -540 2687
-796 -537 2675
-801 -546 2722
-782 -539 2685
-771 -537 2679
-764 -537 2682
-757 -538 2689
-745 -536 2676
-743 -540 2698
-733 -539 2695
-729 -542 2711
-716 -538 2693
-708 -538 2696
-697 -536 2687
-695 -541 2712
-682 -537 2695
-674 -537 2694
-667 -538 2702
-664 -542 2722
-658 -544 2735
-650 -544 2736
-640 -542 2727
-632 -543 2732
-629 -547 2754
-616 -543 2735
-608 -543 2735
-603 -546 2751
-593 -544 2745
-584 -543 2740
-576 -544 2745
-570 -545 2752
-556 -540 2726
-552 -544 2748
-542 -542 2739
-534 -542 2741
-529 -545 2757
-521 -545 2759
-514 -547 2767
-500 -541 2740
-494 -543 2751
-481 -538 2726
-483 -549 2783
-471 -544 2758
-461 -543 2753
-455 -545 2764
-447 -545 2766
-437 -543 2756
-430 -545 2766
-423 -545 2768
-414 -545 2769
-404 -542 2753
-394 -540 2744
-391 -547 2777
-383 -547 2779
-375 -547 2780
-365 -545 2768
-356 -544 2766
-350 -547 2781
-340 -545 2769
-333 -546 2776
-323 -543 2761
-315 -543 2761
-308 -545 2774
-300 -545 2772
-290 -542 2756
-285 -547 2783
-275 -544 2767
-268 -545 2775
-260 -547 2783
-252 -546 2781
-243 -545 2773
-231 -537 2735
-227 -544 2772
-220 -548 2791
-210 -545 2774
-202 -544 2772
-194 -545 2778
-186 -543 2767
-178 -545 2778
-162 -521 2656
-144 -485 2471
-126 -449 2288
-118 -444 2262
-113 -450 2294
-106 -450 2293
-101 -456 2324
-94 -455 2319
-89 -461 2350
-84 -473 2410
-82 -506 2577
-80 -542 2759
-73 -547 2785
-65 -546 2778
-57 -545 2773
-49 -547 2786
-40 -542 2760
-33 -553 2813
-25 -552 2808
-16 -550 2801
-8 -549 2795
0 -546 2780
7 -551 2802
15 -551 2803
23 -551 2801
32 -553 2811
40 -550 2796
48 -546 2777
56 -545 2772
64 -550 2794
72 -548 2785
80 -546 2774
89 -550 2794
96 -548 2785
104 -548 2784
111 -542 2754
120 -547 2777
128 -544 2761
137 -547 2776
144 -544 2762
154 -551 2793
160 -545 2765
170 -549 2784
175 -540 2739
184 -543 2752
192 -545 2760
200 -543 2749
209 -545 2761
216 -545 2756
226 -547 2770
233 -547 2765
242 -547 2769
248 -543 2746
260 -551 2785
265 -546 2759
274 -547 2764
281 -546 2758
290 -547 2760
296 -544 2744
306 -546 2756
316 -551 2776
321 -545 2749
328 -544 2739
337 -545 2744
346 -546 2750
356 -550 2766
360 -544 2735
370 -547 2751
376 -543 2730
390 -553 2778
391 -543 2726
399 -542 2721
409 -545 2735
419 -548 2750
428 -549 2751
432 -543 2724
442 -547 2740
448 -545 2726
458 -546 2734
466 -547 2734
479 -552 2759
482 -547 2732
488 -545 2720
497 -546 2724
508 -548 2736
514 -546 2724
519 -543 2705
530 -546 2721
534 -542 2698
544 -544 2708
553 -546 2713
562 -547 2717
568 -544 2703
576 -544 2703
589 -550 2727
586 -539 2674
602 -547 2710
608 -545 2698
620 -548 2714
626 -547 2704
632 -545 2691
641 -546 2695
644 -542 2673
660 -548 2703
671 -551 2715
675 -547 2695
679 -544 2679
689 -546 2684
700 -548 2693
705 -546 2680
703 -538 2642
721 -546 2679
725 -543 2661
734 -544 2663
740 -543 2656
754 -547 2676
759 -545 2660
765 -543 2652
773 -543 2650
775 -539 2628
766 -528 2569
766 -522 2541
764 -516 2508
765 -512 2485
767 -508 2464
762 -500 2423
767 -499 2415
761 -490 2369
763 -487 2353
759 -480 2317
765 -479 2310
765 -475 2289
768 -472 2275
772 -471 2265
768 -464 2229
778 -466 2238
776 -460 2210
778 -458 2195
782 -456 2185
785 -454 2172
793 -455 2174
814 -463 2211
837 -472 2252
895 -501 2388
922 -512 2436
964 -531 2526
977 -534 2536
990 -537 2546
998 -537 2545
1008 -539 2548
1025 -543 2567
1037 -546 2575
1020 -533 2511
1040 -539 2539
1054 -542 2549
1057 -540 2535
1062 -538 2525
1083 -545 2555
1081 -540 2527
1086 -539 2517
1100 -542 2529
1099 -537 2504
1116 -542 2523
1130 -545 2533
1142 -547 2540
1138 -542 2511
1152 -544 2519
1165 -547 2528
1164 -542 2505
1161 -538 2479
1175 -540 2488
1185 -542 2490
1192 -541 2483
1208 -545 2498
1216 -545 2495
1219 -543 2480
1229 -544 2482
1230 -541 2465
1243 -543 2470
1246 -541 2457
1256 -542 2457
1269 -544 2464
1265 -539 2437
1264 -535 2417
1284 -540 2435
1290 -540 2430
1300 -541 2429
1304 -539 2419
1319 -542 2427
1329 -543 2428
1328 -540 2408
1345 -543 2419
1342 -539 2396
1360 -543 2411
1370 -544 2410
-1425 -523 2427
-1427 -527 2449
-1409 -523 2436
-1404 -524 2444
-1393 -523 2444
-1394 -526 2463
-1372 -521 2442
-1399 -535 2510
-1373 -528 2482
-1362 -527 2481
-1344 -523 2465
-1352 -529 2500
-1335 -526 2487
-1320 -523 2477
-1312 -523 2481
-1319 -529 2514
-1303 -526 2502
-1308 -531 2531
-1294 -529 2523
-1289 -530 2533
-1271 -526 2516
-1278 -533 2550
-1263 -530 2540
-1242 -525 2518
-1253 -533 2560
-1235 -528 2542
-1228 -529 2548
-1212 -525 2535
-1213 -530 2559
-1204 -529 2560
-1202 -532 2577
-1187 -529 2565
-1200 -538 2613
-1183 -534 2596
-1172 -533 2594
-1154 -529 2576
-1160 -535 2611
-1145 -532 2598
-1139 -533 2606
-1136 -536 2621
-1112 -528 2588
-1115 -533 2615
-1107 -534 2619
-1099 -534 2621
-1085 -531 2610
-1083 -534 2630
-1083 -538 2652
-1058 -530 2613
-1066 -538 2657
-1056 -537 2654
-1043 -535 2645
-1037 -536 2653
-1027 -535 2651
-1022 -537 2662
-1007 -533 2646
-1009 -539 2677
-994 -535 2659
-988 -536 2669
-975 -534 2658
-975 -538 2684
-965 -537 2681
-955 -536 2677
-949 -538 2686
-940 -537 2686
-933 -538 2692
-928 -540 2705
-924 -542 2717
-908 -538 2699
-900 -538 2699
-888 -536 2691
-881 -537 2698
-881 -542 2724
-871 -540 2720
-862 -540 2721
-846 -535 2698
-846 -540 2724
-832 -537 2710
-824 -537 2711
-813 -535 2706
-803 -534 2701
-803 -539 2728
-796 -540 2736
-786 -539 2731
-778 -539 2732
-766 -536 2721
-756 -536 2718
-754 -540 2741
-749 -542 2753
-733 -537 2727
-735 -544 2768
-724 -542 2757
-716 -542 2761
-703 -539 2745
-695 -539 2744
-689 -541 2756
-686 -545 2781
-679 -546 2784
-662 -539 2750
-652 -537 2745
-651 -544 2778
-640 -541 2767
-633 -543 2775
-624 -542 2773
-620 -546 2793
-603 -537 2751
-598 -540 2768
-591 -542 2775
-583 -542 2778
-575 -542 2782
-569 -544 2791
-558 -542 2782
-551 -543 2789
-544 -544 2796
-533 -542 2782
-528 -545 2802
-516 -541 2779
-511 -545 2802
-500 -541 2784
-495 -545 2803
-492 -551 2835
-472 -538 2768
-470 -545 2808
-464 -548 2820
-454 -546 2812
-443 -543 2797
-437 -545 2809
-430 -547 2819
-419 -543 2799
-413 -546 2817
-404 -545 2810
-398 -548 2826
-387 -545 2813
-378 -544 2807
-370 -545 2812
-363 -546 2817
-354 -546 2817
-344 -542 2800
-339 -548 2829
-329 -545 2815
-320 -544 2808
-312 -544 2809
-304 -544 2810
-299 -549 2838
-288 -544 2813
-279 -543 2808
-270 -543 2807
-264 -546 2824
-255 -545 2819
-247 -547 2827
-239 -545 2819
-229 -542 2801
-222 -546 2822
-213 -544 2814
-205 -545 2818
-197 -544 2814
-190 -547 2831
-179 -540 2796
-168 -530 2744
-148 -491 2539
-130 -457 2365
-122 -451 2335
-114 -448 2317
-109 -456 2359
-102 -455 2352
-96 -455 2355
-90 -460 2378
-85 -472 2444
-82 -495 2560
-82 -543 2807
-74 -546 2822
-66 -546 2821
-58 -550 2844
-50 -552 2856
-41 -549 2839
-33 -550 2842
-25 -547 2829
-17 -550 2841
-8 -552 2852
0 -551 2849
7 -552 2851
15 -547 2824
24 -547 2827
32 -544 2811
40 -549 2835
49 -549 2837
56 -543 2804
65 -546 2817
73 -547 2822
81 -548 2827
89 -542 2798
98 -547 2822
107 -552 2848
115 -551 2839
122 -547 2821
131 -551 2839
137 -542 2794
147 -547 2819
156 -549 2826
165 -552 2841
172 -548 2823
179 -544 2801
187 -545 2806
197 -549 2822
205 -550 2831
213 -549 2822
222 -550 2829
229 -548 2814
236 -546 2802
245 -548 2813
252 -544 2794
260 -544 2794
270 -548 2812
278 -547 2803
289 -553 2833
297 -552 2829
302 -547 2801
310 -547 2801
317 -545 2790
330 -552 2827
335 -546 2796
340 -542 2774
350 -544 2783
360 -548 2798
367 -546 2791
376 -547 2795
382 -544 2777
386 -539 2749
399 -546 2782
405 -542 2765
417 -548 2793
423 -545 2774
430 -544 2767
444 -550 2800
447 -544 2768
459 -550 2795
466 -548 2784
473 -546 2776
481 -546 2772
488 -545 2766
499 -549 2783
502 -542 2749
512 -545 2760
522 -547 2771
524 -540 2734
536 -544 2751
545 -546 2758
550 -542 2738
561 -545 2754
571 -547 2761
580 -548 2761
585 -545 2749
596 -548 2760
600 -544 2739
608 -544 2738
622 -549 2762
626 -545 2739
636 -547 2746
643 -546 2742
648 -543 2724
652 -540 2708
669 -547 2741
674 -545 2727
682 -545 2724
689 -544 2719
698 -545 2722
709 -547 2732
722 -551 2746
719 -542 2703
731 -545 2716
737 -544 2707
745 -544 2704
754 -545 2706
762 -544 2703
766 -542 2686
773 -541 2680
765 -530 2626
769 -527 2608
770 -523 2584
765 -514 2540
767 -510 2518
760 -501 2470
759 -495 2440
760 -491 2418
760 -487 2394
761 -483 2372
762 -478 2349
765 -476 2334
765 -472 2313
765 -467 2289
769 -466 2278
772 -464 2266
772 -459 2242
776 -457 2231
781 -457 2225
784 -454 2211
794 -456 2218
804 -458 2226
835 -472 2290
864 -485 2350
913 -508 2459
964 -532 2574
970 -531 2565
998 -542 2616
1008 -543 2618
1009 -540 2598
1031 -547 2631
1030 -542 2604
1038 -542 2603
1037 -537 2575
1052 -542 2592
1062 -542 2593
1079 -547 2613
1076 -542 2583
1084 -541 2579
1092 -541 2576
1088 -536 2545
1107 -541 2568
1112 -540 2558
1124 -542 2565
1128 -540 2551
1138 -541 2553
1149 -542 2556
1160 -544 2559
1149 -535 2515
1182 -547 2567
1180 -542 2541
1193 -544 2548
1202 -545 2546
1203 -541 2528
1202 -537 2506
1217 -541 2518
1234 -545 2532
1245 -546 2535
1234 -538 2492
1248 -540 2501
1257 -541 2499
1256 -537 2478
1271 -540 2489
