VERSION 0.7
FIELDS x y z
SIZE 4 4 4
TYPE I I I
COUNT 1 1 1
WIDTH 3332
HEIGHT 1
VIEWPOINT 0.0 0.0 0.0 1.0 0.0 0.0 0.0
POINTS 3332
DATA ascii
188 -541 1608
192 -539 1601
197 -539 1600
200 -534 1586
206 -539 1600
212 -542 1607
216 -539 1598
222 -541 1603
228 -544 1610
230 -538 1594
235 -539 1595
241 -542 1603
244 -537 1587
251 -543 1604
256 -542 1601
261 -543 1603
264 -540 1593
270 -542 1599
274 -540 1592
279 -541 1593
284 -540 1591
289 -541 1593
293 -539 1587
298 -540 1587
303 -540 1587
307 -539 1582
311 -537 1577
316 -538 1578
323 -542 1589
329 -544 1593
332 -540 1580
337 -541 1583
341 -539 1577
346 -539 1575
349 -537 1568
356 -539 1575
360 -538 1571
367 -542 1579
370 -540 1573
374 -539 1569
380 -541 1573
386 -542 1577
392 -544 1580
396 -542 1574
400 -541 1570
403 -538 1561
409 -540 1564
412 -538 1557
418 -540 1561
420 -536 1549
428 -540 1561
432 -539 1555
436 -539 1554
445 -544 1566
448 -542 1559
453 -541 1557
458 -541 1556
462 -541 1553
468 -543 1557
476 -546 1565
478 -543 1554
480 -539 1542
488 -543 1553
493 -543 1550
495 -540 1542
504 -545 1553
507 -543 1546
511 -542 1542
512 -538 1530
519 -540 1535
523 -539 1529
534 -546 1548
535 -542 1535
543 -545 1541
543 -540 1526
550 -543 1532
554 -541 1526
555 -538 1514
562 -540 1520
567 -540 1519
574 -543 1523
577 -541 1517
581 -540 1512
586 -540 1510
593 -542 1516
599 -543 1515
601 -541 1508
610 -544 1515
610 -541 1504
614 -540 1499
619 -540 1498
621 -537 1489
631 -542 1501
633 -539 1490
636 -538 1485
645 -542 1494
652 -544 1497
651 -538 1480
658 -540 1484
665 -542 1487
673 -545 1492
677 -544 1488
679 -542 1479
682 -540 1473
690 -543 1479
694 -542 1474
694 -539 1464
699 -539 1461
710 -544 1473
713 -543 1467
719 -543 1467
721 -542 1460
726 -542 1458
728 -539 1449
733 -540 1447
740 -541 1449
743 -540 1443
752 -543 1451
753 -541 1441
754 -537 1430
762 -540 1434
772 -543 1442
769 -538 1424
772 -537 1420
778 -538 1419
778 -535 1408
772 -527 1387
780 -529 1390
777 -524 1374
770 -517 1352
771 -514 1343
765 -507 1322
771 -508 1321
769 -504 1308
766 -499 1293
-864 -530 1411
-853 -527 1405
-850 -528 1410
-850 -531 1421
-844 -530 1421
-829 -524 1407
-833 -530 1425
-830 -531 1430
-824 -530 1430
-813 -526 1422
-812 -529 1431
-807 -528 1433
-805 -531 1441
-794 -527 1432
-796 -531 1446
-796 -534 1457
-787 -532 1453
-782 -532 1455
-773 -529 1450
-762 -524 1440
-760 -526 1447
-767 -535 1473
-755 -530 1461
-748 -528 1459
-751 -534 1477
-746 -534 1479
-741 -534 1480
-737 -535 1485
-731 -534 1484
-728 -535 1489
-718 -531 1482
-710 -529 1477
-702 -526 1472
-701 -530 1483
-702 -534 1497
-697 -534 1500
-694 -536 1506
-681 -529 1489
-685 -536 1510
-678 -535 1508
-666 -529 1494
-660 -528 1493
-661 -533 1508
-658 -534 1515
-657 -537 1525
-648 -534 1517
-645 -536 1525
-635 -532 1514
-632 -533 1521
-630 -536 1528
-621 -532 1521
-620 -535 1531
-610 -531 1520
-609 -535 1533
-603 -533 1529
-595 -530 1523
-594 -534 1535
-591 -536 1542
-583 -533 1535
-577 -532 1535
-576 -536 1547
-568 -532 1539
-565 -535 1547
-554 -529 1530
-558 -537 1557
-553 -537 1557
-549 -538 1563
-541 -535 1554
-535 -534 1554
-533 -537 1563
-525 -534 1555
-519 -533 1553
-519 -538 1569
-512 -535 1564
-508 -537 1568
-506 -539 1576
-495 -533 1559
-493 -536 1569
-491 -539 1580
-484 -537 1577
-480 -538 1579
-473 -535 1573
-467 -535 1573
-461 -534 1570
-458 -535 1576
-457 -540 1591
-450 -537 1584
-441 -533 1573
-439 -536 1583
-433 -535 1580
-430 -537 1589
-423 -534 1580
-425 -543 1608
-413 -534 1581
-410 -537 1591
-407 -539 1600
-401 -537 1594
-395 -536 1593
-390 -536 1591
-384 -535 1591
-380 -535 1592
-375 -536 1594
-371 -538 1600
-364 -534 1589
-364 -541 1612
-355 -535 1595
-354 -540 1612
-347 -538 1606
-343 -539 1608
-340 -542 1619
-332 -537 1606
-327 -537 1605
-321 -535 1601
-317 -536 1605
-311 -535 1601
-306 -534 1600
-305 -541 1621
-299 -539 1616
-292 -535 1605
-287 -536 1609
-285 -540 1621
-279 -538 1616
-275 -541 1624
-268 -536 1610
-264 -538 1618
-258 -537 1614
-255 -541 1625
-248 -536 1614
-244 -538 1619
-238 -536 1612
-235 -538 1621
-229 -537 1618
-225 -539 1624
-218 -534 1610
-215 -538 1621
-211 -540 1628
-205 -537 1620
-200 -537 1619
-196 -539 1625
-190 -538 1624
-185 -536 1619
-181 -539 1627
-174 -533 1610
-169 -532 1606
-152 -493 1490
-138 -461 1393
-132 -456 1377
-126 -450 1361
-122 -449 1358
-118 -450 1361
-113 -448 1355
-109 -447 1352
-106 -453 1370
-102 -452 1367
-98 -453 1369
-95 -456 1380
-91 -458 1387
-88 -465 1407
-85 -470 1423
-82 -480 1453
-82 -504 1527
-80 -522 1581
-77 -532 1610
-73 -536 1622
-69 -542 1640
-64 -542 1641
-59 -543 1644
-54 -541 1636
-49 -544 1648
-44 -544 1646
-39 -541 1637
-35 -545 1650
-29 -539 1630
-25 -541 1637
-20 -543 1643
-15 -544 1647
-10 -537 1626
-5 -543 1642
0 -542 1640
4 -541 1635
9 -540 1634
14 -541 1637
19 -540 1634
23 -540 1634
28 -540 1632
33 -540 1632
38 -541 1634
43 -538 1625
48 -540 1633
53 -540 1633
58 -543 1640
63 -541 1635
67 -539 1627
72 -541 1633
77 -539 1628
82 -541 1632
87 -539 1627
92 -543 1638
97 -541 1633
101 -539 1625
107 -542 1636
111 -540 1629
116 -541 1631
121 -542 1633
126 -539 1624
130 -538 1620
136 -540 1626
141 -542 1631
145 -541 1627
151 -541 1628
155 -541 1628
160 -540 1622
165 -542 1628
170 -541 1625
175 -541 1626
180 -541 1623
183 -536 1608
189 -539 1618
194 -539 1618
200 -542 1625
204 -541 1621
209 -540 1618
213 -540 1617
218 -539 1615
222 -538 1609
226 -535 1602
232 -539 1611
238 -540 1614
243 -541 1616
250 -545 1626
251 -537 1604
255 -535 1597
264 -543 1620
266 -537 1602
271 -538 1602
276 -540 1606
281 -540 1606
287 -542 1611
291 -539 1602
297 -542 1610
301 -541 1607
307 -541 1607
309 -537 1593
317 -543 1610
319 -538 1593
326 -542 1604
330 -540 1599
337 -543 1607
338 -538 1590
342 -537 1585
348 -538 1588
354 -539 1591
360 -541 1594
364 -541 1593
372 -544 1602
370 -535 1575
377 -538 1582
382 -539 1583
387 -538 1579
394 -541 1589
396 -537 1575
401 -537 1575
409 -541 1585
411 -538 1575
417 -540 1580
426 -545 1591
427 -540 1576
433 -541 1579
437 -541 1577
440 -538 1568
445 -539 1568
450 -539 1567
453 -537 1560
459 -538 1560
466 -541 1569
471 -541 1567
476 -541 1566
482 -542 1567
484 -539 1558
489 -539 1557
497 -542 1565
499 -540 1556
507 -543 1564
507 -538 1547
513 -539 1549
520 -541 1553
525 -542 1553
530 -542 1552
535 -542 1551
538 -540 1545
541 -538 1536
547 -540 1540
552 -539 1537
561 -543 1547
564 -542 1541
567 -540 1534
573 -541 1536
577 -540 1532
581 -540 1529
589 -542 1533
590 -539 1524
599 -543 1532
603 -542 1527
606 -540 1521
611 -540 1520
616 -541 1520
623 -542 1522
621 -537 1504
629 -539 1509
639 -544 1521
643 -543 1516
645 -541 1507
645 -536 1493
657 -543 1509
659 -541 1501
674 -549 1521
671 -543 1503
677 -543 1502
685 -546 1508
688 -544 1501
691 -543 1495
690 -538 1481
699 -542 1488
707 -544 1492
707 -540 1479
716 -543 1486
719 -542 1480
724 -542 1478
724 -539 1467
730 -539 1466
732 -537 1458
746 -545 1476
747 -542 1466
750 -540 1459
752 -538 1451
757 -539 1450
763 -539 1450
763 -536 1439
770 -538 1441
777 -539 1442
775 -534 1427
774 -531 1414
775 -528 1404
772 -523 1388
775 -522 1383
770 -515 1363
772 -513 1356
770 -509 1342
767 -504 1327
766 -500 1314
763 -495 1300
769 -497 1300
-873 -532 1429
-859 -525 1415
-857 -528 1424
-849 -526 1421
-856 -533 1444
-845 -530 1436
-834 -526 1428
-831 -527 1434
-826 -527 1436
-828 -531 1451
-811 -523 1431
-816 -530 1451
-810 -529 1451
-809 -532 1461
-795 -526 1447
-796 -529 1459
-787 -527 1454
-784 -528 1461
-788 -534 1479
-778 -531 1472
-767 -526 1462
-764 -528 1469
-763 -530 1477
-752 -526 1468
-757 -533 1491
-753 -534 1494
-744 -531 1488
-737 -529 1486
-731 -528 1485
-730 -531 1495
-728 -534 1505
-717 -530 1494
-718 -533 1507
-712 -533 1507
-707 -533 1510
-697 -529 1500
-698 -533 1514
-690 -531 1510
-684 -531 1511
-679 -531 1512
-675 -531 1515
-672 -533 1522
-663 -529 1514
-663 -534 1528
-661 -536 1536
-651 -532 1526
-650 -535 1537
-647 -536 1543
-642 -537 1546
-633 -533 1538
-630 -535 1543
-627 -536 1549
-618 -533 1541
-617 -536 1553
-605 -531 1538
-608 -537 1558
-604 -538 1562
-594 -533 1551
-588 -533 1551
-585 -534 1556
-578 -533 1554
-576 -535 1562
-569 -534 1559
-571 -540 1578
-564 -538 1574
-553 -533 1560
-551 -535 1570
-545 -534 1566
-543 -537 1578
-537 -536 1576
-530 -533 1570
-526 -535 1574
-526 -539 1590
-517 -536 1581
-512 -535 1581
-505 -533 1575
-500 -533 1577
-498 -537 1588
-489 -532 1575
-486 -534 1582
-483 -537 1591
-479 -538 1596
-473 -536 1592
-469 -538 1598
-465 -538 1601
-458 -536 1595
-452 -535 1593
-445 -533 1589
-446 -540 1610
-436 -534 1593
-433 -536 1602
-426 -534 1595
-423 -536 1603
-417 -535 1599
-416 -540 1616
-411 -539 1615
-403 -536 1605
-399 -536 1609
-396 -539 1617
-393 -541 1625
-383 -535 1608
-380 -537 1615
-375 -538 1618
-372 -541 1626
-363 -534 1607
-362 -541 1630
-355 -538 1621
-347 -533 1605
-343 -534 1612
-341 -539 1626
-338 -542 1635
-334 -543 1640
-325 -537 1623
-322 -540 1632
-317 -541 1635
-310 -536 1623
-304 -534 1618
-301 -538 1629
-296 -538 1629
-291 -538 1631
-286 -538 1630
-280 -537 1627
-277 -539 1636
-271 -538 1633
-266 -538 1633
-260 -535 1624
-256 -538 1634
-249 -532 1616
-246 -537 1633
-243 -542 1648
-237 -540 1642
-231 -536 1630
-227 -539 1640
-222 -539 1640
-217 -537 1636
-211 -536 1632
-207 -539 1641
-202 -538 1640
-198 -540 1646
-192 -538 1640
-187 -537 1637
-181 -534 1629
-176 -535 1631
-170 -531 1619
-157 -506 1544
-140 -465 1420
-133 -456 1390
-129 -455 1388
-124 -452 1380
-119 -452 1379
-115 -449 1372
-110 -448 1368
-107 -452 1381
-103 -451 1377
-99 -454 1386
-95 -455 1390
-92 -461 1408
-89 -464 1417
-86 -470 1436
-83 -478 1460
-82 -500 1529
-81 -519 1585
-78 -534 1632
-74 -537 1642
-69 -537 1641
-65 -543 1660
-59 -541 1653
-55 -543 1659
-50 -545 1667
-44 -540 1651
-40 -541 1655
-35 -540 1650
-30 -541 1654
-25 -540 1649
-20 -538 1644
-15 -540 1650
-10 -541 1654
-5 -540 1649
0 -547 1671
4 -544 1661
9 -544 1663
14 -543 1658
19 -539 1647
24 -538 1644
29 -542 1654
34 -541 1653
38 -539 1646
43 -541 1651
48 -538 1643
53 -540 1648
58 -541 1650
63 -536 1635
68 -543 1656
73 -540 1646
78 -540 1646
83 -540 1645
88 -541 1649
92 -539 1644
98 -541 1649
102 -539 1643
108 -541 1648
112 -541 1646
118 -542 1648
122 -539 1641
126 -535 1629
131 -538 1636
138 -544 1654
142 -539 1639
148 -544 1653
151 -537 1632
157 -541 1644
161 -540 1638
166 -539 1635
172 -542 1645
177 -541 1641
180 -538 1632
186 -541 1640
192 -542 1642
197 -542 1643
201 -540 1636
206 -541 1637
210 -540 1634
216 -541 1637
221 -541 1635
225 -539 1629
230 -540 1632
234 -539 1627
240 -541 1632
245 -539 1627
251 -543 1638
257 -545 1641
260 -540 1627
264 -539 1622
270 -542 1631
276 -544 1637
280 -542 1630
284 -539 1620
290 -542 1628
294 -541 1624
299 -540 1621
305 -543 1628
308 -539 1616
312 -538 1611
317 -538 1611
324 -542 1621
329 -542 1620
333 -540 1614
337 -538 1608
343 -540 1612
347 -539 1608
353 -540 1610
357 -539 1607
362 -539 1606
366 -538 1601
373 -541 1608
376 -539 1602
379 -536 1592
389 -542 1610
393 -542 1606
397 -541 1603
404 -543 1609
406 -539 1596
412 -540 1598
414 -537 1586
421 -539 1593
426 -541 1595
432 -542 1598
435 -540 1590
441 -540 1591
445 -540 1587
451 -541 1591
454 -538 1580
461 -542 1589
468 -544 1594
471 -542 1587
474 -540 1579
480 -541 1581
487 -542 1585
491 -541 1580
496 -542 1581
498 -539 1569
503 -539 1568
508 -539 1569
514 -541 1571
517 -538 1562
523 -540 1565
531 -543 1573
532 -538 1558
543 -545 1575
545 -542 1565
554 -546 1575
557 -544 1568
558 -541 1557
565 -542 1560
572 -544 1564
570 -538 1544
578 -541 1552
581 -539 1544
589 -542 1550
594 -542 1549
597 -540 1542
608 -546 1556
605 -539 1535
614 -543 1544
620 -544 1544
621 -541 1534
628 -542 1537
632 -541 1532
633 -538 1521
641 -541 1528
643 -539 1519
645 -536 1509
651 -537 1510
667 -546 1533
675 -549 1539
669 -540 1512
676 -542 1516
681 -541 1512
685 -541 1510
694 -544 1515
697 -542 1509
695 -538 1494
705 -541 1502
711 -542 1503
719 -544 1506
717 -539 1490
727 -543 1498
728 -540 1488
732 -540 1484
734 -538 1476
746 -543 1488
744 -538 1472
757 -544 1487
760 -542 1480
759 -538 1466
768 -542 1473
767 -537 1459
771 -537 1455
777 -537 1454
784 -539 1456
783 -535 1443
779 -529 1424
771 -520 1399
770 -516 1385
770 -513 1375
768 -509 1362
765 -504 1346
766 -501 1336
766 -498 1326
763 -494 1311
765 -492 1304
768 -491 1300
-878 -529 1438
-869 -527 1434
-877 -535 1458
-870 -534 1457
-857 -529 1447
-849 -527 1445
-846 -528 1450
-843 -529 1456
-834 -527 1451
-827 -526 1450
-831 -531 1467
-825 -531 1469
-822 -532 1474
-813 -529 1469
-812 -532 1478
-803 -529 1475
-797 -529 1475
-787 -525 1468
-786 -528 1477
-785 -530 1486
-778 -529 1485
-774 -530 1489
-768 -529 1489
-764 -530 1493
-766 -535 1509
-759 -533 1507
-754 -533 1510
-746 -531 1507
-745 -534 1515
-735 -530 1508
-724 -526 1498
-726 -531 1513
-724 -533 1522
-719 -533 1525
-712 -532 1523
-707 -532 1523
-705 -534 1532
-701 -534 1535
-692 -532 1529
-689 -533 1535
-679 -529 1526
-679 -533 1539
-669 -530 1531
-669 -533 1542
-659 -529 1534
-661 -535 1550
-655 -534 1551
-650 -534 1552
-647 -535 1558
-638 -532 1551
-638 -537 1565
-630 -534 1560
-623 -533 1556
-618 -532 1557
-621 -540 1580
-615 -538 1577
-600 -530 1555
-594 -529 1554
-596 -535 1573
-588 -532 1566
-590 -538 1586
-579 -533 1573
-579 -537 1586
-568 -532 1572
-567 -536 1584
-561 -535 1583
-556 -534 1583
-550 -534 1584
-549 -538 1598
-540 -534 1586
-534 -533 1585
-533 -537 1596
-525 -534 1591
-520 -534 1590
-515 -534 1593
-512 -536 1600
-501 -530 1583
-504 -538 1607
-498 -537 1607
-490 -534 1598
-488 -536 1607
-482 -536 1607
-478 -537 1611
-472 -535 1608
-465 -533 1602
-462 -536 1612
-459 -538 1618
-452 -536 1615
-448 -537 1619
-442 -536 1616
-437 -536 1617
-433 -537 1620
-426 -535 1616
-422 -535 1618
-417 -536 1620
-413 -537 1626
-406 -534 1618
-404 -538 1631
-398 -536 1626
-393 -537 1629
-387 -536 1626
-384 -538 1634
-378 -537 1632
-371 -534 1624
-369 -538 1637
-361 -535 1627
-359 -538 1638
-352 -536 1633
-350 -540 1644
-343 -536 1635
-338 -537 1638
-329 -531 1620
-328 -537 1638
-320 -532 1624
-315 -532 1624
-312 -536 1638
-309 -538 1646
-303 -536 1641
-296 -534 1633
-293 -536 1641
-289 -538 1649
-282 -534 1635
-279 -539 1650
-276 -543 1664
-268 -537 1648
-265 -540 1657
-260 -540 1658
-254 -538 1650
-249 -539 1655
-245 -541 1660
-239 -538 1653
-234 -537 1651
-228 -535 1645
-224 -539 1657
-220 -540 1659
-213 -536 1647
-209 -539 1658
-203 -537 1651
-200 -541 1665
-196 -543 1671
-189 -539 1659
-185 -540 1663
-180 -540 1664
-172 -531 1635
-163 -519 1601
-145 -475 1464
-134 -454 1400
-129 -450 1388
-124 -451 1390
-119 -445 1373
-116 -451 1391
-112 -453 1396
-107 -448 1383
-103 -450 1388
-100 -452 1396
-97 -457 1410
-92 -456 1409
-89 -461 1422
-86 -467 1441
-83 -472 1458
-82 -498 1536
-83 -526 1624
-79 -536 1656
-74 -536 1655
-70 -542 1673
-65 -540 1668
-60 -544 1678
-55 -544 1679
-51 -548 1691
-45 -542 1673
-40 -540 1667
-35 -540 1667
-30 -542 1673
-25 -544 1680
-20 -545 1681
-15 -540 1666
-10 -542 1674
-5 -546 1684
0 -539 1663
4 -542 1672
9 -540 1667
14 -544 1677
19 -542 1671
24 -542 1672
29 -543 1675
34 -542 1670
39 -539 1664
44 -542 1670
49 -540 1664
54 -539 1662
59 -539 1663
64 -543 1672
69 -545 1678
74 -542 1669
78 -539 1661
83 -539 1660
89 -544 1673
94 -544 1674
99 -541 1664
104 -542 1668
109 -541 1664
113 -537 1653
118 -540 1660
123 -538 1654
128 -539 1655
133 -541 1662
139 -542 1664
144 -542 1664
149 -542 1664
153 -541 1659
158 -539 1654
164 -543 1665
168 -541 1659
172 -539 1651
178 -542 1659
184 -543 1662
189 -544 1667
194 -545 1668
197 -538 1646
203 -540 1653
208 -540 1651
213 -542 1655
216 -537 1642
224 -543 1658
228 -542 1656
230 -535 1634
238 -542 1653
242 -540 1647
247 -540 1645
252 -540 1644
259 -545 1660
262 -541 1645
269 -544 1654
273 -543 1651
277 -541 1643
282 -541 1643
287 -541 1642
293 -542 1644
296 -539 1635
302 -541 1640
306 -540 1636
310 -538 1628
317 -541 1637
318 -534 1615
326 -540 1631
331 -539 1628
334 -537 1622
341 -539 1627
347 -542 1635
353 -543 1637
356 -540 1627
362 -541 1629
366 -540 1625
370 -539 1621
376 -540 1624
382 -542 1627
388 -543 1629
392 -543 1627
397 -542 1625
402 -542 1622
405 -540 1614
410 -539 1612
416 -541 1616
419 -539 1608
426 -541 1614
427 -537 1599
435 -540 1609
439 -539 1605
446 -542 1611
454 -545 1619
453 -539 1600
459 -540 1602
466 -542 1605
469 -540 1600
476 -542 1604
477 -538 1591
484 -540 1594
487 -538 1586
492 -538 1587
501 -543 1599
506 -543 1597
508 -539 1585
518 -545 1601
518 -540 1585
523 -540 1582
529 -541 1585
535 -542 1587
538 -540 1578
542 -539 1574
551 -543 1583
556 -543 1583
555 -537 1565
562 -540 1570
567 -539 1567
576 -544 1578
582 -545 1579
579 -537 1556
585 -538 1557
594 -542 1565
601 -544 1570
603 -541 1560
607 -540 1555
612 -541 1555
624 -546 1569
621 -539 1548
627 -540 1548
634 -542 1553
641 -544 1554
640 -539 1540
647 -541 1542
652 -541 1541
657 -541 1538
664 -543 1542
671 -544 1544
677 -545 1545
681 -545 1542
675 -536 1515
690 -544 1534
695 -544 1532
698 -542 1526
703 -542 1524
707 -542 1520
716 -545 1526
720 -544 1522
723 -543 1516
723 -539 1504
731 -541 1509
731 -538 1496
741 -541 1503
746 -541 1501
747 -539 1492
750 -538 1487
759 -541 1493
763 -540 1488
766 -539 1482
768 -537 1474
775 -538 1475
776 -535 1465
777 -532 1455
772 -526 1435
770 -522 1421
774 -521 1417
769 -514 1397
769 -511 1386
767 -506 1371
768 -505 1363
767 -500 1350
767 -498 1340
767 -494 1329
769 -493 1322
769 -490 1313
767 -486 1299
-884 -528 1451
-880 -529 1455
-877 -530 1460
-869 -528 1457
-861 -527 1456
-863 -531 1470
-855 -529 1467
-853 -531 1475
-842 -527 1467
-842 -530 1478
-837 -530 1480
-828 -528 1476
-826 -530 1484
-821 -529 1485
-817 -530 1490
-806 -526 1481
-806 -530 1494
-798 -528 1490
-800 -532 1505
-790 -529 1498
-787 -530 1505
-783 -531 1508
-775 -529 1504
-768 -527 1503
-770 -532 1519
-764 -532 1520
-752 -527 1508
-757 -534 1530
-744 -528 1516
-746 -533 1531
-737 -530 1525
-733 -531 1530
-730 -533 1537
-720 -529 1528
-727 -538 1556
-717 -534 1547
-710 -533 1546
-700 -529 1536
-697 -530 1542
-693 -532 1547
-686 -530 1543
-682 -531 1548
-679 -532 1554
-672 -531 1551
-662 -526 1541
-661 -530 1554
-658 -532 1560
-657 -535 1572
-652 -535 1572
-648 -536 1577
-641 -534 1574
-635 -533 1573
-629 -533 1573
-628 -536 1584
-618 -532 1573
-616 -534 1582
-613 -536 1589
-603 -532 1579
-606 -539 1602
-598 -536 1595
-587 -531 1580
-593 -541 1611
-580 -533 1590
-579 -537 1604
-569 -533 1593
-565 -534 1596
-563 -537 1607
-559 -537 1610
-549 -533 1599
-548 -537 1611
-540 -534 1604
-541 -540 1624
-531 -535 1609
-525 -534 1606
-522 -536 1614
-520 -539 1626
-514 -538 1623
-508 -537 1622
-501 -535 1616
-496 -536 1621
-492 -536 1622
-484 -533 1616
-483 -538 1630
-476 -536 1625
-469 -533 1617
-465 -534 1622
-461 -536 1630
-454 -533 1622
-452 -537 1635
-447 -537 1635
-443 -539 1641
-439 -539 1645
-432 -538 1641
-430 -541 1651
-421 -535 1636
-419 -540 1651
-410 -534 1635
-406 -536 1641
-405 -541 1656
-396 -536 1642
-393 -538 1651
-384 -534 1637
-382 -538 1652
-375 -535 1644
-369 -533 1638
-366 -536 1648
-359 -534 1642
-357 -538 1655
-351 -536 1650
-347 -538 1655
-342 -538 1659
-335 -535 1650
-330 -535 1650
-323 -533 1643
-319 -533 1645
-315 -535 1652
-311 -537 1660
-305 -536 1656
-300 -535 1653
-296 -537 1660
-293 -541 1673
-287 -540 1670
-281 -537 1663
-277 -539 1669
-273 -542 1678
-264 -534 1655
-261 -538 1666
-256 -538 1667
-252 -541 1677
-246 -538 1668
-240 -536 1663
-237 -539 1674
-231 -538 1671
-226 -539 1674
-222 -541 1680
-217 -540 1677
-209 -534 1660
-206 -540 1678
-201 -538 1672
-195 -536 1668
-191 -539 1676
-186 -539 1676
-180 -537 1672
-173 -529 1647
-166 -525 1633
-152 -495 1542
-137 -460 1434
-132 -457 1422
-126 -451 1404
-120 -447 1393
-117 -451 1405
-112 -447 1392
-109 -450 1403
-105 -451 1407
-101 -454 1415
-98 -457 1425
-93 -458 1428
-90 -460 1433
-87 -469 1462
-84 -474 1479
-82 -493 1537
-82 -519 1618
-79 -532 1658
-75 -539 1682
-70 -540 1684
-66 -545 1698
-61 -543 1694
-55 -539 1682
-51 -544 1697
-45 -541 1687
-40 -543 1693
-35 -541 1687
-30 -542 1692
-25 -542 1691
-20 -542 1690
-15 -539 1681
-10 -542 1691
-5 -545 1699
0 -542 1689
4 -542 1689
9 -541 1686
14 -541 1685
19 -541 1687
24 -543 1693
29 -539 1681
34 -542 1688
39 -543 1693
44 -538 1677
49 -542 1686
54 -541 1684
59 -539 1679
64 -539 1678
69 -540 1680
75 -542 1686
80 -542 1685
84 -541 1683
90 -546 1699
94 -539 1675
99 -537 1671
105 -541 1682
109 -537 1669
115 -542 1682
120 -543 1688
124 -538 1671
129 -538 1670
134 -539 1673
139 -540 1676
144 -539 1672
149 -540 1675
154 -538 1668
159 -537 1664
164 -539 1669
170 -543 1680
174 -539 1668
178 -536 1658
184 -539 1669
189 -537 1662
194 -538 1662
199 -539 1667
204 -539 1665
209 -539 1664
214 -539 1663
219 -540 1666
224 -540 1665
230 -541 1667
236 -543 1674
239 -539 1660
245 -540 1664
250 -541 1665
255 -542 1668
258 -536 1650
265 -541 1662
270 -542 1665
274 -539 1656
279 -540 1656
284 -538 1652
288 -537 1646
291 -534 1637
300 -542 1661
304 -540 1652
310 -542 1658
314 -540 1650
317 -537 1641
325 -541 1651
331 -543 1658
334 -539 1646
340 -541 1651
343 -539 1642
349 -539 1643
350 -534 1624
360 -541 1647
361 -536 1629
370 -542 1646
374 -539 1637
377 -537 1630
385 -541 1641
391 -542 1643
394 -540 1636
400 -541 1637
404 -540 1632
410 -542 1637
416 -543 1639
422 -544 1642
425 -542 1634
431 -542 1634
434 -541 1628
435 -535 1610
444 -540 1623
447 -538 1616
456 -542 1628
457 -538 1615
464 -541 1621
470 -542 1623
474 -540 1616
477 -538 1609
487 -543 1623
489 -541 1614
494 -540 1611
503 -545 1622
505 -542 1612
509 -541 1607
515 -542 1610
518 -540 1602
521 -538 1595
533 -545 1614
535 -542 1605
539 -541 1599
544 -541 1597
547 -539 1590
554 -541 1594
556 -538 1584
558 -535 1574
567 -539 1585
574 -541 1589
582 -544 1595
579 -536 1571
590 -542 1585
591 -538 1574
601 -543 1586
601 -538 1570
606 -539 1569
613 -541 1572
622 -544 1582
622 -540 1567
635 -547 1586
632 -540 1562
642 -544 1574
647 -544 1571
650 -542 1564
649 -538 1549
661 -544 1564
664 -542 1557
673 -545 1565
673 -541 1551
680 -543 1553
688 -545 1557
693 -545 1556
696 -544 1550
705 -546 1556
707 -545 1548
710 -543 1541
710 -539 1529
720 -543 1538
727 -545 1540
730 -543 1534
735 -543 1532
735 -539 1519
738 -538 1512
750 -543 1525
751 -540 1513
756 -540 1511
763 -542 1513
763 -538 1500
769 -539 1502
772 -538 1495
778 -538 1494
774 -532 1476
779 -532 1473
779 -529 1461
771 -520 1435
768 -515 1418
774 -516 1418
768 -509 1397
765 -504 1380
766 -502 1372
767 -499 1363
765 -495 1348
770 -495 1346
765 -489 1327
766 -487 1320
766 -484 1309
774 -486 1312
-893 -528 1466
-888 -528 1469
-885 -529 1474
-880 -530 1478
-875 -530 1481
-872 -531 1487
-868 -532 1491
-859 -529 1486
-850 -527 1483
-853 -532 1499
-841 -528 1489
-841 -531 1500
-834 -530 1500
-826 -528 1496
-824 -530 1504
-814 -527 1499
-815 -530 1511
-806 -528 1507
-808 -533 1522
-803 -532 1524
-794 -530 1520
-786 -528 1516
-780 -527 1515
-783 -533 1535
-774 -530 1528
-766 -528 1525
-771 -535 1548
-763 -533 1544
-755 -531 1539
-751 -532 1544
-744 -531 1542
-737 -529 1541
-741 -536 1562
-733 -534 1558
-730 -535 1564
-729 -538 1574
-718 -534 1565
-711 -532 1562
-706 -533 1564
-700 -532 1563
-698 -534 1571
-689 -531 1566
-690 -536 1582
-684 -535 1581
-679 -535 1582
-669 -532 1574
-665 -532 1579
-664 -535 1588
-655 -532 1581
-654 -536 1593
-651 -537 1599
-644 -536 1598
-636 -533 1591
-631 -533 1593
-627 -534 1598
-619 -531 1591
-618 -536 1604
-613 -535 1605
-609 -536 1610
-602 -535 1607
-595 -533 1604
-592 -535 1609
-585 -533 1607
-585 -537 1621
-574 -532 1606
-569 -532 1608
-564 -533 1612
-562 -536 1621
-556 -534 1619
-550 -534 1619
-543 -531 1613
-544 -537 1633
-535 -534 1622
-535 -539 1639
-525 -535 1628
-521 -536 1632
-516 -535 1632
-510 -535 1631
-506 -536 1636
-498 -533 1628
-496 -535 1638
-490 -535 1637
-488 -538 1648
-481 -536 1643
-475 -535 1642
-469 -533 1637
-466 -537 1648
-461 -536 1648
-456 -536 1649
-451 -537 1653
-448 -539 1659
-440 -535 1650
-436 -536 1654
-432 -538 1659
-425 -536 1655
-421 -537 1658
-415 -537 1659
-412 -538 1664
-405 -537 1660
-401 -538 1667
-399 -542 1678
-390 -537 1665
-384 -536 1660
-378 -534 1657
-379 -543 1685
-370 -537 1668
-364 -535 1663
-361 -539 1674
-357 -540 1681
-348 -535 1665
-345 -539 1676
-338 -534 1663
-334 -536 1670
-329 -537 1673
-322 -534 1664
-317 -533 1663
-314 -537 1675
-310 -539 1682
-305 -539 1683
-299 -537 1678
-295 -539 1685
-288 -536 1677
-283 -537 1678
-279 -538 1682
-274 -538 1685
-269 -539 1688
-263 -537 1681
-258 -536 1680
-255 -541 1696
-247 -536 1679
-243 -537 1683
-239 -540 1692
-233 -538 1686
-227 -535 1677
-224 -541 1698
-218 -539 1690
-212 -536 1683
-209 -542 1703
-203 -539 1693
-197 -536 1682
-193 -539 1695
-188 -541 1699
-182 -537 1689
-177 -537 1690
-169 -528 1659
-158 -510 1603
-140 -465 1462
-134 -460 1447
-129 -458 1440
-123 -451 1420
-117 -446 1403
-114 -450 1415
-110 -450 1415
-105 -450 1418
-101 -451 1420
-97 -451 1422
-94 -458 1441
-92 -465 1466
-87 -463 1460
-84 -471 1485
-82 -487 1536
-82 -515 1621
-80 -529 1666
-76 -540 1700
-71 -542 1708
-67 -545 1717
-61 -543 1709
-56 -540 1700
-51 -540 1702
-46 -544 1714
-41 -542 1708
-36 -541 1705
-31 -542 1709
-25 -538 1693
-21 -545 1717
-15 -540 1702
-10 -544 1713
-5 -540 1701
0 -539 1698
4 -537 1690
9 -539 1697
14 -540 1700
19 -541 1702
24 -542 1705
29 -540 1701
34 -539 1696
40 -540 1699
45 -543 1708
50 -541 1702
55 -541 1700
60 -539 1696
65 -540 1698
70 -540 1697
75 -541 1702
80 -542 1703
85 -539 1695
90 -540 1696
95 -538 1690
100 -540 1695
105 -541 1697
110 -540 1696
115 -540 1694
121 -542 1699
125 -538 1687
130 -537 1684
135 -539 1690
140 -538 1685
146 -541 1695
152 -543 1700
157 -544 1702
162 -543 1700
166 -541 1692
171 -540 1689
177 -544 1700
181 -540 1687
188 -544 1701
191 -540 1687
195 -537 1676
202 -541 1689
206 -539 1682
211 -540 1685
217 -541 1686
221 -539 1680
228 -542 1690
231 -539 1679
237 -541 1683
242 -540 1681
247 -541 1685
251 -539 1675
259 -544 1692
261 -539 1674
266 -538 1670
274 -545 1690
277 -539 1673
281 -538 1668
288 -542 1680
290 -536 1661
297 -541 1674
301 -539 1667
306 -539 1666
311 -538 1663
318 -541 1671
322 -540 1666
326 -538 1661
332 -540 1665
340 -544 1678
342 -540 1664
345 -537 1653
353 -541 1665
358 -541 1664
362 -539 1657
365 -536 1647
374 -542 1662
379 -542 1663
385 -543 1665
384 -536 1641
390 -536 1642
398 -541 1655
404 -541 1655
410 -543 1658
411 -538 1642
419 -541 1651
425 -543 1654
428 -541 1647
432 -539 1641
437 -539 1639
444 -541 1644
452 -545 1654
452 -539 1637
460 -542 1643
463 -540 1635
472 -545 1649
478 -545 1649
479 -541 1636
486 -544 1642
490 -542 1635
495 -543 1635
500 -543 1634
500 -537 1617
507 -539 1619
514 -541 1626
518 -540 1620
525 -542 1624
530 -542 1624
533 -539 1614
540 -542 1620
542 -539 1608
547 -539 1607
557 -543 1620
559 -540 1609
567 -544 1617
571 -542 1612
578 -545 1617
580 -542 1607
587 -543 1610
590 -542 1603
595 -542 1601
600 -542 1599
606 -543 1600
609 -541 1593
619 -545 1603
621 -543 1595
625 -542 1590
631 -543 1591
634 -541 1584
647 -548 1602
647 -543 1586
649 -540 1577
651 -538 1569
660 -541 1576
666 -542 1577
675 -546 1585
678 -544 1578
684 -545 1579
685 -542 1566
690 -542 1565
696 -542 1564
697 -539 1553
709 -545 1567
706 -538 1546
715 -542 1555
720 -542 1553
723 -540 1545
730 -542 1547
735 -542 1545
739 -541 1541
745 -542 1541
750 -541 1538
754 -541 1534
758 -540 1530
766 -542 1533
766 -539 1521
772 -539 1520
779 -541 1521
772 -533 1497
778 -533 1496
775 -528 1479
775 -525 1466
773 -520 1451
767 -513 1429
761 -505 1406
769 -508 1410
766 -503 1394
765 -499 1382
767 -497 1374
765 -493 1361
766 -491 1352
763 -486 1335
768 -487 1335
765 -482 1319
766 -479 1310
773 -481 1313
-902 -529 1483
-894 -527 1481
-894 -530 1492
-886 -528 1489
-877 -526 1486
-879 -530 1500
-872 -529 1499
-864 -527 1496
-857 -526 1496
-857 -529 1507
-856 -532 1516
-845 -528 1509
-844 -531 1519
-838 -530 1520
-829 -528 1516
-827 -530 1524
-829 -535 1540
-816 -529 1526
-810 -529 1528
-813 -534 1544
-806 -533 1544
-797 -530 1538
-785 -526 1527
-789 -532 1548
-776 -527 1534
-775 -530 1545
-775 -533 1556
-768 -532 1556
-761 -530 1553
-758 -532 1560
-752 -531 1560
-751 -534 1570
-738 -528 1556
-737 -531 1567
-731 -531 1567
-727 -532 1572
-720 -530 1570
-721 -535 1585
-713 -533 1581
-704 -530 1575
-698 -529 1575
-699 -533 1589
-686 -528 1574
-686 -531 1586
-684 -534 1596
-674 -531 1588
-674 -535 1601
-668 -533 1599
-662 -532 1599
-653 -530 1593
-646 -529 1590
-645 -532 1601
-644 -535 1613
-636 -533 1607
-632 -533 1612
-628 -535 1617
-618 -530 1606
-613 -530 1606
-609 -531 1611
-610 -537 1630
-605 -537 1632
-600 -537 1634
-590 -533 1623
-584 -532 1620
-581 -534 1630
-580 -537 1641
-573 -536 1638
-562 -531 1623
-560 -534 1634
-558 -537 1644
-553 -536 1644
-548 -536 1647
-543 -536 1648
-540 -539 1656
-530 -534 1643
-527 -537 1652
-523 -537 1655
-519 -538 1660
-513 -537 1658
-506 -536 1656
-500 -535 1655
-496 -536 1657
-490 -535 1656
-486 -536 1661
-484 -540 1674
-472 -533 1652
-470 -536 1664
-466 -537 1667
-460 -536 1667
-456 -537 1670
-450 -536 1668
-444 -536 1669
-439 -536 1670
-436 -538 1676
-432 -539 1681
-423 -535 1670
-420 -538 1679
-419 -543 1697
-411 -539 1684
-403 -536 1677
-399 -537 1682
-393 -536 1679
-391 -540 1692
-384 -537 1683
-379 -537 1685
-373 -537 1684
-368 -537 1685
-363 -537 1688
-358 -536 1685
-352 -535 1682
-347 -536 1687
-344 -539 1697
-339 -539 1697
-332 -537 1690
-330 -541 1705
-322 -536 1690
-317 -537 1692
-314 -541 1707
-306 -536 1691
-304 -541 1706
-297 -537 1696
-292 -539 1703
-287 -539 1704
-282 -539 1703
-276 -537 1699
-271 -538 1701
-267 -540 1707
-259 -534 1690
-255 -537 1699
-251 -538 1703
-245 -538 1702
-240 -536 1699
-233 -534 1691
-230 -538 1706
-227 -543 1721
-221 -541 1715
-215 -539 1710
-210 -540 1713
-205 -538 1709
-200 -538 1709
-195 -539 1710
-190 -541 1716
-183 -536 1703
-179 -537 1707
-172 -532 1690
-161 -515 1637
-143 -472 1500
-134 -457 1454
-129 -455 1446
-123 -450 1431
-119 -450 1430
-116 -454 1444
-111 -450 1430
-106 -450 1433
-103 -454 1444
-99 -456 1450
-95 -456 1450
-92 -465 1478
-89 -470 1494
-84 -468 1489
-83 -489 1556
-82 -512 1628
-81 -531 1691
-76 -535 1704
-71 -537 1709
-67 -540 1720
-62 -542 1724
-57 -544 1732
-52 -544 1731
-46 -540 1720
-41 -541 1723
-36 -542 1727
-31 -545 1734
-26 -539 1715
-21 -544 1731
-16 -545 1733
-10 -539 1716
-5 -541 1722
0 -539 1715
4 -543 1727
9 -541 1722
14 -542 1724
19 -537 1709
24 -537 1707
30 -543 1726
35 -542 1723
40 -542 1722
45 -538 1711
50 -539 1714
55 -540 1717
60 -540 1716
65 -538 1709
71 -544 1728
76 -540 1714
81 -539 1710
86 -540 1716
90 -537 1703
97 -543 1724
101 -541 1717
107 -542 1720
111 -540 1711
117 -544 1726
123 -545 1728
127 -540 1711
133 -544 1722
138 -545 1726
143 -544 1724
148 -542 1716
153 -541 1712
157 -540 1709
163 -542 1713
168 -543 1717
175 -547 1728
179 -543 1714
183 -541 1709
188 -541 1708
194 -543 1712
197 -535 1690
203 -538 1697
210 -544 1715
213 -538 1697
219 -542 1708
223 -540 1699
229 -542 1705
234 -541 1701
239 -540 1698
245 -542 1705
249 -541 1700
254 -540 1695
260 -541 1698
263 -537 1685
270 -540 1695
274 -540 1693
280 -541 1696
286 -543 1702
292 -544 1703
296 -542 1695
301 -542 1696
306 -541 1692
311 -542 1694
316 -542 1692
322 -543 1694
325 -539 1682
331 -541 1687
336 -540 1684
341 -540 1682
348 -544 1693
353 -543 1689
354 -538 1673
363 -543 1689
367 -542 1684
371 -539 1674
377 -541 1677
380 -538 1668
386 -540 1673
395 -544 1685
400 -545 1684
400 -539 1665
406 -539 1664
413 -541 1671
417 -541 1667
421 -540 1663
429 -543 1672
432 -540 1661
439 -542 1667
443 -542 1665
449 -542 1664
451 -539 1654
458 -540 1657
464 -543 1662
466 -538 1648
474 -542 1658
479 -541 1654
486 -544 1661
485 -537 1639
496 -544 1658
500 -543 1653
503 -541 1646
512 -544 1654
515 -542 1647
522 -544 1651
525 -542 1643
529 -541 1639
536 -543 1644
541 -543 1640
545 -541 1635
550 -542 1635
553 -539 1626
559 -541 1628
565 -542 1630
568 -539 1621
575 -542 1627
582 -543 1630
583 -540 1617
589 -540 1616
597 -543 1624
599 -540 1613
605 -541 1614
616 -546 1628
620 -545 1623
623 -544 1617
625 -541 1605
629 -540 1601
635 -541 1602
642 -542 1605
650 -545 1610
652 -543 1602
660 -545 1605
666 -545 1606
669 -544 1599
670 -541 1588
676 -541 1587
686 -545 1597
687 -542 1586
689 -540 1577
698 -543 1583
705 -545 1587
707 -542 1578
712 -542 1576
714 -540 1567
720 -540 1566
727 -542 1568
740 -548 1583
739 -543 1567
741 -541 1560
749 -543 1562
753 -542 1558
754 -540 1549
757 -538 1541
764 -539 1542
769 -539 1541
775 -540 1540
777 -538 1531
776 -533 1517
776 -531 1507
773 -525 1489
766 -517 1463
768 -515 1456
764 -509 1435
769 -509 1435
767 -505 1419
765 -500 1404
766 -498 1394
767 -496 1387
769 -494 1379
765 -489 1362
768 -488 1357
770 -486 1349
767 -481 1334
770 -480 1329
765 -474 1310
766 -472 1303
-905 -525 1489
-907 -529 1504
-909 -534 1519
-898 -530 1512
-889 -528 1508
-883 -528 1509
-878 -528 1512
-870 -526 1508
-871 -530 1523
-857 -524 1509
-865 -532 1535
-857 -531 1533
-854 -532 1538
-844 -529 1533
-843 -531 1542
-831 -527 1532
-825 -526 1532
-831 -534 1556
-823 -532 1553
-816 -531 1552
-811 -531 1554
-805 -531 1556
-806 -534 1570
-795 -531 1561
-787 -529 1558
-786 -531 1567
-775 -527 1558
-775 -531 1571
-767 -529 1567
-760 -528 1566
-763 -534 1585
-758 -534 1587
-753 -534 1589
-741 -529 1578
-739 -531 1585
-731 -529 1581
-731 -533 1595
-723 -531 1591
-718 -532 1594
-712 -530 1592
-707 -530 1595
-704 -532 1602
-700 -533 1607
-698 -535 1616
-687 -531 1604
-679 -529 1600
-685 -538 1629
-672 -532 1612
-665 -530 1610
-663 -532 1617
-655 -530 1613
-653 -533 1623
-648 -533 1625
-645 -535 1632
-639 -535 1633
-633 -534 1632
-626 -532 1627
-621 -532 1629
-622 -537 1648
-618 -539 1654
-605 -532 1634
-602 -534 1641
-598 -535 1646
-593 -535 1649
-585 -533 1642
-582 -534 1647
-576 -533 1647
-575 -537 1661
-568 -536 1659
-563 -536 1660
-555 -534 1654
-554 -537 1665
-544 -532 1653
-544 -537 1669
-540 -539 1676
-529 -534 1660
-526 -536 1668
-522 -536 1671
-519 -539 1680
-510 -535 1668
-509 -539 1684
-497 -532 1662
-495 -536 1676
-490 -536 1678
-485 -536 1678
-480 -536 1681
-474 -535 1678
-469 -536 1681
-465 -536 1685
-458 -534 1678
-453 -535 1681
-449 -536 1686
-442 -534 1680
-438 -536 1688
-436 -539 1700
-431 -540 1702
-422 -535 1688
-417 -535 1690
-415 -539 1702
-408 -537 1697
-402 -536 1694
-400 -540 1707
-392 -537 1700
-390 -541 1715
-382 -536 1699
-377 -537 1703
-373 -539 1709
-364 -534 1693
-364 -540 1715
-357 -539 1711
-352 -539 1712
-345 -536 1705
-344 -542 1725
-339 -542 1725
-330 -536 1706
-324 -535 1703
-320 -538 1713
-313 -534 1703
-312 -541 1724
-305 -539 1717
-299 -536 1711
-295 -540 1722
-290 -539 1720
-287 -543 1735
-278 -535 1709
-275 -539 1724
-269 -538 1720
-263 -536 1714
-260 -542 1733
-253 -538 1721
-247 -537 1717
-243 -538 1723
-238 -540 1728
-232 -538 1723
-229 -542 1735
-223 -541 1732
-218 -541 1734
-212 -540 1731
-207 -540 1733
-202 -538 1727
-198 -543 1742
-190 -535 1716
-187 -542 1738
-181 -538 1728
-175 -536 1719
-167 -527 1693
-150 -491 1577
-136 -460 1477
-131 -457 1469
-126 -456 1465
-119 -446 1433
-116 -451 1451
-112 -451 1449
-107 -450 1445
-103 -451 1451
-100 -455 1463
-96 -456 1467
-92 -461 1483
-89 -466 1499
-85 -470 1511
-83 -482 1550
-82 -506 1626
-81 -531 1706
-77 -537 1728
-73 -546 1757
-68 -544 1749
-63 -545 1752
-57 -544 1749
-52 -542 1742
-47 -540 1737
-42 -543 1747
-37 -544 1751
-31 -544 1749
-26 -545 1752
-21 -540 1737
-16 -543 1747
-10 -539 1732
-5 -540 1735
0 -541 1739
4 -543 1745
9 -542 1743
14 -541 1739
20 -544 1747
25 -542 1742
30 -541 1738
35 -537 1724
40 -538 1729
46 -545 1749
51 -539 1732
56 -540 1735
61 -541 1736
66 -539 1730
71 -541 1736
76 -539 1729
82 -544 1744
87 -539 1729
92 -540 1733
97 -539 1728
103 -542 1737
108 -541 1734
112 -537 1720
117 -539 1726
122 -538 1722
128 -539 1727
133 -539 1724
138 -539 1724
144 -541 1732
149 -543 1736
154 -541 1730
159 -539 1724
164 -540 1725
169 -540 1725
175 -542 1731
179 -540 1724
185 -541 1727
191 -543 1732
194 -538 1715
200 -541 1723
204 -538 1713
210 -539 1716
216 -541 1723
222 -543 1727
226 -542 1723
230 -538 1711
237 -542 1723
243 -544 1727
247 -541 1717
253 -543 1723
256 -538 1708
261 -538 1707
267 -541 1714
271 -537 1703
276 -538 1706
282 -539 1707
288 -541 1711
293 -540 1709
297 -539 1705
304 -542 1714
310 -543 1716
312 -539 1701
316 -536 1692
324 -541 1707
329 -541 1704
336 -544 1712
338 -538 1695
346 -543 1708
349 -540 1699
354 -540 1697
359 -540 1697
363 -538 1688
368 -538 1688
375 -541 1697
381 -542 1700
385 -541 1693
390 -540 1689
394 -538 1683
401 -542 1693
408 -543 1697
411 -540 1686
417 -542 1692
421 -541 1686
428 -543 1691
431 -540 1680
434 -538 1672
442 -541 1682
446 -540 1676
453 -542 1683
457 -540 1675
461 -540 1672
468 -542 1676
471 -539 1668
479 -543 1677
484 -542 1674
484 -537 1655
493 -541 1667
496 -539 1659
505 -542 1669
510 -543 1669
513 -540 1659
516 -538 1652
526 -544 1667
527 -539 1651
535 -542 1658
540 -541 1656
544 -541 1653
554 -546 1666
558 -545 1661
561 -543 1653
563 -540 1642
575 -546 1658
574 -540 1640
576 -537 1631
590 -545 1652
597 -547 1655
596 -542 1639
604 -544 1644
607 -543 1637
612 -542 1634
611 -537 1618
620 -540 1625
624 -539 1620
634 -543 1630
635 -540 1618
642 -542 1622
644 -539 1611
649 -539 1611
657 -541 1615
661 -541 1611
666 -541 1609
677 -545 1619
682 -545 1619
687 -545 1615
689 -542 1606
692 -541 1600
699 -542 1601
705 -543 1602
708 -542 1595
717 -544 1601
716 -540 1586
725 -543 1592
732 -544 1593
737 -544 1591
742 -544 1589
745 -542 1582
750 -542 1580
754 -542 1575
753 -537 1561
760 -539 1563
771 -542 1571
770 -538 1556
776 -539 1556
776 -535 1543
780 -535 1539
776 -529 1519
770 -521 1495
772 -519 1487
770 -515 1472
771 -512 1461
771 -509 1451
772 -506 1441
767 -500 1420
769 -498 1412
768 -494 1400
767 -491 1387
766 -487 1376
768 -486 1369
767 -483 1357
767 -479 1345
770 -478 1340
766 -473 1324
767 -471 1315
768 -469 1307
-914 -525 1506
-916 -530 1521
-907 -528 1518
-903 -528 1521
-898 -528 1524
-899 -532 1538
-888 -529 1531
-881 -527 1530
-881 -531 1542
-873 -529 1539
-873 -532 1552
-861 -528 1542
-864 -533 1558
-850 -528 1545
-848 -530 1553
-838 -526 1547
-841 -532 1565
-834 -530 1563
-826 -529 1561
-823 -530 1567
-819 -531 1572
-812 -530 1570
-807 -530 1574
-799 -529 1571
-795 -529 1575
-794 -532 1585
-789 -532 1589
-782 -530 1586
-772 -528 1579
-773 -532 1593
-765 -530 1589
-764 -533 1600
-755 -530 1596
-751 -531 1601
-742 -528 1593
-740 -531 1603
-734 -530 1604
-731 -532 1610
-721 -529 1602
-721 -532 1616
-716 -532 1618
-713 -534 1624
-708 -534 1628
-707 -537 1639
-692 -530 1619
-686 -529 1617
-686 -533 1633
-682 -534 1637
-673 -531 1630
-667 -531 1630
-663 -531 1634
-664 -536 1650
-656 -534 1646
-649 -533 1645
-644 -533 1646
-640 -534 1651
-635 -535 1654
-629 -534 1653
-628 -537 1665
-619 -534 1657
-616 -536 1663
-610 -535 1663
-603 -534 1661
-596 -532 1657
-588 -530 1652
-591 -537 1675
-582 -534 1667
-584 -541 1689
-575 -537 1678
-567 -535 1674
-563 -536 1678
-557 -535 1679
-559 -542 1699
-546 -535 1678
-543 -537 1686
-537 -536 1687
-529 -533 1678
-529 -538 1695
-527 -542 1708
-514 -534 1684
-510 -535 1690
-505 -535 1690
-499 -535 1691
-495 -536 1695
-490 -536 1696
-484 -535 1694
-484 -541 1714
-476 -538 1708
-471 -538 1708
-466 -539 1712
-458 -536 1702
-454 -537 1708
-448 -536 1704
-444 -537 1711
-440 -539 1715
-434 -539 1716
-428 -537 1713
-421 -535 1706
-417 -537 1714
-414 -539 1722
-408 -538 1719
-403 -539 1723
-397 -538 1720
-392 -539 1725
-387 -538 1723
-380 -536 1717
-377 -539 1727
-372 -540 1731
-366 -539 1729
-361 -539 1731
-356 -539 1732
-350 -539 1731
-343 -535 1721
-339 -537 1726
-335 -539 1733
-330 -539 1735
-323 -537 1728
-316 -534 1718
-312 -536 1728
-309 -540 1742
-302 -537 1730
-299 -540 1741
-292 -538 1734
-289 -542 1749
-282 -539 1740
-276 -537 1734
-271 -538 1737
-268 -542 1752
-262 -541 1750
-257 -541 1750
-250 -536 1735
-245 -538 1741
-239 -536 1734
-234 -538 1740
-231 -541 1752
-225 -541 1750
-221 -542 1756
-214 -540 1748
-210 -541 1754
-205 -542 1755
-198 -539 1747
-193 -538 1743
-187 -537 1741
-184 -542 1757
-179 -543 1761
-172 -538 1746
-160 -516 1673
-140 -467 1515
-132 -457 1484
-126 -449 1456
-123 -455 1476
-117 -450 1462
-113 -451 1465
-109 -453 1470
-105 -453 1471
-100 -451 1464
-96 -454 1475
-94 -463 1503
-89 -461 1498
-85 -467 1517
-82 -476 1545
-82 -501 1629
-81 -526 1708
-78 -538 1749
-73 -539 1752
-69 -544 1769
-63 -544 1768
-58 -543 1764
-52 -540 1753
-47 -542 1762
-42 -540 1754
-37 -540 1754
-31 -542 1760
-26 -543 1763
-21 -543 1765
-16 -540 1754
-11 -544 1766
-5 -539 1750
0 -543 1762
4 -544 1767
9 -547 1775
15 -542 1759
20 -544 1765
25 -541 1757
30 -540 1754
36 -545 1769
41 -544 1765
46 -541 1757
51 -540 1754
56 -539 1747
62 -540 1752
67 -540 1752
72 -539 1748
77 -539 1747
83 -541 1753
87 -539 1746
93 -542 1756
98 -542 1756
103 -541 1751
109 -542 1756
113 -539 1746
119 -541 1751
125 -542 1755
129 -537 1738
135 -541 1750
140 -541 1749
145 -540 1746
149 -537 1735
156 -542 1752
161 -541 1749
165 -538 1737
171 -541 1747
176 -541 1747
181 -539 1738
187 -541 1744
192 -542 1746
196 -539 1736
203 -542 1745
208 -542 1745
212 -539 1736
219 -543 1747
221 -536 1723
228 -541 1740
235 -544 1750
239 -541 1738
244 -540 1734
248 -539 1730
255 -543 1741
258 -538 1727
266 -543 1741
270 -541 1735
275 -542 1735
282 -544 1740
285 -539 1725
291 -541 1731
295 -540 1725
301 -542 1730
308 -545 1739
312 -543 1732
317 -542 1729
322 -542 1727
327 -541 1725
331 -538 1715
339 -544 1732
345 -544 1732
351 -547 1738
352 -540 1715
356 -537 1707
363 -540 1714
370 -543 1721
373 -541 1713
378 -540 1711
385 -542 1717
389 -541 1711
394 -541 1710
403 -545 1723
405 -542 1710
411 -542 1711
414 -540 1703
419 -539 1699
423 -538 1693
432 -543 1709
432 -536 1685
440 -539 1695
447 -542 1703
450 -539 1693
459 -544 1705
461 -540 1693
466 -540 1691
473 -543 1697
476 -539 1686
482 -541 1690
489 -543 1693
491 -539 1681
500 -543 1692
501 -539 1678
504 -536 1668
517 -545 1693
518 -540 1678
523 -540 1676
532 -544 1685
534 -541 1673
539 -541 1672
541 -538 1662
553 -545 1682
556 -542 1673
561 -542 1669
566 -542 1667
572 -543 1668
578 -543 1669
581 -542 1662
588 -544 1666
592 -542 1660
596 -541 1655
596 -537 1640
607 -541 1652
615 -544 1660
621 -545 1660
626 -545 1659
629 -543 1649
628 -538 1633
640 -544 1648
641 -540 1636
654 -546 1652
655 -543 1642
660 -543 1639
668 -545 1643
669 -541 1630
675 -542 1631
684 -545 1638
685 -542 1626
686 -539 1615
695 -542 1621
703 -544 1626
712 -547 1634
713 -544 1621
714 -541 1610
721 -542 1612
729 -545 1616
729 -541 1603
742 -546 1617
745 -545 1611
747 -542 1601
754 -544 1604
756 -542 1594
763 -543 1595
764 -540 1585
767 -539 1579
770 -537 1571
772 -535 1563
774 -533 1555
775 -530 1542
772 -524 1524
770 -519 1508
771 -517 1500
770 -513 1485
767 -508 1467
768 -505 1457
768 -502 1447
766 -498 1431
765 -494 1419
764 -490 1405
769 -490 1403
770 -488 1395
770 -485 1384
766 -480 1366
765 -476 1354
768 -475 1348
773 -475 1346
768 -470 1327
770 -468 1321
772 -467 1314
-926 -527 1528
-926 -530 1538
-918 -529 1537
-910 -527 1535
-905 -527 1538
-900 -527 1541
-895 -528 1544
-893 -529 1552
-899 -536 1575
-888 -533 1568
-881 -531 1566
-873 -530 1564
-867 -530 1566
-864 -531 1573
-859 -531 1575
-849 -528 1568
-851 -533 1585
-840 -529 1577
-842 -534 1593
-832 -531 1586
-827 -531 1590
-821 -531 1590
-815 -530 1592
-807 -528 1588
-803 -529 1592
-802 -532 1604
-800 -534 1612
-791 -532 1606
-790 -534 1617
-777 -530 1604
-768 -527 1598
-768 -531 1612
-763 -530 1613
-762 -534 1626
-757 -534 1628
-750 -533 1626
-743 -532 1625
-737 -531 1625
-733 -532 1630
-724 -529 1624
-723 -532 1636
-723 -536 1650
-713 -532 1640
-703 -529 1631
-698 -530 1634
-699 -534 1650
-694 -535 1654
-689 -535 1656
-684 -535 1658
-678 -534 1657
-672 -533 1657
-668 -535 1664
-661 -533 1659
-658 -535 1668
-648 -532 1658
-643 -532 1660
-642 -535 1673
-637 -536 1676
-628 -532 1667
-625 -534 1675
-617 -532 1669
-612 -532 1671
-609 -534 1679
-602 -533 1676
-599 -534 1683
-598 -539 1698
-585 -531 1675
-583 -535 1688
-575 -532 1681
-573 -535 1692
-570 -537 1701
-562 -534 1693
-558 -535 1698
-550 -533 1691
-545 -534 1696
-543 -537 1707
-539 -538 1713
-531 -535 1704
-529 -538 1715
-523 -538 1714
-515 -535 1707
-513 -539 1720
-506 -537 1716
-500 -536 1712
-497 -539 1723
-491 -538 1723
-483 -535 1715
-481 -539 1728
-478 -541 1735
-474 -542 1740
-464 -537 1724
-459 -538 1729
-452 -536 1722
-448 -538 1730
-440 -533 1717
-437 -537 1729
-433 -538 1734
-429 -539 1739
-422 -537 1733
-416 -536 1732
-412 -538 1739
-404 -536 1731
-397 -532 1721
-395 -537 1736
-390 -538 1741
-386 -539 1746
-380 -538 1742
-374 -537 1742
-370 -539 1748
-364 -538 1745
-358 -538 1745
-353 -537 1743
-349 -540 1754
-343 -538 1749
-337 -538 1749
-333 -539 1754
-328 -539 1754
-320 -536 1743
-317 -539 1756
-310 -536 1745
-306 -539 1757
-302 -541 1763
-295 -538 1754
-288 -535 1745
-284 -538 1753
-277 -534 1741
-275 -540 1763
-270 -541 1767
-265 -540 1765
-258 -538 1758
-252 -535 1750
-246 -534 1745
-243 -539 1761
-238 -540 1765
-232 -539 1762
-226 -538 1759
-221 -538 1759
-216 -540 1766
-211 -540 1767
-205 -538 1762
-201 -540 1767
-195 -540 1768
-191 -541 1773
-186 -543 1780
-180 -540 1769
-174 -538 1763
-163 -521 1710
-145 -479 1570
-133 -456 1494
-129 -457 1498
-123 -450 1478
-117 -446 1465
-113 -446 1462
-110 -451 1479
-105 -450 1478
-101 -453 1488
-98 -456 1498
-94 -462 1517
-90 -462 1516
-86 -467 1535
-84 -479 1572
-83 -499 1639
-83 -528 1735
-78 -530 1741
-74 -538 1766
-69 -541 1777
-64 -544 1785
-58 -542 1780
-53 -544 1786
-48 -541 1777
-43 -545 1789
-37 -537 1765
-32 -543 1784
-27 -545 1790
-21 -544 1786
-16 -543 1782
-11 -541 1776
-5 -543 1783
0 -541 1775
4 -541 1775
10 -546 1791
15 -540 1774
20 -541 1774
25 -539 1767
31 -544 1784
36 -540 1770
41 -541 1775
46 -536 1757
52 -542 1777
57 -540 1771
62 -542 1776
68 -543 1778
73 -541 1774
78 -542 1776
83 -541 1771
89 -543 1777
94 -540 1768
98 -536 1756
105 -543 1776
110 -541 1770
115 -543 1775
121 -544 1779
125 -539 1762
131 -542 1771
137 -543 1775
142 -545 1782
146 -538 1756
151 -540 1762
158 -543 1772
162 -539 1759
167 -540 1763
173 -542 1767
178 -542 1768
182 -538 1754
189 -542 1765
195 -543 1770
198 -538 1753
204 -540 1757
208 -537 1748
215 -541 1759
219 -538 1751
227 -544 1768
230 -541 1757
235 -539 1751
241 -540 1754
246 -540 1752
251 -540 1752
257 -542 1757
262 -540 1750
267 -540 1748
272 -541 1751
276 -537 1738
283 -541 1752
290 -544 1758
294 -543 1754
299 -541 1748
307 -546 1762
310 -543 1753
313 -538 1735
318 -539 1737
325 -541 1742
328 -537 1729
336 -542 1743
339 -539 1733
345 -540 1737
350 -540 1734
356 -540 1735
360 -538 1727
366 -540 1732
372 -541 1733
378 -541 1734
381 -539 1726
386 -538 1722
392 -540 1726
401 -545 1740
403 -540 1725
409 -541 1727
413 -539 1720
418 -539 1719
420 -536 1707
430 -541 1722
435 -541 1722
439 -540 1716
446 -542 1720
452 -542 1721
458 -544 1725
462 -542 1719
469 -544 1723
474 -544 1722
477 -541 1711
481 -540 1706
486 -539 1702
494 -542 1710
499 -543 1711
503 -541 1703
511 -544 1712
513 -541 1699
519 -542 1702
525 -543 1703
529 -541 1696
534 -541 1694
539 -541 1693
547 -544 1700
553 -544 1699
556 -542 1690
562 -543 1693
562 -538 1675
573 -544 1692
577 -542 1684
585 -545 1691
585 -540 1676
594 -543 1684
599 -544 1682
602 -541 1673
608 -542 1674
611 -540 1665
618 -542 1669
621 -540 1662
634 -547 1681
636 -543 1669
638 -541 1660
645 -542 1661
647 -540 1652
658 -544 1664
660 -542 1656
665 -542 1652
674 -545 1660
679 -545 1657
679 -540 1641
693 -548 1663
688 -539 1635
697 -543 1643
705 -545 1647
711 -545 1646
717 -546 1645
719 -543 1636
720 -540 1625
726 -541 1624
731 -541 1622
741 -544 1631
747 -544 1629
749 -542 1620
758 -545 1626
763 -545 1624
762 -540 1607
767 -540 1605
769 -539 1597
773 -538 1592
775 -535 1583
780 -535 1581
773 -527 1554
773 -524 1541
769 -517 1520
767 -513 1505
769 -510 1496
774 -511 1494
766 -502 1466
765 -499 1454
768 -498 1449
765 -492 1431
774 -495 1436
767 -487 1412
768 -485 1402
768 -482 1392
767 -478 1379
768 -476 1371
769 -474 1363
768 -471 1350
772 -471 1347
774 -469 1339
776 -467 1333
771 -462 1315
-935 -527 1544
-924 -524 1538
-924 -527 1549
-922 -528 1556
-908 -524 1545
-901 -523 1545
-907 -529 1566
-902 -530 1570
-907 -535 1590
-890 -529 1573
-885 -529 1575
-884 -532 1586
-871 -527 1575
-872 -530 1588
-868 -531 1593
-853 -525 1577
-851 -527 1586
-843 -526 1584
-843 -529 1596
-835 -527 1593
-837 -532 1609
-829 -530 1606
-827 -533 1616
-817 -530 1610
-821 -536 1629
-810 -532 1621
-810 -535 1634
-794 -528 1614
-798 -535 1636
