VERSION 0.7
FIELDS x y z
SIZE 4 4 4
TYPE I I I
COUNT 1 1 1
WIDTH 3247
HEIGHT 1
VIEWPOINT 0.0 0.0 0.0 1.0 0.0 0.0 0.0
POINTS 3247
DATA ascii
311 -549 2727
319 -549 2727
326 -549 2725
332 -545 2703
340 -545 2704
347 -544 2695
356 -546 2707
362 -543 2691
372 -546 2703
380 -546 2704
388 -547 2705
397 -547 2707
403 -546 2697
413 -548 2706
421 -548 2706
427 -546 2695
436 -547 2700
445 -549 2706
450 -545 2686
457 -544 2678
470 -550 2708
476 -547 2693
483 -546 2688
490 -546 2684
501 -549 2700
504 -543 2668
514 -546 2680
525 -549 2694
532 -549 2690
537 -546 2674
546 -546 2676
551 -544 2663
564 -549 2686
569 -545 2667
577 -546 2666
586 -547 2674
591 -544 2657
601 -546 2665
608 -545 2658
613 -543 2644
623 -545 2652
631 -546 2654
639 -545 2649
647 -545 2650
656 -547 2654
663 -546 2648
673 -548 2655
677 -545 2638
687 -546 2642
691 -543 2628
701 -545 2635
712 -547 2643
715 -543 2623
727 -546 2635
737 -548 2642
739 -544 2619
744 -542 2607
756 -545 2621
760 -542 2605
769 -543 2607
774 -541 2596
773 -535 2563
771 -528 2530
768 -521 2493
765 -514 2459
762 -507 2421
764 -504 2404
761 -497 2370
765 -495 2357
761 -488 2320
763 -485 2304
763 -480 2281
765 -477 2265
768 -475 2251
769 -471 2230
770 -467 2212
766 -461 2180
777 -464 2190
777 -460 2168
778 -457 2153
778 -453 2131
786 -454 2135
796 -455 2140
806 -458 2148
832 -469 2198
882 -493 2308
933 -517 2419
953 -525 2451
977 -534 2490
1001 -543 2530
1006 -541 2519
1013 -541 2514
1027 -544 2527
1031 -542 2515
1038 -542 2510
1048 -543 2512
1052 -541 2500
1067 -545 2514
1069 -542 2499
1072 -540 2484
1091 -545 2506
1082 -537 2466
1086 -535 2455
1103 -540 2473
1111 -540 2468
1130 -545 2490
1135 -544 2481
1142 -544 2476
1146 -542 2465
1150 -540 2454
1161 -542 2456
1169 -542 2455
1167 -538 2431
1179 -539 2435
1188 -540 2435
1202 -543 2446
1208 -542 2438
1209 -539 2420
1226 -543 2435
1233 -543 2431
1233 -539 2410
1247 -543 2420
1249 -540 2406
1265 -544 2418
1267 -541 2402
1271 -540 2391
1282 -541 2395
1291 -542 2393
1293 -539 2377
1305 -541 2382
1307 -539 2369
1313 -538 2361
1318 -537 2352
1341 -543 2376
1339 -539 2355
-1413 -526 2405
-1394 -522 2390
-1387 -523 2396
-1377 -522 2397
-1368 -522 2399
-1363 -523 2408
-1370 -528 2437
-1343 -521 2408
-1335 -521 2411
-1331 -522 2421
-1334 -527 2447
-1330 -529 2457
-1317 -527 2452
-1319 -531 2473
-1307 -529 2470
-1291 -526 2458
-1277 -524 2451
-1286 -530 2486
-1278 -530 2490
-1269 -530 2493
-1252 -526 2477
-1258 -532 2509
-1235 -526 2483
-1234 -529 2500
-1229 -531 2510
-1229 -534 2528
-1217 -532 2524
-1203 -530 2515
-1202 -533 2534
-1195 -533 2538
-1184 -532 2535
-1179 -534 2546
-1168 -532 2543
-1156 -530 2537
-1154 -533 2554
-1138 -529 2538
-1152 -540 2590
-1128 -532 2558
-1117 -531 2554
-1115 -534 2570
-1108 -534 2575
-1092 -531 2560
-1090 -534 2578
-1083 -534 2582
-1075 -534 2585
-1058 -530 2567
-1055 -532 2580
-1051 -534 2595
-1040 -533 2589
-1037 -536 2606
-1022 -532 2591
-1020 -535 2607
-1003 -531 2588
-1002 -534 2608
-990 -532 2599
-983 -533 2607
-978 -534 2615
-975 -537 2631
-965 -536 2629
-965 -541 2655
-944 -534 2621
-942 -537 2640
-937 -539 2652
-930 -539 2656
-914 -535 2635
-903 -533 2630
-900 -536 2646
-888 -534 2636
-881 -534 2641
-874 -535 2647
-869 -537 2659
-864 -539 2669
-859 -541 2681
-842 -536 2656
-828 -532 2640
-835 -541 2688
-821 -538 2672
-812 -537 2669
-799 -534 2655
-801 -541 2692
-798 -544 2712
-779 -537 2677
-778 -542 2702
-761 -535 2672
-762 -542 2704
-755 -543 2712
-747 -543 2715
-735 -540 2701
-739 -549 2746
-725 -545 2728
-709 -539 2699
-701 -539 2703
-692 -538 2698
-690 -543 2724
-677 -539 2706
-667 -538 2703
-663 -542 2721
-651 -538 2703
-651 -545 2741
-639 -542 2726
-633 -544 2736
-620 -539 2716
-615 -542 2732
-606 -541 2727
-603 -546 2751
-590 -542 2732
-583 -543 2738
-575 -543 2740
-568 -544 2744
-557 -541 2734
-549 -541 2733
-541 -541 2735
-534 -543 2744
-528 -544 2753
-523 -548 2774
-511 -544 2754
-506 -547 2771
-496 -545 2761
-487 -545 2758
-476 -541 2741
-473 -547 2770
-464 -546 2768
-454 -544 2760
-448 -546 2771
-440 -547 2772
-431 -546 2768
-420 -542 2750
-415 -547 2776
-404 -542 2753
-398 -545 2766
-391 -547 2779
-381 -544 2766
-371 -541 2751
-361 -539 2741
-356 -544 2766
-349 -545 2769
-337 -540 2745
-333 -545 2774
-321 -539 2741
-316 -545 2774
-306 -542 2757
-299 -543 2762
-293 -547 2783
-281 -539 2744
-275 -544 2770
-266 -543 2764
-256 -539 2743
-252 -547 2787
-242 -542 2759
-235 -546 2781
-229 -550 2799
-218 -543 2765
-212 -550 2798
-203 -547 2785
-194 -544 2769
-187 -546 2781
-176 -540 2749
-164 -526 2677
-140 -472 2405
-125 -446 2274
-120 -451 2298
-113 -450 2291
-106 -447 2280
-100 -452 2302
-95 -457 2329
-88 -458 2335
-85 -477 2431
-82 -504 2568
-81 -545 2774
-73 -546 2782
-65 -547 2787
-57 -548 2790
-49 -551 2804
-41 -548 2787
-32 -547 2783
-25 -553 2815
-16 -550 2799
-8 -547 2781
0 -547 2785
7 -554 2816
15 -546 2775
23 -551 2803
32 -549 2792
39 -547 2781
47 -545 2769
56 -545 2772
64 -545 2771
72 -544 2766
80 -551 2798
88 -548 2785
96 -548 2781
104 -548 2782
113 -551 2799
121 -549 2784
128 -546 2772
138 -552 2801
145 -549 2784
153 -547 2775
161 -548 2779
167 -542 2748
178 -549 2781
185 -547 2770
194 -551 2791
202 -550 2783
209 -547 2768
217 -546 2765
224 -544 2754
233 -545 2758
241 -547 2766
250 -548 2768
259 -550 2778
267 -551 2783
274 -547 2761
281 -546 2757
292 -551 2783
297 -546 2755
306 -547 2761
311 -541 2728
322 -547 2758
329 -546 2749
337 -545 2743
346 -548 2757
354 -546 2749
365 -551 2770
370 -546 2748
377 -545 2741
387 -548 2751
394 -546 2742
398 -541 2716
412 -549 2756
417 -546 2737
427 -547 2744
435 -548 2744
439 -542 2717
452 -549 2750
457 -545 2726
463 -543 2714
476 -548 2740
482 -546 2728
490 -546 2727
495 -543 2712
506 -546 2725
511 -544 2711
522 -547 2724
527 -543 2704
536 -544 2710
544 -544 2706
552 -545 2710
562 -547 2717
569 -545 2707
575 -544 2700
589 -549 2723
591 -544 2695
603 -547 2710
610 -547 2706
618 -546 2703
620 -541 2676
637 -549 2714
639 -544 2685
649 -545 2692
659 -547 2700
667 -547 2698
670 -543 2675
682 -547 2692
689 -546 2685
699 -547 2691
704 -545 2677
706 -541 2654
720 -545 2673
729 -546 2675
740 -548 2684
747 -548 2680
754 -547 2673
758 -544 2657
763 -542 2645
769 -540 2636
771 -537 2616
765 -527 2566
768 -524 2550
767 -518 2518
762 -510 2475
764 -506 2455
765 -502 2432
768 -499 2417
764 -492 2380
763 -486 2351
764 -483 2332
765 -479 2312
767 -476 2295
767 -472 2272
773 -471 2265
774 -467 2247
771 -461 2216
777 -461 2211
781 -460 2203
778 -454 2173
780 -451 2159
800 -459 2192
815 -464 2214
836 -472 2251
890 -498 2373
939 -522 2483
958 -528 2509
979 -536 2543
1006 -546 2590
1008 -543 2570
1016 -543 2568
1030 -546 2581
1028 -541 2552
1039 -543 2558
1053 -546 2569
1051 -541 2542
1067 -545 2559
1068 -541 2539
1087 -547 2563
1103 -551 2580
1094 -543 2536
1086 -535 2497
1109 -542 2528
1108 -538 2505
1113 -537 2496
1124 -538 2499
1140 -542 2514
1149 -543 2513
1157 -543 2511
1160 -541 2496
1170 -542 2497
1163 -535 2463
1189 -543 2498
1196 -543 2493
1190 -537 2461
1219 -546 2500
1217 -542 2476
1221 -540 2465
1234 -542 2472
1247 -545 2479
1236 -536 2437
1257 -542 2460
1265 -542 2455
1260 -537 2427
1281 -542 2449
1287 -542 2442
1300 -544 2449
1294 -538 2418
1317 -545 2442
1308 -538 2407
1326 -542 2423
1333 -542 2417
1337 -540 2406
1334 -536 2383
1354 -541 2401
1380 -548 2429
-1433 -526 2440
-1437 -530 2466
-1422 -528 2459
-1405 -524 2447
-1404 -527 2463
-1399 -528 2473
-1385 -526 2466
-1389 -531 2493
-1362 -524 2461
-1364 -528 2484
-1349 -525 2475
-1338 -524 2473
-1323 -521 2464
-1336 -529 2507
-1322 -527 2500
-1298 -521 2473
-1305 -527 2506
-1319 -536 2552
-1307 -535 2549
-1289 -531 2534
-1286 -532 2546
-1270 -529 2535
-1265 -531 2545
-1255 -530 2543
-1250 -531 2553
-1229 -526 2530
-1236 -533 2566
-1221 -529 2555
-1210 -528 2551
-1216 -534 2585
-1186 -525 2542
-1189 -530 2569
-1185 -532 2582
-1181 -534 2593
-1165 -530 2579
-1166 -534 2603
-1152 -532 2592
-1145 -532 2599
-1135 -531 2597
-1127 -531 2599
-1132 -538 2634
-1119 -536 2626
-1109 -535 2624
-1088 -528 2596
-1086 -531 2613
-1090 -537 2645
-1068 -531 2615
-1063 -532 2624
-1061 -536 2644
-1057 -538 2656
-1037 -532 2629
-1037 -536 2653
-1023 -533 2641
-1013 -532 2638
-1008 -534 2649
-1004 -536 2663
-988 -532 2645
-987 -536 2667
-984 -538 2682
-973 -537 2678
-964 -537 2677
-953 -535 2672
-943 -534 2670
-942 -539 2693
-934 -538 2695
-921 -536 2684
-919 -539 2704
-909 -538 2701
-897 -536 2691
-891 -537 2700
-882 -537 2700
-878 -540 2714
-869 -539 2715
-861 -539 2716
-854 -540 2724
-838 -535 2699
-839 -541 2732
-823 -536 2708
-821 -540 2731
-808 -538 2718
-801 -538 2722
-796 -540 2734
-783 -537 2720
-776 -538 2727
-767 -538 2726
-756 -536 2718
-748 -536 2720
-745 -539 2738
-733 -536 2727
-734 -544 2765
-723 -542 2756
-714 -541 2752
-705 -541 2753
-695 -539 2748
-683 -536 2731
-686 -545 2778
-672 -540 2757
-663 -539 2754
-656 -541 2764
-648 -541 2766
-640 -541 2765
-629 -539 2756
-623 -541 2769
-618 -543 2781
-608 -543 2778
-604 -546 2795
-589 -540 2767
-584 -543 2783
-579 -546 2798
-567 -543 2784
-554 -538 2759
-551 -543 2788
-541 -541 2777
-534 -543 2789
-527 -544 2793
-521 -546 2806
-509 -542 2789
-505 -546 2810
-492 -542 2789
-482 -540 2776
-480 -547 2815
-471 -546 2812
-458 -541 2786
-447 -537 2768
-446 -545 2810
-439 -548 2823
-431 -548 2826
-424 -550 2833
-411 -544 2806
-404 -546 2814
-395 -544 2807
-385 -542 2798
-380 -546 2820
-372 -547 2824
-362 -545 2812
-357 -550 2840
-348 -549 2833
-339 -548 2828
-329 -544 2809
-323 -549 2834
-312 -543 2806
-305 -546 2821
-297 -547 2828
-287 -543 2805
-279 -544 2810
-272 -546 2824
-264 -548 2831
-258 -551 2846
-246 -544 2815
-238 -544 2815
-232 -549 2840
-222 -545 2819
-214 -547 2828
-206 -546 2826
-197 -544 2815
-189 -544 2812
-180 -542 2803
-166 -524 2713
-150 -498 2574
-130 -455 2352
-120 -443 2293
-114 -447 2314
-109 -456 2358
-102 -452 2340
-96 -456 2359
-89 -457 2363
-85 -473 2447
-82 -498 2577
-83 -549 2838
-73 -536 2774
-66 -547 2829
-58 -549 2836
-50 -552 2852
-42 -553 2856
-33 -548 2832
-25 -555 2867
-17 -551 2848
-8 -551 2847
0 -550 2839
7 -547 2828
16 -553 2858
24 -550 2840
32 -549 2834
40 -551 2843
48 -546 2820
57 -553 2852
65 -549 2834
73 -551 2842
81 -547 2824
89 -545 2813
98 -551 2843
106 -548 2828
114 -548 2823
123 -549 2830
130 -547 2820
139 -549 2831
148 -551 2838
155 -547 2818
164 -548 2822
171 -545 2808
180 -549 2826
186 -542 2788
196 -548 2818
204 -548 2817
211 -543 2794
220 -544 2798
230 -549 2820
235 -541 2781
246 -548 2815
253 -546 2801
262 -548 2812
271 -550 2823
277 -545 2796
287 -550 2818
293 -544 2790
301 -544 2786
311 -547 2803
317 -543 2783
328 -549 2809
337 -550 2816
341 -543 2778
350 -545 2789
356 -541 2766
370 -551 2815
375 -546 2791
381 -543 2774
390 -544 2778
397 -542 2763
406 -544 2772
419 -551 2806
423 -545 2777
432 -546 2779
444 -550 2801
448 -546 2776
456 -546 2774
464 -546 2772
473 -546 2775
485 -550 2794
488 -546 2768
499 -549 2782
501 -542 2746
510 -542 2747
522 -547 2770
531 -548 2771
534 -542 2743
544 -544 2751
550 -543 2742
563 -547 2761
568 -545 2748
579 -547 2757
585 -545 2745
591 -543 2737
595 -539 2715
605 -541 2724
621 -548 2756
625 -544 2736
634 -546 2740
640 -543 2727
651 -546 2739
661 -547 2743
665 -545 2727
676 -546 2735
687 -549 2747
696 -550 2747
700 -547 2731
707 -546 2724
712 -543 2710
722 -545 2717
725 -541 2695
735 -542 2698
750 -548 2724
762 -550 2733
763 -545 2707
760 -538 2667
773 -541 2681
767 -531 2631
768 -527 2607
762 -517 2558
761 -511 2527
770 -513 2530
767 -505 2491
761 -497 2447
765 -495 2435
762 -488 2399
766 -486 2387
762 -479 2350
762 -474 2326
767 -473 2318
766 -468 2291
768 -465 2276
770 -462 2258
768 -457 2232
781 -460 2246
782 -457 2229
784 -454 2212
791 -454 2210
814 -464 2253
826 -467 2267
870 -488 2365
931 -518 2509
941 -520 2513
987 -541 2611
996 -541 2612
1003 -540 2605
1002 -536 2579
1029 -546 2627
1034 -544 2615
1040 -544 2608
1042 -540 2588
1046 -538 2576
1065 -544 2599
1067 -541 2582
1075 -541 2580
1100 -549 2617
1093 -542 2578
1108 -545 2592
1107 -541 2569
1119 -543 2575
1129 -544 2575
1139 -545 2576
1141 -542 2560
1156 -546 2573
1157 -543 2554
1164 -542 2548
1183 -547 2568
1184 -544 2551
1185 -541 2532
1192 -540 2525
1195 -538 2512
1224 -547 2552
1216 -540 2515
1223 -540 2510
1247 -547 2539
1250 -545 2526
1243 -538 2492
1259 -542 2504
1276 -546 2518
1274 -542 2495
1284 -543 2495
1282 -538 2471
1300 -543 2488
1310 -544 2488
1315 -542 2478
1315 -539 2459
1327 -541 2462
1354 -549 2494
1347 -542 2462
1351 -541 2450
1366 -544 2460
1366 -541 2441
1380 -543 2448
1394 -545 2454
-1441 -521 2457
-1450 -527 2490
-1433 -523 2478
-1442 -530 2513
-1415 -523 2483
-1420 -528 2511
-1404 -525 2502
-1412 -531 2534
-1397 -529 2527
-1388 -529 2529
-1388 -532 2549
-1349 -520 2495
-1357 -526 2529
-1350 -527 2535
-1347 -529 2548
-1339 -529 2553
-1331 -529 2557
-1344 -538 2602
-1316 -530 2569
-1291 -523 2539
-1294 -528 2565
-1288 -528 2571
-1278 -528 2572
-1287 -535 2612
-1263 -529 2583
-1260 -531 2595
-1237 -525 2570
-1239 -529 2593
-1232 -530 2599
-1231 -533 2618
-1213 -529 2601
-1204 -528 2603
-1203 -532 2622
-1188 -528 2609
-1179 -528 2611
-1184 -534 2644
-1187 -539 2672
-1155 -529 2622
-1147 -529 2625
-1158 -538 2674
-1153 -539 2684
-1134 -535 2663
-1120 -532 2652
-1115 -533 2662
-1100 -530 2648
-1107 -538 2689
-1082 -529 2650
-1083 -534 2676
-1076 -535 2684
-1073 -538 2699
-1063 -537 2697
-1042 -531 2668
-1042 -535 2692
-1041 -538 2713
-1020 -532 2683
-1017 -534 2697
-1017 -539 2723
-1008 -539 2724
-987 -532 2693
-993 -540 2734
-984 -540 2735
-966 -534 2709
-981 -547 2779
-951 -535 2719
-939 -533 2711
-933 -534 2720
-932 -539 2743
-919 -536 2732
-920 -541 2761
-908 -539 2753
-901 -540 2759
-886 -536 2740
-875 -534 2734
-878 -542 2773
-862 -537 2749
-853 -537 2751
-840 -534 2736
-840 -539 2766
-832 -540 2770
-823 -539 2769
-814 -538 2768
-805 -538 2767
-794 -536 2760
-792 -540 2782
-782 -540 2780
-773 -539 2778
-764 -538 2778
-757 -539 2784
-748 -539 2783
-739 -539 2784
-729 -538 2778
-729 -544 2814
-714 -539 2789
-710 -542 2805
-696 -538 2787
-687 -537 2784
-684 -542 2810
-674 -540 2803
-670 -544 2820
-662 -544 2826
-653 -544 2823
-647 -546 2835
-639 -546 2838
-625 -541 2813
-621 -545 2836
-612 -545 2836
-599 -541 2816
-595 -544 2834
-586 -545 2837
-575 -542 2826
-568 -543 2832
-560 -543 2833
-548 -540 2819
-543 -543 2835
-535 -544 2840
-531 -548 2863
-520 -546 2850
-510 -544 2844
-503 -545 2850
-493 -544 2845
-481 -540 2825
-475 -543 2837
-471 -548 2864
-459 -543 2843
-451 -544 2848
-445 -547 2865
-432 -541 2832
-425 -543 2845
-419 -546 2858
-409 -543 2846
-403 -547 2867
-391 -543 2845
-384 -544 2849
-374 -541 2837
-367 -544 2853
-361 -547 2870
-352 -546 2865
-343 -545 2860
-334 -544 2854
-327 -547 2871
-317 -544 2853
-309 -544 2857
-301 -545 2860
-294 -548 2877
-285 -546 2868
-276 -546 2868
-266 -543 2853
-259 -545 2861
-249 -543 2850
-244 -548 2879
-232 -542 2847
-228 -550 2891
-217 -544 2858
-210 -548 2881
-199 -543 2850
-192 -545 2865
-183 -545 2862
-174 -542 2847
-156 -512 2689
-133 -460 2418
-122 -444 2335
-116 -447 2349
-111 -456 2394
-103 -450 2366
-95 -447 2351
-89 -451 2371
-85 -468 2460
-80 -480 2524
-83 -546 2868
-76 -549 2885
-67 -550 2891
-59 -550 2890
-51 -551 2893
-42 -546 2868
-34 -550 2885
-25 -551 2892
-17 -546 2867
-8 -549 2881
0 -544 2857
7 -549 2881
16 -546 2863
24 -548 2876
32 -544 2854
41 -548 2875
49 -548 2874
58 -548 2875
66 -550 2883
75 -553 2898
83 -550 2884
90 -544 2849
99 -544 2850
108 -549 2877
117 -554 2900
123 -543 2845
133 -548 2870
140 -546 2856
151 -555 2901
158 -550 2876
167 -550 2877
175 -550 2875
180 -541 2828
189 -542 2834
199 -546 2854
208 -549 2870
218 -552 2882
224 -547 2854
233 -548 2859
241 -547 2855
251 -552 2880
258 -550 2867
267 -550 2867
275 -549 2863
280 -544 2831
290 -545 2840
298 -545 2836
308 -548 2852
313 -543 2825
324 -548 2849
330 -544 2826
341 -548 2849
352 -552 2869
359 -551 2859
363 -544 2823
373 -547 2836
382 -547 2839
386 -541 2807
396 -544 2820
403 -543 2812
411 -542 2809
419 -543 2808
425 -539 2788
440 -548 2831
445 -543 2808
454 -545 2814
465 -548 2829
472 -546 2820
482 -549 2830
490 -548 2824
496 -546 2811
508 -550 2832
511 -544 2800
520 -545 2804
531 -547 2815
534 -543 2789
542 -543 2787
552 -544 2795
564 -547 2809
573 -548 2812
572 -540 2768
584 -543 2784
592 -543 2782
603 -546 2791
613 -547 2798
612 -539 2757
631 -549 2803
630 -541 2760
639 -541 2759
651 -544 2775
657 -543 2766
667 -544 2769
678 -547 2781
680 -542 2754
696 -548 2784
697 -542 2752
711 -547 2774
719 -547 2772
728 -547 2771
736 -547 2767
733 -539 2726
745 -542 2738
760 -547 2761
761 -542 2734
764 -538 2713
778 -542 2732
768 -530 2666
764 -522 2623
763 -516 2591
759 -508 2549
759 -502 2521
766 -502 2518
763 -495 2481
762 -490 2450
758 -482 2411
761 -480 2397
767 -479 2392
767 -475 2367
764 -468 2334
771 -468 2330
773 -465 2315
778 -464 2305
771 -456 2262
778 -456 2260
785 -456 2258
790 -455 2252
807 -461 2278
828 -469 2316
870 -489 2411
921 -513 2530
959 -530 2609
987 -541 2660
993 -540 2652
1004 -542 2659
1014 -543 2659
1026 -545 2667
1029 -542 2650
1038 -542 2649
1047 -543 2649
1061 -546 2662
1075 -549 2672
1062 -538 2617
1075 -541 2627
1077 -538 2608
1100 -545 2641
1111 -547 2646
1109 -542 2617
1114 -540 2608
1128 -543 2617
1134 -542 2610
1147 -545 2618
1143 -539 2586
1159 -543 2603
1171 -544 2606
1185 -547 2617
1179 -541 2581
1205 -549 2619
1204 -545 2594
1203 -540 2570
1216 -543 2578
1229 -545 2585
1219 -537 2544
1225 -536 2536
1248 -543 2563
1246 -538 2538
1265 -543 2558
1273 -543 2554
1277 -542 2542
1285 -542 2538
1301 -545 2549
1290 -537 2508
1306 -540 2520
1316 -541 2519
1320 -540 2509
1337 -543 2521
1337 -540 2501
1337 -537 2483
1363 -544 2511
1362 -540 2491
1376 -543 2498
1382 -542 2491
1392 -543 2490
1401 -543 2486
1423 -549 2507
-1479 -526 2523
-1502 -537 2581
-1467 -528 2539
-1443 -522 2516
-1450 -528 2547
-1453 -532 2571
-1447 -533 2580
-1439 -533 2584
-1415 -527 2560
-1416 -531 2582
-1399 -528 2570
-1394 -529 2580
-1382 -528 2577
-1383 -531 2598
-1353 -523 2562
-1345 -523 2567
-1340 -524 2576
-1340 -528 2596
-1332 -528 2601
-1319 -526 2594
-1310 -526 2598
-1307 -528 2612
-1301 -529 2619
-1308 -536 2655
-1287 -530 2632
-1276 -529 2631
-1264 -528 2627
-1269 -534 2659
-1261 -534 2662
-1242 -529 2644
-1232 -529 2643
-1233 -533 2668
-1228 -534 2678
-1202 -527 2643
-1199 -529 2657
-1198 -532 2677
-1194 -534 2690
-1179 -532 2679
-1172 -532 2685
-1163 -532 2686
-1144 -527 2665
-1151 -534 2704
-1148 -537 2721
-1127 -531 2692
-1128 -535 2718
-1103 -527 2680
-1098 -529 2692
-1106 -537 2734
-1109 -543 2766
-1086 -536 2732
-1083 -538 2748
-1066 -534 2731
-1057 -534 2732
-1053 -536 2746
-1045 -536 2749
-1042 -539 2765
-1031 -538 2762
-1013 -533 2741
-1013 -538 2765
-1005 -538 2769
-992 -536 2759
-989 -539 2777
-975 -536 2764
-970 -537 2775
-968 -541 2797
-955 -539 2786
-943 -537 2778
-936 -537 2783
-937 -543 2815
-918 -537 2783
-909 -537 2785
-909 -542 2814
-891 -536 2787
-893 -542 2820
-868 -532 2770
-877 -543 2828
-861 -538 2806
-856 -541 2821
-852 -543 2835
-836 -539 2812
-828 -539 2816
-828 -545 2849
-826 -549 2871
-797 -536 2805
-801 -544 2850
-783 -538 2818
-776 -539 2824
-774 -543 2849
-761 -540 2835
-755 -542 2844
-747 -543 2850
-736 -540 2839
-723 -537 2824
-721 -542 2850
-711 -541 2846
-699 -539 2836
-689 -537 2831
-685 -540 2848
-683 -546 2877
-673 -545 2874
-663 -543 2868
-657 -546 2882
-646 -544 2874
-638 -544 2876
-629 -544 2876
-625 -548 2896
-606 -539 2850
-604 -544 2880
-600 -548 2902
-587 -545 2883
-578 -544 2883
-573 -547 2900
-563 -546 2894
-553 -545 2891
-544 -544 2885
-536 -545 2889
-526 -544 2887
-516 -542 2875
-509 -543 2883
-498 -541 2875
-493 -545 2895
-485 -546 2899
-476 -545 2894
-464 -541 2877
-458 -544 2894
-449 -543 2888
-442 -545 2899
-431 -542 2885
-425 -546 2903
-417 -546 2904
-407 -543 2893
-399 -544 2899
-389 -542 2888
-383 -546 2909
-372 -542 2890
-368 -550 2930
-356 -545 2903
-345 -540 2880
-341 -547 2914
-331 -545 2907
-326 -552 2941
-311 -541 2883
-306 -545 2908
-300 -551 2937
-289 -546 2913
-283 -550 2934
-271 -544 2902
-264 -548 2922
-257 -550 2934
-246 -545 2909
-237 -545 2906
-227 -542 2891
-222 -549 2928
-213 -548 2923
-204 -547 2920
-195 -544 2906
-185 -540 2881
-177 -543 2898
-164 -527 2812
-140 -475 2538
-125 -450 2404
-118 -449 2398
-110 -444 2373
-106 -456 2436
-98 -451 2407
-92 -458 2444
-86 -466 2489
-83 -488 2607
-83 -538 2870
-76 -546 2914
-68 -547 2921
-60 -550 2937
-51 -552 2945
-43 -550 2936
-34 -552 2944
-26 -548 2922
-17 -550 2933
-9 -550 2932
0 -551 2936
8 -549 2929
16 -548 2924
25 -550 2929
33 -550 2931
41 -547 2915
50 -548 2918
58 -547 2912
67 -551 2933
75 -548 2916
84 -549 2921
93 -550 2926
100 -545 2901
109 -548 2917
119 -553 2943
126 -547 2909
134 -544 2893
143 -548 2912
151 -546 2900
160 -547 2908
168 -546 2902
178 -552 2933
184 -545 2892
196 -553 2936
202 -547 2902
210 -545 2893
219 -547 2903
227 -547 2901
238 -553 2930
246 -550 2914
254 -551 2918
260 -544 2880
268 -545 2883
278 -547 2898
286 -546 2890
291 -541 2860
305 -550 2908
313 -548 2899
320 -546 2888
329 -548 2893
339 -550 2904
341 -540 2851
352 -545 2874
360 -543 2866
372 -549 2896
383 -553 2917
386 -544 2868
396 -547 2881
404 -546 2876
411 -545 2867
418 -543 2855
430 -548 2880
436 -545 2865
447 -548 2878
452 -543 2853
467 -552 2897
466 -540 2834
478 -545 2859
487 -546 2861
495 -546 2858
504 -546 2860
513 -547 2860
518 -543 2842
522 -539 2818
539 -547 2860
540 -541 2823
554 -546 2847
561 -544 2838
570 -545 2842
572 -539 2809
586 -544 2835
595 -545 2836
602 -544 2827
608 -542 2817
620 -545 2831
632 -548 2846
632 -541 2806
641 -542 2811
648 -541 2802
663 -546 2828
671 -546 2823
676 -543 2810
688 -546 2821
691 -542 2798
703 -545 2812
714 -547 2819
717 -543 2800
728 -545 2805
730 -541 2782
743 -544 2797
753 -545 2801
761 -545 2799
767 -543 2786
766 -537 2751
771 -535 2739
765 -525 2686
758 -515 2633
763 -513 2621
762 -506 2586
763 -502 2562
758 -494 2519
759 -490 2496
756 -483 2459
765 -484 2463
766 -480 2438
767 -476 2418
766 -471 2389
772 -471 2384
773 -467 2363
770 -460 2328
774 -459 2318
772 -454 2290
781 -455 2292
791 -457 2301
801 -458 2307
832 -472 2374
867 -488 2450
920 -513 2576
954 -528 2646
974 -535 2676
1001 -545 2726
1001 -540 2699
1021 -547 2730
1014 -539 2685
1024 -540 2687
1047 -548 2723
1050 -545 2707
1052 -542 2688
1060 -542 2685
1071 -543 2688
1077 -542 2680
1084 -541 2674
1102 -546 2694
1105 -544 2679
1106 -540 2658
1125 -545 2679
1119 -539 2643
1130 -540 2647
1138 -540 2642
1143 -538 2633
1156 -540 2639
1167 -542 2642
1192 -550 2677
1194 -547 2659
1195 -544 2641
1192 -538 2612
1213 -544 2636
1224 -546 2639
1219 -540 2608
1223 -538 2594
1241 -542 2612
1255 -545 2621
1263 -545 2616
1268 -543 2606
1274 -542 2597
1269 -537 2567
1287 -541 2584
1298 -542 2584
1310 -544 2589
1322 -545 2591
1321 -542 2570
1334 -543 2574
1339 -542 2566
1336 -538 2540
1361 -544 2567
1377 -548 2579
1394 -551 2591
1381 -543 2546
1378 -538 2522
1402 -545 2547
1413 -546 2547
1417 -544 2536
1421 -543 2523
1434 -545 2529
-1511 -529 2578
-1488 -524 2559
-1473 -522 2551
-1480 -527 2582
-1470 -527 2584
-1433 -516 2539
-1447 -524 2582
-1451 -529 2609
-1440 -528 2607
-1426 -526 2602
-1413 -524 2597
-1421 -531 2633
-1400 -526 2613
-1401 -530 2635
-1382 -526 2620
-1385 -530 2644
-1368 -527 2633
-1361 -527 2638
-1353 -528 2643
-1343 -527 2645
-1337 -528 2653
-1323 -526 2645
-1321 -529 2662
-1302 -525 2644
-1305 -529 2672
-1297 -529 2676
-1297 -533 2698
-1286 -532 2695
-1264 -527 2672
-1260 -528 2683
-1261 -533 2708
-1255 -534 2716
-1246 -534 2720
-1237 -533 2720
-1222 -531 2710
-1231 -538 2753
-1210 -533 2728
-1206 -535 2740
-1195 -534 2739
-1191 -536 2753
-1185 -537 2761
-1175 -537 2762
-1172 -539 2778
-1147 -532 2743
-1144 -534 2758
-1132 -533 2753
-1121 -532 2750
-1117 -534 2763
-1109 -534 2767
-1103 -535 2776
-1096 -536 2784
-1082 -534 2773
-1072 -533 2772
-1079 -541 2815
-1062 -537 2796
-1052 -536 2795
-1039 -534 2787
-1035 -536 2799
-1021 -533 2788
-1017 -536 2802
-1015 -539 2824
-1012 -542 2842
-1002 -542 2842
-987 -538 2824
-974 -536 2814
-971 -539 2834
-957 -536 2819
-947 -535 2817
-943 -538 2835
-932 -536 2828
-933 -542 2860
-921 -540 2851
-913 -541 2857
-897 -536 2834
-898 -542 2868
-890 -543 2873
-873 -538 2848
-866 -538 2853
-862 -542 2873
-851 -540 2866
-831 -533 2829
-828 -536 2848
-827 -541 2878
-815 -539 2869
-812 -543 2891
-799 -540 2877
-787 -538 2864
-782 -540 2878
-778 -543 2898
-757 -535 2853
-753 -538 2871
-742 -536 2865
-742 -543 2901
-733 -542 2899
-724 -542 2901
-714 -542 2898
-702 -539 2883
-699 -543 2908
-690 -543 2909
-684 -545 2922
-671 -542 2905
-660 -540 2895
-657 -545 2923
-650 -546 2931
-634 -539 2897
-625 -539 2897
-625 -547 2939
-607 -539 2899
-601 -541 2912
-589 -538 2896
-592 -548 2952
-577 -542 2921
-570 -544 2931
-557 -541 2913
-554 -546 2940
-545 -546 2943
-538 -547 2949
-526 -544 2933
-518 -545 2940
-507 -542 2927
-498 -541 2922
-492 -545 2941
-484 -545 2944
-473 -542 2931
-467 -546 2950
-459 -546 2953
-449 -545 2946
-444 -549 2969
-432 -546 2953
-421 -543 2937
-412 -542 2932
-405 -544 2944
-398 -547 2961
-387 -543 2940
-382 -549 2972
-374 -549 2975
-363 -546 2955
-354 -546 2959
-342 -541 2931
-337 -547 2963
-325 -541 2931
-320 -547 2965
-311 -546 2959
-300 -541 2935
-295 -548 2972
-286 -548 2969
-274 -542 2941
-267 -545 2958
-259 -546 2960
-250 -545 2957
-242 -547 2964
-231 -541 2937
-223 -543 2943
-214 -541 2934
-206 -542 2942
-198 -545 2956
-189 -544 2950
-180 -544 2952
-170 -539 2923
-147 -492 2667
-128 -453 2460
-118 -443 2404
-113 -450 2441
-106 -452 2452
-99 -451 2445
-94 -462 2509
-86 -457 2481
-84 -484 2623
-83 -525 2846
-77 -541 2934
-69 -546 2962
-61 -551 2985
-52 -550 2980
-43 -550 2983
-35 -552 2995
-26 -549 2976
-17 -549 2975
-9 -550 2980
0 -549 2974
8 -550 2982
16 -550 2978
25 -550 2977
34 -550 2978
42 -548 2968
51 -553 2992
60 -555 3001
68 -550 2975
77 -550 2979
86 -556 3006
94 -548 2964
102 -545 2947
112 -552 2982
119 -544 2940
130 -553 2991
138 -553 2986
146 -550 2974
154 -549 2963
163 -549 2964
171 -548 2961
180 -549 2961
189 -548 2959
199 -553 2985
208 -554 2989
216 -552 2976
223 -547 2950
232 -549 2956
241 -551 2967
249 -550 2960
259 -552 2971
264 -544 2930
271 -542 2916
283 -548 2950
294 -552 2968
300 -549 2950
308 -547 2939
321 -555 2980
325 -547 2935
337 -553 2966
341 -545 2925
352 -548 2940
360 -549 2941
367 -545 2924
374 -543 2909
382 -542 2905
395 -549 2938
401 -546 2920
408 -543 2904
417 -545 2912
428 -547 2923
438 -549 2935
441 -543 2898
454 -548 2927
459 -543 2898
468 -545 2904
478 -546 2911
489 -549 2926
499 -550 2929
501 -543 2891
517 -551 2931
523 -549 2917
531 -548 2913
539 -548 2910
547 -547 2903
550 -542 2876
566 -549 2912
571 -546 2892
581 -547 2896
584 -542 2869
596 -545 2885
604 -545 2879
608 -541 2860
623 -547 2889
631 -546 2881
632 -540 2849
644 -543 2863
653 -543 2861
663 -545 2868
667 -541 2847
678 -543 2855
687 -544 2857
698 -546 2867
705 -544 2855
722 -551 2889
723 -546 2859
730 -545 2851
739 -545 2850
749 -546 2852
752 -542 2832
762 -543 2834
770 -543 2832
771 -538 2804
763 -526 2741
768 -525 2730
761 -514 2671
757 -506 2628
761 -503 2614
757 -496 2571
767 -497 2578
762 -489 2531
757 -481 2490
765 -481 2489
763 -475 2456
762 -470 2427
766 -468 2413
770 -466 2402
766 -460 2367
774 -460 2366
779 -459 2357
789 -460 2364
790 -457 2344
792 -454 2326
815 -463 2370
867 -489 2498
902 -504 2576
942 -522 2663
973 -535 2727
984 -536 2731
1002 -542 2754
1001 -537 2726
1016 -540 2741
1018 -537 2722
1038 -543 2750
1031 -535 2707
1045 -538 2719
1055 -539 2721
1074 -544 2744
1084 -545 2745
1072 -535 2691
1091 -541 2716
1103 -542 2721
1108 -541 2709
1126 -545 2730
1125 -541 2704
1131 -540 2696
1141 -541 2696
1158 -545 2714
1172 -547 2722
1174 -544 2704
1177 -542 2690
1189 -544 2695
1195 -543 2686
1203 -543 2682
1206 -540 2667
1226 -545 2688
1228 -542 2670
1239 -544 2674
1248 -544 2671
1251 -542 2656
1254 -540 2641
1270 -543 2653
1273 -541 2638
1291 -545 2655
1287 -539 2625
1311 -546 2654
1313 -544 2637
1326 -546 2643
1330 -544 2630
1340 -544 2628
1343 -542 2614
1352 -543 2612
1357 -541 2601
1360 -539 2588
1357 -535 2561
1383 -541 2590
1396 -544 2596
1412 -547 2606
1423 -547 2606
1427 -546 2593
1423 -541 2567
1430 -541 2560
1451 -545 2578
1454 -544 2565
-1528 -526 2610
-1523 -528 2621
-1524 -531 2641
-1523 -534 2660
-1490 -525 2621
-1484 -526 2630
-1495 -533 2669
-1461 -524 2628
-1466 -529 2656
-1449 -526 2646
-1433 -523 2636
-1434 -527 2657
-1434 -530 2677
-1426 -531 2684
-1421 -532 2693
-1394 -525 2662
-1401 -531 2697
-1385 -528 2686
-1370 -526 2678
-1378 -532 2714
-1357 -527 2693
-1342 -525 2684
-1352 -533 2726
-1346 -534 2736
-1320 -527 2704
-1330 -534 2746
-1323 -535 2752
-1311 -534 2749
-1304 -534 2756
-1288 -531 2744
-1283 -533 2757
-1267 -530 2744
-1262 -532 2756
-1262 -536 2778
-1255 -536 2784
-1248 -537 2792
-1240 -537 2797
-1225 -535 2786
-1228 -540 2816
-1215 -538 2809
-1199 -535 2797
-1191 -535 2800
-1176 -533 2789
-1170 -534 2798
-1166 -536 2812
-1151 -533 2801
-1138 -531 2792
-1148 -540 2843
-1134 -537 2831
-1121 -535 2824
-1120 -539 2847
-1097 -532 2813
-1093 -535 2828
-1078 -532 2814
-1078 -536 2838
-1067 -535 2835
-1056 -534 2831
-1070 -545 2897
-1054 -542 2880
-1037 -538 2861
-1018 -532 2834
-1017 -536 2858
-1000 -532 2837
-1002 -538 2869
-998 -540 2886
-977 -533 2851
-969 -534 2856
-979 -545 2914
-962 -540 2891
-951 -539 2889
-941 -538 2887
-933 -539 2891
-920 -536 2879
-919 -540 2905
-912 -542 2915
-892 -535 2881
-893 -541 2913
-882 -540 2908
-883 -546 2942
-856 -535 2884
-858 -541 2921
-844 -538 2906
-835 -538 2907
-822 -535 2896
-818 -538 2912
-811 -539 2919
-795 -535 2896
-799 -543 2945
-782 -538 2915
-783 -544 2952
-764 -538 2918
-757 -539 2926
-752 -541 2940
-742 -541 2939
-734 -541 2942
-723 -540 2936
-722 -545 2968
-706 -540 2940
-701 -543 2956
-690 -541 2950
-680 -540 2943
-676 -544 2969
-663 -541 2951
-654 -541 2951
-652 -546 2983
-636 -540 2949
-636 -547 2992
-620 -541 2960
-607 -538 2943
-604 -543 2969
-597 -545 2981
-588 -545 2982
-577 -543 2971
-573 -547 2996
-566 -549 3008
-552 -544 2980
-543 -543 2978
-538 -547 3001
-526 -544 2985
-513 -540 2961
-511 -547 3001
-498 -543 2980
-494 -548 3007
-481 -543 2985
-475 -547 3004
-468 -549 3017
-460 -549 3019
-446 -543 2984
-443 -551 3027
-427 -542 2979
-420 -543 2988
-409 -541 2976
-407 -550 3024
-395 -546 3004
-387 -547 3009
-380 -549 3023
-369 -546 3005
-358 -543 2991
-351 -546 3008
-341 -545 3001
-335 -549 3022
-328 -552 3043
-314 -543 2991
-308 -548 3017
-298 -545 3004
-290 -547 3013
-283 -550 3029
-270 -543 2991
-264 -549 3024
-254 -546 3010
-245 -544 3000
-239 -550 3034
-229 -548 3020
-219 -546 3012
-211 -549 3026
-202 -548 3021
-194 -550 3033
-183 -543 2996
-174 -543 2992
-157 -517 2852
-134 -467 2574
-120 -444 2447
-115 -449 2477
-107 -446 2461
-101 -454 2506
-96 -462 2547
-88 -460 2539
-84 -481 2652
-84 -524 2889
-77 -535 2948
-69 -542 2985
-62 -551 3037
-53 -552 3040
-44 -555 3059
-35 -553 3049
-27 -553 3048
-18 -552 3041
-9 -549 3025
0 -552 3039
8 -550 3029
17 -552 3041
25 -551 3031
34 -548 3018
43 -551 3032
52 -553 3045
61 -550 3024
70 -555 3053
77 -544 2993
87 -552 3036
96 -553 3042
106 -556 3055
112 -545 2996
121 -546 2997
131 -549 3017
140 -551 3029
149 -553 3036
157 -550 3019
166 -551 3026
173 -545 2991
183 -548 3005
193 -551 3022
201 -550 3014
210 -550 3017
221 -557 3051
227 -550 3016
236 -549 3006
243 -545 2987
252 -548 2997
263 -551 3017
271 -550 3010
277 -544 2977
287 -548 2996
295 -546 2984
305 -548 2994
314 -548 2995
325 -553 3017
329 -545 2972
343 -553 3017
348 -548 2987
356 -546 2976
365 -546 2977
371 -543 2956
385 -551 2999
391 -546 2974
402 -550 2995
407 -544 2961
418 -548 2979
424 -545 2959
434 -547 2970
445 -549 2982
451 -546 2964
461 -547 2969
468 -545 2956
472 -540 2929
488 -548 2971
494 -546 2954
503 -546 2955
515 -550 2974
521 -547 2957
527 -545 2943
537 -546 2949
546 -546 2948
555 -547 2950
565 -548 2954
570 -545 2935
578 -544 2929
590 -547 2944
594 -542 2918
602 -542 2917
612 -544 2922
619 -542 2912
631 -545 2926
642 -547 2933
643 -541 2900
655 -543 2910
666 -546 2923
674 -545 2917
683 -545 2915
690 -544 2908
701 -546 2914
711 -547 2919
712 -542 2888
721 -542 2888
733 -544 2897
742 -545 2900
743 -539 2866
761 -546 2901
764 -542 2879
766 -537 2851
765 -531 2816
765 -525 2781
767 -521 2758
764 -513 2715
756 -503 2658
763 -502 2652
765 -498 2627
762 -491 2589
757 -483 2544
757 -478 2517
759 -474 2496
765 -473 2488
763 -468 2456
768 -466 2446
772 -465 2435
770 -459 2405
769 -454 2376
776 -454 2372
783 -454 2371
798 -459 2393
817 -465 2426
850 -480 2499
911 -510 2652
947 -526 2732
964 -531 2755
993 -542 2810
1000 -541 2803
1000 -536 2776
1026 -546 2822
1018 -537 2775
1040 -545 2809
1047 -544 2802
1048 -540 2778
1065 -544 2797
1061 -538 2763
1081 -544 2790
1082 -540 2767
1105 -547 2802
1101 -541 2766
1095 -534 2726
1126 -545 2781
1133 -544 2772
1135 -541 2754
1142 -541 2748
1157 -544 2760
1155 -539 2732
1169 -542 2742
1183 -544 2751
1194 -545 2753
1209 -548 2765
1203 -541 2726
1205 -539 2710
1216 -540 2711
1232 -543 2724
1234 -540 2707
1247 -542 2713
1268 -548 2738
1275 -547 2730
1281 -546 2721
1275 -540 2686
1287 -542 2690
1307 -546 2711
1319 -548 2714
1314 -542 2681
1323 -542 2679
1330 -542 2672
1343 -544 2678
1351 -544 2673
1366 -546 2681
1362 -541 2652
1359 -537 2627
1397 -549 2680
1389 -542 2645
1395 -541 2635
1417 -546 2656
1420 -544 2641
1425 -543 2630
1448 -549 2653
1448 -545 2633
1459 -546 2633
1465 -545 2624
1478 -547 2629
1481 -545 2613
-1556 -527 2659
-1541 -525 2653
-1548 -531 2685
-1545 -532 2699
-1518 -526 2671
-1507 -526 2673
-1507 -529 2692
-1496 -528 2693
-1508 -535 2735
-1486 -531 2716
-1468 -527 2702
-1471 -532 2728
-1455 -529 2719
-1452 -531 2733
-1437 -529 2726
-1432 -531 2738
-1411 -526 2718
-1414 -531 2745
-1397 -528 2733
-1402 -533 2763
-1378 -527 2737
-1371 -528 2745
-1352 -524 2728
-1368 -534 2782
-1366 -536 2799
-1348 -533 2784
-1335 -531 2779
-1338 -536 2807
-1321 -532 2793
-1310 -532 2793
-1310 -536 2817
-1286 -529 2786
-1283 -532 2803
-1271 -530 2798
-1280 -538 2841
-1257 -532 2814
-1249 -532 2818
-1244 -534 2831
-1233 -533 2828
-1226 -534 2836
-1221 -536 2849
-1216 -538 2861
-1196 -533 2838
-1197 -537 2864
-1192 -539 2877
-1172 -534 2853
-1159 -532 2847
-1162 -538 2879
-1151 -537 2877
-1144 -538 2884
-1131 -536 2876
-1127 -538 2892
-1117 -538 2892
-1094 -531 2858
-1101 -538 2901
-1092 -539 2904
-1082 -538 2903
-1077 -540 2918
-1061 -537 2901
-1051 -536 2901
-1052 -541 2931
-1032 -535 2901
-1027 -537 2914
-1025 -541 2938
-1008 -537 2917
-1004 -540 2933
-988 -536 2914
-990 -541 2947
-969 -535 2915
-966 -538 2934
-956 -538 2935
-953 -541 2955
-941 -539 2947
-943 -546 2985
-908 -531 2904
-922 -544 2977
-890 -531 2906
-899 -541 2966
-882 -536 2940
-883 -543 2978
-868 -539 2958
-868 -544 2989
-864 -547 3009
-839 -537 2954
-840 -544 2992
-823 -539 2966
-815 -539 2970
-810 -542 2986
-792 -536 2953
-792 -542 2988
-775 -536 2959
-770 -539 2978
-764 -541 2988
-757 -543 2999
-745 -540 2988
-736 -541 2991
-731 -543 3006
-722 -543 3006
-713 -543 3008
-707 -546 3025
-693 -542 3003
-688 -545 3021
-678 -544 3020
-672 -547 3034
-662 -546 3029
-650 -543 3016
-642 -544 3024
-640 -550 3057
-629 -548 3047
-614 -543 3022
-603 -541 3013
-594 -541 3013
-589 -545 3034
-582 -546 3043
-575 -548 3056
-561 -544 3029
-553 -545 3038
-543 -543 3029
-531 -540 3014
-527 -546 3045
-518 -546 3047
-511 -547 3056
-497 -542 3025
-492 -547 3055
-485 -549 3066
-474 -547 3057
-463 -544 3042
-458 -549 3070
-446 -546 3052
-439 -548 3065
-429 -546 3054
-422 -549 3072
-409 -544 3046
-402 -547 3059
-391 -544 3045
-384 -546 3058
-373 -544 3046
-365 -545 3054
-358 -548 3067
-348 -546 3059
-336 -542 3035
-330 -546 3060
-320 -545 3053
-313 -548 3071
-305 -549 3075
-293 -544 3050
-284 -544 3048
-279 -551 3089
-268 -547 3068
-258 -546 3061
-252 -551 3089
-240 -546 3060
-230 -543 3046
-224 -548 3073
-212 -543 3042
-206 -550 3083
-196 -548 3070
-188 -549 3079
-176 -541 3034
-165 -532 2983
-136 -465 2607
-124 -448 2514
-115 -442 2479
-108 -446 2501
-102 -451 2529
-96 -454 2546
-91 -470 2633
-85 -476 2671
-81 -502 2811
-79 -540 3023
-71 -545 3052
-63 -551 3085
-54 -550 3083
-45 -551 3086
-36 -551 3089
-27 -554 3101
-18 -550 3079
-9 -556 3112
0 -556 3115
8 -553 3094
17 -551 3086
26 -553 3093
35 -550 3080
44 -554 3102
52 -548 3067
62 -551 3080
71 -551 3080
79 -548 3067
89 -552 3085
98 -553 3092
106 -551 3079
115 -548 3059
124 -549 3064
132 -547 3058
142 -549 3064
150 -548 3058
161 -554 3094
171 -559 3120
177 -549 3063
187 -551 3071
195 -549 3060
205 -552 3076
212 -548 3053
223 -553 3080
230 -548 3051
238 -546 3041
249 -550 3061
258 -550 3059
266 -550 3057
273 -545 3033
283 -548 3046
294 -552 3066
300 -547 3039
312 -552 3064
320 -550 3054
331 -553 3070
335 -546 3031
344 -545 3025
355 -549 3044
365 -551 3053
374 -552 3056
378 -544 3014
389 -548 3032
399 -549 3037
403 -543 3002
415 -547 3024
425 -548 3030
434 -548 3028
444 -551 3041
447 -543 2997
460 -548 3024
466 -545 3005
477 -547 3018
489 -551 3033
494 -547 3013
500 -544 2995
511 -546 3007
521 -547 3010
529 -547 3005
536 -544 2991
550 -550 3022
550 -541 2971
561 -543 2981
576 -549 3010
582 -547 2996
588 -544 2981
595 -543 2971
608 -546 2989
615 -545 2981
627 -548 2992
634 -547 2985
636 -541 2952
649 -544 2969
654 -541 2950
668 -545 2971
678 -547 2975
689 -548 2982
692 -544 2958
705 -547 2974
714 -547 2971
718 -544 2950
728 -545 2954
736 -544 2948
748 -546 2958
751 -542 2933
766 -547 2958
760 -537 2900
773 -540 2914
765 -528 2847
763 -521 2809
766 -517 2786
765 -511 2751
766 -507 2724
760 -497 2671
757 -490 2633
761 -488 2617
764 -485 2597
764 -480 2569
765 -476 2545
764 -470 2515
769 -468 2503
772 -466 2487
767 -459 2446
772 -457 2434
778 -456 2430
779 -452 2407
794 -457 2428
812 -463 2460
832 -471 2497
928 -520 2757
948 -527 2791
974 -537 2838
991 -542 2860
999 -541 2856
1006 -540 2848
1017 -542 2852
1028 -543 2857
1040 -544 2861
1051 -546 2867
1053 -542 2844
1048 -536 2806
1073 -544 2845
1090 -548 2865
1086 -542 2830
1097 -543 2831
1099 -540 2812
1113 -542 2822
1120 -542 2816
1130 -542 2815
1151 -549 2844
1147 -542 2808
1156 -543 2806
1173 -546 2822
1168 -540 2788
1178 -541 2787
1195 -544 2802
1182 -535 2749
1204 -541 2777
1215 -542 2779
1228 -544 2786
1233 -543 2774
1231 -538 2746
1256 -545 2779
1267 -546 2781
1268 -543 2761
1284 -546 2773
1280 -541 2743
1295 -543 2752
1289 -537 2717
1317 -545 2754
1300 -535 2697
1330 -544 2739
1322 -537 2699
1332 -538 2699
1350 -542 2715
1373 -547 2738
1375 -545 2723
1384 -545 2718
1396 -546 2720
1402 -545 2711
1407 -544 2699
1422 -546 2709
1423 -543 2689
1430 -543 2682
1435 -541 2671
1448 -543 2676
1462 -545 2680
1464 -543 2665
1464 -540 2644
1479 -542 2651
1505 -549 2679
1500 -543 2649
-1576 -525 2695
-1577 -528 2717
-1569 -529 2723
-1566 -531 2738
-1549 -528 2728
-1529 -525 2714
-1537 -530 2747
-1518 -527 2735
-1513 -528 2745
-1499 -527 2741
-1516 -536 2793
-1474 -524 2736
-1473 -527 2754
-1479 -532 2786
-1455 -527 2762
-1463 -533 2798
-1444 -529 2783
-1425 -526 2768
-1424 -529 2788
-1421 -531 2803
-1416 -533 2815
-1403 -531 2810
-1403 -535 2833
-1391 -533 2829
-1369 -529 2808
-1375 -534 2842
-1366 -534 2845
-1354 -533 2844
-1354 -537 2865
-1339 -535 2857
-1321 -531 2841
-1325 -536 2872
-1320 -538 2884
-1290 -529 2841
-1285 -531 2854
-1286 -535 2880
-1274 -534 2878
-1279 -540 2912
-1263 -537 2900
-1243 -533 2878
-1247 -538 2911
-1229 -535 2894
-1228 -538 2916
-1235 -545 2958
-1212 -539 2926
-1189 -533 2896
-1196 -540 2938
-1178 -536 2918
-1175 -539 2939
-1170 -541 2950
-1153 -537 2935
-1134 -532 2911
-1122 -531 2907
-1124 -536 2936
-1127 -542 2971
-1109 -538 2952
-1101 -539 2957
-1093 -539 2962
-1083 -539 2962
-1077 -540 2974
-1050 -531 2925
-1049 -535 2950
-1054 -543 2993
-1035 -538 2968
-1027 -538 2973
-1019 -539 2978
-1011 -539 2985
-1005 -541 2995
-998 -542 3003
-985 -540 2996
-975 -539 2992
-970 -542 3009
-963 -543 3016
-958 -545 3033
-944 -543 3019
-928 -538 2998
-927 -544 3029
-909 -539 3002
-909 -544 3032
-889 -537 2999
-885 -540 3015
-871 -537 3002
-860 -536 2998
-855 -539 3014
-848 -540 3021
-841 -541 3030
-831 -541 3031
-824 -542 3039
-810 -539 3024
-800 -538 3021
-801 -545 3060
-793 -546 3066
-780 -543 3053
-780 -550 3092
-765 -546 3071
-743 -536 3018
-746 -545 3068
-736 -545 3067
-723 -542 3051
-720 -547 3081
-708 -544 3071
-700 -545 3074
-685 -540 3049
-680 -544 3072
-673 -546 3083
-661 -544 3071
-660 -550 3108
-641 -542 3063
-634 -543 3072
-629 -547 3094
-616 -544 3078
-611 -548 3102
-595 -541 3064
-590 -545 3087
-583 -547 3098
-573 -546 3095
-563 -546 3094
-550 -541 3071
-543 -543 3083
-538 -548 3111
-529 -548 3112
-520 -548 3112
-510 -547 3107
-499 -545 3096
-491 -547 3106
-483 -548 3116
-474 -548 3115
-466 -550 3125
-455 -548 3113
-443 -544 3094
-434 -544 3093
-429 -549 3121
-418 -547 3111
-408 -546 3107
-399 -546 3109
-389 -544 3097
-386 -553 3148
-373 -548 3122
-361 -544 3098
-357 -551 3138
-343 -543 3094
-337 -549 3127
-325 -544 3100
-319 -549 3129
-307 -544 3097
-302 -552 3144
-288 -543 3096
-280 -545 3106
-272 -547 3117
-262 -545 3104
-252 -542 3092
-247 -550 3138
-235 -544 3104
-227 -546 3115
-219 -549 3132
-208 -546 3113
-199 -545 3110
-191 -549 3129
-181 -545 3110
-172 -545 3107
-146 -492 2806
-124 -441 2517
-119 -449 2562
-112 -451 2573
-104 -451 2570
-97 -454 2589
-91 -461 2628
-87 -482 2747
-83 -504 2870
-80 -536 3055
-73 -549 3126
-63 -546 3111
-55 -550 3135
-46 -553 3150
-37 -552 3147
-27 -553 3152
-18 -553 3152
-9 -553 3149
0 -550 3134
8 -549 3124
17 -552 3141
26 -552 3139
36 -554 3151
45 -556 3162
54 -551 3134
63 -557 3170
72 -552 3138
81 -548 3117
90 -551 3134
99 -552 3139
109 -554 3147
117 -549 3118
126 -551 3128
135 -549 3119
144 -549 3117
154 -552 3136
164 -555 3150
171 -548 3111
179 -546 3099
191 -554 3143
198 -550 3116
207 -547 3100
218 -553 3135
226 -550 3114
235 -550 3113
246 -555 3141
253 -550 3111
262 -550 3115
271 -551 3116
281 -551 3117
288 -548 3097
297 -547 3094
305 -546 3085
317 -552 3115
325 -549 3101
337 -554 3129
344 -552 3115
350 -547 3084
364 -554 3125
370 -549 3096
378 -548 3090
384 -544 3064
397 -549 3092
403 -546 3073
412 -546 3069
422 -548 3079
428 -543 3054
444 -553 3105
453 -552 3099
455 -543 3050
465 -546 3061
477 -548 3075
487 -550 3081
494 -548 3068
500 -544 3047
508 -544 3044
521 -548 3065
533 -551 3082
538 -547 3058
548 -548 3062
560 -551 3077
569 -551 3074
574 -547 3051
579 -543 3027
595 -550 3067
602 -549 3055
616 -553 3076
617 -546 3037
634 -553 3074
635 -546 3031
646 -547 3038
647 -541 3003
664 -548 3040
673 -548 3037
674 -541 2999
694 -551 3048
697 -546 3020
708 -547 3025
720 -550 3039
723 -545 3009
734 -547 3017
739 -544 2999
752 -547 3016
759 -546 3006
768 -546 3003
765 -538 2956
773 -537 2950
766 -526 2887
765 -519 2849
755 -507 2778
759 -505 2764
760 -499 2733
762 -496 2712
761 -490 2675
758 -483 2636
764 -481 2626
763 -476 2594
766 -473 2576
768 -470 2556
764 -463 2516
768 -460 2501
776 -461 2501
779 -458 2484
778 -453 2456
798 -460 2492
812 -464 2510
833 -472 2551
903 -507 2739
943 -525 2830
977 -539 2906
985 -539 2902
995 -539 2900
1006 -541 2904
1019 -543 2913
1034 -546 2929
1034 -542 2901
1050 -546 2919
1055 -544 2906
1074 -549 2931
1072 -543 2896
1078 -542 2887
1091 -544 2897
1081 -535 2841
1101 -541 2870
1104 -538 2851
1119 -541 2865
1139 -546 2890
1147 -546 2884
1150 -543 2866
1149 -538 2838
1177 -548 2883
1171 -541 2845
1178 -540 2837
1197 -545 2857
1195 -540 2830
1206 -541 2831
1235 -550 2874
1226 -542 2830
1233 -541 2823
1251 -545 2839
1251 -541 2815
1280 -551 2859
1269 -542 2809
1280 -543 2811
1291 -544 2812
1308 -547 2826
1299 -540 2784
1315 -543 2796
1328 -545 2801
1326 -540 2774
1333 -539 2766
1341 -540 2763
1356 -542 2770
1364 -542 2765
1379 -544 2774
1396 -547 2786
1394 -543 2760
1397 -541 2745
1419 -546 2767
1406 -538 2721
1445 -549 2775
1427 -539 2719
1458 -548 2758
1466 -548 2752
1454 -540 2708
1479 -546 2734
1482 -544 2720
1480 -540 2694
1509 -547 2727
1510 -545 2709
1527 -547 2718
1523 -543 2692
-1618 -530 2769
-1610 -530 2775
-1587 -526 2755
-1583 -527 2769
-1571 -526 2768
-1588 -535 2819
-1537 -521 2749
-1562 -533 2815
-1537 -527 2790
-1538 -531 2814
-1534 -533 2828
-1517 -530 2818
-1521 -535 2845
-1506 -533 2838
-1496 -533 2842
-1500 -538 2871
-1468 -529 2832
-1470 -533 2856
-1447 -528 2833
-1438 -528 2837
-1445 -534 2873
-1425 -530 2856
-1429 -535 2887
-1420 -535 2890
-1406 -534 2885
-1392 -532 2878
-1387 -533 2891
-1364 -528 2867
-1372 -535 2905
-1358 -533 2898
-1359 -537 2923
-1345 -535 2918
-1347 -540 2945
-1322 -533 2914
-1326 -539 2947
-1318 -539 2953
-1298 -535 2933
-1297 -538 2955
-1295 -542 2975
-1288 -543 2984
-1275 -541 2978
-1273 -544 2999
-1251 -539 2971
-1248 -541 2989
-1237 -541 2990
-1230 -542 2998
-1218 -541 2995
-1199 -536 2973
-1208 -545 3021
-1182 -537 2981
-1176 -539 2994
-1158 -535 2975
-1164 -542 3016
-1149 -539 3005
-1144 -541 3018
-1127 -538 3001
-1122 -540 3014
-1117 -542 3029
-1107 -541 3028
-1101 -543 3042
-1083 -538 3018
-1067 -535 3002
-1076 -544 3056
-1057 -540 3032
-1047 -539 3031
-1035 -538 3025
-1037 -544 3062
-1026 -543 3059
-1022 -546 3077
-1002 -540 3047
-996 -542 3059
-991 -544 3074
-973 -539 3050
-969 -543 3070
-956 -540 3059
-942 -538 3046
-942 -543 3078
-926 -539 3057
-926 -545 3092
-912 -542 3075
-907 -544 3093
-895 -543 3085
-889 -545 3099
-865 -536 3050
-872 -546 3108
-856 -542 3086
-853 -546 3113
-835 -540 3080
-833 -545 3111
-825 -546 3115
-814 -545 3113
-792 -537 3066
-793 -543 3105
-786 -545 3117
-780 -547 3131
-762 -541 3098
-757 -544 3118
-751 -546 3131
-739 -544 3120
-728 -543 3116
-728 -551 3159
-711 -545 3127
-700 -544 3121
-690 -543 3119
-684 -545 3134
-672 -543 3123
-668 -547 3148
-656 -545 3134
-644 -543 3126
-641 -548 3156
-632 -548 3157
-613 -540 3110
-609 -544 3136
-602 -547 3151
-589 -543 3131
-579 -543 3129
-574 -547 3154
-563 -546 3148
-553 -545 3143
-547 -548 3164
-536 -547 3156
-529 -548 3166
-519 -547 3162
-512 -550 3180
-497 -544 3145
-490 -546 3159
-481 -547 3165
-472 -547 3163
-462 -546 3159
-457 -551 3191
-441 -543 3144
-435 -547 3167
-426 -548 3169
-417 -549 3176
-407 -547 3170
-399 -550 3184
-387 -546 3162
-377 -544 3152
-371 -549 3179
-361 -549 3179
-349 -544 3154
-342 -547 3170
-335 -551 3193
-324 -549 3182
-314 -547 3169
-303 -543 3150
-297 -551 3192
-287 -550 3187
-277 -547 3169
-268 -548 3176
-260 -551 3192
-250 -549 3184
-240 -547 3171
-232 -550 3191
-224 -553 3208
-211 -544 3155
-203 -548 3177
-194 -547 3174
-186 -551 3194
-173 -540 3134
-155 -513 2974
-129 -454 2632
-121 -449 2607
-110 -439 2548
-105 -447 2594
-98 -448 2598
-94 -466 2702
-87 -473 2745
-84 -499 2895
-81 -538 3118
-73 -544 3155
-65 -551 3194
-56 -554 3208
-47 -555 3214
-37 -549 3184
-28 -556 3223
-18 -549 3182
-9 -546 3165
0 -552 3198
8 -546 3165
18 -552 3198
27 -545 3157
36 -552 3197
45 -545 3153
55 -551 3186
64 -550 3185
73 -552 3193
82 -549 3175
92 -555 3207
101 -550 3182
109 -546 3156
120 -554 3199
129 -551 3184
137 -549 3169
148 -555 3203
156 -552 3187
166 -552 3186
176 -554 3199
185 -555 3201
191 -545 3142
202 -550 3170
213 -555 3203
221 -551 3175
230 -551 3177
238 -548 3158
246 -546 3146
256 -547 3150
267 -551 3170
274 -548 3152
285 -550 3165
293 -548 3151
302 -549 3155
314 -553 3181
323 -552 3171
330 -549 3152
341 -552 3172
350 -551 3162
357 -549 3148
367 -550 3155
377 -550 3154
386 -550 3153
394 -548 3141
404 -550 3152
413 -551 3151
423 -551 3154
431 -549 3140
440 -549 3140
447 -547 3123
455 -546 3117
467 -548 3131
473 -546 3114
484 -548 3126
489 -543 3097
499 -543 3097
514 -550 3134
526 -554 3153
534 -553 3144
536 -545 3101
549 -549 3122
555 -546 3103
561 -543 3084
571 -544 3087
583 -546 3098
595 -549 3115
605 -550 3119
609 -545 3089
621 -548 3102
629 -547 3095
633 -543 3069
642 -543 3065
660 -550 3106
663 -546 3079
671 -545 3072
680 -544 3068
696 -550 3098
709 -553 3116
710 -547 3078
718 -546 3070
726 -545 3063
737 -547 3071
747 -547 3070
753 -545 3058
762 -545 3054
767 -542 3036
768 -537 3004
767 -530 2964
758 -518 2894
766 -517 2888
764 -511 2849
763 -504 2809
758 -495 2760
757 -489 2722
765 -489 2721
759 -480 2670
756 -473 2629
758 -470 2606
763 -468 2595
761 -462 2560
771 -463 2566
771 -459 2538
774 -456 2520
777 -454 2505
788 -456 2513
812 -466 2566
825 -469 2580
889 -500 2751
942 -525 2887
976 -539 2961
979 -536 2941
996 -541 2962
1012 -544 2980
1019 -543 2971
1024 -542 2959
1039 -545 2974
1041 -541 2950
1047 -539 2938
