VERSION 0.7
FIELDS x y z
SIZE 4 4 4
TYPE I I I
COUNT 1 1 1
WIDTH 3340
HEIGHT 1
VIEWPOINT 0.0 0.0 0.0 1.0 0.0 0.0 0.0
POINTS 3340
DATA ascii
-176 -534 1373
-170 -526 1354
-158 -503 1294
-144 -472 1214
-137 -459 1181
-132 -456 1175
-127 -450 1158
-123 -450 1159
-118 -445 1146
-115 -445 1146
-112 -448 1154
-108 -446 1150
-105 -449 1157
-102 -449 1156
-98 -449 1158
-96 -453 1168
-93 -456 1176
-90 -458 1182
-86 -461 1189
-84 -464 1198
-81 -474 1222
-81 -491 1268
-80 -511 1319
-78 -524 1353
-75 -531 1372
-72 -539 1391
-68 -539 1392
-63 -538 1389
-59 -540 1393
-55 -538 1390
-51 -538 1389
-47 -541 1398
-43 -542 1399
-38 -538 1388
-34 -539 1392
-30 -538 1390
-26 -541 1397
-21 -542 1400
-17 -536 1385
-13 -540 1394
-8 -539 1393
-4 -538 1389
0 -540 1393
3 -540 1393
7 -537 1386
12 -538 1387
16 -541 1395
20 -541 1395
24 -538 1387
29 -539 1389
33 -540 1393
37 -537 1386
41 -541 1395
45 -537 1385
50 -537 1385
54 -538 1388
58 -539 1389
62 -540 1392
66 -536 1380
71 -537 1384
74 -535 1377
79 -536 1379
83 -537 1383
87 -537 1383
91 -536 1380
96 -539 1386
100 -537 1381
105 -542 1394
108 -537 1380
113 -538 1383
117 -536 1377
120 -533 1368
125 -537 1380
129 -534 1371
134 -538 1381
138 -539 1384
142 -538 1379
145 -534 1368
150 -537 1376
155 -537 1375
158 -536 1371
164 -540 1382
168 -540 1383
172 -538 1376
175 -537 1372
181 -541 1384
183 -535 1367
189 -538 1375
193 -540 1378
197 -539 1376
201 -538 1373
206 -541 1380
210 -540 1377
213 -537 1367
217 -535 1363
221 -536 1365
226 -537 1366
231 -540 1373
235 -539 1371
241 -542 1376
243 -539 1368
247 -539 1366
251 -536 1359
255 -538 1362
259 -536 1357
264 -538 1362
270 -541 1369
273 -540 1365
278 -541 1366
281 -538 1360
286 -539 1361
288 -536 1353
294 -539 1358
297 -537 1352
302 -538 1354
306 -538 1354
310 -537 1351
314 -538 1351
321 -542 1360
323 -538 1350
328 -540 1353
331 -538 1347
337 -540 1352
340 -538 1347
343 -537 1342
347 -537 1340
351 -536 1339
357 -540 1346
362 -541 1347
366 -540 1343
368 -536 1334
376 -542 1348
379 -541 1344
382 -539 1338
384 -535 1328
394 -544 1348
396 -542 1340
399 -539 1332
404 -540 1334
409 -541 1337
414 -542 1337
415 -538 1327
421 -540 1330
424 -540 1327
426 -537 1319
432 -538 1322
435 -537 1318
440 -538 1318
447 -541 1325
450 -540 1320
455 -542 1323
460 -543 1324
462 -540 1316
466 -539 1313
472 -541 1316
474 -539 1309
480 -541 1313
483 -540 1309
489 -542 1313
492 -541 1308
496 -540 1304
501 -541 1307
504 -539 1300
509 -541 1302
513 -540 1299
518 -541 1300
521 -540 1296
525 -540 1294
532 -542 1298
532 -539 1288
539 -542 1293
545 -543 1294
548 -542 1289
552 -542 1288
557 -542 1288
557 -539 1278
562 -539 1277
565 -538 1272
569 -538 1272
579 -543 1281
583 -544 1280
582 -539 1267
589 -541 1271
594 -542 1271
594 -538 1260
598 -538 1259
605 -540 1262
611 -542 1264
610 -538 1252
619 -542 1260
619 -538 1249
625 -540 1251
628 -539 1246
633 -539 1245
637 -539 1244
641 -539 1242
647 -540 1243
645 -536 1229
651 -537 1230
660 -541 1237
662 -539 1231
664 -537 1225
675 -543 1236
678 -542 1233
678 -539 1222
681 -538 1218
689 -541 1222
690 -538 1214
692 -537 1210
698 -539 1211
702 -538 1207
710 -541 1211
710 -538 1203
714 -538 1201
720 -539 1202
722 -537 1194
-746 -526 1195
-743 -526 1199
-738 -526 1199
-738 -529 1209
-732 -527 1207
-725 -525 1205
-725 -528 1214
-717 -525 1209
-717 -529 1220
-711 -527 1218
-709 -530 1225
-700 -526 1219
-698 -527 1224
-695 -528 1228
-693 -530 1234
-689 -530 1237
-683 -529 1236
-676 -527 1232
-675 -530 1241
-669 -527 1238
-672 -534 1255
-666 -532 1253
-661 -532 1254
-653 -529 1249
-654 -533 1261
-643 -528 1250
-639 -527 1252
-634 -527 1253
-636 -532 1266
-632 -532 1269
-624 -530 1264
-624 -533 1274
-619 -532 1273
-612 -530 1270
-611 -533 1279
-603 -530 1273
-601 -532 1279
-592 -527 1270
-590 -529 1276
-589 -532 1285
-585 -532 1287
-577 -529 1281
-573 -529 1284
-571 -531 1290
-570 -534 1298
-566 -534 1300
-560 -533 1299
-559 -536 1309
-553 -535 1306
-548 -534 1305
-543 -533 1304
-537 -532 1303
-534 -533 1307
-528 -531 1304
-523 -530 1303
-525 -536 1321
-520 -535 1320
-511 -531 1311
-507 -531 1312
-506 -534 1321
-501 -534 1321
-499 -536 1327
-491 -532 1320
-492 -538 1335
-487 -537 1334
-483 -537 1336
-474 -532 1325
-472 -534 1332
-466 -533 1328
-461 -532 1329
-458 -533 1332
-452 -531 1329
-448 -532 1330
-445 -534 1337
-441 -533 1337
-437 -534 1341
-434 -535 1344
-429 -534 1344
-423 -532 1338
-421 -535 1348
-417 -536 1350
-414 -537 1355
-407 -533 1345
-399 -529 1337
-398 -533 1347
-393 -532 1346
-390 -534 1351
-386 -534 1352
-383 -535 1357
-377 -533 1352
-374 -535 1358
-370 -535 1360
-368 -539 1369
-358 -530 1349
-358 -537 1368
-352 -534 1360
-348 -535 1364
-342 -532 1358
-338 -533 1360
-338 -539 1376
-330 -533 1362
-329 -538 1375
-321 -532 1361
-320 -538 1377
-315 -536 1372
-308 -532 1362
-305 -534 1368
-301 -534 1369
-297 -535 1372
-293 -535 1374
-291 -539 1383
-285 -536 1376
-281 -536 1377
-277 -538 1383
-272 -535 1377
-268 -537 1382
-265 -538 1386
-261 -538 1387
-256 -538 1386
-250 -534 1378
-247 -538 1388
-243 -538 1388
-239 -539 1391
-234 -536 1384
-230 -537 1388
-227 -541 1399
-222 -538 1391
-218 -539 1395
-212 -535 1386
-208 -534 1383
-203 -533 1380
-199 -535 1385
-195 -535 1386
-192 -538 1394
-186 -534 1385
-183 -537 1392
-179 -537 1393
-173 -533 1384
-164 -517 1341
-150 -486 1260
-138 -459 1192
-133 -454 1180
-128 -452 1174
-123 -446 1159
-120 -447 1162
-117 -449 1167
-112 -444 1155
-110 -449 1168
-106 -448 1164
-103 -448 1166
-99 -449 1167
-96 -451 1173
-93 -456 1186
-90 -456 1186
-87 -460 1198
-84 -465 1210
-82 -473 1230
-81 -487 1268
-80 -504 1313
-78 -521 1357
-76 -533 1388
-72 -538 1402
-69 -544 1416
-64 -540 1408
-59 -536 1397
-55 -537 1399
-51 -541 1409
-47 -539 1405
-43 -543 1415
-38 -538 1401
-34 -543 1413
-30 -538 1403
-26 -541 1409
-21 -539 1404
-17 -545 1419
-13 -539 1405
-8 -536 1397
-4 -539 1403
0 -541 1409
3 -543 1413
7 -538 1400
12 -540 1406
16 -540 1405
20 -538 1400
25 -541 1408
29 -539 1402
33 -541 1409
37 -540 1406
41 -537 1398
46 -538 1400
50 -541 1406
54 -536 1394
58 -536 1395
63 -538 1399
67 -535 1392
71 -537 1396
75 -537 1394
80 -540 1402
84 -538 1398
88 -539 1401
93 -540 1401
96 -536 1391
101 -537 1394
105 -538 1395
109 -536 1389
113 -535 1387
118 -536 1389
123 -542 1403
126 -536 1388
131 -538 1393
134 -536 1387
138 -535 1385
143 -537 1389
148 -541 1398
151 -536 1387
156 -538 1390
160 -538 1391
163 -534 1379
169 -539 1392
173 -539 1392
178 -540 1394
183 -541 1396
185 -537 1383
189 -536 1381
194 -537 1383
197 -534 1375
203 -539 1388
208 -540 1390
212 -541 1391
215 -538 1382
220 -538 1382
224 -538 1381
228 -538 1380
233 -539 1383
238 -541 1386
242 -540 1384
244 -536 1373
248 -536 1373
253 -536 1372
258 -538 1375
261 -537 1372
267 -540 1379
270 -538 1373
275 -538 1372
279 -539 1375
285 -541 1380
287 -538 1369
292 -539 1371
295 -537 1367
300 -538 1368
306 -542 1377
309 -539 1368
312 -538 1364
317 -538 1364
321 -538 1362
325 -537 1360
330 -539 1362
334 -539 1363
340 -541 1367
343 -539 1361
348 -540 1362
352 -540 1360
357 -541 1363
357 -535 1347
361 -535 1346
366 -537 1348
374 -542 1360
379 -543 1362
382 -541 1357
383 -536 1342
389 -539 1349
396 -543 1357
398 -539 1347
401 -538 1342
406 -539 1345
411 -540 1346
418 -544 1353
419 -539 1340
423 -539 1339
427 -538 1336
432 -540 1338
436 -539 1336
442 -542 1342
446 -541 1338
449 -539 1332
454 -541 1336
458 -541 1333
458 -535 1318
467 -541 1331
473 -543 1334
476 -541 1328
478 -540 1323
486 -543 1331
485 -538 1315
490 -539 1317
497 -542 1322
502 -543 1324
507 -543 1323
509 -541 1317
513 -541 1313
522 -546 1324
523 -542 1314
527 -542 1311
526 -537 1297
532 -538 1300
541 -544 1311
543 -542 1304
545 -539 1296
553 -543 1305
557 -542 1302
559 -540 1295
566 -542 1298
567 -540 1290
571 -540 1289
581 -545 1299
580 -540 1285
582 -538 1280
585 -537 1275
592 -540 1279
594 -538 1273
602 -541 1279
609 -544 1283
611 -542 1276
613 -539 1269
618 -541 1270
622 -540 1266
625 -539 1263
629 -539 1260
636 -541 1263
636 -538 1254
643 -540 1256
644 -537 1249
649 -538 1249
654 -538 1247
659 -539 1248
663 -539 1244
669 -541 1247
668 -536 1234
674 -538 1237
681 -540 1239
685 -540 1237
689 -540 1234
692 -539 1230
698 -540 1231
702 -540 1228
704 -538 1221
707 -538 1218
713 -539 1219
720 -541 1221
723 -540 1217
724 -538 1209
725 -536 1202
-753 -526 1207
-749 -526 1210
-747 -528 1216
-741 -526 1214
-737 -527 1217
-728 -523 1211
-727 -525 1219
-723 -526 1222
-721 -528 1228
-715 -526 1226
-718 -532 1241
-709 -528 1235
-705 -528 1238
-702 -530 1243
-690 -524 1231
-690 -527 1241
-685 -527 1242
-686 -530 1252
-685 -533 1260
-676 -529 1254
-678 -534 1268
-668 -530 1259
-665 -531 1264
-658 -529 1261
-653 -528 1261
-649 -528 1262
-652 -534 1279
-644 -531 1273
-638 -530 1272
-633 -529 1272
-629 -529 1275
-624 -529 1275
-617 -526 1271
-619 -532 1286
-610 -528 1278
-611 -533 1292
-606 -531 1290
-601 -531 1292
-601 -535 1302
-590 -529 1289
-585 -528 1289
-584 -531 1299
-585 -536 1312
-574 -530 1298
-573 -533 1307
-566 -530 1303
-564 -533 1310
-558 -531 1307
-556 -533 1314
-552 -533 1315
-550 -536 1323
-542 -532 1315
-538 -532 1318
-535 -534 1324
-529 -532 1320
-523 -530 1317
-522 -533 1326
-513 -529 1316
-511 -531 1324
-508 -532 1328
-503 -531 1327
-501 -534 1334
-498 -536 1341
-492 -534 1337
-487 -533 1336
-480 -530 1330
-479 -534 1341
-474 -532 1339
-474 -537 1352
-466 -534 1344
-461 -533 1343
-459 -535 1350
-453 -534 1348
-450 -535 1352
-446 -536 1355
-441 -534 1353
-438 -536 1359
-430 -531 1348
-427 -533 1354
-425 -536 1362
-420 -535 1360
-415 -534 1359
-410 -534 1360
-405 -532 1355
-406 -539 1375
-398 -535 1365
-392 -533 1361
-389 -534 1366
-386 -536 1371
-381 -535 1369
-378 -536 1374
-373 -535 1373
-367 -533 1366
-364 -536 1375
-364 -541 1390
-358 -539 1384
-349 -531 1366
-346 -533 1372
-343 -536 1380
-338 -534 1376
-334 -535 1379
-327 -531 1370
-322 -530 1367
-319 -532 1374
-316 -534 1379
-311 -532 1375
-307 -534 1380
-304 -536 1387
-299 -535 1385
-296 -536 1388
-292 -537 1392
-288 -537 1393
-282 -535 1388
-276 -530 1377
-275 -538 1396
-269 -534 1388
-265 -535 1390
-260 -533 1387
-258 -538 1399
-253 -536 1395
-248 -535 1394
-245 -538 1401
-239 -535 1393
-236 -536 1398
-232 -536 1399
-227 -536 1399
-224 -538 1403
-219 -538 1405
-214 -536 1399
-210 -535 1398
-207 -540 1411
-201 -536 1401
-197 -537 1403
-193 -537 1405
-188 -536 1403
-185 -539 1410
-180 -535 1402
-175 -534 1398
-169 -529 1386
-155 -498 1305
-139 -461 1208
-133 -452 1184
-130 -453 1187
-126 -452 1184
-122 -452 1184
-118 -449 1177
-114 -448 1176
-110 -447 1173
-107 -449 1179
-103 -449 1178
-100 -451 1184
-97 -450 1183
-94 -454 1191
-90 -455 1196
-87 -459 1205
-86 -468 1229
-82 -470 1235
-81 -486 1278
-80 -501 1316
-79 -521 1369
-76 -530 1394
-73 -537 1410
-69 -539 1416
-65 -540 1419
-60 -540 1419
-56 -539 1417
-52 -539 1416
-47 -538 1414
-43 -540 1420
-39 -540 1420
-34 -536 1409
-30 -544 1431
-26 -539 1418
-22 -542 1424
-17 -544 1429
-13 -538 1414
-9 -536 1410
-4 -539 1416
0 -538 1414
3 -539 1415
8 -540 1420
12 -539 1416
16 -538 1413
20 -540 1420
25 -540 1419
29 -539 1416
33 -539 1416
38 -541 1420
42 -539 1415
46 -542 1423
51 -540 1418
55 -539 1414
59 -539 1413
63 -535 1403
67 -535 1404
72 -540 1417
76 -536 1405
80 -538 1410
84 -535 1403
89 -540 1414
93 -537 1407
98 -541 1416
102 -540 1415
106 -539 1411
111 -541 1415
115 -541 1414
119 -539 1410
123 -539 1410
127 -536 1401
132 -539 1409
135 -535 1399
139 -535 1397
145 -540 1410
148 -536 1400
153 -538 1402
158 -541 1410
162 -540 1407
166 -538 1401
171 -541 1410
174 -536 1396
180 -541 1408
183 -538 1400
187 -538 1399
192 -538 1400
196 -538 1397
200 -539 1400
204 -537 1394
208 -536 1390
215 -543 1410
217 -539 1397
222 -540 1399
227 -541 1401
230 -539 1396
234 -537 1390
238 -538 1391
242 -537 1388
247 -538 1390
251 -537 1387
256 -539 1390
260 -538 1387
263 -536 1381
269 -539 1389
272 -538 1385
277 -538 1386
282 -541 1391
285 -537 1382
289 -537 1380
292 -535 1374
298 -537 1378
305 -544 1394
307 -538 1379
309 -535 1370
315 -538 1377
322 -542 1386
324 -539 1378
328 -538 1375
334 -541 1380
338 -541 1379
341 -538 1372
346 -540 1376
350 -540 1374
353 -537 1365
358 -539 1370
361 -537 1364
364 -535 1356
370 -538 1364
378 -542 1374
378 -536 1358
383 -538 1360
388 -539 1363
392 -539 1361
397 -540 1361
400 -538 1355
405 -539 1358
410 -539 1357
415 -540 1358
418 -539 1354
424 -541 1359
427 -540 1353
429 -537 1344
434 -538 1346
442 -542 1355
444 -539 1347
447 -539 1344
451 -538 1340
457 -540 1343
462 -541 1345
466 -541 1344
472 -542 1346
476 -543 1345
478 -539 1336
483 -541 1337
486 -540 1333
490 -539 1330
495 -540 1332
504 -545 1342
503 -539 1326
511 -543 1334
513 -541 1327
516 -540 1323
520 -540 1322
526 -541 1323
529 -540 1319
535 -541 1321
539 -541 1318
542 -540 1313
549 -543 1320
552 -542 1315
553 -539 1306
558 -539 1306
565 -542 1310
572 -545 1315
574 -542 1307
577 -541 1304
581 -541 1300
583 -539 1294
587 -539 1292
594 -541 1297
600 -542 1297
600 -539 1288
604 -539 1285
607 -537 1279
618 -544 1293
621 -543 1288
618 -536 1272
629 -542 1283
632 -541 1279
633 -538 1270
637 -538 1268
643 -539 1269
650 -542 1273
651 -539 1263
656 -540 1264
666 -544 1272
661 -537 1254
664 -536 1249
673 -540 1256
680 -542 1258
682 -540 1253
684 -539 1246
687 -537 1241
687 -534 1231
698 -539 1241
701 -538 1237
704 -538 1233
713 -541 1239
711 -536 1226
717 -537 1226
723 -539 1228
729 -541 1229
727 -536 1217
735 -539 1220
-760 -527 1220
-749 -522 1212
-751 -526 1224
-746 -526 1224
-740 -525 1224
-738 -526 1231
-737 -529 1238
-731 -527 1236
-722 -524 1232
-724 -529 1245
-720 -529 1246
-717 -530 1251
-710 -528 1248
-703 -526 1246
-704 -530 1258
-694 -526 1250
-694 -529 1259
-687 -527 1256
-682 -526 1257
-685 -532 1272
-677 -529 1267
-677 -532 1278
-670 -530 1275
-663 -528 1270
-660 -529 1276
-661 -534 1288
-648 -527 1274
-648 -530 1284
-642 -529 1283
-643 -533 1295
-632 -528 1283
-629 -529 1288
-629 -532 1297
-625 -533 1301
-622 -533 1304
-613 -530 1297
-613 -533 1308
-604 -529 1300
-600 -529 1301
-598 -531 1308
-593 -531 1309
-588 -530 1309
-586 -532 1315
-584 -535 1322
-571 -527 1306
-575 -534 1325
-567 -531 1319
-562 -530 1318
-560 -532 1324
-553 -530 1320
-549 -531 1324
-547 -532 1329
-538 -528 1320
-535 -530 1325
-532 -531 1330
-526 -529 1326
-524 -532 1334
-520 -532 1336
-515 -531 1336
-511 -531 1338
-507 -532 1341
-507 -536 1353
-498 -531 1341
-498 -536 1355
-493 -535 1354
-489 -535 1355
-484 -535 1356
-479 -535 1357
-474 -534 1356
-469 -532 1353
-468 -537 1366
-460 -533 1357
-456 -533 1359
-451 -532 1357
-449 -534 1364
-444 -533 1364
-440 -534 1367
-436 -534 1368
-432 -534 1369
-427 -534 1371
-421 -532 1366
-418 -534 1371
-413 -533 1370
-413 -538 1385
-407 -536 1381
-403 -537 1384
-399 -537 1384
-390 -531 1371
-388 -534 1378
-384 -535 1382
-381 -536 1386
-378 -538 1391
-373 -537 1391
-366 -534 1383
-365 -539 1397
-356 -532 1381
-355 -537 1394
-351 -536 1393
-345 -534 1388
-341 -535 1391
-339 -539 1402
-332 -535 1393
-327 -534 1390
-319 -528 1376
-320 -536 1398
-316 -537 1402
-311 -536 1400
-306 -534 1395
-304 -538 1407
-299 -538 1405
-295 -538 1407
-289 -536 1402
-287 -540 1413
-282 -537 1407
-277 -537 1408
-274 -539 1413
-269 -537 1409
-264 -536 1406
-258 -534 1403
-256 -539 1416
-250 -536 1408
-247 -537 1412
-243 -538 1413
-239 -539 1417
-232 -534 1406
-228 -535 1408
-225 -536 1412
-219 -534 1406
-217 -540 1422
-211 -536 1412
-208 -537 1416
-204 -538 1420
-199 -536 1414
-195 -537 1417
-189 -533 1407
-187 -539 1423
-182 -538 1420
-177 -535 1414
-170 -529 1398
-160 -511 1350
-144 -472 1248
-135 -455 1203
-130 -451 1193
-127 -451 1192
-122 -447 1181
-119 -448 1186
-114 -446 1179
-111 -447 1184
-108 -449 1188
-104 -449 1190
-101 -452 1198
-98 -451 1195
-94 -452 1197
-91 -455 1207
-89 -462 1225
-85 -461 1223
-83 -469 1243
-81 -483 1279
-81 -503 1335
-79 -518 1375
-77 -530 1404
-73 -537 1424
-70 -541 1434
-65 -539 1430
-61 -539 1428
-57 -541 1434
-52 -540 1431
-48 -541 1435
-43 -539 1430
-39 -541 1436
-35 -543 1439
-31 -542 1438
-26 -539 1430
-22 -539 1428
-17 -538 1426
-13 -541 1435
-9 -536 1422
-4 -540 1433
0 -539 1428
3 -538 1427
8 -541 1433
12 -543 1441
16 -541 1433
21 -541 1433
25 -539 1427
29 -539 1428
34 -539 1427
38 -538 1424
42 -537 1422
46 -535 1417
51 -537 1423
55 -540 1431
59 -536 1418
64 -539 1426
68 -541 1433
72 -538 1424
77 -537 1420
81 -541 1431
85 -537 1420
90 -538 1423
94 -538 1422
98 -538 1421
103 -538 1421
106 -536 1415
111 -539 1423
116 -541 1427
120 -537 1416
124 -537 1418
128 -536 1414
133 -540 1425
137 -536 1413
142 -540 1423
145 -536 1412
151 -543 1429
154 -536 1410
159 -538 1415
162 -536 1411
168 -540 1420
171 -537 1411
175 -536 1408
180 -539 1415
185 -539 1416
189 -539 1414
194 -540 1416
197 -538 1411
201 -537 1406
206 -537 1407
211 -540 1413
215 -538 1409
218 -536 1402
224 -540 1412
227 -537 1403
231 -537 1403
236 -537 1402
240 -538 1405
245 -538 1405
249 -539 1405
253 -537 1400
258 -539 1404
261 -537 1397
267 -539 1403
271 -540 1404
274 -537 1395
279 -539 1400
283 -538 1396
288 -538 1395
290 -534 1384
296 -539 1395
301 -539 1395
304 -536 1387
312 -543 1404
314 -539 1393
318 -539 1393
321 -537 1387
328 -541 1395
331 -539 1390
334 -538 1384
337 -534 1375
344 -539 1386
348 -539 1385
351 -537 1378
355 -536 1375
364 -543 1392
364 -537 1376
372 -542 1388
374 -539 1378
380 -541 1383
384 -541 1381
386 -538 1372
392 -540 1376
395 -538 1370
401 -540 1376
403 -538 1367
409 -539 1370
413 -539 1369
414 -535 1358
424 -542 1374
429 -543 1375
427 -536 1355
432 -537 1356
440 -541 1365
443 -539 1359
449 -541 1364
452 -539 1358
455 -539 1355
462 -542 1361
467 -542 1360
468 -539 1352
474 -540 1354
479 -542 1356
485 -543 1358
486 -540 1347
491 -540 1348
495 -540 1346
502 -543 1351
503 -540 1341
507 -539 1339
514 -542 1345
520 -543 1346
522 -541 1339
527 -542 1339
531 -542 1337
534 -541 1333
540 -543 1336
542 -540 1327
547 -541 1329
551 -541 1327
556 -541 1326
558 -539 1320
563 -540 1320
567 -540 1317
571 -539 1314
580 -544 1324
583 -543 1319
585 -541 1312
587 -538 1305
593 -539 1306
598 -541 1307
602 -540 1304
602 -537 1294
610 -540 1300
614 -539 1296
617 -539 1293
623 -540 1294
627 -540 1291
630 -539 1287
639 -543 1294
641 -541 1288
645 -540 1285
649 -540 1282
654 -541 1283
658 -541 1280
662 -540 1277
670 -543 1281
672 -541 1276
677 -542 1275
682 -542 1274
680 -537 1259
687 -539 1262
689 -538 1258
694 -539 1257
699 -539 1255
703 -539 1253
707 -539 1250
710 -538 1246
712 -536 1240
719 -539 1243
727 -541 1245
729 -539 1240
732 -538 1235
734 -537 1229
741 -539 1232
-766 -527 1231
-760 -525 1230
-757 -526 1234
-756 -528 1242
-751 -528 1243
-746 -528 1245
-739 -526 1243
-739 -529 1253
-733 -528 1251
-737 -534 1268
-722 -526 1252
-721 -528 1259
-716 -528 1260
-717 -532 1272
-707 -528 1265
-705 -530 1271
-699 -529 1270
-698 -531 1278
-692 -530 1277
-697 -537 1296
-684 -530 1283
-680 -531 1285
-673 -529 1282
-667 -527 1281
-666 -530 1289
-659 -527 1285
-657 -529 1292
-648 -526 1285
-652 -533 1303
-649 -534 1308
-639 -529 1299
-631 -526 1293
-629 -528 1299
-631 -533 1315
-621 -529 1304
-622 -533 1317
-617 -532 1318
-614 -534 1323
-607 -531 1318
-602 -531 1320
-599 -532 1323
-595 -533 1327
-590 -532 1326
-585 -532 1327
-580 -530 1326
-574 -529 1324
-572 -532 1332
-570 -534 1339
-565 -533 1339
-559 -532 1337
-551 -528 1330
-554 -535 1348
-549 -534 1348
-544 -534 1349
-538 -532 1346
-534 -532 1347
-528 -531 1346
-529 -536 1360
-520 -532 1351
-519 -535 1361
-513 -533 1357
-509 -534 1360
-505 -534 1362
-500 -533 1361
-496 -534 1364
-489 -531 1358
-484 -531 1359
-482 -533 1364
-475 -530 1359
-475 -535 1372
-469 -533 1368
-466 -535 1375
-462 -535 1376
-456 -533 1374
-452 -534 1376
-446 -532 1372
-445 -535 1382
-439 -534 1379
-433 -532 1376
-432 -536 1387
-424 -532 1378
-423 -535 1388
-416 -532 1380
-415 -537 1394
-410 -536 1392
-404 -534 1389
-399 -533 1386
-398 -537 1398
-393 -537 1399
-387 -535 1395
-384 -536 1398
-378 -534 1394
-373 -534 1394
-370 -534 1397
-365 -535 1399
-361 -535 1401
-357 -536 1404
-351 -533 1396
-349 -536 1407
-344 -536 1406
-339 -534 1403
-337 -538 1413
-331 -535 1408
-326 -535 1407
-323 -536 1411
-316 -532 1402
-314 -536 1413
-310 -538 1417
-304 -535 1410
-300 -535 1413
-295 -534 1410
-294 -539 1424
-287 -534 1412
-283 -536 1418
-278 -534 1413
-273 -534 1412
-270 -536 1419
-267 -538 1425
-262 -537 1422
-256 -535 1418
-253 -537 1424
-249 -537 1424
-244 -537 1426
-240 -537 1424
-236 -537 1427
-232 -538 1429
-227 -538 1430
-222 -537 1428
-218 -536 1426
-213 -535 1424
-210 -539 1434
-205 -537 1430
-200 -537 1429
-195 -534 1421
-192 -537 1430
-188 -537 1432
-183 -537 1432
-178 -534 1423
-172 -529 1411
-165 -522 1391
-149 -484 1292
-138 -461 1229
-131 -450 1200
-128 -451 1205
-123 -449 1198
-119 -448 1195
-116 -448 1196
-112 -447 1193
-108 -447 1194
-105 -448 1197
-102 -451 1205
-99 -452 1208
-95 -453 1211
-92 -455 1217
-89 -458 1224
-86 -465 1244
-83 -465 1245
-81 -478 1279
-80 -496 1327
-79 -516 1381
-77 -531 1421
-74 -536 1434
-70 -539 1443
-66 -543 1452
-61 -538 1439
-57 -543 1453
-53 -542 1450
-48 -539 1441
-43 -535 1433
-39 -538 1439
-35 -541 1447
-31 -539 1442
-26 -541 1448
-22 -536 1435
-18 -540 1444
-13 -538 1439
-9 -540 1445
-4 -543 1453
0 -541 1448
3 -540 1445
8 -537 1436
12 -538 1439
16 -538 1439
21 -539 1442
25 -542 1450
30 -544 1454
34 -537 1437
38 -540 1443
42 -535 1431
47 -540 1443
51 -540 1442
56 -542 1447
60 -537 1434
64 -537 1434
69 -540 1442
73 -540 1442
77 -536 1431
82 -542 1446
87 -542 1446
90 -537 1431
94 -535 1426
98 -533 1422
103 -537 1432
108 -540 1439
112 -538 1435
116 -537 1431
120 -536 1426
125 -536 1426
130 -538 1433
134 -539 1433
139 -541 1439
143 -540 1435
146 -536 1424
151 -537 1426
156 -539 1431
160 -540 1433
164 -538 1427
168 -536 1424
173 -538 1426
177 -536 1421
181 -536 1421
185 -535 1418
192 -543 1437
194 -538 1423
200 -540 1429
202 -536 1417
208 -539 1426
212 -537 1420
218 -541 1430
223 -543 1435
226 -540 1424
228 -535 1410
233 -538 1417
238 -539 1421
244 -541 1426
249 -543 1429
253 -543 1430
258 -543 1429
259 -538 1413
265 -541 1421
269 -540 1417
273 -539 1415
278 -541 1419
282 -540 1416
286 -538 1410
290 -539 1410
293 -536 1402
299 -540 1411
303 -539 1407
307 -538 1406
313 -540 1409
316 -539 1405
320 -538 1401
326 -540 1407
330 -540 1406
334 -539 1403
338 -538 1399
342 -539 1399
349 -542 1408
352 -540 1401
356 -540 1399
360 -539 1395
364 -539 1395
365 -533 1379
375 -542 1400
376 -538 1389
381 -538 1388
384 -536 1383
393 -543 1398
394 -538 1385
398 -538 1383
404 -541 1389
406 -537 1378
412 -540 1385
416 -540 1382
420 -539 1380
426 -540 1382
430 -541 1382
433 -538 1374
438 -539 1375
442 -539 1373
450 -543 1383
453 -542 1378
457 -542 1377
462 -542 1376
466 -542 1374
469 -540 1369
474 -541 1369
478 -541 1368
482 -541 1366
486 -541 1364
492 -542 1367
494 -539 1357
499 -540 1357
505 -542 1362
512 -545 1366
513 -541 1356
520 -544 1362
523 -543 1358
524 -539 1346
532 -543 1354
536 -543 1352
536 -539 1340
547 -545 1354
549 -543 1347
554 -543 1346
553 -538 1333
557 -537 1329
561 -537 1327
570 -542 1338
576 -544 1339
583 -546 1342
576 -536 1316
587 -542 1329
589 -540 1322
596 -542 1325
598 -540 1319
602 -540 1317
612 -545 1327
613 -542 1318
622 -546 1325
616 -537 1303
627 -543 1315
630 -542 1310
636 -543 1311
641 -543 1310
638 -537 1293
647 -541 1301
657 -546 1312
652 -538 1290
662 -543 1299
662 -540 1289
665 -538 1284
671 -539 1285
674 -538 1280
679 -539 1280
685 -540 1280
688 -539 1276
693 -540 1275
699 -541 1276
703 -541 1274
702 -537 1261
711 -541 1269
717 -542 1269
718 -540 1262
721 -539 1257
725 -539 1254
728 -538 1250
736 -540 1254
738 -539 1248
735 -533 1233
743 -536 1236
-772 -526 1242
-772 -529 1252
-763 -526 1247
-758 -526 1248
-756 -527 1254
-753 -528 1258
-754 -532 1270
-744 -528 1263
-740 -529 1266
-732 -526 1261
-728 -526 1264
-725 -527 1269
-721 -527 1270
-718 -528 1276
-710 -526 1272
-708 -527 1277
-707 -530 1286
-705 -532 1292
-698 -529 1289
-698 -533 1300
-687 -528 1290
-686 -531 1299
-682 -531 1300
-678 -531 1303
-672 -530 1303
-671 -533 1311
-663 -530 1305
-658 -529 1306
-654 -530 1309
-651 -531 1313
-652 -535 1326
-643 -532 1320
-640 -533 1324
-631 -529 1315
-627 -529 1319
-623 -529 1320
-620 -531 1326
-619 -534 1335
-612 -531 1330
-606 -530 1329
-603 -531 1334
-595 -529 1329
-596 -533 1342
-588 -530 1335
-581 -527 1330
-584 -534 1350
-575 -530 1341
-572 -531 1345
-567 -530 1345
-562 -530 1346
-560 -533 1353
-557 -534 1358
-552 -533 1357
-547 -532 1357
-543 -533 1360
-539 -533 1363
-531 -530 1356
-530 -533 1365
-524 -532 1363
-520 -532 1366
-516 -533 1368
-514 -535 1375
-509 -534 1375
-506 -536 1380
-503 -537 1385
-498 -536 1384
-491 -533 1378
-487 -535 1383
-485 -537 1390
-479 -535 1386
-472 -533 1381
-470 -535 1387
-466 -536 1391
-458 -531 1381
-454 -532 1383
-450 -532 1386
-448 -535 1395
-441 -532 1389
-439 -535 1395
-432 -532 1389
-433 -539 1408
-425 -534 1398
-424 -538 1408
-417 -535 1402
-410 -532 1395
-408 -535 1404
-406 -537 1411
-400 -536 1407
-393 -532 1400
-390 -535 1407
-388 -538 1416
-382 -535 1409
-377 -535 1411
-374 -537 1416
-369 -536 1414
-365 -536 1416
-361 -537 1420
-355 -535 1415
-351 -536 1417
-347 -535 1418
-343 -536 1420
-338 -535 1418
-335 -538 1428
-332 -540 1432
-326 -537 1427
-319 -533 1417
-317 -537 1428
-311 -534 1422
-308 -537 1428
-305 -539 1434
-300 -538 1434
-296 -539 1438
-291 -538 1435
-285 -535 1428
-283 -540 1441
-277 -536 1431
-273 -537 1435
-270 -540 1443
-263 -536 1432
-259 -536 1434
-254 -536 1433
-253 -541 1448
-247 -538 1440
-243 -539 1445
-239 -540 1446
-234 -539 1444
-228 -536 1438
-224 -535 1436
-220 -538 1443
-215 -535 1436
-211 -537 1443
-207 -539 1448
-202 -536 1441
-197 -534 1435
-193 -535 1437
-189 -538 1446
-186 -540 1452
-180 -537 1446
-173 -530 1427
-169 -529 1423
-156 -501 1349
-140 -463 1247
-135 -459 1235
-128 -449 1211
-125 -451 1214
-120 -446 1203
-117 -449 1211
-113 -449 1211
-110 -449 1210
-106 -449 1211
-101 -445 1201
-99 -452 1219
-96 -452 1218
-92 -454 1226
-89 -456 1232
-87 -463 1251
-84 -468 1263
-81 -476 1284
-81 -500 1349
-79 -511 1379
-78 -528 1426
-74 -535 1444
-71 -539 1455
-66 -539 1457
-62 -541 1460
-57 -539 1457
-53 -540 1459
-49 -540 1459
-44 -540 1457
-40 -539 1456
-35 -541 1461
-31 -541 1460
-27 -540 1459
-22 -539 1455
-18 -540 1457
-13 -537 1449
-9 -539 1455
-4 -537 1451
0 -538 1454
3 -539 1455
8 -536 1447
12 -538 1451
17 -542 1462
21 -539 1455
25 -539 1454
30 -542 1462
34 -540 1457
39 -539 1455
43 -538 1451
47 -539 1452
52 -536 1446
56 -541 1458
61 -541 1458
65 -541 1458
69 -538 1450
74 -540 1455
78 -539 1451
83 -539 1452
87 -539 1452
91 -539 1452
95 -536 1443
100 -540 1453
105 -540 1454
109 -541 1455
113 -537 1445
118 -541 1453
122 -537 1444
126 -537 1444
130 -538 1444
135 -538 1444
139 -539 1446
144 -538 1444
148 -538 1443
152 -537 1441
157 -538 1443
161 -538 1442
166 -539 1444
168 -533 1427
175 -541 1448
178 -537 1437
183 -538 1440
187 -538 1438
191 -536 1434
196 -538 1438
203 -544 1452
205 -539 1439
210 -541 1443
214 -539 1436
219 -540 1440
221 -535 1424
227 -539 1437
231 -537 1430
237 -542 1442
240 -538 1431
244 -538 1430
249 -540 1434
254 -540 1433
257 -538 1428
262 -539 1429
268 -541 1434
272 -542 1435
276 -540 1429
280 -539 1426
284 -539 1425
289 -541 1430
294 -541 1428
296 -538 1420
300 -537 1416
308 -542 1429
312 -542 1428
316 -541 1425
319 -539 1418
323 -539 1416
328 -539 1417
332 -538 1414
337 -540 1417
341 -540 1415
347 -541 1419
352 -543 1423
355 -541 1416
357 -537 1404
363 -540 1411
368 -540 1410
373 -541 1412
374 -536 1398
381 -540 1406
386 -541 1409
389 -539 1402
393 -539 1401
399 -542 1406
404 -542 1407
406 -539 1397
410 -538 1394
414 -538 1393
420 -540 1397
427 -544 1405
431 -542 1399
431 -538 1386
439 -542 1397
443 -542 1394
449 -543 1397
452 -542 1392
455 -540 1385
461 -542 1389
463 -539 1380
469 -541 1384
470 -537 1374
474 -537 1372
484 -544 1387
489 -544 1386
490 -540 1374
495 -541 1376
500 -542 1376
506 -543 1379
509 -541 1372
511 -539 1365
516 -540 1365
522 -542 1368
527 -542 1368
529 -540 1360
532 -539 1356
538 -541 1359
542 -540 1357
547 -540 1355
551 -541 1354
556 -541 1353
560 -541 1351
567 -543 1355
568 -540 1345
578 -545 1356
578 -541 1346
581 -539 1339
587 -541 1341
589 -539 1334
599 -544 1345
602 -543 1341
609 -545 1345
608 -540 1331
609 -538 1323
619 -543 1333
621 -541 1326
629 -544 1331
631 -542 1325
637 -543 1325
640 -542 1322
642 -540 1314
648 -541 1316
654 -543 1318
652 -537 1302
661 -542 1310
663 -540 1304
671 -542 1308
667 -536 1291
677 -540 1298
677 -537 1289
692 -545 1306
692 -542 1296
692 -539 1287
697 -539 1285
702 -540 1284
710 -542 1288
708 -538 1275
713 -538 1273
717 -538 1271
722 -538 1270
726 -538 1266
729 -537 1263
733 -537 1259
738 -537 1258
745 -539 1261
744 -535 1250
752 -538 1253
-777 -525 1252
-775 -527 1259
-768 -525 1257
-766 -527 1263
-765 -529 1270
-764 -531 1278
-758 -530 1278
-750 -528 1275
-749 -530 1282
-739 -527 1276
-735 -527 1277
-734 -529 1286
-729 -529 1287
-726 -530 1292
-718 -527 1287
-716 -529 1294
-710 -528 1293
-713 -533 1309
-703 -529 1301
-697 -528 1300
-689 -526 1296
-687 -528 1302
-686 -529 1309
-680 -529 1310
-676 -529 1313
-677 -533 1324
-669 -531 1320
-664 -530 1320
-661 -531 1324
-655 -530 1324
-655 -534 1335
-648 -531 1330
-644 -532 1334
-639 -531 1335
-638 -534 1343
-632 -532 1341
-627 -532 1342
-619 -529 1337
-619 -533 1348
-613 -532 1346
-610 -533 1351
-607 -535 1357
-603 -535 1359
-596 -532 1354
-593 -534 1361
-588 -533 1360
-584 -534 1363
-578 -532 1361
-573 -531 1360
-569 -532 1364
-565 -533 1367
-561 -533 1368
-554 -530 1363
-550 -531 1366
-549 -534 1375
-543 -533 1374
-542 -537 1385
-532 -531 1372
-531 -534 1383
-525 -532 1378
-520 -532 1378
-518 -534 1387
-512 -533 1385
-508 -533 1386
-504 -533 1388
-501 -535 1395
-495 -534 1393
-492 -535 1397
-487 -535 1398
-482 -534 1397
-479 -535 1401
-474 -535 1403
-469 -534 1401
-462 -532 1395
-460 -534 1403
-456 -535 1407
-451 -534 1405
-449 -537 1415
-440 -532 1402
-440 -537 1416
-436 -537 1418
-434 -540 1427
-426 -537 1418
-418 -532 1408
-415 -533 1411
-411 -535 1416
-408 -536 1421
-403 -536 1422
-403 -541 1436
-394 -535 1421
-389 -535 1422
-385 -535 1423
-382 -537 1429
-373 -530 1413
-375 -539 1438
-366 -534 1423
-365 -538 1435
-357 -533 1424
-355 -537 1434
-351 -537 1437
-348 -540 1445
-338 -531 1422
-335 -533 1428
-332 -536 1436
-325 -532 1426
-323 -536 1437
-321 -539 1446
-315 -537 1441
-310 -536 1440
-306 -536 1441
-303 -538 1448
-299 -540 1452
-291 -534 1437
-289 -537 1447
-285 -539 1453
-279 -536 1445
-277 -541 1458
-271 -537 1448
-265 -534 1441
-264 -541 1461
-256 -535 1446
-253 -538 1454
-248 -536 1448
-244 -537 1452
-239 -535 1447
-237 -540 1462
-230 -535 1449
-227 -539 1459
-223 -540 1463
-217 -536 1452
-213 -537 1455
-208 -537 1456
-204 -538 1458
-200 -537 1457
-196 -539 1463
-191 -537 1458
-185 -535 1453
-182 -539 1465
-176 -534 1450
-170 -529 1436
-159 -507 1377
-145 -475 1291
-135 -456 1239
-130 -452 1228
-126 -451 1225
-121 -448 1218
-117 -446 1213
-114 -447 1217
-111 -449 1222
-107 -451 1226
-104 -451 1229
-99 -449 1222
-97 -452 1232
-93 -455 1239
-90 -457 1246
-87 -462 1259
-84 -463 1261
-82 -477 1299
-81 -493 1342
-80 -511 1392
-78 -525 1430
-75 -535 1457
-71 -537 1463
-67 -540 1472
-62 -538 1466
-58 -543 1480
-53 -538 1467
-49 -539 1469
-44 -538 1466
-40 -541 1474
-36 -541 1474
-31 -539 1470
-27 -541 1474
-22 -540 1471
-18 -539 1470
-13 -542 1477
-9 -542 1477
-5 -541 1475
0 -539 1469
3 -539 1470
8 -539 1468
12 -542 1477
17 -541 1475
21 -542 1477
26 -538 1464
30 -540 1472
34 -537 1462
39 -539 1467
43 -539 1468
48 -540 1469
52 -536 1459
57 -540 1470
61 -539 1467
65 -538 1462
70 -539 1466
74 -539 1467
79 -540 1469
83 -540 1466
88 -539 1465
92 -540 1467
97 -543 1475
101 -538 1462
105 -537 1457
109 -536 1454
114 -538 1461
119 -539 1463
123 -541 1466
127 -538 1458
131 -537 1455
137 -541 1467
141 -540 1463
145 -540 1462
150 -541 1463
154 -541 1463
158 -538 1455
163 -540 1460
168 -540 1461
172 -541 1463
176 -538 1454
180 -538 1454
186 -542 1462
189 -538 1453
194 -540 1457
199 -541 1458
203 -539 1453
207 -539 1452
211 -539 1451
214 -535 1440
220 -538 1448
225 -540 1451
230 -540 1452
235 -542 1455
239 -541 1452
242 -538 1445
246 -537 1442
252 -540 1448
256 -540 1447
260 -539 1443
264 -537 1438
269 -539 1442
275 -542 1449
278 -540 1442
281 -537 1433
287 -540 1443
291 -540 1440
295 -539 1436
300 -540 1439
304 -539 1435
310 -542 1443
313 -540 1435
316 -538 1429
322 -539 1433
326 -539 1431
331 -539 1431
337 -543 1439
342 -543 1438
344 -540 1429
348 -539 1426
352 -538 1423
357 -539 1425
363 -541 1429
366 -540 1425
373 -543 1430
375 -540 1421
379 -539 1419
381 -535 1408
387 -538 1413
394 -542 1424
397 -540 1415
402 -541 1417
406 -540 1414
411 -541 1416
414 -538 1407
418 -539 1408
423 -539 1408
430 -543 1416
435 -544 1417
437 -540 1406
441 -540 1403
446 -540 1404
451 -542 1405
456 -542 1406
458 -540 1398
464 -541 1400
469 -542 1402
470 -538 1390
480 -544 1403
479 -538 1387
485 -539 1389
490 -541 1391
492 -538 1383
498 -540 1385
506 -544 1395
508 -541 1384
514 -542 1388
518 -543 1387
520 -540 1379
524 -539 1375
534 -545 1388
533 -539 1372
537 -539 1369
543 -540 1371
548 -542 1373
552 -541 1370
557 -542 1370
558 -539 1360
562 -538 1357
574 -545 1373
574 -541 1360
578 -541 1359
584 -542 1360
591 -544 1364
591 -541 1354
595 -540 1350
600 -541 1351
605 -541 1348
606 -538 1340
614 -541 1345
617 -540 1341
622 -541 1342
626 -541 1338
629 -539 1333
638 -543 1341
642 -543 1339
644 -541 1331
651 -543 1334
653 -541 1328
657 -541 1325
663 -542 1326
663 -539 1315
669 -540 1316
672 -539 1312
679 -541 1315
684 -541 1313
685 -538 1304
694 -542 1312
698 -542 1309
696 -537 1295
705 -540 1300
709 -540 1298
711 -538 1291
715 -539 1290
721 -540 1290
721 -537 1280
730 -540 1285
734 -540 1283
739 -540 1281
741 -538 1275
742 -535 1266
754 -541 1278
759 -541 1276
758 -538 1266
-784 -525 1265
-775 -522 1259
-778 -527 1274
-768 -524 1268
-767 -526 1276
-768 -530 1287
-758 -526 1280
-758 -529 1290
-749 -526 1283
-745 -526 1287
-746 -530 1299
-738 -528 1295
-735 -529 1300
-731 -529 1302
-726 -528 1303
-725 -531 1312
-721 -531 1314
-713 -529 1310
-709 -530 1314
-708 -532 1323
-702 -531 1320
-697 -530 1322
-696 -533 1330
-689 -531 1328
-681 -529 1324
-678 -529 1327
-676 -531 1334
-676 -535 1346
-667 -531 1338
-657 -527 1329
-661 -534 1348
-654 -531 1344
-646 -529 1340
-644 -531 1347
-642 -533 1354
-634 -530 1349
-631 -531 1352
-627 -531 1354
-618 -528 1348
-619 -533 1362
-609 -528 1350
-612 -534 1369
-606 -533 1367
-603 -534 1372
-593 -530 1362
-592 -532 1370
-587 -532 1372
-586 -535 1380
-576 -530 1371
-572 -531 1373
-569 -532 1377
-568 -535 1387
-561 -533 1383
-558 -534 1388
-554 -535 1392
-544 -530 1379
-541 -531 1383
-539 -533 1391
-534 -533 1391
-529 -532 1391
-524 -532 1392
-520 -532 1394
-518 -535 1403
-514 -535 1405
-506 -531 1396
-503 -533 1403
-504 -539 1418
-496 -535 1409
-493 -537 1417
-490 -538 1421
-485 -538 1421
-480 -537 1421
-472 -534 1413
-467 -533 1412
-468 -539 1428
-459 -534 1416
-455 -534 1419
-451 -535 1423
-450 -539 1433
-441 -534 1422
-438 -535 1426
-434 -536 1429
-431 -538 1434
-424 -535 1428
-421 -536 1433
-415 -535 1430
-411 -536 1434
-406 -535 1434
-402 -535 1434
-399 -537 1440
-396 -539 1447
-390 -537 1443
-386 -538 1445
-380 -535 1440
-375 -535 1440
-371 -535 1441
-367 -537 1447
-363 -537 1448
-358 -537 1447
-353 -536 1447
-349 -536 1448
-343 -534 1444
-340 -537 1453
-336 -537 1452
-330 -535 1447
-327 -538 1456
-320 -533 1442
-318 -537 1455
-313 -536 1453
-310 -539 1463
-305 -538 1460
-300 -537 1459
-297 -540 1466
-291 -537 1460
-286 -536 1457
-281 -536 1459
-276 -534 1454
-273 -538 1464
-269 -539 1468
-263 -535 1457
-260 -538 1467
-257 -541 1476
-250 -537 1465
-247 -540 1474
-243 -541 1475
-238 -540 1474
-233 -538 1469
-229 -539 1473
-224 -538 1470
-219 -537 1469
-216 -540 1478
-210 -537 1470
-205 -535 1465
-202 -539 1476
-196 -536 1466
-192 -536 1469
-188 -539 1477
-183 -536 1469
-179 -539 1477
-174 -536 1469
-165 -521 1429
-148 -481 1319
-137 -458 1257
-131 -450 1235
-126 -448 1231
-122 -447 1227
-119 -448 1231
-115 -448 1231
-110 -445 1222
-107 -448 1229
-104 -449 1233
-101 -450 1236
-97 -450 1235
-94 -454 1248
-91 -460 1264
-88 -463 1272
-85 -465 1280
-83 -476 1309
-82 -494 1358
-81 -513 1410
-79 -529 1454
-76 -535 1470
-72 -539 1481
-67 -540 1486
-63 -538 1480
-58 -538 1480
-54 -538 1481
-49 -538 1479
-45 -538 1480
-40 -540 1485
-36 -539 1484
-31 -540 1486
-27 -542 1492
-23 -542 1492
-18 -539 1483
-13 -540 1484
-9 -541 1488
-5 -539 1482
0 -542 1491
3 -539 1482
8 -540 1486
12 -543 1493
17 -541 1487
21 -539 1481
26 -540 1484
30 -538 1480
35 -536 1472
39 -539 1482
44 -539 1481
48 -541 1486
53 -539 1480
57 -541 1486
62 -540 1482
66 -537 1474
70 -535 1468
75 -543 1489
79 -539 1479
84 -541 1485
88 -537 1473
93 -539 1479
98 -540 1481
101 -537 1471
106 -539 1477
111 -539 1475
116 -541 1483
120 -539 1476
124 -540 1479
129 -541 1480
133 -539 1476
137 -537 1468
141 -536 1466
145 -535 1462
152 -543 1483
155 -539 1473
161 -542 1479
165 -540 1474
168 -537 1466
173 -539 1470
178 -541 1476
182 -540 1472
187 -541 1472
191 -538 1465
195 -538 1464
200 -538 1465
203 -535 1455
209 -539 1464
212 -536 1457
217 -539 1463
221 -537 1459
228 -543 1473
230 -537 1455
235 -538 1458
239 -537 1455
245 -540 1463
248 -537 1454
253 -539 1459
259 -542 1465
264 -542 1466
268 -542 1464
271 -539 1457
274 -537 1448
283 -545 1469
284 -538 1450
288 -538 1449
292 -536 1444
297 -538 1447
302 -539 1451
307 -540 1451
310 -538 1445
315 -538 1444
321 -541 1451
323 -537 1440
329 -540 1445
335 -542 1452
338 -539 1442
341 -537 1435
346 -539 1440
351 -539 1439
355 -538 1435
361 -541 1441
366 -542 1443
368 -539 1434
376 -543 1443
377 -538 1431
385 -543 1442
387 -540 1433
392 -540 1432
397 -541 1434
401 -540 1431
405 -540 1428
407 -537 1419
413 -539 1424
418 -539 1423
423 -541 1426
427 -540 1422
433 -542 1425
436 -540 1420
442 -541 1422
447 -543 1424
447 -537 1408
454 -541 1417
458 -540 1414
465 -543 1419
467 -540 1411
474 -543 1416
475 -539 1404
484 -544 1417
486 -542 1409
491 -543 1410
493 -539 1399
496 -538 1396
502 -539 1397
509 -542 1403
510 -539 1393
516 -540 1394
518 -538 1388
523 -538 1386
533 -544 1401
533 -540 1388
542 -544 1397
543 -541 1388
550 -543 1392
553 -542 1387
557 -541 1383
561 -541 1381
564 -540 1376
572 -543 1382
575 -542 1377
577 -540 1370
583 -541 1371
588 -541 1371
592 -541 1368
596 -541 1367
604 -544 1372
607 -543 1367
610 -542 1363
618 -545 1369
616 -539 1352
623 -541 1355
630 -543 1360
629 -538 1345
642 -546 1362
639 -539 1344
647 -543 1351
653 -544 1351
653 -541 1341
660 -542 1343
664 -542 1340
667 -541 1337
665 -536 1321
673 -539 1326
684 -544 1336
685 -542 1329
688 -540 1323
690 -538 1317
695 -539 1316
702 -541 1319
703 -538 1310
709 -539 1310
711 -537 1303
722 -543 1314
721 -539 1302
727 -540 1302
731 -539 1299
737 -541 1300
739 -539 1293
741 -537 1287
745 -537 1284
757 -542 1293
752 -536 1277
760 -538 1279
762 -536 1273
-791 -526 1278
-788 -527 1284
-786 -528 1289
-783 -529 1293
-775 -527 1291
-769 -526 1290
-768 -529 1299
-760 -526 1294
-759 -529 1303
-755 -529 1305
-756 -533 1319
-747 -530 1313
-737 -526 1305
-736 -528 1313
-733 -529 1317
-727 -528 1317
-725 -530 1323
-722 -531 1329
-717 -531 1330
-710 -529 1327
-702 -526 1322
-700 -528 1329
-699 -531 1338
-694 -531 1340
-683 -526 1329
-685 -530 1343
-683 -533 1350
-678 -532 1350
-671 -531 1349
-664 -528 1344
-667 -534 1362
-657 -530 1352
-654 -531 1358
-650 -532 1361
-641 -528 1354
-641 -531 1364
-637 -531 1366
-633 -532 1370
-627 -531 1368
-623 -532 1372
-616 -529 1367
-613 -531 1373
-607 -530 1372
-604 -531 1377
-600 -531 1380
-598 -533 1386
-591 -531 1383
-587 -531 1384
-585 -534 1393
-579 -532 1390
-577 -535 1399
-569 -532 1391
-567 -534 1400
-562 -533 1399
-559 -535 1405
-555 -536 1408
-547 -533 1402
-546 -536 1412
-539 -533 1407
-539 -537 1418
-534 -537 1418
-524 -531 1405
-523 -536 1419
-519 -536 1419
-510 -532 1410
-507 -532 1414
-506 -537 1426
-497 -531 1413
-494 -533 1420
-488 -532 1417
-484 -532 1419
-479 -532 1420
-477 -535 1429
-471 -533 1426
-468 -535 1431
-463 -534 1432
-459 -535 1434
-452 -532 1427
-450 -534 1435
-445 -534 1436
-444 -539 1448
-437 -535 1440
-432 -535 1440
-428 -536 1444
-422 -534 1440
-424 -542 1462
-417 -539 1455
-409 -535 1445
-405 -535 1447
-402 -537 1454
-396 -535 1450
-391 -534 1448
-389 -537 1457
-384 -537 1457
-378 -536 1455
-373 -534 1451
-371 -538 1461
-367 -539 1468
-363 -539 1469
-358 -539 1469
-351 -535 1459
-349 -540 1472
-341 -534 1456
-338 -536 1464
-335 -539 1473
-332 -542 1480
-324 -535 1464
-322 -539 1475
-313 -533 1459
-312 -539 1476
-307 -537 1471
-302 -536 1469
-297 -536 1470
-293 -537 1473
-288 -536 1471
-283 -535 1468
-280 -537 1476
-275 -536 1474
-270 -537 1475
-266 -537 1476
-262 -538 1481
-257 -538 1480
-253 -538 1481
-248 -537 1480
-244 -538 1483
-238 -536 1477
-235 -538 1483
-230 -536 1479
-226 -539 1486
-221 -538 1486
-216 -537 1483
-211 -535 1478
-206 -534 1474
-203 -537 1482
-200 -543 1500
-193 -535 1480
-189 -536 1483
-185 -539 1491
-181 -539 1491
-175 -534 1478
-168 -527 1459
-152 -492 1362
-140 -465 1287
-133 -453 1255
-128 -451 1249
-124 -450 1246
-119 -446 1236
-115 -446 1235
-112 -446 1238
-108 -448 1242
-104 -445 1233
-101 -450 1249
-98 -452 1254
-94 -450 1248
-91 -457 1267
-88 -459 1273
-85 -466 1292
-83 -472 1309
-81 -487 1353
-81 -511 1417
-79 -523 1453
-76 -536 1488
-72 -539 1496
-68 -539 1495
-63 -540 1500
-59 -537 1492
-54 -542 1504
-50 -540 1498
-46 -544 1511
-41 -540 1500
-36 -543 1508
-32 -539 1498
-27 -544 1510
-23 -545 1514
-18 -541 1501
-14 -539 1497
-9 -541 1502
-5 -540 1499
0 -536 1487
3 -540 1499
8 -542 1505
13 -540 1499
17 -544 1509
22 -539 1496
26 -541 1500
31 -542 1503
35 -540 1499
39 -537 1490
44 -539 1493
48 -537 1489
53 -537 1489
58 -540 1497
62 -540 1495
67 -539 1493
71 -538 1490
76 -541 1498
80 -539 1493
85 -542 1501
90 -543 1503
93 -537 1485
99 -542 1498
103 -539 1491
107 -538 1488
112 -540 1493
116 -538 1486
121 -539 1489
125 -539 1490
129 -538 1486
134 -540 1490
139 -542 1495
142 -537 1480
148 -540 1490
152 -540 1489
156 -537 1480
162 -541 1490
165 -539 1484
170 -539 1486
174 -538 1481
179 -540 1485
184 -541 1487
188 -538 1478
193 -540 1484
198 -540 1485
201 -539 1480
206 -540 1483
210 -537 1472
214 -537 1474
220 -540 1481
224 -539 1478
228 -539 1476
233 -538 1474
237 -538 1472
241 -537 1468
248 -543 1484
250 -538 1469
256 -541 1477
261 -541 1477
265 -541 1475
268 -537 1464
273 -539 1469
279 -542 1478
282 -538 1464
286 -538 1464
291 -538 1463
296 -539 1464
297 -533 1447
306 -542 1470
311 -543 1472
313 -537 1456
319 -540 1463
324 -542 1468
326 -537 1453
331 -539 1457
336 -540 1458
341 -540 1457
344 -537 1450
351 -542 1461
355 -540 1457
358 -539 1452
364 -540 1454
368 -540 1451
372 -540 1450
377 -540 1451
379 -537 1441
384 -537 1441
389 -538 1442
395 -541 1448
400 -541 1448
403 -539 1440
409 -540 1443
411 -537 1434
416 -539 1437
423 -542 1444
426 -539 1435
431 -540 1436
438 -543 1443
440 -540 1433
444 -540 1431
448 -539 1429
452 -539 1426
456 -539 1424
462 -540 1426
463 -536 1415
474 -543 1432
477 -542 1428
481 -542 1426
487 -543 1428
490 -541 1421
499 -546 1433
497 -540 1414
502 -539 1412
508 -542 1417
513 -542 1417
517 -542 1414
521 -541 1410
524 -539 1404
529 -540 1404
533 -540 1403
541 -543 1410
545 -543 1406
548 -542 1402
550 -539 1393
559 -543 1402
561 -541 1394
567 -542 1398
573 -544 1400
575 -542 1392
579 -541 1389
579 -537 1376
592 -545 1395
593 -542 1386
601 -545 1391
601 -540 1378
607 -542 1381
610 -541 1375
612 -539 1368
616 -538 1365
623 -540 1369
628 -541 1369
632 -540 1365
638 -542 1367
641 -541 1362
642 -538 1352
652 -543 1363
650 -537 1347
660 -541 1356
661 -539 1347
665 -538 1344
667 -536 1337
677 -541 1346
682 -541 1345
686 -541 1342
691 -541 1340
692 -539 1333
700 -541 1336
698 -536 1322
710 -542 1334
712 -540 1327
714 -539 1321
721 -541 1324
724 -539 1318
730 -541 1319
732 -539 1313
738 -540 1313
743 -540 1312
741 -536 1299
748 -537 1300
754 -539 1302
755 -536 1292
765 -541 1300
762 -535 1285
766 -534 1281
-794 -523 1284
-792 -525 1291
-785 -523 1289
-788 -529 1304
-781 -527 1302
-778 -527 1306
-773 -528 1309
-773 -531 1319
-769 -531 1322
-757 -526 1311
-750 -524 1309
-749 -526 1316
-741 -524 1314
-741 -527 1323
-741 -530 1333
-738 -531 1338
-731 -530 1336
-728 -531 1341
-720 -528 1336
-715 -528 1339
-716 -532 1351
-710 -531 1349
-705 -531 1351
-698 -529 1349
-696 -531 1355
-693 -533 1362
-687 -531 1359
-678 -527 1352
-677 -530 1361
-675 -532 1368
-668 -531 1367
-666 -533 1373
-661 -532 1375
-654 -530 1371
-646 -527 1365
-647 -532 1380
-639 -529 1372
-637 -531 1380
-629 -528 1375
-633 -535 1395
-624 -531 1387
-620 -532 1389
-614 -531 1389
-611 -532 1393
-605 -531 1391
-602 -532 1397
-595 -530 1393
-596 -535 1408
-589 -533 1404
-584 -533 1406
-583 -536 1414
-576 -533 1409
-569 -531 1405
-565 -532 1408
-561 -532 1411
-560 -535 1421
-554 -535 1421
-545 -530 1410
-544 -533 1420
-541 -535 1427
-536 -534 1425
-532 -536 1430
-528 -536 1433
-522 -534 1429
-518 -535 1432
-512 -534 1431
-508 -534 1434
-505 -536 1439
-500 -536 1440
-496 -536 1441
-492 -536 1444
-487 -536 1445
-481 -535 1442
-477 -535 1444
-471 -533 1441
-471 -538 1455
-464 -536 1451
-460 -537 1454
-457 -539 1460
-450 -536 1454
-444 -534 1450
-437 -531 1443
-436 -536 1456
-433 -537 1461
-429 -538 1464
-423 -536 1462
-419 -537 1464
-414 -536 1464
-410 -537 1467
-405 -536 1465
-399 -535 1462
-397 -538 1471
-392 -537 1471
-385 -534 1462
-383 -538 1474
-377 -536 1470
-376 -541 1484
-366 -534 1465
-365 -538 1478
-359 -536 1473
-357 -539 1484
-351 -538 1482
-345 -535 1474
-339 -533 1469
-337 -538 1483
-330 -533 1470
-328 -538 1484
-323 -537 1483
-320 -539 1488
-315 -539 1489
-309 -537 1485
-305 -538 1487
-300 -537 1486
-295 -536 1484
-292 -539 1492
-288 -539 1495
-282 -537 1490
-277 -535 1485
-274 -540 1498
-270 -540 1498
-264 -537 1490
-261 -541 1503
-256 -539 1499
-250 -536 1492
-245 -537 1493
-241 -536 1492
-236 -536 1493
-230 -534 1486
-228 -539 1502
-223 -538 1498
-219 -538 1500
-215 -541 1508
-210 -540 1507
-205 -537 1499
-201 -541 1508
-195 -536 1496
-190 -534 1491
-187 -540 1507
-182 -537 1500
-177 -536 1497
-172 -534 1492
-157 -503 1406
-143 -471 1318
-135 -457 1279
-130 -454 1270
-125 -450 1258
-121 -448 1254
-117 -447 1252
-114 -450 1260
-110 -450 1258
-106 -451 1261
-103 -451 1264
-100 -455 1275
-96 -455 1275
-92 -457 1280
-89 -460 1288
-86 -463 1298
-83 -472 1322
-82 -485 1358
-81 -504 1412
-80 -526 1473
-77 -535 1498
-73 -537 1506
-68 -540 1514
-64 -539 1510
-59 -541 1516
-55 -538 1508
-50 -542 1519
-45 -538 1508
-41 -538 1509
-36 -539 1511
-32 -537 1505
-27 -542 1518
-23 -541 1516
-18 -540 1512
-14 -542 1518
-9 -540 1512
-5 -542 1518
0 -541 1515
4 -541 1515
8 -542 1519
13 -542 1517
17 -541 1515
22 -542 1517
26 -538 1507
31 -539 1510
36 -543 1521
40 -536 1499
44 -537 1503
49 -544 1522
53 -539 1507
58 -543 1519
63 -541 1512
67 -536 1499
72 -538 1504
76 -537 1500
81 -539 1506
85 -536 1496
90 -540 1508
95 -541 1510
99 -537 1501
103 -539 1504
108 -540 1506
113 -542 1512
117 -538 1501
122 -540 1507
126 -537 1499
130 -537 1496
136 -541 1508
139 -537 1495
144 -539 1501
149 -539 1500
154 -540 1503
158 -538 1498
163 -542 1506
167 -538 1496
172 -540 1501
177 -541 1502
181 -541 1504
186 -540 1500
190 -539 1497
193 -536 1488
199 -541 1500
205 -544 1507
208 -540 1495
213 -541 1499
217 -541 1497
222 -541 1496
228 -543 1503
231 -541 1496
236 -541 1494
240 -541 1493
243 -538 1485
251 -544 1500
253 -539 1487
258 -540 1489
262 -540 1487
268 -542 1493
272 -540 1487
276 -539 1483
282 -542 1490
285 -540 1483
290 -540 1483
294 -539 1479
300 -542 1486
301 -537 1472
308 -540 1479
314 -542 1485
317 -540 1477
322 -540 1478
327 -541 1480
329 -538 1469
335 -540 1473
339 -539 1471
340 -534 1456
349 -541 1474
353 -541 1472
360 -544 1479
360 -536 1458
366 -539 1464
371 -540 1465
375 -539 1461
381 -542 1469
382 -536 1452
391 -542 1467
392 -538 1456
399 -541 1461
404 -542 1464
407 -540 1457
411 -539 1453
416 -540 1454
420 -539 1449
426 -540 1453
429 -539 1447
434 -540 1450
440 -541 1452
443 -540 1446
451 -544 1457
452 -539 1443
458 -541 1446
459 -538 1435
465 -539 1438
471 -540 1439
475 -540 1438
481 -542 1440
486 -542 1440
488 -540 1432
491 -538 1426
502 -545 1443
502 -541 1430
508 -541 1431
509 -538 1421
513 -538 1418
520 -540 1424
522 -537 1413
532 -543 1427
536 -543 1424
538 -541 1418
543 -540 1415
548 -541 1416
548 -537 1404
557 -541 1413
560 -540 1408
568 -543 1415
569 -540 1405
575 -541 1405
575 -536 1392
587 -544 1409
