VERSION 0.7
FIELDS x y z
SIZE 4 4 4
TYPE I I I
COUNT 1 1 1
WIDTH 3275
HEIGHT 1
VIEWPOINT 0.0 0.0 0.0 1.0 0.0 0.0 0.0
POINTS 3275
DATA ascii
489 -544 2279
496 -545 2283
501 -542 2271
512 -547 2287
515 -543 2269
525 -546 2281
531 -545 2277
536 -544 2270
543 -544 2268
551 -545 2272
558 -545 2272
563 -544 2264
571 -545 2268
578 -545 2266
583 -543 2257
589 -542 2251
595 -543 2250
602 -542 2247
614 -547 2267
622 -548 2267
628 -547 2262
632 -545 2252
638 -544 2247
644 -544 2244
649 -542 2234
660 -546 2248
667 -546 2247
674 -547 2247
678 -544 2236
683 -543 2227
690 -543 2228
698 -544 2228
705 -544 2227
711 -544 2223
716 -543 2217
727 -546 2228
733 -545 2222
737 -543 2213
744 -544 2212
752 -544 2212
757 -543 2205
765 -544 2207
768 -541 2194
771 -538 2180
774 -536 2170
772 -530 2143
765 -521 2104
766 -517 2086
763 -511 2058
762 -506 2037
765 -503 2024
763 -498 2001
768 -497 1995
764 -491 1967
767 -489 1958
759 -480 1920
762 -478 1910
763 -475 1895
765 -473 1885
765 -469 1868
770 -469 1864
773 -467 1854
772 -463 1836
773 -460 1822
777 -459 1817
779 -457 1805
777 -452 1785
782 -452 1781
786 -451 1776
794 -453 1780
810 -459 1800
829 -466 1827
858 -479 1876
908 -504 1970
948 -523 2039
970 -531 2070
985 -536 2086
990 -535 2079
997 -535 2076
1008 -538 2084
1013 -537 2078
1024 -539 2082
1031 -539 2081
1045 -543 2092
1042 -538 2071
1050 -539 2070
1054 -538 2061
1062 -538 2060
1071 -539 2061
1079 -540 2062
1080 -538 2048
1086 -537 2043
1091 -537 2037
1107 -541 2050
1105 -537 2031
1115 -539 2035
1126 -541 2040
1126 -537 2023
1136 -539 2025
1149 -542 2033
1145 -537 2012
1155 -539 2014
-1215 -528 2050
-1201 -524 2042
-1185 -521 2031
-1182 -522 2041
-1177 -523 2046
-1182 -528 2070
-1171 -526 2066
-1171 -530 2082
-1151 -524 2061
-1154 -528 2083
-1147 -528 2085
-1134 -525 2077
-1124 -524 2076
-1126 -528 2095
-1114 -526 2088
-1118 -531 2111
-1109 -530 2110
-1101 -530 2113
-1087 -526 2101
-1088 -530 2120
-1081 -530 2122
-1078 -532 2132
-1068 -530 2130
-1061 -530 2132
-1054 -530 2136
-1042 -528 2129
-1037 -528 2134
-1028 -527 2132
-1012 -523 2117
-1017 -529 2144
-1014 -531 2156
-1013 -534 2170
-998 -530 2157
-999 -534 2175
-982 -529 2156
-977 -530 2163
-979 -534 2184
-971 -534 2185
-964 -534 2188
-952 -531 2179
-946 -532 2184
-932 -528 2170
-932 -532 2188
-922 -530 2184
-924 -535 2207
-912 -532 2196
-903 -531 2194
-907 -537 2222
-891 -532 2203
-886 -533 2210
-885 -537 2226
-872 -533 2214
-868 -535 2223
-862 -535 2228
-856 -536 2231
-846 -534 2228
-844 -537 2241
-831 -533 2227
-824 -533 2228
-822 -537 2245
-817 -538 2254
-805 -534 2239
-795 -533 2235
-792 -535 2248
-781 -533 2238
-781 -537 2259
-774 -538 2262
-771 -540 2273
-761 -538 2266
-752 -537 2263
-748 -539 2273
-742 -539 2279
-738 -542 2289
-728 -540 2282
-718 -537 2273
-713 -538 2280
-707 -539 2286
-698 -538 2280
-696 -542 2299
-684 -538 2284
-676 -537 2282
-672 -539 2293
-665 -540 2296
-657 -539 2293
-648 -536 2286
-643 -538 2293
-641 -543 2314
-630 -539 2299
-618 -535 2285
-618 -541 2312
-611 -540 2311
-601 -538 2300
-593 -537 2297
-586 -537 2299
-581 -539 2309
-576 -540 2316
-563 -535 2293
-559 -537 2306
-553 -539 2315
-549 -542 2327
-544 -544 2337
-533 -539 2319
-524 -538 2314
-519 -539 2320
-512 -540 2325
-507 -542 2335
-501 -542 2336
-490 -538 2320
-486 -541 2334
-479 -542 2336
-471 -541 2334
-464 -541 2333
-460 -543 2346
-452 -543 2345
-444 -541 2339
-437 -541 2337
-429 -540 2335
-421 -539 2332
-416 -541 2340
-409 -542 2345
-405 -545 2360
-394 -540 2337
-388 -541 2343
-383 -544 2355
-373 -540 2340
-368 -542 2350
-364 -547 2370
-354 -543 2355
-347 -542 2349
-343 -547 2373
-332 -540 2345
-327 -544 2361
-319 -543 2356
-314 -546 2369
-306 -543 2358
-300 -545 2366
-294 -547 2376
-284 -541 2352
-277 -542 2354
-272 -545 2368
-266 -548 2381
-256 -542 2358
-249 -542 2355
-243 -543 2362
-235 -541 2354
-230 -546 2374
-222 -543 2361
-215 -542 2358
-208 -543 2364
-201 -543 2363
-196 -548 2385
-186 -540 2350
-180 -543 2364
-171 -534 2326
-154 -504 2194
-136 -466 2028
-127 -453 1971
-120 -449 1955
-114 -450 1960
-109 -450 1960
-104 -455 1982
-99 -457 1992
-94 -460 2005
-88 -463 2016
-85 -480 2090
-84 -505 2199
-82 -534 2324
-76 -540 2350
-70 -545 2374
-63 -548 2384
-56 -549 2392
-49 -547 2383
-42 -552 2405
-35 -546 2377
-28 -550 2393
-21 -552 2403
-14 -548 2383
-7 -550 2392
0 -546 2376
6 -548 2387
13 -546 2374
20 -547 2381
27 -548 2383
34 -546 2375
41 -550 2392
48 -549 2386
55 -551 2393
62 -550 2392
68 -545 2369
76 -547 2376
82 -545 2368
90 -548 2379
97 -552 2396
103 -543 2357
110 -548 2377
117 -545 2367
124 -546 2367
131 -544 2362
138 -545 2365
146 -549 2382
152 -547 2370
160 -550 2384
166 -547 2372
173 -549 2376
179 -546 2365
187 -549 2377
194 -549 2375
200 -546 2363
208 -549 2375
215 -547 2368
221 -547 2365
228 -547 2363
235 -546 2358
243 -549 2371
249 -548 2365
257 -548 2366
264 -548 2367
270 -548 2363
278 -550 2371
282 -544 2345
292 -549 2364
296 -544 2344
305 -547 2357
312 -547 2355
317 -544 2342
326 -548 2357
332 -546 2349
338 -546 2346
346 -546 2346
352 -546 2344
360 -547 2348
366 -546 2343
371 -543 2330
380 -546 2341
384 -542 2324
394 -546 2339
401 -547 2342
406 -544 2327
414 -546 2333
417 -541 2312
430 -549 2344
432 -542 2316
439 -542 2312
447 -544 2318
453 -543 2314
463 -546 2326
465 -541 2304
477 -547 2327
481 -544 2311
491 -547 2326
497 -546 2320
504 -546 2319
511 -546 2316
517 -546 2314
523 -544 2307
531 -546 2310
537 -544 2304
542 -543 2297
550 -544 2298
558 -545 2303
566 -546 2304
575 -548 2312
577 -544 2292
587 -546 2301
592 -545 2292
601 -547 2300
610 -549 2309
614 -546 2293
621 -546 2292
626 -545 2283
630 -543 2273
641 -546 2285
648 -546 2285
651 -543 2268
660 -545 2274
665 -543 2266
675 -546 2275
682 -546 2276
685 -543 2261
697 -547 2274
703 -547 2271
708 -545 2263
714 -544 2256
724 -546 2264
723 -541 2240
735 -545 2253
741 -544 2249
751 -546 2255
758 -546 2254
764 -546 2249
766 -542 2232
773 -543 2231
774 -538 2212
777 -536 2199
770 -527 2160
772 -523 2143
767 -515 2109
766 -510 2086
766 -506 2066
765 -502 2046
762 -495 2018
762 -491 2000
763 -488 1985
765 -485 1971
765 -482 1954
768 -480 1944
762 -473 1913
769 -473 1912
768 -469 1893
771 -467 1884
768 -462 1859
774 -462 1857
779 -462 1855
777 -457 1833
780 -455 1825
787 -456 1825
791 -455 1819
799 -456 1822
809 -459 1830
827 -466 1855
862 -482 1918
905 -503 1998
945 -522 2070
964 -528 2092
974 -531 2098
994 -538 2123
1001 -538 2122
1008 -538 2118
1016 -539 2119
1016 -535 2102
1028 -538 2109
1038 -540 2112
1041 -538 2103
1051 -539 2105
1062 -542 2112
1063 -539 2096
1068 -538 2090
1081 -541 2099
1088 -541 2096
1093 -540 2089
1097 -539 2080
1105 -540 2080
1114 -541 2082
1110 -536 2057
1122 -538 2065
1126 -537 2056
1135 -538 2057
1140 -537 2050
1149 -539 2052
1159 -540 2054
1159 -537 2038
1160 -534 2025
-1225 -525 2069
-1219 -526 2075
-1210 -525 2075
-1195 -521 2064
-1199 -526 2087
-1201 -530 2105
-1178 -523 2081
-1175 -525 2092
-1166 -524 2090
-1170 -529 2114
-1154 -525 2101
-1143 -523 2097
-1133 -521 2094
-1138 -527 2118
-1137 -529 2132
-1115 -523 2109
-1127 -532 2148
-1110 -527 2131
-1105 -528 2138
-1104 -531 2153
-1097 -531 2155
-1075 -524 2129
-1077 -528 2149
-1074 -530 2160
-1066 -529 2162
-1058 -529 2161
-1058 -532 2179
-1040 -527 2159
-1037 -529 2171
-1031 -529 2175
-1025 -530 2180
-1020 -531 2186
-1017 -533 2199
-1007 -531 2194
-999 -531 2195
-994 -532 2202
-978 -527 2186
-978 -531 2203
-981 -537 2228
-960 -529 2199
-959 -532 2215
-947 -529 2206
-946 -532 2221
-938 -532 2223
-930 -532 2222
-926 -534 2233
-919 -534 2235
-909 -532 2230
-904 -533 2236
-904 -537 2256
-889 -533 2240
-887 -535 2253
-881 -536 2260
-870 -533 2249
-864 -534 2254
-856 -534 2255
-847 -532 2252
-844 -535 2263
-835 -534 2261
-829 -534 2265
-824 -535 2272
-816 -535 2272
-814 -538 2287
-802 -535 2276
-798 -537 2286
-787 -535 2279
-786 -538 2296
-775 -536 2288
-767 -535 2285
-763 -537 2296
-759 -540 2309
-751 -539 2306
-741 -537 2300
-737 -539 2310
-727 -537 2303
-721 -537 2307
-715 -538 2313
-705 -536 2306
-705 -542 2330
-697 -541 2327
-690 -541 2329
-683 -541 2331
-674 -539 2325
-668 -540 2331
-662 -541 2336
-651 -538 2324
-648 -541 2340
-641 -541 2341
-635 -542 2347
-625 -540 2338
-615 -538 2330
-609 -538 2334
-606 -542 2353
-596 -539 2340
-589 -540 2344
-581 -539 2340
-575 -539 2345
-569 -541 2352
-562 -540 2351
-555 -541 2354
-547 -539 2349
-542 -542 2361
-537 -544 2371
-527 -541 2360
-519 -540 2356
-514 -542 2365
-507 -542 2366
-499 -541 2364
-491 -540 2361
-484 -541 2363
-480 -544 2379
-472 -543 2373
-463 -540 2365
-460 -545 2386
-451 -543 2379
-443 -542 2375
-434 -540 2366
-429 -542 2377
-423 -544 2385
-416 -544 2384
-406 -540 2369
-400 -541 2375
-395 -544 2386
-385 -540 2369
-380 -542 2381
-372 -541 2379
-367 -545 2393
-359 -543 2385
-352 -543 2389
-346 -545 2399
-336 -539 2373
-329 -540 2375
-322 -540 2378
-317 -543 2391
-310 -543 2392
-301 -540 2375
-297 -545 2401
-288 -542 2389
-280 -540 2378
-274 -543 2392
-268 -545 2403
-260 -544 2396
-254 -545 2401
-246 -543 2396
-239 -543 2394
-234 -547 2410
-226 -546 2408
-218 -543 2393
-213 -547 2414
-204 -543 2394
-196 -540 2384
-190 -544 2400
-182 -542 2390
-174 -539 2378
-159 -514 2268
-140 -473 2088
-129 -455 2008
-122 -452 1995
-117 -456 2013
-111 -454 2003
-105 -452 1997
-99 -453 2002
-94 -457 2017
-90 -464 2049
-85 -472 2083
-82 -491 2166
-82 -530 2339
-77 -543 2395
-71 -548 2419
-64 -550 2428
-57 -551 2431
-50 -549 2420
-43 -549 2422
-35 -546 2408
-28 -550 2425
-21 -550 2427
-14 -551 2431
-7 -548 2416
0 -547 2414
6 -546 2408
13 -547 2414
20 -549 2421
27 -550 2424
34 -545 2401
41 -547 2409
48 -541 2384
56 -548 2416
63 -549 2419
69 -545 2400
76 -546 2403
84 -547 2409
91 -548 2411
98 -551 2427
105 -549 2417
112 -549 2414
119 -549 2417
126 -548 2412
133 -546 2399
141 -550 2418
147 -549 2411
153 -545 2395
161 -548 2407
167 -545 2393
175 -546 2397
181 -545 2390
190 -550 2414
196 -547 2401
204 -549 2406
211 -548 2403
216 -545 2388
224 -547 2398
232 -548 2400
238 -547 2396
246 -549 2404
253 -549 2401
260 -549 2401
267 -549 2399
274 -548 2394
279 -544 2378
288 -548 2395
295 -547 2389
302 -548 2391
310 -549 2396
313 -543 2369
322 -546 2382
329 -547 2384
336 -546 2377
345 -549 2391
349 -545 2374
357 -546 2375
363 -544 2366
369 -544 2364
379 -548 2382
384 -545 2367
390 -543 2360
400 -548 2376
405 -545 2362
412 -545 2362
420 -546 2368
427 -546 2366
434 -547 2367
440 -545 2359
449 -547 2367
453 -544 2353
462 -547 2361
467 -544 2350
474 -544 2348
482 -545 2351
491 -548 2361
495 -545 2346
501 -544 2341
510 -546 2348
514 -543 2333
526 -548 2355
530 -545 2340
539 -547 2347
542 -542 2326
552 -546 2339
559 -546 2338
561 -541 2317
572 -546 2333
579 -545 2331
585 -544 2324
595 -547 2335
595 -541 2307
606 -544 2320
614 -545 2322
620 -544 2316
630 -547 2326
634 -545 2315
643 -546 2320
648 -545 2311
652 -543 2300
661 -544 2305
672 -548 2318
673 -543 2295
683 -545 2304
691 -547 2307
697 -546 2302
707 -547 2307
711 -545 2296
717 -545 2291
721 -543 2282
730 -544 2285
737 -544 2283
744 -544 2280
752 -545 2284
757 -544 2276
761 -542 2264
764 -539 2252
772 -540 2251
773 -536 2234
772 -531 2209
773 -526 2190
767 -518 2152
766 -513 2130
767 -509 2112
764 -503 2084
766 -500 2068
765 -495 2048
766 -492 2031
764 -487 2008
764 -482 1988
761 -477 1962
764 -475 1952
768 -474 1946
771 -472 1934
771 -468 1919
775 -467 1912
772 -462 1886
776 -461 1881
777 -458 1867
778 -455 1852
783 -454 1848
784 -451 1834
783 -448 1817
800 -454 1841
828 -467 1889
851 -477 1926
907 -505 2036
931 -515 2074
967 -531 2135
988 -538 2164
993 -538 2157
1003 -539 2161
1009 -539 2158
1017 -540 2157
1020 -538 2146
1018 -533 2124
1035 -538 2142
1039 -537 2135
1045 -537 2129
1053 -537 2129
1062 -539 2131
1071 -539 2131
1078 -540 2128
1082 -538 2119
1090 -539 2119
1100 -541 2121
1103 -539 2111
1119 -543 2124
1120 -540 2110
1121 -537 2095
1130 -539 2097
1137 -539 2094
1136 -535 2076
1160 -543 2103
1164 -542 2095
1162 -538 2076
1173 -540 2079
1173 -537 2064
1188 -541 2076
-1245 -527 2105
-1224 -521 2084
-1221 -522 2094
-1229 -529 2124
-1215 -526 2116
-1211 -527 2125
-1192 -522 2107
-1194 -526 2126
-1191 -528 2136
-1184 -528 2141
-1175 -527 2141
-1158 -523 2126
-1167 -530 2159
-1157 -529 2157
-1147 -527 2154
-1138 -526 2153
-1128 -525 2151
-1127 -528 2166
-1126 -531 2180
-1109 -526 2163
-1102 -526 2166
-1105 -531 2189
-1095 -529 2187
-1079 -525 2173
-1076 -527 2182
-1069 -527 2186
-1071 -532 2207
-1060 -530 2202
-1051 -529 2201
-1043 -528 2202
-1041 -531 2217
-1033 -531 2217
-1021 -528 2208
-1021 -532 2227
-1011 -530 2223
-1000 -528 2217
-994 -529 2221
-993 -532 2239
-984 -531 2237
-981 -533 2248
-967 -530 2236
-970 -535 2261
-959 -533 2255
-955 -535 2265
-946 -534 2261
-942 -535 2271
-928 -532 2258
-919 -530 2255
-919 -535 2276
-905 -530 2260
-905 -535 2280
-899 -535 2285
-892 -535 2288
-888 -537 2298
-872 -532 2277
-871 -536 2297
-860 -533 2287
-850 -532 2281
-852 -538 2309
-838 -533 2291
-832 -534 2296
-825 -534 2300
-824 -538 2318
-813 -536 2311
-806 -536 2312
-804 -539 2329
-799 -540 2336
-789 -538 2330
-777 -535 2318
-778 -540 2342
-767 -538 2334
-764 -541 2349
-753 -538 2337
-741 -535 2325
-738 -538 2339
-731 -538 2342
-724 -538 2343
-716 -537 2342
-709 -537 2343
-703 -538 2349
-695 -538 2349
-687 -537 2347
-680 -537 2349
-677 -540 2364
-668 -539 2360
-663 -541 2369
-652 -538 2358
-647 -539 2364
-637 -537 2358
-628 -536 2352
-627 -541 2375
-618 -539 2370
-613 -541 2378
-605 -540 2376
-595 -538 2368
-590 -540 2377
-580 -537 2367
-575 -539 2378
-566 -537 2370
-562 -540 2384
-559 -544 2401
-544 -537 2372
-543 -543 2397
-535 -542 2398
-524 -538 2380
-523 -544 2409
-513 -541 2395
-508 -544 2410
-500 -542 2403
-491 -541 2397
-484 -541 2398
-480 -545 2415
-470 -541 2400
-462 -540 2397
-460 -546 2424
-448 -541 2402
-442 -542 2409
-435 -542 2408
-430 -545 2424
-423 -546 2426
-416 -546 2427
-407 -543 2415
-398 -540 2405
-390 -539 2400
-382 -539 2398
-375 -538 2398
-371 -543 2420
-363 -542 2413
-356 -542 2416
-349 -543 2420
-342 -543 2420
-335 -542 2418
-327 -541 2415
-320 -541 2415
-313 -541 2415
-306 -542 2417
-299 -542 2418
-293 -544 2428
-286 -544 2429
-278 -544 2428
-273 -547 2445
-264 -544 2432
-257 -543 2428
-249 -543 2428
-244 -546 2442
-236 -544 2433
-228 -542 2425
-222 -546 2441
-214 -543 2428
-206 -543 2428
-200 -544 2433
-192 -544 2432
-185 -544 2432
-176 -538 2408
-167 -530 2372
-144 -479 2142
-130 -454 2030
-125 -454 2033
-117 -450 2012
-112 -454 2030
-106 -452 2024
-100 -450 2013
-94 -453 2025
-90 -460 2059
-85 -467 2091
-83 -489 2187
-83 -528 2360
-78 -540 2414
-71 -546 2440
-65 -548 2450
-57 -547 2445
-51 -553 2471
-43 -546 2444
-36 -545 2438
-29 -550 2457
-22 -548 2451
-14 -550 2460
-7 -547 2445
0 -548 2448
6 -545 2435
13 -546 2439
20 -547 2444
28 -546 2439
35 -549 2454
42 -548 2449
49 -545 2435
56 -545 2433
64 -552 2463
70 -547 2440
78 -549 2450
84 -545 2431
92 -548 2445
99 -549 2449
107 -550 2455
114 -549 2447
120 -547 2438
128 -549 2449
135 -548 2443
142 -548 2440
150 -550 2448
156 -547 2434
163 -547 2433
171 -549 2443
176 -544 2420
185 -548 2437
193 -551 2452
198 -544 2420
205 -546 2426
213 -546 2426
221 -550 2446
227 -547 2430
235 -550 2440
241 -545 2421
248 -545 2419
257 -550 2438
263 -549 2432
270 -547 2426
276 -546 2418
284 -547 2421
291 -546 2416
297 -545 2411
305 -547 2419
313 -548 2423
320 -548 2423
327 -548 2420
332 -544 2405
341 -547 2414
347 -545 2408
353 -544 2401
361 -545 2406
370 -549 2419
375 -545 2403
383 -546 2404
389 -545 2400
398 -548 2411
404 -546 2401
412 -547 2406
418 -546 2399
424 -545 2392
435 -549 2410
439 -545 2393
448 -548 2402
452 -545 2387
458 -543 2378
465 -543 2379
475 -547 2393
483 -547 2392
489 -546 2386
490 -540 2358
501 -544 2373
508 -544 2373
516 -545 2377
525 -548 2386
530 -545 2373
537 -545 2373
543 -544 2365
548 -542 2356
559 -545 2369
565 -545 2367
577 -550 2385
582 -547 2372
586 -544 2358
593 -545 2358
602 -547 2365
605 -543 2347
614 -545 2352
623 -546 2357
629 -546 2354
634 -544 2344
641 -543 2340
651 -546 2350
658 -546 2348
663 -544 2339
673 -547 2347
677 -545 2336
684 -545 2335
691 -545 2333
700 -546 2337
704 -544 2325
714 -546 2333
718 -544 2322
726 -545 2323
732 -544 2316
742 -546 2326
747 -544 2315
755 -546 2318
763 -546 2317
765 -543 2301
771 -542 2295
772 -538 2276
773 -533 2256
772 -528 2232
770 -522 2203
762 -512 2159
765 -510 2147
768 -507 2135
764 -501 2104
766 -498 2091
764 -493 2066
770 -492 2060
763 -484 2025
771 -485 2026
768 -479 1999
767 -475 1980
766 -470 1959
769 -468 1948
766 -463 1924
773 -464 1925
773 -460 1908
777 -458 1899
774 -453 1876
777 -452 1868
783 -452 1865
794 -455 1876
802 -456 1879
819 -463 1903
849 -476 1956
898 -500 2052
919 -508 2082
968 -532 2175
981 -535 2186
989 -536 2185
1001 -539 2194
1014 -542 2206
1022 -543 2205
1020 -538 2182
1027 -538 2179
1036 -539 2182
1045 -540 2181
1049 -539 2173
1060 -541 2179
1055 -535 2150
1079 -543 2182
1085 -543 2177
1071 -533 2132
1098 -543 2169
1096 -538 2147
1105 -539 2149
1107 -537 2136
1118 -539 2141
1118 -536 2125
1133 -539 2136
1130 -535 2115
1146 -539 2127
1156 -541 2130
1153 -536 2109
1162 -537 2109
1173 -539 2113
1175 -537 2100
1194 -542 2119
1192 -538 2099
1206 -542 2108
-1258 -525 2128
-1263 -530 2153
-1243 -525 2134
-1233 -524 2133
-1232 -526 2147
-1225 -526 2151
-1207 -522 2134
-1208 -525 2153
-1211 -530 2174
-1204 -530 2177
-1179 -522 2150
-1182 -526 2170
-1176 -527 2176
-1155 -521 2154
-1161 -527 2182
-1154 -527 2184
-1151 -529 2197
-1147 -530 2205
-1124 -523 2178
-1128 -528 2203
-1117 -526 2198
-1116 -529 2213
-1106 -528 2211
-1108 -532 2232
-1101 -532 2235
-1086 -529 2223
-1079 -529 2227
-1067 -527 2220
-1067 -530 2236
-1060 -530 2239
-1054 -531 2245
-1038 -526 2229
-1041 -531 2253
-1038 -534 2266
-1027 -532 2260
-1026 -535 2276
-1019 -535 2279
-1013 -535 2284
-996 -531 2266
-988 -530 2265
-986 -533 2280
-974 -530 2273
-973 -534 2290
-962 -532 2283
-959 -534 2294
-947 -531 2286
-953 -538 2319
-933 -531 2290
-928 -533 2300
-926 -536 2315
-925 -539 2332
-907 -533 2307
-900 -533 2311
-887 -530 2297
-888 -534 2320
-882 -535 2326
-875 -535 2328
-869 -537 2336
-861 -536 2335
-854 -536 2336
-847 -536 2340
-843 -538 2352
-837 -539 2355
-822 -534 2335
-814 -534 2337
-809 -535 2345
-800 -534 2342
-799 -538 2360
-790 -537 2357
-779 -534 2348
-773 -535 2353
-770 -538 2368
-762 -537 2367
-752 -535 2360
-747 -537 2371
-736 -535 2359
-736 -540 2385
-731 -541 2392
-718 -537 2377
-713 -539 2385
-703 -537 2377
-699 -540 2391
-696 -543 2406
-681 -537 2382
-677 -539 2392
-667 -537 2384
-662 -539 2395
-657 -540 2403
-645 -537 2388
-642 -540 2404
-633 -539 2399
-626 -539 2403
-613 -534 2382
-608 -536 2390
-604 -539 2406
-599 -541 2414
-591 -540 2414
-585 -541 2420
-575 -539 2411
-568 -539 2410
-562 -540 2416
-555 -540 2420
-548 -541 2422
-544 -544 2439
-528 -535 2401
-530 -544 2441
-517 -538 2416
-513 -542 2434
-508 -545 2447
-495 -539 2420
-492 -542 2438
-481 -539 2423
-477 -542 2439
-468 -541 2432
-464 -544 2448
-456 -543 2446
-449 -543 2447
-441 -543 2446
-432 -541 2438
-424 -539 2431
-418 -542 2442
-412 -543 2450
-404 -542 2447
-398 -543 2452
-390 -542 2448
-384 -544 2455
-376 -543 2454
-368 -542 2450
-359 -539 2437
-354 -542 2451
-347 -543 2456
-339 -543 2453
-332 -543 2456
-326 -545 2465
-319 -545 2466
-311 -544 2464
-305 -546 2473
-296 -543 2458
-290 -545 2467
-284 -547 2476
-274 -542 2455
-268 -546 2472
-258 -540 2444
-253 -545 2468
-247 -547 2478
-240 -547 2481
-233 -547 2478
-224 -544 2467
-217 -544 2465
-210 -544 2466
-202 -542 2457
-194 -542 2456
-187 -541 2453
-179 -539 2443
-170 -533 2417
-153 -502 2278
-134 -461 2090
-126 -454 2059
-119 -450 2041
-113 -448 2034
-106 -446 2024
-103 -458 2080
-96 -453 2053
-90 -456 2069
-87 -469 2129
-83 -483 2189
-81 -509 2311
-79 -539 2442
-72 -542 2456
-66 -551 2500
-59 -552 2504
-51 -549 2487
-44 -550 2492
-36 -546 2475
-29 -550 2494
-22 -551 2498
-15 -549 2487
-7 -548 2486
0 -553 2504
6 -548 2484
14 -549 2489
21 -548 2481
28 -548 2482
35 -550 2493
42 -547 2477
50 -548 2479
57 -549 2487
64 -549 2484
72 -548 2481
78 -546 2470
86 -550 2487
93 -549 2485
100 -545 2465
108 -549 2481
115 -550 2487
123 -550 2487
130 -549 2480
136 -547 2470
144 -547 2473
151 -548 2473
158 -547 2469
166 -549 2479
173 -549 2478
180 -547 2468
188 -550 2478
195 -549 2474
202 -548 2469
211 -552 2488
218 -552 2485
224 -549 2474
231 -548 2466
238 -548 2465
244 -545 2454
252 -548 2466
259 -546 2454
265 -544 2447
272 -544 2445
281 -547 2458
288 -547 2457
293 -544 2440
303 -548 2458
309 -547 2452
317 -547 2455
325 -549 2458
330 -545 2444
337 -545 2442
347 -550 2461
351 -545 2440
359 -546 2444
366 -545 2438
370 -541 2418
381 -547 2444
391 -550 2455
394 -544 2430
401 -545 2430
410 -546 2436
418 -548 2444
422 -544 2423
429 -544 2422
440 -549 2443
444 -545 2424
452 -545 2425
460 -546 2427
465 -545 2419
473 -545 2418
480 -545 2418
489 -547 2423
495 -546 2419
500 -543 2406
506 -542 2400
520 -550 2431
523 -545 2408
531 -546 2412
538 -546 2409
545 -545 2406
553 -547 2410
559 -545 2402
566 -545 2401
575 -548 2410
577 -543 2387
582 -541 2377
596 -547 2401
602 -546 2397
607 -544 2387
616 -545 2390
624 -546 2393
632 -547 2395
643 -550 2406
641 -543 2373
651 -545 2380
657 -544 2375
663 -543 2368
674 -547 2382
676 -542 2361
689 -547 2379
695 -546 2373
702 -546 2372
710 -547 2373
718 -547 2373
721 -544 2356
725 -542 2346
734 -543 2349
742 -544 2351
750 -545 2350
759 -546 2356
764 -545 2347
769 -543 2337
769 -538 2313
772 -536 2300
774 -532 2284
772 -526 2253
766 -517 2215
767 -514 2197
766 -508 2173
763 -502 2144
766 -500 2131
766 -496 2112
768 -492 2095
761 -484 2058
769 -485 2059
765 -478 2030
767 -476 2016
770 -474 2007
771 -471 1991
767 -465 1962
769 -462 1949
782 -466 1966
774 -458 1929
780 -458 1926
778 -453 1904
782 -452 1896
789 -453 1898
795 -453 1895
816 -462 1930
845 -474 1980
883 -492 2053
925 -513 2134
963 -530 2202
974 -532 2209
995 -540 2238
993 -535 2214
1010 -541 2235
1011 -537 2218
1020 -538 2219
1031 -540 2224
1039 -541 2225
1046 -541 2221
1049 -539 2209
1055 -538 2204
1067 -541 2212
1077 -542 2215
1078 -539 2198
1077 -535 2179
1093 -540 2195
1106 -543 2204
1112 -543 2199
1111 -539 2180
1112 -536 2163
1131 -542 2185
1124 -535 2155
1139 -539 2165
1152 -542 2174
1154 -539 2162
1159 -538 2154
1166 -538 2151
1180 -542 2160
1181 -539 2145
1186 -538 2138
1198 -540 2144
1199 -538 2129
1213 -541 2137
1211 -537 2119
-1271 -523 2152
-1273 -527 2171
-1258 -524 2161
-1252 -525 2168
-1242 -523 2166
-1240 -526 2180
-1237 -527 2190
-1229 -527 2192
-1212 -523 2179
-1219 -529 2207
-1219 -532 2224
-1202 -528 2209
-1201 -531 2224
-1178 -524 2197
-1182 -529 2222
-1180 -531 2236
-1174 -532 2241
-1169 -533 2250
-1150 -528 2231
-1136 -525 2221
-1137 -529 2240
-1135 -531 2253
-1122 -528 2245
-1112 -527 2242
-1113 -531 2262
-1096 -526 2244
-1092 -528 2255
-1089 -530 2267
-1085 -532 2276
-1070 -528 2262
-1070 -531 2280
-1060 -530 2278
-1057 -532 2290
-1040 -527 2272
-1038 -530 2286
-1038 -534 2304
-1025 -531 2295
-1022 -533 2307
-1007 -529 2293
-1007 -533 2310
-1002 -534 2319
-994 -534 2319
-976 -528 2297
-981 -535 2328
-968 -531 2317
-960 -531 2319
-962 -536 2343
-945 -531 2323
-947 -536 2348
-932 -532 2330
-938 -540 2367
-922 -534 2346
-918 -537 2358
-913 -538 2366
-902 -536 2358
-896 -536 2364
-883 -533 2352
-874 -532 2349
-873 -536 2370
-867 -537 2374
-854 -533 2361
-853 -537 2379
-840 -534 2367
-832 -534 2367
-829 -536 2380
-826 -539 2394
-821 -540 2403
-811 -539 2399
-799 -536 2385
-801 -542 2415
-787 -537 2396
-775 -534 2385
-771 -537 2397
-767 -539 2409
-752 -533 2386
-747 -535 2397
-744 -538 2410
-734 -536 2405
-730 -539 2416
-717 -535 2399
-707 -532 2391
-709 -539 2424
-697 -536 2412
-691 -537 2418
-687 -539 2429
-679 -539 2429
-672 -540 2434
-661 -537 2420
-656 -539 2432
-646 -537 2423
-640 -537 2428
-638 -542 2450
-628 -540 2442
-619 -538 2436
-615 -541 2449
-609 -542 2456
-603 -543 2462
-592 -540 2449
-586 -542 2457
-580 -543 2465
-575 -545 2473
-562 -540 2453
-553 -538 2446
-547 -539 2451
-545 -545 2478
-535 -542 2467
-527 -542 2465
-522 -544 2479
-512 -542 2468
-505 -542 2468
-496 -540 2461
-489 -540 2462
-481 -540 2461
-477 -543 2479
-472 -546 2494
-461 -542 2474
-454 -542 2477
-449 -546 2493
-444 -549 2507
-431 -541 2475
-426 -544 2485
-417 -542 2479
-411 -543 2486
-402 -542 2479
-394 -540 2473
-388 -543 2485
-383 -546 2499
-373 -542 2483
-368 -545 2497
-358 -542 2484
-351 -542 2482
-343 -542 2484
-336 -541 2481
-327 -540 2476
-325 -548 2516
-314 -542 2485
-310 -548 2517
-300 -543 2494
-294 -546 2505
-287 -546 2508
-278 -543 2491
-273 -549 2519
-263 -542 2488
-258 -547 2512
-249 -544 2499
-243 -546 2508
-233 -542 2489
-227 -544 2501
-221 -546 2509
-213 -546 2510
-205 -543 2494
-200 -549 2523
-191 -546 2510
-183 -543 2495
-174 -539 2478
-159 -515 2369
-139 -471 2166
-128 -455 2093
-120 -446 2054
-115 -452 2079
-109 -450 2072
-104 -456 2097
-97 -455 2093
-92 -457 2100
-87 -465 2138
-84 -485 2229
-81 -506 2328
-79 -536 2463
-73 -541 2485
-66 -549 2526
-59 -545 2507
-52 -552 2538
-44 -550 2527
-37 -550 2528
-30 -548 2520
-22 -550 2526
-15 -548 2517
-8 -554 2546
0 -546 2508
6 -547 2513
14 -551 2530
21 -554 2546
28 -549 2523
36 -548 2516
43 -550 2524
51 -552 2535
58 -546 2507
65 -549 2520
72 -546 2507
80 -548 2514
87 -547 2511
94 -547 2510
102 -548 2511
109 -548 2514
117 -549 2515
125 -552 2528
131 -546 2502
139 -549 2517
145 -546 2501
153 -547 2504
161 -549 2514
168 -548 2508
175 -546 2498
183 -551 2519
191 -551 2521
197 -547 2499
204 -547 2501
210 -542 2477
217 -543 2481
228 -551 2518
233 -546 2495
241 -547 2497
248 -547 2494
256 -548 2501
263 -548 2499
271 -549 2501
275 -543 2474
284 -547 2490
291 -546 2485
299 -547 2492
307 -548 2491
313 -547 2487
322 -550 2498
329 -549 2495
335 -546 2478
344 -549 2491
347 -541 2458
357 -547 2480
364 -547 2479
369 -543 2463
377 -544 2466
387 -548 2483
394 -547 2477
400 -546 2468
405 -543 2455
414 -544 2461
421 -545 2462
428 -545 2460
437 -547 2468
444 -546 2463
450 -544 2455
457 -544 2454
467 -548 2467
471 -544 2450
479 -544 2449
485 -544 2446
496 -547 2459
501 -545 2450
508 -544 2444
515 -545 2445
525 -548 2457
531 -546 2446
535 -543 2434
544 -545 2437
551 -545 2438
559 -545 2437
570 -549 2451
576 -548 2447
581 -546 2434
588 -545 2430
592 -542 2416
603 -546 2432
609 -545 2423
617 -546 2427
624 -545 2421
630 -545 2418
639 -545 2420
645 -545 2417
652 -545 2413
658 -544 2408
671 -549 2427
676 -547 2416
681 -545 2406
686 -543 2395
694 -544 2397
701 -544 2396
710 -545 2398
714 -543 2387
730 -550 2415
732 -545 2393
741 -547 2398
743 -543 2379
750 -542 2375
759 -544 2382
769 -546 2388
771 -542 2368
774 -540 2355
775 -535 2332
773 -529 2305
764 -518 2255
770 -518 2250
768 -512 2221
761 -503 2180
764 -500 2167
766 -497 2152
766 -493 2131
766 -489 2113
767 -485 2094
764 -479 2066
766 -477 2054
767 -473 2036
773 -473 2035
771 -468 2009
774 -466 2000
774 -462 1981
776 -460 1968
781 -459 1963
780 -455 1944
781 -453 1930
785 -452 1923
794 -453 1928
816 -462 1965
844 -475 2014
878 -490 2077
924 -513 2170
948 -522 2206
987 -540 2278
991 -538 2267
996 -537 2261
1013 -542 2280
1014 -539 2264
1020 -539 2258
1028 -539 2257
1039 -541 2262
1041 -538 2248
1047 -538 2243
1053 -538 2239
1065 -540 2246
1074 -541 2246
1075 -538 2229
1082 -538 2226
1098 -542 2242
1100 -540 2227
1110 -541 2230
1114 -540 2221
1116 -537 2208
1121 -536 2201
1142 -543 2224
1152 -544 2226
1142 -537 2191
1153 -538 2194
1160 -538 2191
1168 -539 2189
1168 -535 2172
1193 -544 2202
1196 -542 2190
1204 -542 2188
1198 -536 2161
1218 -542 2182
1208 -535 2147
1215 -534 2142
1236 -541 2165
-1299 -528 2201
-1279 -523 2184
-1280 -526 2201
-1261 -521 2184
-1269 -527 2215
-1254 -524 2205
-1253 -527 2220
-1240 -525 2214
-1237 -526 2224
-1237 -530 2242
-1230 -530 2245
-1225 -531 2254
-1204 -525 2232
-1198 -526 2238
-1202 -531 2262
-1183 -525 2242
-1186 -530 2267
-1174 -528 2260
-1170 -530 2271
-1157 -527 2262
-1154 -529 2274
-1150 -531 2284
-1137 -528 2276
-1149 -537 2319
-1117 -525 2271
-1120 -531 2296
-1109 -529 2291
-1106 -531 2302
-1086 -525 2279
-1097 -534 2322
-1093 -536 2332
-1077 -531 2316
-1063 -528 2304
-1059 -530 2314
-1053 -530 2319
-1049 -532 2332
-1042 -532 2334
-1027 -529 2320
-1023 -530 2330
-1025 -535 2355
-1023 -538 2369
-1002 -531 2341
-995 -531 2343
-993 -534 2359
-985 -534 2361
-975 -532 2357
-967 -532 2356
-965 -535 2373
-958 -535 2375
-949 -534 2375
-941 -534 2376
-929 -531 2366
-925 -533 2377
-920 -535 2385
-912 -534 2387
-908 -536 2397
-898 -535 2392
-890 -534 2393
-887 -537 2407
-873 -533 2391
-865 -533 2394
-862 -536 2407
-858 -538 2418
-845 -534 2405
-847 -540 2433
-834 -537 2418
-827 -537 2424
-822 -539 2433
-808 -534 2414
-808 -539 2438
-801 -539 2441
-790 -537 2433
-783 -538 2437
-776 -538 2438
-766 -536 2433
-758 -536 2432
-752 -536 2438
-745 -537 2443
-744 -542 2464
-736 -541 2464
-728 -541 2463
-720 -540 2463
-708 -537 2450
-700 -537 2451
-695 -539 2461
-688 -539 2462
-677 -536 2450
-669 -535 2450
-667 -540 2471
-661 -542 2480
-654 -542 2483
-646 -542 2483
-636 -539 2474
-629 -540 2477
-622 -540 2480
-613 -538 2473
-607 -540 2480
-601 -541 2488
-594 -541 2490
-587 -542 2496
-574 -537 2472
-576 -546 2513
-561 -538 2480
-553 -538 2481
-550 -542 2500
-542 -542 2501
-532 -540 2492
-526 -541 2499
-520 -542 2506
-513 -542 2506
-506 -543 2511
-497 -542 2505
-488 -540 2499
-483 -543 2514
-475 -542 2508
-469 -544 2518
-458 -540 2503
-457 -548 2538
-449 -547 2534
-439 -544 2521
-436 -549 2548
-424 -543 2520
-417 -545 2528
-407 -541 2512
-402 -544 2528
-395 -545 2530
-386 -543 2524
-380 -545 2533
-371 -542 2521
-367 -548 2546
-358 -545 2534
-350 -545 2532
-342 -544 2530
-335 -545 2537
-327 -544 2531
-319 -543 2529
-312 -544 2532
-303 -541 2519
-297 -543 2526
-289 -542 2526
-284 -547 2547
-275 -545 2538
-268 -546 2541
-260 -544 2533
-253 -546 2542
-244 -543 2528
-238 -544 2536
-231 -545 2540
-223 -544 2538
-216 -545 2542
-210 -549 2558
-201 -546 2543
-193 -545 2539
-186 -545 2541
-177 -539 2515
-165 -527 2458
-144 -481 2243
-131 -458 2135
-123 -454 2120
-116 -451 2103
-110 -451 2104
-104 -451 2104
-99 -455 2121
-93 -456 2126
-89 -467 2180
-84 -476 2221
-82 -500 2332
-79 -531 2474
-74 -546 2548
-67 -550 2565
-60 -551 2570
-52 -546 2544
-45 -548 2554
-37 -546 2547
-30 -551 2567
-22 -549 2559
-15 -553 2575
-8 -549 2557
0 -547 2548
6 -552 2571
14 -550 2561
21 -550 2564
29 -550 2560
36 -550 2559
44 -552 2571
51 -548 2549
58 -546 2543
66 -545 2535
73 -546 2542
81 -549 2556
88 -545 2537
96 -549 2553
104 -550 2557
111 -549 2554
118 -549 2550
126 -549 2552
134 -550 2557
141 -552 2562
148 -549 2551
155 -547 2540
163 -548 2542
169 -545 2530
179 -551 2557
184 -546 2534
192 -548 2540
202 -553 2563
207 -548 2542
214 -547 2535
222 -548 2540
231 -551 2549
235 -544 2519
244 -547 2531
250 -545 2520
259 -548 2532
266 -547 2531
273 -547 2526
281 -547 2528
288 -546 2524
298 -551 2542
303 -547 2526
312 -549 2532
318 -547 2525
326 -548 2525
334 -549 2528
341 -548 2525
348 -547 2521
354 -547 2516
362 -546 2514
372 -550 2531
378 -548 2519
383 -545 2506
392 -547 2511
399 -547 2510
406 -546 2506
414 -547 2507
422 -548 2512
428 -546 2503
435 -545 2498
444 -548 2508
449 -545 2492
457 -546 2495
464 -546 2495
474 -549 2507
479 -546 2492
484 -543 2479
491 -543 2475
503 -548 2496
508 -545 2483
515 -545 2483
525 -548 2492
534 -549 2497
536 -544 2473
545 -546 2479
554 -547 2485
562 -548 2487
566 -545 2470
578 -549 2487
581 -545 2467
587 -544 2462
594 -544 2458
603 -545 2464
614 -548 2475
617 -545 2458
626 -546 2462
634 -546 2462
639 -545 2453
651 -549 2471
655 -546 2456
667 -549 2468
668 -545 2446
675 -544 2440
684 -546 2447
689 -544 2435
697 -545 2438
707 -547 2444
715 -547 2445
726 -550 2456
728 -546 2436
737 -547 2439
744 -547 2435
751 -546 2431
757 -545 2424
758 -541 2402
771 -545 2419
769 -539 2389
777 -539 2388
773 -531 2351
768 -523 2313
766 -517 2284
765 -512 2259
764 -507 2235
765 -503 2216
765 -498 2192
765 -494 2171
765 -490 2149
763 -484 2125
766 -482 2112
766 -478 2094
767 -475 2076
770 -473 2064
767 -467 2039
764 -462 2012
775 -464 2021
773 -460 1999
781 -461 2000
774 -453 1965
780 -453 1963
781 -450 1947
792 -453 1958
806 -458 1976
827 -466 2008
874 -489 2106
922 -512 2202
947 -522 2243
971 -531 2280
987 -536 2298
996 -537 2300
1003 -537 2296
1009 -537 2291
1028 -543 2315
1034 -542 2309
1039 -541 2301
1045 -541 2296
1056 -543 2302
1056 -539 2282
1069 -542 2292
1079 -543 2295
1081 -541 2281
1091 -542 2284
1109 -548 2303
1101 -540 2268
1119 -545 2286
1116 -540 2262
1126 -542 2264
1128 -539 2251
1132 -538 2240
1151 -543 2261
1162 -545 2264
1158 -540 2240
1172 -543 2249
1171 -539 2230
1171 -536 2212
1189 -541 2229
1200 -543 2234
1205 -542 2225
1198 -535 2196
1212 -538 2204
1215 -537 2194
1221 -536 2187
1237 -540 2200
1238 -537 2185
1247 -538 2184
-1305 -523 2213
-1295 -522 2213
-1288 -522 2216
-1288 -525 2234
-1278 -524 2232
-1268 -523 2231
-1268 -526 2247
-1249 -521 2231
-1248 -524 2246
-1239 -523 2246
-1223 -520 2235
-1237 -529 2277
-1226 -527 2273
-1211 -524 2264
-1217 -530 2291
-1205 -528 2286
-1192 -526 2280
-1184 -525 2282
-1186 -529 2302
-1167 -524 2284
-1168 -528 2304
-1163 -529 2311
-1150 -527 2304
-1149 -530 2320
-1145 -531 2329
-1129 -527 2316
-1129 -531 2335
-1116 -528 2325
-1113 -530 2337
-1118 -536 2367
-1097 -530 2341
-1085 -528 2334
-1085 -532 2355
-1079 -532 2359
-1078 -536 2378
-1062 -531 2360
-1056 -532 2368
-1048 -532 2369
-1033 -528 2354
-1034 -532 2376
-1024 -531 2372
-1016 -531 2375
-1013 -533 2389
-1006 -533 2391
-1003 -536 2404
-1003 -540 2426
-991 -537 2417
-975 -533 2399
-969 -534 2404
-966 -536 2418
-956 -535 2415
-941 -531 2400
-943 -536 2424
-932 -534 2418
-927 -536 2428
-919 -535 2428
-913 -537 2436
-906 -537 2439
-897 -536 2436
-891 -537 2444
-885 -538 2449
-882 -540 2463
-869 -537 2452
-860 -536 2449
-849 -534 2440
-838 -532 2434
-837 -536 2454
-828 -535 2450
-819 -535 2450
-814 -536 2457
-812 -540 2478
-798 -535 2459
-795 -538 2473
-787 -538 2476
-779 -538 2475
-774 -539 2484
-764 -537 2478
-750 -533 2461
-747 -536 2475
-742 -538 2486
-739 -542 2505
-729 -540 2496
-720 -539 2492
-711 -538 2491
-710 -543 2516
-698 -540 2501
-684 -534 2477
-685 -541 2510
-675 -539 2505
-667 -539 2504
-661 -540 2509
-649 -537 2496
-646 -540 2514
-641 -543 2526
-632 -541 2520
-627 -543 2532
-615 -539 2514
-608 -540 2519
-597 -537 2506
-591 -538 2514
-590 -544 2541
-578 -540 2523
-574 -543 2540
-566 -543 2541
-558 -543 2541
-554 -546 2556
-540 -540 2528
-533 -540 2531
-523 -538 2521
-520 -543 2545
-514 -544 2553
-505 -543 2546
-499 -544 2554
-492 -545 2561
-478 -539 2529
-473 -541 2541
-472 -549 2578
-462 -546 2568
-452 -543 2552
-442 -540 2541
-437 -543 2553
-429 -543 2554
-421 -542 2552
-413 -541 2547
-408 -545 2566
-400 -544 2564
-391 -543 2557
-386 -546 2574
-377 -545 2567
-371 -547 2578
-361 -542 2557
-355 -545 2569
-348 -547 2579
-341 -547 2580
-332 -545 2573
-327 -548 2588
-318 -546 2580
-308 -542 2562
-302 -546 2578
-296 -548 2590
-287 -546 2581
-279 -545 2575
-272 -545 2576
-264 -544 2572
-256 -543 2566
-249 -545 2578
-243 -548 2592
-233 -542 2565
-226 -544 2574
-219 -545 2575
-211 -545 2579
-204 -546 2581
-197 -548 2591
-189 -548 2591
-181 -544 2573
-171 -537 2538
-153 -503 2379
-133 -460 2175
-125 -452 2141
-119 -457 2160
-111 -448 2118
-106 -454 2150
-100 -452 2140
-93 -451 2136
-89 -464 2194
-85 -475 2247
-82 -496 2344
-81 -534 2525
-75 -544 2575
-68 -546 2583
-61 -550 2601
-53 -553 2614
-46 -550 2599
-38 -552 2610
-31 -551 2607
-23 -553 2615
-15 -554 2618
-8 -553 2615
0 -550 2599
7 -547 2585
14 -551 2602
22 -549 2595
29 -551 2602
37 -549 2592
44 -550 2597
52 -551 2601
59 -548 2589
67 -550 2596
75 -550 2598
83 -552 2603
90 -550 2595
97 -549 2589
105 -549 2591
112 -547 2580
120 -549 2588
128 -551 2596
136 -554 2609
143 -551 2594
150 -550 2591
157 -548 2580
165 -549 2583
173 -548 2579
180 -547 2573
187 -547 2572
195 -547 2571
203 -549 2581
209 -546 2565
216 -544 2557
226 -549 2579
233 -548 2573
239 -546 2561
246 -544 2553
256 -549 2578
265 -552 2589
270 -547 2563
277 -547 2563
286 -550 2578
295 -551 2582
302 -551 2581
307 -547 2560
315 -548 2564
322 -546 2555
328 -544 2544
336 -545 2548
344 -546 2552
353 -548 2557
358 -544 2541
369 -549 2563
373 -545 2540
380 -544 2537
392 -550 2563
400 -550 2564
403 -544 2535
414 -549 2556
418 -545 2537
427 -547 2541
433 -546 2536
443 -548 2548
445 -542 2516
458 -549 2546
465 -548 2539
469 -544 2522
477 -545 2523
487 -547 2534
493 -545 2524
502 -548 2534
508 -546 2525
514 -545 2516
523 -547 2524
529 -544 2513
536 -544 2511
547 -548 2526
554 -547 2520
562 -548 2522
568 -546 2513
575 -546 2512
583 -546 2509
589 -545 2504
594 -543 2489
602 -543 2491
609 -543 2489
622 -548 2510
624 -544 2488
631 -543 2485
644 -548 2505
647 -544 2483
654 -544 2481
665 -547 2494
675 -549 2501
681 -548 2493
687 -547 2488
695 -547 2488
701 -546 2480
710 -547 2483
718 -547 2483
719 -543 2460
730 -545 2469
741 -548 2479
746 -546 2468
754 -547 2468
759 -545 2460
766 -545 2456
770 -542 2442
772 -539 2425
776 -536 2410
772 -529 2376
764 -518 2325
768 -516 2314
768 -511 2290
765 -505 2261
764 -500 2234
765 -496 2216
766 -492 2197
765 -487 2172
765 -483 2153
767 -480 2136
762 -473 2104
769 -474 2103
772 -472 2092
775 -469 2078
767 -461 2038
772 -460 2034
771 -456 2013
775 -454 2004
782 -455 2006
781 -451 1984
794 -455 2000
810 -461 2022
829 -467 2050
861 -482 2111
918 -510 2233
947 -523 2284
974 -534 2329
997 -543 2364
1003 -542 2359
1002 -537 2334
1022 -544 2361
1018 -538 2333
1022 -537 2324
1040 -542 2343
1041 -539 2327
1047 -538 2320
1061 -541 2332
1065 -540 2322
1068 -538 2310
1073 -537 2302
1089 -541 2318
1096 -541 2313
1107 -543 2318
1104 -538 2293
1119 -542 2307
1132 -544 2314
1128 -539 2288
1132 -537 2278
1137 -536 2271
1157 -542 2293
1146 -534 2253
1166 -540 2275
1177 -542 2279
1184 -541 2274
1188 -540 2264
1197 -541 2264
1196 -537 2244
1201 -536 2236
1219 -541 2253
1224 -540 2246
1216 -533 2213
1236 -539 2233
1238 -537 2220
1251 -539 2226
1258 -539 2223
1263 -538 2215
-1329 -525 2256
-1327 -527 2269
-1307 -522 2251
-1309 -526 2272
-1301 -526 2275
-1290 -524 2272
-1291 -528 2291
-1298 -534 2319
-1278 -529 2301
-1257 -523 2281
-1248 -523 2282
-1248 -526 2299
-1237 -524 2295
-1224 -522 2289
-1220 -524 2299
-1230 -531 2337
-1225 -532 2344
-1214 -531 2340
-1203 -530 2338
-1194 -529 2339
-1190 -530 2349
-1187 -533 2362
-1172 -529 2350
-1165 -530 2355
-1156 -529 2355
-1144 -527 2349
-1147 -532 2373
-1136 -530 2368
-1124 -528 2363
-1113 -526 2357
-1115 -531 2381
-1103 -529 2375
-1103 -533 2394
-1091 -530 2387
-1092 -535 2409
-1085 -535 2414
-1063 -528 2384
-1063 -532 2404
-1061 -535 2420
-1045 -530 2403
-1040 -532 2411
-1037 -534 2425
-1025 -532 2417
-1016 -531 2417
-1002 -528 2405
-1003 -532 2426
-997 -533 2434
-991 -534 2441
-987 -536 2451
-969 -531 2429
-966 -533 2443
-956 -532 2438
-954 -535 2456
-946 -535 2456
-936 -534 2453
-931 -535 2463
-928 -538 2477
-916 -535 2467
-907 -535 2467
-908 -540 2492
-893 -535 2472
-892 -539 2493
-875 -533 2470
-867 -533 2472
-864 -536 2487
-856 -536 2488
-850 -537 2493
-845 -538 2502
-833 -536 2491
-830 -539 2508
-823 -539 2511
-814 -538 2509
-805 -538 2508
-800 -539 2516
-786 -535 2499
-786 -540 2526
-774 -537 2514
-770 -540 2528
-759 -537 2517
-752 -538 2520
-747 -540 2531
-737 -538 2524
-732 -540 2538
-723 -539 2535
-721 -544 2556
-711 -541 2547
-700 -539 2539
-695 -542 2551
-685 -540 2543
-681 -542 2556
-668 -538 2537
-665 -542 2556
-654 -540 2547
-648 -541 2554
-640 -541 2556
-636 -544 2571
-630 -545 2576
-620 -543 2568
-614 -545 2579
-604 -542 2568
-596 -542 2570
-590 -544 2579
-582 -544 2579
-576 -545 2585
-565 -542 2575
-558 -542 2576
-552 -545 2588
-542 -542 2576
-531 -539 2562
-523 -539 2561
-523 -546 2597
-509 -540 2568
-505 -544 2588
-496 -542 2580
-491 -545 2598
-483 -545 2598
-472 -541 2581
-465 -542 2585
-464 -549 2621
-455 -548 2616
-447 -547 2613
-437 -546 2605
-427 -542 2589
-421 -544 2601
-411 -541 2586
-403 -541 2586
-401 -548 2620
-390 -544 2602
-385 -547 2616
-377 -548 2621
-367 -544 2603
-359 -543 2601
-350 -541 2590
-346 -547 2619
-338 -546 2616
-330 -546 2614
-322 -546 2616
-312 -542 2595
-308 -548 2624
-298 -545 2611
-291 -546 2616
-284 -546 2619
-273 -541 2594
-269 -548 2626
-261 -546 2618
-252 -544 2610
-244 -542 2601
-237 -545 2612
-230 -546 2617
-223 -547 2623
-215 -548 2628
-209 -551 2646
-199 -547 2624
-192 -548 2630
-184 -547 2624
-173 -537 2577
-160 -520 2494
-138 -471 2262
-126 -451 2164
-120 -451 2166
-113 -451 2163
-107 -451 2163
-102 -458 2198
-96 -459 2202
-90 -461 2214
-86 -474 2275
-83 -493 2368
-81 -529 2539
-76 -542 2600
-69 -549 2634
-62 -549 2633
-54 -550 2639
-46 -550 2638
-39 -555 2662
-31 -551 2643
-23 -555 2660
-16 -553 2653
-8 -551 2643
0 -554 2656
7 -545 2613
14 -549 2630
22 -551 2640
30 -552 2646
37 -548 2627
45 -553 2648
52 -546 2616
60 -546 2613
68 -550 2634
76 -549 2630
83 -549 2628
91 -549 2627
99 -552 2642
107 -550 2633
114 -547 2617
121 -544 2604
129 -549 2627
136 -546 2609
144 -547 2612
151 -544 2601
160 -550 2627
168 -550 2627
175 -549 2622
181 -544 2597
191 -550 2627
198 -547 2611
204 -544 2596
212 -545 2600
221 -549 2618
228 -547 2608
235 -546 2602
244 -549 2615
250 -546 2598
261 -552 2629
266 -548 2607
273 -546 2596
284 -552 2626
289 -548 2605
298 -550 2616
305 -548 2605
313 -550 2612
322 -551 2617
323 -541 2566
337 -551 2614
342 -547 2593
350 -548 2599
359 -549 2602
364 -546 2584
373 -549 2597
380 -547 2586
389 -549 2596
398 -551 2604
406 -552 2606
412 -549 2593
419 -549 2592
430 -553 2612
433 -548 2583
441 -548 2584
448 -547 2578
458 -550 2588
459 -542 2550
469 -545 2565
481 -550 2586
486 -547 2570
493 -547 2569
499 -545 2560
507 -545 2557
514 -545 2554
522 -545 2557
530 -546 2555
537 -545 2552
544 -545 2550
549 -542 2537
562 -548 2561
566 -544 2542
577 -547 2554
586 -549 2559
589 -545 2540
594 -542 2524
607 -547 2546
611 -544 2533
622 -547 2544
627 -545 2530
637 -547 2538
638 -541 2510
652 -547 2536
655 -543 2517
661 -542 2509
668 -542 2505
680 -545 2520
689 -546 2523
696 -546 2522
706 -548 2527
717 -551 2539
719 -546 2515
726 -546 2513
733 -545 2507
741 -546 2509
747 -545 2500
753 -544 2493
761 -544 2494
767 -543 2486
769 -539 2466
777 -540 2466
769 -529 2414
774 -528 2406
766 -517 2358
764 -511 2328
769 -510 2318
765 -503 2284
767 -499 2266
763 -492 2232
767 -491 2223
763 -483 2189
764 -480 2171
768 -478 2161
765 -473 2134
769 -471 2122
767 -466 2099
774 -466 2096
777 -464 2086
771 -457 2050
775 -455 2042
780 -454 2036
790 -457 2044
794 -455 2036
807 -459 2051
814 -460 2051
865 -485 2160
904 -503 2239
946 -523 2323
970 -532 2361
981 -534 2368
993 -537 2375
1003 -538 2380
1018 -543 2395
1022 -541 2384
1036 -544 2396
1039 -541 2382
1044 -540 2374
1052 -541 2372
1061 -542 2373
1065 -540 2363
1066 -536 2344
1083 -542 2363
1082 -537 2341
1082 -534 2323
1105 -541 2352
1114 -542 2352
1116 -540 2338
1124 -540 2336
1137 -543 2344
1139 -540 2329
1145 -539 2324
1155 -541 2326
1169 -544 2336
1161 -537 2302
1176 -540 2314
1179 -538 2300
1182 -536 2289
1203 -543 2312
1205 -540 2299
1220 -544 2309
1224 -542 2299
1230 -541 2292
1244 -545 2302
1246 -542 2287
1252 -541 2280
1255 -539 2268
1263 -540 2266
1272 -540 2265
1278 -540 2259
1283 -539 2251
-1339 -521 2275
-1332 -521 2278
-1335 -526 2301
-1331 -527 2310
-1323 -527 2315
-1318 -528 2323
-1307 -527 2320
-1294 -525 2314
-1285 -524 2317
-1289 -529 2340
-1282 -529 2345
-1281 -532 2361
-1260 -527 2341
-1254 -527 2347
-1257 -532 2370
-1244 -529 2363
-1242 -532 2379
-1229 -530 2372
-1220 -529 2373
-1213 -530 2377
-1204 -529 2377
-1198 -530 2384
-1198 -533 2404
-1181 -529 2387
-1181 -533 2407
-1167 -530 2398
-1160 -530 2402
-1151 -530 2401
-1148 -532 2415
-1135 -529 2405
-1140 -535 2436
-1134 -536 2444
-1112 -529 2415
-1106 -530 2421
-1103 -533 2436
-1083 -527 2411
-1088 -533 2442
-1079 -532 2441
-1072 -533 2447
-1063 -532 2446
-1056 -532 2450
-1050 -533 2458
-1044 -534 2464
-1036 -534 2466
-1026 -533 2462
-1017 -532 2462
-1017 -536 2483
-1009 -536 2485
-993 -532 2468
-987 -533 2475
-979 -533 2477
-970 -532 2477
-968 -535 2491
-964 -537 2504
-952 -535 2496
-949 -537 2511
-940 -537 2510
-933 -538 2515
-926 -538 2518
-917 -537 2518
-909 -537 2518
-900 -536 2518
-894 -537 2524
-879 -533 2507
-881 -539 2537
-862 -532 2505
-862 -537 2530
-859 -540 2545
-850 -539 2544
-841 -538 2543
-830 -536 2534
-831 -542 2564
-812 -535 2531
-813 -540 2560
-805 -540 2560
-790 -535 2540
-785 -537 2549
-783 -541 2570
-771 -538 2559
-770 -543 2581
-755 -538 2559
-749 -539 2566
-744 -541 2578
-730 -537 2560
-721 -536 2558
-713 -536 2558
-710 -539 2574
-702 -539 2577
-701 -545 2604
-692 -543 2600
-684 -543 2601
-668 -537 2569
-666 -542 2596
-655 -539 2584
-649 -540 2592
-641 -540 2592
-631 -539 2585
-626 -540 2596
-621 -543 2607
-611 -541 2602
-602 -540 2597
-591 -537 2585
-591 -544 2617
-583 -544 2620
-573 -542 2610
-563 -540 2602
-560 -545 2626
-552 -544 2625
-539 -539 2599
-537 -545 2632
-527 -543 2620
-521 -545 2631
-510 -541 2614
-504 -543 2626
-493 -540 2609
-489 -544 2633
-480 -542 2624
-475 -546 2641
-467 -545 2641
-457 -543 2629
-452 -546 2646
-444 -546 2644
-437 -547 2653
-432 -551 2670
-422 -547 2653
-414 -548 2659
-405 -546 2650
-392 -540 2618
-389 -546 2650
-383 -549 2664
-373 -545 2645
-365 -546 2649
-359 -547 2658
-352 -549 2667
-341 -544 2641
-334 -545 2647
-325 -543 2639
-319 -546 2653
-311 -545 2651
-303 -545 2652
-296 -547 2659
-287 -544 2645
-279 -544 2647
-273 -547 2663
-264 -545 2654
-256 -546 2657
-248 -545 2651
-241 -547 2661
-232 -543 2644
-228 -553 2693
-218 -547 2664
-210 -546 2656
-203 -549 2674
-195 -547 2663
-186 -545 2652
-177 -541 2632
-164 -524 2551
-142 -478 2328
-128 -452 2204
-121 -450 2190
-115 -451 2195
-108 -449 2189
-102 -450 2191
-97 -456 2221
-90 -456 2223
-86 -466 2268
-82 -485 2362
-81 -521 2535
-77 -543 2643
-70 -550 2676
-63 -552 2687
-54 -547 2663
-47 -553 2692
-39 -551 2681
-32 -555 2701
-23 -550 2675
-16 -549 2669
-8 -552 2685
0 -551 2681
7 -550 2673
15 -550 2673
22 -548 2667
30 -548 2664
38 -552 2683
46 -548 2666
54 -551 2676
61 -551 2676
69 -545 2650
76 -546 2652
85 -549 2665
93 -550 2671
100 -551 2676
108 -548 2661
115 -547 2655
123 -546 2650
132 -551 2673
139 -550 2666
147 -549 2661
154 -548 2655
162 -549 2663
169 -547 2650
178 -551 2670
185 -547 2650
193 -547 2651
201 -550 2662
209 -550 2664
214 -544 2631
224 -548 2652
229 -542 2623
241 -552 2667
248 -550 2656
256 -550 2659
261 -545 2634
270 -548 2644
278 -547 2642
286 -549 2649
295 -551 2659
301 -548 2643
310 -551 2655
315 -545 2627
324 -547 2637
332 -548 2636
341 -551 2650
347 -548 2636
354 -547 2628
363 -548 2636
366 -541 2602
375 -544 2611
385 -547 2626
394 -549 2634
402 -549 2635
409 -548 2627
414 -544 2608
424 -547 2622
432 -548 2624
440 -548 2622
446 -546 2614
460 -554 2649
461 -545 2605
470 -547 2612
475 -545 2600
483 -544 2597
492 -546 2603
498 -545 2596
505 -544 2590
522 -553 2634
523 -546 2600
529 -545 2591
540 -548 2604
543 -544 2583
552 -545 2585
558 -544 2580
569 -546 2589
575 -545 2580
581 -544 2575
591 -546 2584
597 -544 2574
612 -551 2603
614 -546 2578
621 -546 2575
627 -544 2566
632 -542 2554
642 -543 2559
651 -544 2563
661 -547 2573
673 -550 2586
678 -549 2576
681 -544 2554
685 -541 2539
701 -548 2568
710 -549 2573
714 -546 2556
721 -546 2552
730 -547 2557
737 -547 2552
746 -547 2553
753 -547 2550
760 -547 2547
768 -547 2545
769 -542 2521
770 -538 2498
773 -535 2481
767 -526 2437
769 -522 2417
762 -512 2370
764 -508 2351
766 -505 2333
763 -499 2301
761 -493 2274
761 -489 2251
765 -487 2240
767 -483 2222
763 -477 2191
769 -477 2187
768 -472 2162
769 -468 2143
769 -464 2124
772 -462 2114
778 -462 2109
773 -455 2076
777 -454 2067
782 -453 2061
795 -457 2077
804 -458 2081
825 -467 2118
846 -475 2153
899 -501 2267
928 -513 2319
960 -527 2380
982 -535 2413
989 -535 2410
1006 -540 2430
1006 -536 2408
1025 -542 2433
1032 -542 2429
1029 -537 2402
1050 -544 2430
1050 -540 2410
1057 -540 2405
1065 -540 2404
1073 -540 2402
1077 -538 2390
1077 -535 2372
1097 -541 2396
1107 -542 2396
1112 -541 2388
1118 -540 2383
1123 -539 2373
1142 -544 2393
1141 -541 2374
1149 -541 2371
1153 -539 2360
1172 -545 2381
1165 -538 2347
1174 -539 2347
1190 -543 2361
1190 -539 2342
1194 -538 2333
1203 -539 2332
1206 -536 2318
1229 -543 2345
1221 -537 2313
1237 -540 2324
1251 -543 2333
1252 -540 2317
1247 -535 2291
1276 -544 2326
1278 -542 2313
1286 -542 2310
1289 -540 2297
1288 -537 2279
1310 -543 2301
-1370 -526 2328
-1368 -528 2343
-1347 -523 2323
-1342 -524 2332
-1333 -524 2334
