VERSION 0.7
FIELDS x y z
SIZE 4 4 4
TYPE I I I
COUNT 1 1 1
WIDTH 3263
HEIGHT 1
VIEWPOINT 0.0 0.0 0.0 1.0 0.0 0.0 0.0
POINTS 3263
DATA ascii
-635 -540 2406
-625 -538 2399
-617 -537 2396
-614 -541 2414
-611 -545 2432
-601 -543 2424
-589 -538 2404
-582 -539 2408
-577 -540 2417
-568 -539 2412
-564 -542 2428
-552 -538 2409
-549 -542 2428
-540 -539 2418
-535 -542 2429
-523 -537 2409
-520 -542 2433
-511 -540 2424
-505 -541 2430
-497 -540 2428
-493 -543 2443
-483 -541 2434
-478 -543 2443
-467 -539 2425
-464 -544 2450
-455 -543 2443
-447 -541 2437
-440 -542 2441
-436 -545 2457
-427 -544 2452
-418 -542 2443
-413 -544 2455
-405 -543 2449
-397 -542 2445
-391 -544 2456
-385 -545 2461
-376 -543 2453
-369 -543 2453
-359 -539 2435
-354 -543 2452
-348 -545 2463
-339 -543 2454
-335 -548 2478
-326 -544 2461
-318 -544 2459
-311 -543 2457
-303 -543 2459
-295 -541 2449
-288 -542 2452
-281 -543 2457
-275 -544 2463
-266 -541 2449
-258 -540 2446
-253 -543 2459
-246 -545 2468
-240 -546 2475
-232 -545 2471
-225 -546 2473
-218 -546 2474
-211 -547 2482
-202 -544 2464
-195 -543 2463
-189 -547 2479
-181 -545 2469
-171 -536 2429
-152 -500 2268
-132 -455 2062
-125 -451 2044
-118 -446 2025
-112 -445 2017
-107 -450 2040
-101 -452 2051
-96 -454 2059
-92 -463 2099
-87 -472 2143
-83 -481 2180
-82 -514 2332
-77 -531 2410
-72 -542 2460
-66 -549 2490
-58 -549 2490
-51 -552 2503
-44 -550 2495
-36 -547 2479
-29 -548 2482
-22 -551 2499
-15 -546 2475
-7 -548 2485
0 -550 2491
6 -552 2500
13 -549 2487
21 -553 2505
28 -550 2489
35 -550 2491
43 -549 2486
50 -546 2473
57 -546 2474
64 -549 2484
71 -547 2476
79 -548 2480
86 -547 2475
94 -551 2494
101 -550 2486
108 -549 2480
115 -546 2469
122 -549 2481
130 -551 2489
137 -551 2488
144 -548 2476
151 -549 2477
159 -549 2478
166 -550 2484
173 -549 2479
180 -547 2467
186 -545 2459
193 -545 2456
202 -548 2471
209 -548 2468
216 -547 2466
224 -551 2480
229 -545 2452
239 -550 2476
244 -545 2452
253 -549 2469
258 -546 2454
266 -547 2459
274 -548 2463
282 -549 2465
289 -549 2467
296 -548 2461
302 -546 2450
309 -547 2452
317 -547 2452
321 -542 2429
330 -545 2444
340 -550 2463
345 -547 2449
351 -545 2437
360 -548 2450
366 -546 2441
374 -547 2446
380 -545 2433
386 -544 2427
393 -543 2425
402 -546 2434
409 -545 2431
416 -545 2431
424 -547 2434
430 -545 2428
439 -547 2434
444 -545 2422
451 -545 2423
461 -548 2436
467 -546 2426
473 -545 2418
479 -544 2413
488 -545 2418
493 -544 2410
500 -544 2407
508 -544 2409
516 -546 2414
521 -543 2399
529 -544 2404
536 -544 2400
546 -547 2413
549 -542 2391
559 -546 2406
567 -546 2406
572 -544 2394
579 -545 2395
586 -544 2390
593 -544 2390
601 -545 2390
607 -544 2387
614 -544 2384
623 -546 2390
630 -545 2385
641 -549 2400
642 -543 2373
654 -548 2391
657 -544 2374
666 -545 2377
673 -546 2378
681 -546 2377
683 -542 2359
691 -543 2359
699 -544 2361
710 -547 2373
714 -544 2358
725 -547 2370
732 -547 2368
736 -545 2356
744 -546 2357
752 -546 2357
754 -543 2339
761 -542 2336
767 -541 2330
771 -540 2320
775 -537 2309
775 -533 2285
772 -526 2255
767 -518 2218
769 -514 2201
766 -508 2172
759 -499 2132
767 -500 2133
766 -496 2111
767 -492 2093
767 -488 2074
765 -482 2049
764 -478 2029
762 -473 2004
767 -472 1999
769 -469 1985
767 -465 1962
774 -465 1962
778 -464 1956
773 -457 1925
775 -455 1913
779 -454 1907
782 -452 1896
785 -451 1888
797 -454 1899
823 -466 1946
847 -476 1985
889 -496 2066
930 -515 2144
949 -522 2170
972 -531 2204
991 -538 2229
996 -536 2221
1012 -542 2240
1014 -539 2226
1017 -537 2213
1034 -542 2231
1039 -541 2224
1040 -538 2209
1051 -540 2215
1059 -540 2213
1064 -539 2205
1079 -543 2218
1080 -540 2203
1089 -541 2204
1090 -538 2188
1094 -537 2180
1102 -538 2179
1111 -539 2180
1120 -539 2179
1129 -541 2180
1138 -542 2181
1144 -541 2175
1140 -536 2152
1155 -540 2164
1161 -539 2158
1174 -542 2165
1174 -539 2148
1180 -538 2143
1189 -539 2144
1200 -541 2147
1202 -539 2135
1208 -538 2128
1215 -538 2125
-1274 -524 2156
-1263 -523 2154
-1258 -524 2162
-1249 -523 2162
-1246 -525 2173
-1246 -528 2189
-1238 -528 2192
-1226 -526 2186
-1217 -525 2187
-1205 -523 2182
-1202 -525 2193
-1202 -528 2210
-1197 -529 2217
-1174 -522 2191
-1168 -523 2196
-1169 -527 2215
-1157 -524 2209
-1160 -529 2233
-1149 -527 2227
-1147 -530 2241
-1133 -526 2230
-1126 -527 2235
-1110 -523 2221
-1116 -529 2250
-1115 -532 2265
-1100 -528 2253
-1092 -528 2255
-1085 -528 2257
-1078 -528 2262
-1075 -530 2272
-1064 -529 2269
-1069 -535 2298
-1056 -532 2288
-1050 -533 2294
-1033 -528 2275
-1029 -529 2285
-1029 -533 2302
-1012 -528 2285
-1015 -533 2311
-1006 -533 2310
-993 -530 2299
-995 -534 2322
-987 -534 2324
-988 -538 2345
-967 -531 2315
-962 -533 2325
-953 -531 2321
-947 -532 2327
-942 -533 2334
-931 -532 2330
-935 -538 2358
-921 -534 2346
-915 -535 2350
-906 -534 2347
-903 -536 2361
-891 -533 2351
-885 -535 2358
-880 -536 2365
-866 -532 2348
-864 -535 2366
-861 -538 2380
-849 -535 2370
-847 -538 2385
-832 -533 2366
-827 -535 2375
-825 -539 2393
-813 -535 2381
-802 -533 2372
-806 -540 2407
-795 -538 2398
-791 -540 2410
-781 -538 2402
-768 -534 2387
-764 -537 2401
-759 -539 2410
-754 -540 2419
-743 -538 2408
-739 -540 2421
-729 -538 2415
-720 -537 2411
-714 -538 2417
-706 -537 2414
-702 -540 2429
-691 -538 2419
-685 -538 2423
-676 -537 2419
-671 -539 2430
-665 -540 2435
-656 -539 2431
-650 -540 2438
-641 -538 2433
-634 -538 2432
-630 -542 2450
-620 -539 2439
-614 -541 2447
-609 -542 2456
-602 -543 2459
-587 -536 2429
-584 -540 2449
-578 -541 2454
-571 -541 2457
-562 -540 2451
-555 -540 2455
-553 -545 2478
-546 -546 2484
-532 -539 2454
-527 -542 2467
-521 -543 2474
-515 -544 2478
-507 -544 2479
-499 -543 2474
-491 -543 2474
-484 -543 2476
-478 -545 2486
-470 -544 2483
-465 -546 2493
-458 -547 2499
-446 -541 2473
-439 -542 2477
-433 -544 2486
-424 -542 2478
-420 -547 2500
-410 -543 2482
-404 -544 2488
-397 -544 2491
-390 -545 2495
-381 -544 2490
-371 -539 2471
-365 -541 2480
-362 -547 2507
-351 -543 2488
-348 -549 2515
-338 -545 2501
-329 -543 2490
-324 -546 2504
-317 -546 2507
-308 -544 2496
-303 -549 2520
-294 -545 2501
-287 -546 2508
-278 -543 2493
-273 -548 2516
-262 -541 2486
-257 -544 2501
-252 -549 2523
-242 -545 2504
-236 -546 2511
-228 -546 2510
-218 -541 2486
-213 -545 2504
-206 -546 2510
-199 -546 2511
-189 -540 2482
-183 -544 2502
-174 -539 2479
-158 -512 2353
-138 -468 2152
-128 -454 2090
-119 -445 2049
-115 -450 2072
-110 -455 2094
-103 -453 2083
-97 -454 2089
-92 -457 2103
-88 -471 2164
-84 -482 2216
-82 -507 2330
-79 -532 2445
-73 -545 2504
-67 -553 2541
-59 -551 2534
-52 -552 2539
-44 -550 2529
-37 -550 2526
-30 -551 2531
-22 -550 2528
-15 -552 2536
-7 -552 2538
0 -551 2530
6 -552 2537
14 -549 2524
21 -551 2530
29 -552 2536
36 -550 2528
43 -549 2521
50 -548 2514
58 -549 2522
66 -552 2532
73 -550 2524
80 -549 2521
87 -549 2518
94 -548 2511
102 -548 2511
110 -550 2522
117 -550 2520
124 -547 2509
131 -549 2514
139 -549 2513
145 -546 2499
153 -547 2506
160 -546 2498
168 -550 2516
175 -546 2500
183 -550 2518
190 -547 2502
198 -550 2514
204 -546 2495
211 -547 2497
218 -545 2488
226 -546 2494
234 -549 2506
242 -551 2514
249 -550 2510
253 -543 2477
262 -547 2492
270 -546 2490
278 -548 2497
285 -548 2495
294 -551 2507
297 -544 2474
307 -548 2493
313 -547 2486
321 -546 2484
328 -547 2486
334 -545 2476
344 -548 2489
350 -546 2480
355 -543 2463
362 -544 2466
370 -545 2469
378 -545 2470
384 -544 2463
393 -546 2474
401 -547 2474
408 -547 2474
417 -549 2480
424 -548 2478
430 -547 2470
439 -549 2477
446 -548 2474
451 -546 2461
458 -545 2458
466 -547 2462
472 -545 2456
478 -544 2447
488 -547 2460
498 -550 2470
502 -546 2455
508 -545 2448
514 -543 2438
522 -545 2443
530 -546 2445
537 -545 2440
545 -546 2442
551 -544 2436
557 -543 2430
571 -550 2455
574 -546 2435
583 -548 2443
592 -549 2449
595 -545 2429
603 -546 2432
610 -545 2427
617 -545 2424
625 -547 2429
632 -546 2426
642 -548 2431
645 -545 2416
653 -546 2417
657 -543 2402
668 -546 2416
673 -544 2405
683 -547 2414
690 -547 2412
695 -545 2401
701 -543 2394
715 -549 2416
719 -546 2402
723 -544 2390
729 -543 2383
737 -544 2386
744 -544 2383
748 -541 2369
756 -542 2371
768 -545 2384
767 -539 2356
775 -540 2357
776 -536 2337
770 -527 2294
765 -519 2257
766 -515 2239
768 -512 2223
764 -505 2190
763 -500 2166
767 -498 2156
764 -492 2128
765 -488 2109
769 -487 2101
762 -478 2061
765 -476 2051
765 -472 2031
766 -469 2016
768 -466 2002
771 -464 1991
774 -462 1981
779 -462 1976
779 -459 1960
779 -455 1942
783 -454 1935
791 -455 1938
797 -455 1934
812 -460 1954
835 -470 1992
881 -492 2086
919 -510 2158
950 -523 2212
968 -529 2233
987 -536 2259
995 -536 2258
1008 -539 2268
1009 -537 2253
1017 -537 2252
1029 -540 2260
1037 -540 2257
1051 -544 2270
1054 -542 2258
1063 -542 2258
1070 -542 2255
1068 -538 2233
1073 -537 2226
1090 -542 2242
1097 -542 2241
1095 -538 2219
1111 -542 2234
1114 -539 2220
1125 -542 2225
1132 -542 2222
1134 -539 2209
1146 -542 2215
1148 -539 2201
1156 -540 2201
1171 -543 2211
1167 -538 2187
1175 -539 2185
1189 -542 2194
1190 -539 2179
1202 -541 2185
1201 -538 2167
1203 -535 2153
1222 -541 2172
1219 -536 2150
1239 -542 2169
-1307 -531 2214
-1289 -527 2201
-1281 -526 2202
-1267 -523 2195
-1266 -526 2210
-1251 -523 2200
-1254 -527 2222
-1238 -524 2211
-1237 -527 2225
-1227 -525 2223
-1209 -521 2208
-1206 -523 2218
-1207 -526 2237
-1201 -527 2243
-1197 -528 2253
-1181 -525 2239
-1185 -530 2264
-1174 -528 2260
-1166 -528 2263
-1154 -526 2257
-1153 -529 2273
-1142 -527 2269
-1139 -529 2281
-1135 -531 2291
-1127 -530 2291
-1121 -531 2298
-1108 -528 2288
-1103 -529 2296
-1100 -532 2309
-1085 -528 2295
-1084 -531 2312
-1079 -532 2321
-1079 -536 2338
-1064 -532 2326
-1053 -530 2320
-1043 -529 2317
-1041 -532 2333
-1034 -532 2335
-1026 -532 2338
-1027 -536 2359
-1012 -532 2344
-1008 -534 2355
-994 -531 2342
-991 -533 2353
-990 -536 2372
-974 -532 2355
-974 -536 2375
-962 -534 2367
-953 -532 2364
-952 -536 2382
-937 -532 2367
-931 -532 2371
-924 -533 2376
-913 -530 2367
-912 -535 2388
-904 -534 2387
-907 -540 2416
-886 -532 2383
-880 -533 2388
-879 -537 2408
-869 -535 2404
-858 -533 2395
-866 -543 2441
-842 -533 2398
-848 -541 2437
-830 -534 2407
-829 -538 2429
-822 -538 2431
-811 -536 2423
-803 -536 2425
-801 -540 2441
-793 -539 2441
-779 -535 2423
-773 -536 2429
-768 -537 2439
-759 -536 2434
-754 -538 2446
-744 -536 2439
-738 -537 2443
-733 -539 2455
-728 -541 2464
-718 -539 2458
-710 -539 2459
-698 -535 2444
-696 -540 2464
-687 -539 2461
-681 -540 2468
-674 -539 2468
-669 -541 2478
-659 -540 2473
-648 -537 2459
-645 -540 2478
-640 -542 2488
-632 -542 2486
-624 -542 2488
-617 -542 2490
-611 -543 2497
-597 -538 2474
-594 -541 2490
-586 -541 2491
-577 -540 2486
-570 -540 2489
-566 -543 2503
-558 -543 2504
-552 -544 2509
-545 -544 2512
-535 -543 2504
-526 -541 2497
-521 -543 2509
-517 -548 2530
-506 -543 2510
-499 -544 2515
-493 -545 2522
-482 -541 2506
-474 -541 2503
-472 -548 2535
-461 -543 2517
-454 -544 2521
-448 -545 2528
-442 -548 2539
-431 -543 2519
-424 -544 2523
-417 -544 2523
-410 -545 2531
-401 -543 2520
-394 -544 2527
-383 -538 2499
-378 -541 2515
-370 -542 2517
-364 -543 2523
-358 -546 2536
-348 -542 2521
-342 -544 2528
-336 -546 2538
-327 -544 2529
-318 -541 2517
-313 -545 2536
-307 -547 2548
-298 -545 2536
-289 -542 2522
-282 -544 2532
-275 -543 2531
-268 -546 2542
-261 -547 2546
-252 -544 2533
-247 -548 2553
-238 -545 2539
-231 -546 2545
-224 -547 2547
-215 -543 2531
-209 -547 2548
-202 -547 2550
-193 -544 2536
-187 -547 2550
-178 -542 2529
-166 -529 2467
-143 -479 2233
-130 -455 2123
-122 -449 2095
-116 -449 2094
-110 -450 2101
-104 -452 2107
-99 -454 2117
-94 -461 2150
-89 -468 2181
-85 -482 2247
-82 -505 2355
-79 -528 2463
-74 -543 2531
-68 -551 2567
-60 -551 2568
-52 -549 2562
-45 -553 2579
-37 -549 2560
-30 -550 2564
-23 -552 2573
-15 -550 2563
-8 -551 2568
0 -551 2566
6 -550 2564
14 -548 2554
21 -552 2570
29 -551 2565
36 -550 2562
44 -549 2556
51 -551 2565
58 -546 2542
66 -552 2569
74 -551 2563
81 -546 2542
88 -549 2553
96 -551 2561
104 -551 2560
111 -549 2551
119 -554 2577
125 -547 2540
133 -548 2547
141 -549 2549
148 -548 2546
156 -551 2560
163 -547 2541
171 -551 2556
180 -554 2571
185 -547 2536
192 -548 2540
201 -551 2552
208 -549 2546
215 -549 2543
221 -545 2523
230 -548 2537
236 -546 2526
243 -545 2521
253 -551 2548
258 -546 2527
266 -546 2523
275 -549 2538
279 -544 2513
289 -548 2531
297 -550 2540
304 -549 2532
310 -546 2521
315 -543 2502
325 -547 2521
333 -547 2520
341 -549 2530
348 -547 2520
352 -543 2500
362 -547 2514
368 -545 2508
376 -545 2507
384 -546 2509
388 -542 2491
401 -549 2521
408 -549 2519
414 -547 2508
421 -547 2507
430 -549 2515
437 -549 2514
443 -547 2504
449 -545 2493
454 -542 2478
463 -544 2487
471 -545 2491
482 -550 2509
485 -545 2486
493 -545 2487
504 -549 2500
507 -544 2479
514 -544 2476
524 -547 2488
528 -544 2472
536 -544 2473
549 -550 2497
552 -546 2477
561 -547 2481
566 -545 2469
571 -543 2460
585 -549 2484
587 -543 2459
598 -547 2475
604 -547 2469
613 -547 2471
618 -546 2463
624 -545 2455
637 -549 2474
644 -549 2473
650 -548 2466
656 -547 2459
662 -546 2452
669 -546 2450
677 -546 2448
684 -546 2446
695 -549 2457
696 -544 2432
707 -547 2444
711 -544 2429
721 -546 2438
727 -545 2433
737 -547 2437
743 -546 2431
747 -544 2419
756 -545 2424
760 -543 2409
765 -541 2400
771 -540 2395
778 -540 2391
769 -529 2341
768 -523 2312
767 -518 2287
764 -511 2256
766 -508 2238
763 -501 2208
769 -501 2203
768 -496 2179
762 -488 2142
763 -485 2125
768 -484 2120
765 -477 2089
770 -477 2084
765 -469 2051
769 -468 2044
771 -466 2031
770 -461 2009
776 -461 2007
778 -459 1994
782 -457 1985
781 -454 1966
790 -455 1969
795 -454 1965
808 -459 1980
838 -472 2037
876 -490 2111
913 -507 2182
947 -522 2242
981 -537 2304
992 -539 2311
999 -539 2308
1010 -541 2313
1006 -535 2286
1023 -540 2303
1030 -540 2300
1037 -540 2297
1046 -541 2297
1056 -543 2301
1055 -539 2281
1062 -538 2276
1075 -541 2286
1079 -540 2275
1093 -543 2286
1092 -539 2267
1104 -542 2274
1105 -538 2258
1110 -537 2250
1115 -537 2243
1124 -537 2242
1134 -539 2244
1146 -541 2251
1150 -539 2241
1157 -539 2238
1152 -534 2210
1176 -541 2239
1173 -537 2216
1182 -538 2217
1186 -536 2207
1191 -536 2200
1202 -537 2204
1209 -537 2199
1224 -541 2211
1222 -537 2190
1235 -539 2197
1239 -538 2188
1237 -534 2167
-1314 -527 2229
-1304 -525 2228
-1289 -522 2218
-1272 -519 2206
-1281 -525 2238
-1273 -525 2241
-1272 -528 2255
-1269 -529 2266
-1247 -523 2244
-1251 -528 2269
-1243 -528 2271
-1232 -526 2267
-1218 -524 2259
-1206 -522 2254
-1204 -524 2268
-1209 -529 2294
-1200 -529 2294
-1189 -527 2291
-1180 -527 2292
-1175 -528 2299
-1168 -528 2303
-1164 -530 2313
-1157 -530 2318
-1147 -529 2316
-1153 -535 2346
-1134 -530 2325
-1132 -532 2340
-1129 -535 2353
-1107 -527 2325
-1095 -526 2319
-1099 -531 2345
-1096 -533 2359
-1076 -527 2334
-1077 -531 2355
-1070 -532 2360
-1062 -531 2362
-1055 -532 2366
-1050 -533 2373
-1037 -530 2364
-1042 -536 2394
-1025 -532 2376
-1024 -535 2393
-1011 -532 2384
-1007 -534 2394
-990 -529 2374
-995 -536 2406
-983 -533 2397
-970 -530 2387
-967 -533 2401
-972 -540 2435
-958 -536 2420
-947 -534 2415
-935 -532 2405
-935 -536 2426
-924 -534 2421
-922 -537 2436
-917 -539 2445
-905 -536 2435
-897 -536 2437
-899 -541 2464
-876 -532 2424
-875 -536 2445
-865 -535 2440
-861 -537 2450
-848 -534 2439
-847 -538 2460
-839 -537 2459
-833 -538 2465
-824 -537 2463
-810 -533 2447
-805 -535 2456
-801 -537 2469
-797 -540 2482
-785 -536 2468
-784 -541 2493
-774 -540 2486
-764 -538 2481
-758 -539 2486
-755 -542 2502
-741 -538 2485
-725 -531 2455
-731 -541 2504
-716 -536 2478
-714 -540 2499
-703 -537 2490
-696 -538 2495
-690 -539 2501
-683 -539 2502
-674 -538 2499
-675 -545 2532
-660 -539 2506
-653 -539 2509
-645 -540 2511
-639 -540 2515
-627 -537 2502
-623 -539 2514
-618 -542 2529
-608 -540 2518
-600 -540 2519
-591 -538 2514
-582 -537 2510
-582 -544 2542
-572 -542 2532
-569 -546 2552
-556 -541 2531
-553 -545 2552
-543 -543 2541
-532 -540 2529
-529 -545 2552
-525 -548 2569
-513 -543 2546
-505 -542 2544
-500 -546 2561
-488 -541 2541
-484 -545 2558
-474 -542 2547
-468 -544 2558
-459 -542 2549
-452 -542 2551
-446 -544 2560
-438 -545 2563
-430 -544 2559
-421 -543 2554
-418 -548 2578
-411 -548 2582
-399 -543 2557
-394 -547 2575
-388 -549 2589
-380 -548 2581
-366 -539 2541
-363 -546 2576
-357 -548 2586
-350 -548 2587
-339 -543 2564
-332 -545 2574
-323 -543 2562
-317 -545 2572
-311 -547 2584
-302 -545 2574
-295 -546 2581
-286 -543 2567
-279 -545 2573
-273 -547 2585
-265 -548 2588
-256 -543 2567
-249 -545 2577
-243 -548 2592
-233 -544 2572
-226 -545 2578
-217 -541 2560
-213 -549 2595
-205 -548 2591
-197 -548 2592
-190 -550 2599
-182 -548 2592
-170 -534 2526
-150 -494 2336
-134 -463 2191
-124 -450 2130
-117 -448 2118
-112 -451 2134
-106 -452 2137
-100 -454 2148
-94 -455 2153
-90 -466 2203
-85 -478 2260
-81 -492 2326
-80 -526 2489
-75 -545 2580
-68 -550 2600
-61 -554 2618
-53 -547 2586
-46 -549 2598
-38 -550 2601
-31 -555 2626
-23 -551 2606
-15 -550 2598
-8 -554 2618
0 -552 2611
7 -550 2601
14 -552 2606
22 -550 2596
29 -551 2604
37 -548 2590
45 -554 2614
52 -550 2598
60 -549 2594
67 -550 2594
75 -549 2590
82 -546 2576
90 -549 2591
97 -548 2585
105 -548 2583
113 -551 2600
120 -548 2583
127 -549 2585
135 -547 2579
142 -548 2583
150 -548 2582
158 -551 2593
165 -549 2584
173 -549 2586
181 -550 2589
189 -551 2592
195 -549 2580
203 -549 2579
209 -545 2560
216 -544 2557
225 -547 2568
232 -545 2561
241 -551 2585
248 -548 2570
255 -547 2565
265 -553 2592
269 -546 2561
276 -545 2553
287 -551 2582
292 -546 2557
300 -546 2559
308 -549 2569
315 -547 2558
323 -547 2561
331 -549 2567
341 -553 2582
345 -547 2556
351 -545 2543
360 -547 2555
368 -548 2558
377 -550 2566
383 -548 2553
387 -544 2534
399 -549 2559
404 -547 2545
415 -551 2562
419 -546 2539
427 -547 2542
432 -544 2529
440 -545 2529
453 -551 2558
456 -547 2536
463 -546 2531
471 -546 2532
482 -551 2551
488 -549 2541
495 -548 2537
499 -544 2515
508 -546 2524
517 -547 2529
519 -542 2501
531 -546 2522
541 -549 2533
543 -544 2508
554 -547 2521
561 -547 2519
572 -551 2533
575 -546 2510
581 -545 2502
590 -546 2507
595 -544 2497
602 -544 2493
611 -545 2496
617 -544 2491
624 -543 2486
630 -542 2480
640 -544 2487
645 -542 2477
660 -548 2502
666 -548 2498
671 -545 2484
678 -546 2484
684 -544 2475
693 -545 2480
697 -543 2464
711 -548 2487
718 -548 2483
729 -551 2494
730 -546 2471
736 -544 2462
744 -545 2464
757 -549 2480
758 -545 2457
765 -544 2452
773 -545 2453
773 -539 2427
772 -533 2398
769 -526 2364
764 -518 2325
765 -514 2304
764 -509 2278
767 -506 2266
765 -500 2237
765 -496 2216
762 -489 2184
763 -486 2167
761 -480 2139
764 -478 2129
764 -474 2108
769 -474 2103
764 -467 2070
772 -468 2073
773 -464 2055
775 -462 2042
775 -458 2023
783 -459 2026
781 -455 2003
785 -453 1993
782 -448 1970
805 -458 2010
827 -467 2047
872 -488 2138
908 -505 2208
946 -522 2282
968 -530 2314
988 -537 2342
998 -539 2346
1014 -544 2364
1023 -545 2364
1024 -541 2346
1030 -541 2342
1041 -542 2346
1046 -541 2338
1055 -542 2339
1053 -537 2314
1061 -538 2313
1073 -540 2321
1074 -537 2304
1094 -543 2327
1097 -542 2317
1102 -540 2308
1108 -540 2302
1113 -539 2294
1121 -539 2291
1139 -544 2311
1137 -540 2289
1139 -537 2273
1151 -539 2280
1158 -539 2277
1161 -537 2263
1174 -540 2272
1184 -541 2273
1195 -543 2278
1196 -540 2261
1204 -540 2259
1199 -535 2233
1206 -535 2230
1227 -541 2250
1230 -539 2239
1233 -538 2228
1244 -539 2231
1249 -538 2224
1255 -538 2218
1268 -540 2224
-1323 -522 2245
-1319 -524 2254
-1307 -522 2251
-1316 -529 2283
-1291 -522 2256
-1280 -520 2255
-1291 -528 2291
-1272 -523 2273
-1272 -526 2291
-1269 -528 2302
-1248 -523 2281
-1244 -524 2292
-1240 -526 2302
-1233 -526 2305
-1230 -528 2317
-1218 -526 2313
-1219 -530 2332
-1196 -523 2306
-1192 -524 2316
-1203 -533 2356
-1199 -534 2366
-1181 -530 2349
-1170 -528 2345
-1163 -529 2350
-1158 -530 2359
-1140 -525 2341
-1151 -534 2381
-1134 -529 2364
-1133 -532 2382
-1128 -534 2391
-1108 -528 2366
-1110 -532 2391
-1097 -530 2380
-1088 -529 2382
-1086 -532 2396
-1070 -528 2381
-1078 -535 2418
-1066 -534 2412
-1064 -536 2426
-1047 -531 2407
-1033 -528 2397
-1032 -532 2414
-1026 -533 2421
-1024 -535 2436
-1016 -535 2437
-1005 -533 2431
-999 -534 2439
-997 -537 2454
-985 -535 2447
-971 -532 2434
-973 -537 2461
-959 -533 2446
-960 -538 2470
-948 -536 2461
-943 -537 2470
-926 -532 2448
-919 -532 2452
-924 -540 2489
-909 -535 2471
-904 -537 2481
-895 -536 2478
-890 -538 2489
-884 -539 2494
-871 -536 2483
-859 -533 2471
-856 -536 2488
-846 -534 2481
-840 -535 2488
-838 -539 2506
-824 -535 2490
-826 -541 2520
-817 -540 2518
-814 -543 2534
-796 -537 2505
-799 -544 2540
-788 -542 2532
-774 -538 2515
-760 -533 2495
-762 -540 2528
-755 -540 2530
-747 -540 2532
-729 -533 2499
-730 -539 2530
-722 -538 2530
-715 -539 2535
-710 -541 2543
-696 -536 2522
-690 -538 2531
-687 -541 2548
-673 -536 2527
-670 -540 2547
-667 -543 2564
-655 -540 2550
-646 -539 2545
-650 -549 2592
-636 -543 2568
-626 -542 2563
-617 -541 2559
-606 -538 2547
-601 -540 2558
-598 -544 2577
-591 -544 2581
-579 -541 2564
-572 -541 2567
-563 -540 2562
-558 -543 2579
-547 -539 2562
-541 -541 2572
-535 -542 2579
-529 -544 2589
-519 -542 2580
-514 -545 2593
-504 -543 2585
-493 -539 2568
-490 -543 2589
-479 -540 2576
-478 -547 2609
-463 -539 2572
-460 -545 2598
-451 -544 2595
-449 -551 2629
-436 -544 2598
-428 -543 2594
-417 -540 2578
-415 -547 2614
-405 -544 2598
-399 -546 2611
-390 -543 2599
-382 -543 2597
-374 -543 2597
-369 -547 2617
-362 -548 2621
-351 -544 2602
-343 -542 2593
-337 -546 2613
-331 -547 2621
-322 -546 2617
-315 -547 2621
-305 -543 2600
-300 -549 2629
-290 -543 2604
-283 -544 2609
-275 -543 2605
-267 -544 2607
-262 -548 2628
-252 -544 2610
-246 -549 2632
-238 -548 2626
-230 -547 2624
-223 -549 2631
-216 -549 2633
-206 -544 2612
-199 -546 2618
-192 -547 2623
-183 -543 2604
-173 -536 2574
-158 -513 2460
-136 -462 2218
-127 -456 2187
-120 -451 2166
-114 -454 2180
-108 -453 2176
-101 -451 2167
-96 -458 2197
-90 -460 2210
-86 -472 2265
-83 -497 2383
-81 -529 2538
-76 -543 2603
-70 -552 2649
-62 -553 2651
-54 -554 2659
-46 -548 2629
-39 -551 2641
-31 -553 2652
-23 -550 2639
-16 -552 2647
-8 -552 2645
0 -553 2653
7 -550 2637
14 -547 2624
22 -551 2641
30 -554 2656
38 -552 2646
45 -548 2624
53 -550 2633
60 -547 2619
68 -547 2622
76 -552 2644
83 -549 2629
91 -550 2634
99 -551 2636
107 -551 2635
114 -548 2620
122 -551 2634
129 -547 2616
136 -547 2613
145 -549 2623
151 -545 2605
159 -546 2607
168 -551 2630
176 -551 2632
183 -550 2623
190 -547 2613
197 -547 2608
207 -552 2633
213 -547 2608
221 -549 2618
228 -548 2610
237 -549 2618
244 -549 2617
253 -552 2626
257 -544 2589
269 -553 2630
273 -546 2599
282 -549 2613
287 -543 2582
296 -546 2593
304 -546 2595
310 -545 2586
321 -551 2615
326 -547 2593
334 -546 2590
341 -546 2587
349 -546 2586
359 -550 2607
367 -550 2604
373 -548 2592
381 -548 2594
388 -547 2588
396 -548 2592
402 -547 2584
408 -544 2570
414 -542 2558
425 -547 2581
427 -540 2546
439 -545 2570
447 -546 2571
452 -542 2554
462 -545 2566
472 -549 2581
476 -545 2561
491 -553 2597
490 -543 2553
499 -545 2557
506 -544 2555
516 -547 2565
521 -544 2551
532 -548 2565
535 -543 2541
544 -545 2550
550 -543 2538
562 -547 2558
565 -543 2537
577 -547 2553
581 -544 2538
591 -546 2547
599 -547 2549
605 -545 2538
608 -541 2517
617 -543 2523
631 -548 2546
633 -543 2522
641 -544 2525
648 -544 2521
660 -548 2537
668 -548 2537
669 -542 2509
684 -548 2535
687 -545 2517
699 -548 2531
704 -546 2520
712 -547 2519
718 -545 2511
726 -546 2513
736 -548 2518
741 -546 2507
750 -547 2512
753 -544 2495
762 -545 2496
770 -545 2495
772 -541 2476
774 -538 2457
773 -532 2429
764 -521 2375
764 -516 2350
764 -511 2328
764 -506 2303
762 -500 2274
763 -496 2254
762 -491 2229
763 -488 2209
763 -484 2189
764 -480 2170
769 -479 2163
764 -472 2130
771 -472 2128
772 -469 2111
774 -466 2098
775 -463 2080
780 -462 2075
776 -456 2045
780 -455 2036
792 -458 2049
792 -454 2030
805 -458 2045
819 -463 2063
859 -482 2145
914 -509 2263
949 -525 2330
962 -528 2342
988 -538 2383
1006 -544 2406
1006 -540 2386
1017 -542 2391
1022 -540 2383
1025 -538 2370
1026 -535 2353
1041 -539 2368
1054 -542 2377
1059 -541 2369
1066 -540 2364
1069 -538 2351
1082 -541 2360
1086 -539 2350
1089 -537 2339
1095 -537 2332
1103 -537 2330
1107 -535 2319
1122 -539 2332
1127 -538 2323
1128 -535 2308
1136 -535 2305
1138 -533 2291
1161 -540 2319
1167 -540 2314
1181 -543 2323
1176 -537 2296
1189 -540 2303
1183 -533 2273
1205 -540 2298
1219 -543 2306
1221 -541 2293
1223 -538 2279
1232 -539 2278
1233 -537 2264
1246 -539 2270
1248 -537 2257
1267 -542 2274
1271 -540 2265
1278 -540 2259
1287 -541 2258
-1334 -520 2266
-1345 -527 2301
-1334 -525 2299
-1326 -525 2303
-1328 -529 2323
-1304 -522 2298
-1287 -519 2286
-1298 -526 2322
-1292 -527 2329
-1283 -527 2330
-1271 -525 2326
-1259 -523 2320
-1263 -528 2346
-1245 -524 2330
-1240 -525 2338
-1233 -525 2343
-1233 -528 2361
-1230 -530 2373
-1218 -529 2369
-1212 -529 2375
-1208 -531 2385
-1198 -530 2385
-1198 -533 2403
-1177 -527 2380
-1177 -531 2398
-1171 -532 2406
-1148 -525 2377
-1155 -531 2410
-1150 -533 2419
-1149 -536 2437
-1138 -535 2433
-1130 -534 2434
-1101 -524 2392
-1102 -528 2413
-1097 -530 2423
-1100 -535 2449
-1091 -534 2448
-1079 -532 2443
-1074 -534 2452
-1063 -532 2446
-1061 -535 2463
-1056 -536 2472
-1044 -534 2465
-1031 -532 2455
-1027 -534 2467
-1016 -531 2459
-1011 -533 2469
-1009 -536 2485
-1003 -537 2492
-995 -537 2495
-995 -541 2517
-975 -534 2488
-968 -535 2492
-970 -541 2521
-952 -535 2495
-939 -532 2485
-941 -537 2512
-933 -537 2513
-925 -537 2515
-916 -536 2515
-906 -535 2510
-896 -534 2507
-895 -538 2527
-889 -539 2533
-886 -542 2550
-871 -537 2531
-865 -538 2538
-858 -539 2544
-855 -542 2560
-842 -539 2545
-834 -539 2546
-825 -538 2544
-817 -538 2547
-810 -538 2551
-799 -536 2543
-796 -540 2560
-785 -537 2550
-773 -534 2538
-776 -542 2575
-764 -539 2564
-758 -540 2571
-750 -540 2570
-743 -541 2576
-737 -542 2585
-730 -543 2589
-712 -535 2552
-713 -541 2585
-699 -537 2566
-694 -539 2576
-686 -539 2577
-685 -544 2605
-675 -542 2596
-662 -538 2579
-657 -540 2590
-644 -536 2572
-642 -541 2597
-640 -546 2619
-630 -544 2611
-620 -542 2604
-609 -539 2593
-600 -538 2589
-603 -548 2635
-597 -549 2644
-582 -543 2614
-571 -540 2600
-564 -541 2608
-554 -539 2598
-553 -545 2629
-544 -544 2627
-531 -539 2602
-528 -544 2626
-521 -544 2630
-509 -541 2612
-503 -542 2619
-498 -546 2638
-489 -544 2632
-480 -542 2624
-474 -544 2635
-463 -541 2619
-457 -543 2631
-451 -545 2637
-444 -546 2647
-437 -547 2650
-429 -547 2651
-418 -542 2629
-412 -544 2640
-405 -546 2648
-396 -545 2642
-391 -549 2664
-381 -545 2646
-373 -545 2646
-363 -542 2634
-357 -544 2642
-350 -545 2648
-341 -544 2642
-337 -549 2669
-327 -546 2655
-318 -544 2646
-309 -543 2638
-306 -550 2675
-296 -547 2658
-288 -546 2657
-279 -544 2645
-272 -545 2653
-266 -550 2674
-256 -544 2649
-250 -549 2671
-241 -547 2664
-233 -546 2660
-226 -548 2665
-219 -549 2674
-209 -544 2647
-200 -542 2636
-194 -544 2650
-186 -545 2653
-178 -544 2649
-163 -522 2543
-142 -475 2315
-129 -457 2226
-120 -447 2177
-116 -454 2211
-109 -451 2199
-103 -453 2209
-97 -459 2238
-92 -464 2262
-86 -470 2288
-83 -489 2382
-82 -523 2545
-77 -541 2636
-70 -546 2657
-63 -550 2679
-55 -548 2669
-47 -550 2679
-39 -555 2700
-31 -545 2651
-23 -551 2680
-15 -545 2653
-8 -552 2684
0 -554 2695
7 -547 2663
15 -549 2670
22 -551 2681
30 -554 2692
38 -547 2660
46 -549 2670
53 -547 2657
61 -550 2675
69 -551 2678
77 -550 2673
84 -545 2647
93 -551 2675
99 -544 2642
108 -549 2665
116 -549 2665
123 -547 2656
132 -551 2674
139 -547 2655
147 -548 2659
155 -551 2672
161 -544 2639
170 -548 2653
177 -545 2641
185 -546 2646
194 -550 2662
200 -545 2640
208 -548 2652
218 -552 2670
224 -549 2655
231 -547 2645
239 -547 2646
245 -543 2625
255 -548 2647
261 -544 2627
272 -551 2660
278 -547 2642
286 -548 2644
297 -555 2676
301 -548 2640
309 -548 2642
316 -547 2636
325 -549 2644
332 -548 2637
338 -545 2621
347 -548 2635
355 -547 2631
364 -550 2643
367 -542 2604
377 -546 2622
386 -548 2630
392 -546 2619
397 -542 2601
410 -549 2634
415 -545 2614
422 -545 2610
430 -545 2610
441 -549 2629
446 -546 2611
455 -547 2616
463 -548 2619
470 -548 2616
477 -547 2609
486 -548 2616
489 -543 2590
502 -548 2613
505 -544 2591
516 -547 2606
524 -547 2603
528 -544 2585
536 -544 2587
546 -547 2598
558 -551 2617
557 -542 2573
567 -545 2584
576 -546 2589
580 -543 2570
589 -544 2574
600 -547 2588
607 -547 2584
616 -547 2585
619 -544 2567
632 -548 2585
636 -545 2570
647 -548 2580
653 -547 2574
659 -545 2564
667 -546 2565
678 -548 2575
684 -547 2566
693 -548 2571
696 -545 2553
708 -548 2564
715 -547 2560
718 -544 2544
730 -547 2555
739 -548 2560
742 -545 2540
750 -545 2538
759 -546 2543
765 -545 2537
766 -540 2510
770 -538 2498
771 -533 2475
769 -527 2441
766 -520 2408
765 -514 2378
764 -509 2352
763 -503 2323
767 -501 2312
768 -498 2294
763 -490 2256
765 -487 2240
765 -482 2216
765 -478 2197
765 -474 2175
771 -474 2171
770 -469 2148
773 -467 2136
776 -464 2123
779 -462 2111
777 -458 2088
775 -453 2063
784 -454 2068
790 -454 2064
798 -455 2067
819 -463 2102
853 -479 2171
891 -496 2246
928 -514 2321
967 -531 2397
975 -531 2395
996 -539 2427
1018 -547 2458
1014 -541 2428
1019 -539 2420
1030 -541 2424
1030 -537 2404
1034 -536 2393
1059 -544 2429
1064 -543 2421
1063 -539 2399
1075 -541 2407
1077 -538 2390
1090 -541 2399
1092 -538 2383
1105 -541 2393
1111 -540 2386
1118 -540 2381
1117 -536 2362
1137 -542 2383
1148 -544 2387
1151 -542 2375
1149 -537 2351
1164 -541 2364
1178 -544 2374
1174 -539 2347
1177 -536 2334
1196 -542 2354
1214 -547 2371
1208 -541 2342
1212 -539 2330
1221 -540 2330
1229 -540 2327
1249 -545 2346
1250 -543 2331
1239 -535 2293
1264 -542 2323
1253 -534 2284
1269 -538 2296
1275 -537 2289
1284 -538 2289
1301 -542 2302
1296 -537 2275
-1353 -519 2299
-1348 -520 2307
-1345 -522 2320
-1338 -523 2326
-1348 -529 2360
-1329 -525 2343
-1329 -528 2362
-1319 -527 2361
-1301 -523 2347
-1292 -522 2347
-1292 -526 2366
-1302 -533 2401
-1283 -529 2385
-1273 -528 2385
-1273 -531 2402
-1256 -527 2389
-1244 -526 2385
-1248 -530 2410
-1234 -528 2401
-1226 -528 2404
-1227 -531 2424
-1212 -528 2414
-1218 -534 2445
-1197 -528 2421
-1198 -532 2442
-1193 -534 2452
-1182 -532 2448
-1179 -535 2462
-1161 -530 2443
-1151 -529 2442
-1139 -527 2435
-1142 -532 2462
-1137 -533 2471
-1129 -534 2475
-1109 -528 2451
-1117 -535 2488
-1097 -529 2463
-1087 -528 2462
-1086 -532 2480
-1083 -534 2493
-1070 -532 2485
-1058 -530 2478
-1054 -531 2488
-1040 -528 2477
-1043 -534 2507
-1033 -533 2504
-1032 -537 2523
-1031 -540 2541
-1014 -535 2523
-1005 -535 2523
-996 -534 2521
-981 -530 2506
-981 -534 2528
-976 -536 2537
-968 -536 2540
-959 -535 2538
-954 -537 2549
-949 -539 2558
-942 -539 2563
-926 -534 2543
-918 -534 2544
-918 -539 2570
-905 -536 2557
-894 -534 2550
-887 -535 2554
-882 -536 2564
-877 -538 2576
-866 -536 2568
-858 -536 2570
-852 -538 2578
-849 -540 2593
-837 -538 2584
-829 -538 2584
-815 -534 2569
-806 -533 2567
-806 -538 2592
-796 -537 2588
-785 -535 2580
-782 -538 2598
-776 -539 2605
-772 -542 2618
-757 -537 2595
-749 -537 2600
-743 -539 2608
-736 -539 2610
-728 -539 2611
-726 -543 2635
-714 -541 2623
-707 -541 2625
-701 -543 2636
-688 -538 2616
-683 -541 2630
-674 -540 2628
-669 -543 2641
-662 -543 2644
-654 -543 2644
-644 -541 2638
-634 -540 2632
-621 -535 2611
-624 -545 2658
-616 -544 2658
-602 -539 2634
-599 -544 2657
-590 -542 2651
-582 -543 2653
-574 -542 2652
-566 -542 2654
-558 -543 2657
-548 -540 2644
-545 -545 2670
-536 -544 2664
-526 -542 2657
-520 -544 2668
-513 -545 2672
-502 -542 2661
-494 -542 2659
-489 -544 2672
-482 -546 2681
-472 -543 2669
-461 -540 2655
-456 -543 2672
-444 -538 2648
-439 -542 2666
-437 -550 2704
-423 -541 2664
-415 -541 2663
-412 -548 2696
-400 -542 2668
-397 -549 2705
-382 -539 2656
-378 -544 2682
-370 -545 2687
-360 -541 2668
-354 -544 2685
-344 -541 2667
-341 -549 2705
-330 -543 2680
-324 -546 2695
-316 -547 2698
-306 -543 2677
-300 -546 2696
-291 -545 2688
-285 -549 2708
-277 -547 2703
-268 -545 2692
-261 -547 2700
-252 -545 2691
-243 -543 2683
-236 -545 2693
-228 -546 2696
-222 -549 2711
-213 -546 2695
-205 -545 2694
-196 -543 2683
-189 -546 2700
-181 -546 2698
-171 -538 2660
-147 -488 2411
-131 -454 2246
-124 -455 2248
-117 -453 2239
-110 -449 2219
-104 -452 2236
-98 -457 2258
-92 -456 2254
-87 -466 2304
-82 -475 2349
-82 -516 2552
-79 -548 2706
-72 -553 2730
-63 -548 2706
-56 -553 2733
-47 -549 2711
-40 -552 2725
-32 -551 2722
-24 -546 2695
-16 -553 2730
-8 -547 2700
0 -551 2720
7 -549 2709
15 -544 2683
23 -551 2717
30 -548 2702
38 -549 2707
47 -552 2725
55 -554 2731
62 -547 2698
70 -550 2710
78 -553 2724
85 -545 2687
93 -547 2696
101 -548 2702
109 -548 2698
118 -551 2713
125 -546 2691
134 -552 2716
140 -546 2689
148 -546 2686
156 -547 2694
164 -549 2699
172 -547 2690
180 -547 2689
189 -551 2710
198 -553 2720
203 -548 2691
211 -547 2686
219 -548 2692
228 -550 2702
235 -547 2685
243 -549 2692
250 -547 2682
260 -552 2707
264 -544 2667
274 -547 2682
285 -554 2711
290 -548 2681
296 -544 2663
305 -548 2681
312 -546 2673
322 -550 2689
329 -548 2677
336 -547 2673
345 -548 2676
351 -545 2661
359 -546 2662
367 -547 2668
375 -546 2663
382 -546 2663
389 -544 2652
401 -550 2677
405 -546 2656
415 -547 2664
421 -546 2654
429 -547 2657
436 -545 2648
449 -552 2680
452 -546 2650
461 -548 2657
465 -543 2634
479 -550 2664
483 -546 2643
493 -548 2655
495 -542 2621
509 -548 2651
515 -547 2642
523 -547 2642
529 -545 2631
536 -544 2625
545 -545 2631
554 -547 2637
559 -544 2623
567 -545 2621
579 -548 2638
584 -546 2624
594 -548 2632
602 -548 2630
604 -542 2603
617 -547 2625
622 -545 2612
628 -544 2606
638 -545 2611
645 -545 2606
653 -545 2607
657 -542 2590
666 -543 2592
672 -542 2586
686 -547 2606
691 -545 2594
699 -545 2595
708 -546 2597
721 -550 2613
723 -546 2591
734 -548 2600
739 -546 2587
745 -545 2580
753 -545 2579
760 -544 2575
767 -544 2572
770 -541 2553
773 -537 2535
765 -527 2483
770 -525 2472
766 -517 2433
768 -514 2414
764 -506 2379
763 -501 2350
762 -496 2323
766 -494 2313
765 -488 2285
761 -482 2252
763 -479 2235
765 -476 2220
765 -471 2198
769 -469 2186
772 -468 2175
775 -465 2162
772 -460 2134
772 -456 2115
779 -456 2112
778 -452 2091
794 -457 2114
799 -457 2110
813 -461 2127
836 -470 2167
890 -497 2287
940 -521 2393
952 -523 2402
980 -535 2451
995 -539 2468
1004 -540 2469
1015 -541 2473
1028 -544 2485
1021 -537 2446
1032 -539 2452
1033 -535 2432
1052 -541 2457
1059 -541 2452
1069 -542 2454
1083 -545 2467
1083 -541 2445
1095 -544 2453
1095 -540 2432
1105 -541 2435
1108 -539 2421
1115 -539 2417
1136 -545 2443
1143 -545 2437
1127 -534 2384
1148 -540 2408
1154 -539 2402
1171 -543 2417
1168 -539 2393
1179 -540 2397
1192 -542 2403
1185 -536 2371
1197 -538 2375
1213 -542 2389
1213 -539 2371
1237 -546 2399
1229 -539 2366
1247 -544 2382
1241 -538 2351
1249 -538 2350
1269 -543 2368
1260 -536 2334
1273 -538 2339
1284 -540 2343
1288 -539 2332
1296 -539 2328
1318 -545 2351
1314 -540 2326
1315 -537 2311
-1378 -521 2343
-1357 -516 2325
-1375 -526 2373
-1354 -521 2354
-1353 -523 2369
-1361 -530 2402
-1330 -521 2366
-1328 -523 2380
-1326 -525 2393
-1315 -524 2391
-1315 -527 2408
-1303 -526 2406
-1314 -533 2444
-1301 -531 2438
-1283 -527 2423
-1276 -528 2429
-1277 -531 2448
-1260 -528 2435
-1262 -532 2458
-1255 -532 2462
-1241 -530 2454
-1231 -529 2454
-1224 -529 2460
-1208 -526 2446
-1204 -528 2457
-1199 -529 2465
-1204 -534 2496
-1181 -528 2467
-1175 -529 2476
-1170 -530 2484
-1155 -527 2472
-1155 -530 2492
-1154 -534 2511
-1148 -534 2516
-1139 -534 2517
-1123 -531 2504
-1120 -533 2517
-1112 -533 2521
-1109 -535 2533
-1098 -534 2529
-1088 -533 2528
-1076 -531 2521
-1070 -531 2528
-1062 -532 2531
-1058 -534 2543
-1053 -535 2552
-1041 -533 2546
-1035 -534 2554
-1036 -539 2579
-1015 -532 2548
-1017 -537 2576
-1000 -533 2556
-997 -535 2571
-977 -529 2541
-976 -532 2562
-982 -540 2600
-965 -535 2580
-965 -540 2604
-954 -538 2597
-934 -531 2568
-933 -535 2588
-932 -539 2611
-913 -533 2581
-913 -538 2606
-911 -541 2625
-893 -535 2599
-886 -536 2603
-881 -538 2615
-868 -534 2601
-866 -539 2622
-864 -542 2642
-850 -539 2626
-844 -540 2633
-838 -541 2643
-825 -538 2629
-813 -535 2616
-814 -541 2648
-806 -541 2648
-787 -534 2614
-786 -538 2639
-776 -537 2636
-769 -538 2641
-763 -539 2649
-756 -540 2654
-746 -538 2647
-741 -541 2659
-730 -538 2649
-724 -540 2659
-714 -539 2654
-708 -540 2663
-698 -538 2656
-695 -543 2679
-683 -540 2665
-676 -540 2667
-675 -545 2696
-659 -539 2667
-653 -541 2677
-649 -544 2693
-639 -542 2686
-626 -539 2668
-618 -538 2668
-612 -541 2680
-610 -546 2706
-600 -544 2697
-585 -538 2669
-581 -541 2688
-572 -540 2685
-568 -544 2703
-560 -544 2705
-547 -539 2680
-542 -542 2698
-531 -539 2685
-523 -540 2686
-519 -544 2708
-507 -540 2688
-499 -539 2685
-493 -541 2697
-488 -544 2713
-484 -549 2736
-469 -542 2702
-469 -550 2746
-456 -545 2722
-448 -545 2719
-436 -540 2698
-430 -542 2708
-423 -544 2719
-413 -541 2703
-407 -544 2718
-399 -544 2719
-391 -543 2718
-385 -547 2737
-375 -543 2718
-368 -545 2728
-360 -545 2728
-349 -541 2708
-346 -548 2745
-335 -544 2723
-328 -546 2733
-319 -544 2727
-310 -543 2718
-306 -549 2753
-297 -547 2742
-287 -545 2730
-279 -545 2729
-268 -539 2699
-265 -548 2745
-257 -548 2748
-245 -540 2710
-241 -548 2747
-231 -544 2729
-223 -544 2731
-215 -545 2732
-208 -546 2737
-198 -542 2719
-192 -546 2737
-184 -547 2745
-173 -538 2697
-157 -511 2565
-135 -464 2327
-126 -454 2277
-117 -447 2244
-112 -454 2279
-105 -451 2262
-99 -454 2278
-93 -458 2300
-88 -465 2335
-83 -475 2383
-81 -508 2546
-79 -543 2723
-71 -543 2722
-64 -547 2743
-57 -553 2772
-48 -550 2758
-40 -552 2768
-32 -548 2749
-24 -548 2749
-16 -551 2763
-8 -549 2754
0 -548 2746
7 -556 2787
15 -547 2742
23 -548 2748
31 -549 2749
39 -553 2768
47 -548 2743
55 -549 2747
64 -554 2773
71 -547 2737
80 -553 2765
87 -546 2730
95 -547 2736
103 -551 2757
110 -542 2712
118 -543 2717
127 -550 2747
135 -548 2740
142 -544 2718
152 -552 2760
159 -550 2747
166 -546 2724
175 -548 2737
183 -549 2738
190 -546 2724
198 -546 2724
206 -548 2731
215 -550 2741
223 -550 2739
230 -547 2726
238 -547 2727
244 -543 2705
254 -546 2720
263 -550 2738
270 -548 2726
279 -550 2736
284 -544 2705
291 -543 2697
301 -545 2709
310 -548 2722
317 -546 2710
321 -541 2683
334 -549 2722
344 -551 2732
349 -548 2715
356 -546 2705
364 -546 2702
373 -548 2713
382 -550 2720
389 -548 2712
398 -549 2717
403 -545 2694
413 -547 2704
418 -544 2684
427 -545 2692
436 -547 2698
441 -543 2679
449 -543 2679
461 -548 2700
468 -548 2697
476 -547 2694
484 -547 2693
490 -546 2683
503 -551 2708
506 -545 2678
516 -548 2689
518 -541 2656
536 -552 2707
534 -543 2660
544 -544 2665
548 -540 2645
560 -545 2665
568 -545 2665
580 -549 2682
584 -545 2661
595 -548 2674
597 -542 2645
605 -543 2646
618 -548 2667
621 -544 2646
633 -547 2660
639 -545 2652
656 -553 2685
654 -544 2643
665 -548 2656
669 -544 2637
676 -543 2633
685 -544 2635
695 -546 2642
698 -542 2622
713 -548 2648
721 -548 2645
730 -549 2648
735 -547 2636
748 -551 2651
753 -549 2640
753 -543 2610
758 -541 2598
764 -540 2591
772 -539 2587
777 -538 2577
771 -528 2529
766 -520 2485
767 -515 2463
762 -507 2421
766 -505 2408
764 -499 2377
762 -493 2348
762 -489 2325
764 -485 2306
766 -482 2290
767 -478 2270
766 -474 2245
767 -470 2227
772 -469 2219
770 -463 2190
774 -462 2182
776 -459 2167
772 -453 2136
776 -452 2126
784 -453 2128
792 -453 2130
815 -463 2173
840 -473 2219
889 -497 2328
924 -513 2397
957 -527 2460
981 -536 2501
1005 -545 2540
1005 -540 2516
1014 -541 2516
1020 -541 2510
1030 -542 2512
1036 -541 2505
1045 -542 2506
1059 -545 2516
1053 -538 2482
1068 -541 2496
1073 -540 2485
1080 -540 2480
1088 -540 2479
1093 -538 2469
1106 -541 2477
1118 -543 2484
1122 -541 2473
1126 -539 2461
1136 -541 2463
1145 -542 2463
1153 -542 2460
1160 -541 2455
1175 -545 2466
1179 -543 2456
1181 -540 2441
1182 -537 2423
1200 -542 2441
1211 -544 2444
1227 -547 2457
1220 -541 2424
1231 -542 2426
1240 -543 2425
1252 -545 2429
1252 -541 2411
1268 -545 2422
1269 -542 2407
1273 -540 2395
1286 -543 2401
1287 -540 2385
1310 -546 2410
1302 -540 2376
1319 -544 2389
1315 -539 2365
1330 -542 2373
1338 -542 2370
1338 -539 2353
-1414 -527 2407
-1395 -522 2392
-1392 -524 2404
-1371 -519 2385
-1371 -523 2404
-1379 -529 2436
-1353 -522 2408
-1355 -526 2429
-1344 -525 2427
-1335 -524 2430
-1324 -523 2428
-1328 -528 2452
-1321 -528 2458
-1310 -527 2457
-1302 -527 2461
-1297 -528 2470
-1278 -524 2451
-1281 -528 2476
-1273 -528 2480
-1268 -530 2489
-1255 -528 2483
-1256 -531 2505
-1247 -531 2507
-1234 -529 2500
-1235 -533 2521
-1223 -531 2517
-1228 -537 2547
-1209 -532 2527
-1198 -531 2526
-1172 -523 2489
-1184 -532 2536
-1174 -531 2534
-1169 -533 2545
-1156 -530 2536
-1150 -531 2545
-1159 -539 2585
-1135 -532 2553
-1121 -529 2542
-1119 -532 2558
-1114 -533 2567
-1115 -538 2592
-1094 -531 2565
-1095 -536 2590
-1073 -529 2558
-1071 -532 2576
-1068 -535 2590
-1061 -536 2598
-1047 -532 2585
-1041 -533 2592
-1030 -532 2588
-1025 -533 2597
-1013 -532 2591
-1014 -536 2616
-995 -531 2591
-991 -533 2603
-987 -535 2615
-989 -540 2645
-973 -536 2626
-960 -534 2616
-961 -539 2643
-948 -536 2630
-942 -537 2639
-933 -536 2638
-917 -532 2619
-916 -536 2640
-910 -537 2649
-905 -539 2661
-894 -538 2655
-882 -535 2644
-880 -539 2666
-876 -542 2681
-869 -542 2686
-852 -537 2659
-848 -539 2675
-835 -536 2661
-830 -538 2673
-823 -539 2678
-817 -541 2688
-807 -539 2682
-798 -538 2681
-782 -533 2657
-779 -537 2676
-772 -538 2682
-769 -541 2701
-762 -542 2707
-746 -537 2681
-743 -540 2698
-739 -543 2715
-722 -536 2684
-718 -540 2703
-704 -535 2681
-702 -540 2704
-692 -538 2699
-689 -542 2720
-678 -540 2712
-668 -538 2703
-659 -538 2704
-648 -536 2692
-646 -541 2718
-640 -543 2730
-631 -542 2726
-624 -542 2731
-610 -538 2710
-606 -541 2728
-595 -539 2715
-592 -544 2741
-582 -541 2732
-575 -542 2738
-571 -547 2762
-564 -548 2766
-554 -546 2758
-543 -543 2743
-533 -542 2739
-524 -540 2731
-520 -545 2757
-511 -544 2753
-497 -537 2721
-494 -543 2750
-486 -543 2750
-478 -544 2756
-470 -544 2757
-466 -549 2783
-452 -542 2746
-443 -540 2740
-441 -548 2779
-427 -541 2745
-420 -543 2753
-412 -542 2751
-406 -546 2770
-396 -543 2756
-390 -546 2772
-382 -547 2777
-374 -546 2776
-365 -545 2768
-358 -546 2777
-348 -543 2763
-342 -547 2782
-333 -546 2775
-322 -541 2753
-318 -548 2786
-308 -545 2770
-299 -544 2769
-290 -542 2758
-284 -545 2773
-277 -548 2790
-268 -547 2783
-260 -546 2781
-252 -546 2782
-243 -544 2772
-235 -545 2777
-227 -546 2782
-220 -548 2790
-209 -541 2756
-202 -544 2772
-194 -545 2774
-186 -546 2780
-176 -539 2744
-162 -519 2643
-140 -474 2416
-127 -452 2304
-120 -450 2294
-113 -450 2292
-107 -452 2301
-101 -456 2324
-93 -452 2302
-90 -467 2377
-84 -474 2413
-81 -500 2548
-81 -547 2783
-73 -545 2773
-65 -550 2803
-57 -548 2788
-49 -547 2787
-41 -549 2793
-33 -554 2820
-24 -546 2781
-16 -548 2786
-8 -551 2805
0 -549 2796
7 -549 2791
15 -548 2788
23 -551 2800
32 -550 2796
40 -553 2814
48 -551 2802
55 -545 2770
64 -549 2789
72 -548 2787
80 -546 2774
88 -547 2779
96 -548 2781
105 -551 2797
113 -549 2788
120 -545 2769
128 -544 2762
137 -549 2785
146 -551 2794
154 -551 2794
163 -556 2820
170 -550 2787
177 -546 2769
186 -550 2785
193 -546 2766
201 -546 2765
211 -550 2787
219 -550 2786
226 -549 2780
235 -552 2791
242 -548 2773
248 -543 2746
258 -549 2774
265 -545 2755
272 -543 2742
283 -550 2777
290 -547 2762
297 -545 2750
307 -549 2768
312 -544 2742
321 -546 2750
329 -546 2751
333 -539 2716
348 -550 2767
356 -551 2771
364 -550 2769
369 -546 2745
380 -550 2765
384 -544 2735
392 -543 2728
398 -542 2719
409 -545 2733
418 -546 2740
429 -550 2756
434 -547 2741
444 -549 2750
448 -544 2726
457 -545 2726
467 -547 2737
472 -544 2719
484 -549 2742
492 -548 2738
497 -545 2721
505 -545 2719
514 -547 2725
522 -546 2721
527 -543 2704
539 -548 2726
542 -542 2699
548 -540 2687
558 -543 2699
566 -543 2695
577 -545 2707
585 -545 2704
596 -548 2719
599 -544 2694
608 -545 2696
615 -544 2693
624 -545 2695
634 -547 2703
644 -548 2707
654 -550 2713
663 -551 2715
666 -547 2696
667 -541 2666
682 -547 2691
685 -543 2671
700 -548 2694
704 -546 2679
713 -546 2680
717 -543 2663
727 -544 2667
736 -545 2671
748 -548 2683
749 -543 2655
756 -543 2652
762 -541 2643
772 -543 2648
779 -542 2641
763 -526 2559
773 -528 2566
763 -515 2503
766 -512 2487
765 -506 2458
765 -502 2433
761 -495 2396
768 -495 2393
763 -486 2351
758 -479 2313
765 -479 2311
763 -473 2283
767 -471 2270
770 -469 2259
770 -465 2237
775 -464 2229
777 -461 2214
778 -457 2193
778 -454 2172
782 -452 2163
799 -458 2189
818 -465 2221
831 -469 2237
873 -489 2328
914 -508 2416
958 -528 2510
986 -540 2561
998 -542 2569
1004 -540 2560
1011 -540 2555
1024 -543 2565
1029 -541 2554
1032 -539 2541
1040 -539 2538
1061 -546 2568
1068 -545 2561
1064 -539 2529
1071 -539 2526
1083 -541 2532
1091 -541 2529
1095 -539 2516
1106 -541 2522
1126 -547 2546
1124 -542 2520
1132 -542 2518
1132 -538 2496
1152 -544 2519
1151 -540 2497
1169 -545 2515
1175 -544 2508
1184 -545 2508
1188 -543 2495
1194 -542 2489
1194 -539 2469
1199 -537 2459
1224 -545 2491
1224 -542 2472
1229 -540 2462
1227 -536 2439
1264 -549 2492
1269 -547 2483
1270 -544 2466
1277 -544 2461
1277 -541 2441
1275 -537 2419
1306 -546 2459
1298 -540 2425
1310 -542 2429
1309 -538 2410
1339 -547 2446
1329 -540 2410
1340 -541 2411
1357 -545 2424
1353 -540 2399
1368 -543 2407
-1439 -528 2450
-1427 -527 2449
-1414 -525 2444
-1415 -528 2464
-1400 -525 2455
-1395 -527 2466
-1387 -527 2470
-1383 -529 2481
-1370 -527 2476
-1356 -524 2469
-1359 -529 2494
-1344 -526 2485
-1343 -529 2502
-1323 -524 2483
-1324 -528 2505
-1304 -523 2486
-1310 -529 2515
-1305 -530 2525
-1290 -527 2515
-1285 -529 2524
-1280 -530 2534
-1275 -531 2545
-1262 -529 2537
-1240 -524 2514
-1243 -528 2539
-1250 -535 2574
-1230 -530 2553
-1231 -534 2575
-1216 -531 2565
-1203 -529 2558
-1197 -530 2565
-1179 -525 2547
-1183 -531 2576
-1172 -529 2572
-1173 -534 2597
-1149 -526 2564
-1157 -534 2604
-1149 -534 2607
-1135 -531 2597
-1127 -531 2599
-1119 -532 2604
-1118 -535 2624
-1116 -538 2642
-1092 -531 2607
-1096 -536 2638
-1085 -535 2635
-1073 -533 2627
-1059 -530 2615
-1068 -539 2661
-1063 -541 2673
-1030 -528 2612
-1040 -537 2660
-1030 -537 2658
-1009 -530 2627
-1011 -535 2657
-1005 -537 2666
-1002 -539 2681
-989 -537 2671
-975 -533 2657
-978 -540 2692
-961 -535 2668
-952 -534 2668
-954 -540 2699
-935 -534 2671
-928 -535 2677
-922 -536 2685
-918 -539 2702
-915 -542 2718
-894 -534 2683
-889 -536 2693
-888 -541 2718
-873 -537 2700
-861 -534 2688
-854 -535 2695
-853 -540 2721
-842 -538 2712
-841 -542 2738
-825 -537 2714
-820 -540 2728
-813 -540 2732
-795 -534 2701
-794 -539 2730
-784 -538 2723
-774 -537 2720
-765 -536 2719
-772 -547 2776
-754 -540 2741
-746 -540 2742
-748 -548 2784
-730 -540 2747
-720 -539 2744
-715 -542 2758
-706 -541 2756
-701 -544 2770
-684 -537 2738
-683 -542 2766
-668 -537 2742
-663 -539 2754
-652 -538 2747
-653 -545 2785
-643 -544 2781
-636 -545 2788
-626 -543 2780
-614 -541 2766
-605 -540 2763
-596 -539 2761
-592 -542 2780
-582 -541 2771
-574 -541 2773
-564 -539 2766
-559 -543 2784
-547 -540 2769
-540 -540 2775
-538 -546 2806
-531 -548 2813
-523 -549 2819
-513 -546 2808
-505 -547 2810
-495 -546 2807
-482 -540 2780
-482 -550 2829
-470 -545 2803
-454 -536 2762
-452 -543 2796
-442 -541 2785
-433 -541 2786
-428 -544 2805
-422 -547 2818
-413 -546 2815
-402 -542 2798
-394 -542 2798
-388 -546 2819
-377 -543 2800
-370 -544 2810
-362 -545 2814
-354 -545 2812
-344 -543 2804
-338 -545 2816
-332 -550 2838
-322 -547 2828
-314 -546 2823
-307 -550 2842
-298 -548 2832
-288 -545 2819
-278 -542 2800
-272 -547 2826
-263 -544 2811
-257 -549 2838
-247 -545 2818
-237 -543 2806
-232 -549 2840
-222 -544 2816
-214 -545 2818
-205 -543 2811
-197 -546 2821
-188 -543 2807
-180 -541 2800
-167 -528 2732
-147 -489 2529
-130 -455 2355
-123 -455 2353
-114 -448 2317
-108 -449 2322
-101 -449 2324
-95 -455 2353
-90 -462 2392
-84 -467 2416
-81 -489 2530
-83 -548 2833
-75 -551 2848
-66 -551 2848
-58 -549 2841
-50 -551 2848
-41 -550 2843
-33 -551 2847
-25 -547 2826
-17 -548 2834
-8 -548 2832
0 -548 2833
7 -548 2831
15 -548 2833
24 -546 2822
32 -548 2832
40 -546 2818
48 -548 2830
