VERSION 0.7
FIELDS x y z
SIZE 4 4 4
TYPE I I I
COUNT 1 1 1
WIDTH 3803
HEIGHT 1
VIEWPOINT 0.0 0.0 0.0 1.0 0.0 0.0 0.0
POINTS 3803
DATA ascii
1762 -565 4469
1766 -562 4440
1793 -566 4469
1810 -568 4472
1807 -562 4426
1829 -565 4443
1839 -564 4428
1857 -566 4434
1864 -564 4413
1879 -564 4413
1881 -561 4378
1922 -569 4438
1914 -563 4383
1914 -559 4347
1944 -564 4380
1952 -562 4362
2001 -573 4436
1985 -564 4364
2009 -567 4381
2011 -564 4350
2047 -570 4392
2050 -567 4364
2051 -564 4332
2097 -573 4394
2105 -571 4375
2113 -570 4358
2096 -562 4289
2141 -570 4347
2131 -564 4294
2157 -568 4313
2166 -566 4298
2179 -566 4289
2184 -564 4267
2225 -571 4313
2230 -569 4292
2236 -567 4271
2294 -579 4348
2274 -570 4277
2299 -573 4292
2311 -573 4282
2340 -577 4304
2315 -567 4225
2348 -572 4254
2341 -567 4210
2362 -569 4216
-36 -6 62
-8 0 14
-14 -2 24
-2470 -541 4366
-16 -2 29
-13 -2 23
-41 -8 74
-32 -6 59
-27 -5 50
-54 -11 100
-29 -5 55
-19 -3 36
-34 -7 66
-46 -9 88
-7 0 15
-54 -11 105
-36 -7 71
-44 -9 87
-18 -3 37
-12 -2 26
-22 -4 45
-21 -4 43
-14 -2 29
-2207 -547 4536
-1 0 4
-19 -4 41
-19 -4 42
-2147 -547 4552
1 1 -2
-2117 -547 4562
-25 -5 57
1 1 -1
-2077 -548 4583
-17 -3 39
-13 -2 30
-10 -2 25
-7 -1 18
2 1 -4
-1988 -547 4609
-1982 -550 4632
-3 0 9
-10 -2 26
-3 0 10
-1912 -546 4620
-3 0 10
-1891 -549 4650
1 1 -1
-1860 -548 4653
1 1 0
-3 0 10
-1 0 5
-11 -2 32
-10 -2 30
-8 -1 23
-1774 -553 4721
0 0 2
-1738 -551 4709
-1 0 8
-4 0 15
0 0 0
-3 0 14
-21 -6 63
-4 0 14
-1639 -552 4739
-15 -4 48
-1598 -548 4712
-1603 -554 4773
-1585 -553 4764
-2 0 12
-5 -1 19
-1547 -555 4791
1 0 0
-1517 -555 4793
1 1 -1
-1488 -555 4799
-1474 -555 4803
-1462 -556 4817
-1443 -554 4803
-1425 -553 4793
-1412 -554 4801
-1401 -555 4817
0 0 3
-1366 -552 4798
-1354 -553 4809
-1345 -556 4834
-1318 -551 4790
-1310 -553 4814
-1305 -558 4853
-1281 -553 4818
-1254 -548 4773
-1254 -554 4832
-1230 -550 4793
-1226 -554 4837
-1210 -554 4833
-1201 -556 4857
-1191 -558 4876
-1175 -558 4872
-1151 -553 4834
-1135 -552 4828
-1125 -554 4849
-1105 -552 4830
-1095 -554 4849
-1083 -555 4861
-1081 -562 4917
-1059 -558 4885
-1051 -561 4917
-1032 -559 4900
-1023 -562 4927
-1003 -559 4899
-993 -561 4924
-973 -558 4898
-966 -563 4936
-950 -562 4929
-926 -556 4884
-922 -563 4941
-904 -560 4920
-896 -564 4956
-871 -558 4903
-855 -557 4894
-848 -562 4937
-833 -561 4935
-819 -562 4938
-802 -560 4927
-789 -561 4935
-778 -563 4956
-762 -562 4948
-748 -563 4951
-737 -565 4975
-722 -565 4974
-703 -561 4941
-684 -558 4912
-671 -559 4919
-666 -567 4995
-647 -563 4957
-632 -563 4957
2 1 -3
-602 -562 4948
-581 -556 4897
-578 -567 4994
-558 -562 4946
-550 -568 5003
-526 -558 4914
-515 -561 4942
-504 -565 4977
-488 -563 4961
-477 -567 4994
-461 -565 4981
-445 -563 4963
-431 -564 4968
-416 -563 4962
-404 -567 4991
-391 -570 5018
-376 -569 5012
-362 -569 5008
-347 -569 5012
-332 -568 5000
2 0 2
-300 -563 4957
-289 -568 5002
-272 -563 4958
-260 -568 5000
-247 -572 5033
-228 -561 4942
-217 -571 5023
-201 -567 4987
-187 -568 4998
-170 -558 4906
0 0 0
0 0 0
0 0 0
-63 -317 2792
0 0 0
-78 -517 4546
-70 -557 4894
-57 -561 4929
-43 -568 4988
-29 -570 5007
-14 -566 4971
0 -562 4939
13 -567 4980
28 -565 4959
42 -563 4943
56 -566 4964
71 -571 5009
84 -560 4912
99 -565 4957
114 -569 4992
128 -565 4950
142 -567 4968
157 -567 4968
170 -562 4923
186 -569 4981
199 -565 4951
212 -562 4922
229 -568 4973
240 -562 4913
257 -568 4966
271 -567 4957
286 -568 4968
298 -564 4925
315 -569 4967
328 -567 4949
340 -563 4911
356 -566 4941
370 -566 4938
384 -565 4928
402 -570 4969
412 -565 4924
425 -564 4912
443 -568 4947
461 -573 4985
472 -569 4950
484 -566 4924
497 -565 4914
511 -565 4911
527 -567 4922
541 -567 4923
556 -568 4929
574 -571 4956
585 -568 4930
600 -569 4931
613 -568 4920
623 -564 4881
642 -569 4923
660 -572 4951
669 -567 4908
682 -566 4897
701 -570 4926
708 -564 4872
727 -568 4904
744 -571 4926
757 -570 4914
761 -562 4845
781 -567 4882
791 -563 4853
788 -551 4747
787 -542 4660
766 -518 4457
765 -508 4370
741 -484 4161
746 -480 4123
750 -475 4077
750 -467 4009
772 -474 4063
779 -471 4035
802 -478 4091
843 -495 4237
898 -520 4448
970 -554 4732
1000 -563 4807
1026 -570 4861
1028 -563 4803
1051 -568 4840
1068 -570 4852
1083 -570 4854
1086 -564 4799
1116 -573 4867
1116 -566 4805
1131 -566 4805
1144 -566 4799
1161 -567 4808
1172 -566 4791
1197 -571 4834
1194 -563 4762
1212 -565 4774
1225 -565 4766
1240 -565 4767
1248 -563 4742
1269 -565 4762
1293 -570 4796
1301 -567 4770
1311 -566 4755
1326 -566 4753
1334 -564 4728
1370 -573 4801
1371 -567 4752
1386 -568 4755
1380 -560 4682
1399 -562 4695
1410 -561 4682
1436 -566 4719
1448 -565 4706
1469 -568 4726
1477 -566 4703
1482 -562 4671
1512 -568 4717
1514 -564 4675
1529 -565 4677
1540 -563 4662
1554 -564 4659
1582 -569 4695
1579 -563 4641
1599 -565 4655
1604 -562 4625
1639 -569 4682
1642 -565 4646
1655 -565 4640
1663 -563 4617
1680 -564 4622
1696 -565 4623
1704 -563 4603
1723 -565 4611
1725 -561 4576
1751 -565 4603
1765 -565 4598
1764 -560 4554
1787 -564 4575
1790 -560 4541
1803 -560 4534
1835 -566 4576
1853 -567 4579
1843 -560 4516
1879 -567 4565
1881 -563 4531
1876 -557 4480
1911 -564 4525
1929 -565 4531
1950 -567 4541
1981 -572 4576
1987 -570 4553
1999 -570 4541
1997 -565 4499
2008 -564 4488
2020 -564 4479
2047 -568 4502
2067 -570 4510
2074 -568 4487
2078 -565 4462
2101 -568 4475
2119 -569 4476
2129 -568 4463
2153 -571 4478
2179 -574 4496
2173 -569 4450
2197 -571 4463
2216 -573 4467
2226 -572 4453
2261 -577 4487
2248 -570 4428
2246 -566 4389
2246 -563 4357
2309 -575 4444
2322 -575 4436
2339 -576 4435
2350 -575 4422
13 0 13
2377 -575 4406
21 -3 29
2379 -569 4345
2408 -572 4364
2436 -576 4383
2437 -573 4352
-94 -18 162
-60 -11 105
-91 -18 159
-55 -10 98
-81 -16 144
-67 -13 121
-89 -18 161
-82 -17 149
-82 -17 151
-104 -22 193
-86 -18 161
-125 -27 236
-132 -28 249
-145 -32 276
-95 -20 184
-86 -18 167
-126 -28 247
-111 -25 218
-80 -17 159
-111 -25 222
-103 -23 208
-77 -17 156
-55 -12 113
-94 -22 195
-70 -16 145
-67 -15 141
-93 -22 197
-74 -17 158
-69 -16 150
-66 -15 143
-69 -16 152
-38 -9 85
-35 -8 80
-73 -18 165
-48 -11 110
-72 -18 165
-66 -16 153
-62 -15 145
-49 -12 116
-37 -9 89
-29 -7 71
-41 -10 100
-57 -15 138
-26 -6 65
-49 -13 122
-45 -12 113
-68 -18 170
-47 -13 121
-59 -16 152
-45 -12 117
-35 -9 93
-69 -19 182
-60 -17 160
-43 -12 116
-61 -18 165
-62 -18 170
-53 -15 147
-35 -10 100
-68 -20 191
-69 -21 196
-41 -12 120
-43 -13 127
-47 -14 138
-45 -14 135
-33 -10 100
-43 -13 130
-50 -16 154
-38 -12 118
-56 -18 174
-39 -13 123
-25 -8 82
-10 -3 36
-35 -12 117
-37 -13 123
-48 -17 161
-32 -11 110
-44 -16 152
-45 -16 157
-37 -13 130
-26 -9 94
-43 -16 154
-48 -18 172
-27 -10 101
-46 -18 170
-31 -12 118
-43 -17 163
-20 -8 81
-13 -5 56
-17 -7 72
-15 -6 65
-21 -9 90
-11 -4 51
-34 -14 142
-16 -7 71
-26 -11 112
-32 -14 138
-14 -6 64
-16 -7 76
-33 -15 148
-26 -12 120
-27 -13 127
-28 -14 135
-17 -8 83
-31 -15 150
-28 -14 138
-40 -21 197
-16 -8 84
-27 -14 142
-11 -6 65
-21 -11 113
-35 -20 189
-13 -7 78
-15 -9 89
-27 -16 157
-16 -9 95
-21 -12 125
-10 -6 67
-12 -8 81
-17 -11 113
-16 -11 109
-13 -9 89
-15 -10 105
-2 -1 25
-10 -7 79
-12 -9 92
-14 -11 109
-10 -8 81
-12 -10 100
-16 -12 125
-13 -10 107
-6 -5 62
-6 -6 64
-6 -6 65
-3 -4 47
-8 -8 86
2 0 1
-17 -17 164
-6 -7 72
-3 -4 48
-12 -13 129
-12 -13 133
-2 -3 40
-11 -13 131
-7 -9 95
-7 -9 96
-5 -8 80
-3 -6 64
-4 -7 79
-8 -12 120
-4 -8 85
-1 -4 47
-2 -5 57
-8 -15 144
-6 -12 120
-7 -15 148
-3 -9 90
-4 -11 109
-1 -6 63
-4 -12 123
-1 -7 73
0 -6 65
-4 -14 140
-2 -10 107
-2 -12 125
0 -7 71
-3 -17 163
-1 -11 109
0 0 0
0 0 0
0 0 0
-64 -315 2845
0 0 0
0 0 0
-72 -552 4980
1 -8 88
2 -6 67
2 -8 80
2 -6 64
2 -2 26
3 -9 97
3 -3 41
3 -6 66
4 -12 123
4 -7 78
3 -3 44
2 0 0
5 -10 102
4 -4 52
4 -6 63
5 -7 78
5 -7 72
7 -12 116
8 -13 130
4 -3 36
3 0 1
3 0 5
5 -5 55
5 -4 51
290 -561 5030
3 0 11
318 -560 5024
8 -7 75
5 -2 32
8 -7 79
7 -6 62
9 -7 76
8 -6 62
10 -9 90
12 -10 102
3 1 -1
8 -5 61
7 -3 38
9 -6 64
11 -7 77
12 -8 86
9 -5 61
13 -9 92
4 0 12
13 -8 86
6 -1 23
608 -562 5001
15 -9 96
7 -2 27
11 -5 58
7 -2 33
14 -8 80
10 -4 51
11 -5 55
12 -5 58
11 -5 52
10 -4 48
3 0 1
8 -2 29
784 -554 4900
774 -537 4749
781 -533 4708
775 -519 4586
766 -505 4453
743 -481 4245
748 -477 4202
740 -464 4091
739 -456 4018
793 -482 4243
830 -497 4373
871 -514 4514
894 -519 4563
5 0 10
994 -561 4922
10 -3 34
18 -7 70
12 -3 40
16 -5 57
14 -4 46
22 -8 83
16 -5 54
13 -3 41
1122 -561 4893
1135 -561 4885
14 -4 43
10 -1 25
6 0 9
1197 -563 4895
1208 -562 4879
5 0 4
10 -2 25
15 -4 44
13 -3 37
1284 -564 4878
8 -1 16
1312 -564 4869
1326 -564 4865
1333 -561 4834
8 0 15
8 0 14
6 0 6
1397 -564 4843
10 -1 20
8 0 12
11 -1 24
1453 -564 4826
18 -4 46
10 -1 19
11 -1 21
6 0 6
9 -1 17
16 -3 37
5 0 3
1558 -561 4767
13 -2 25
8 0 11
1604 -562 4763
15 -2 32
4 1 -1
10 -1 16
9 0 15
1674 -562 4738
13 -2 25
33 -8 80
11 -1 17
1730 -562 4717
1745 -562 4714
25 -5 55
19 -3 37
1785 -562 4694
1791 -559 4668
24 -5 52
1817 -559 4653
1820 -555 4618
1853 -561 4661
1852 -557 4617
25 -5 49
11 -1 16
9 0 10
1920 -561 4627
2 1 -4
4 1 -1
38 -8 79
30 -6 58
23 -4 43
11 0 15
44 -10 90
4 0 0
49 -11 98
2069 -563 4588
48 -10 94
23 -4 40
57 -13 113
14 -1 19
58 -13 113
17 -2 24
12 -1 15
2178 -563 4531
24 -4 39
45 -9 82
31 -5 52
21 -3 31
14 -1 19
88 -19 165
2283 -565 4499
53 -10 94
82 -17 148
20 -2 28
43 -8 72
20 -2 28
57 -11 96
55 -11 93
104 -22 184
75 -15 128
18 -2 24
60 -11 100
35 -5 53
27 -4 39
-110 -21 191
-121 -24 212
-93 -18 163
-123 -24 218
-81 -16 144
-52 -10 94
-87 -17 158
-83 -16 151
-109 -22 201
-112 -23 207
-138 -29 258
-150 -32 283
-189 -40 358
-167 -36 320
-176 -38 339
-158 -34 306
-166 -36 324
-173 -38 341
-152 -33 302
-164 -36 328
-173 -39 349
-150 -34 305
-132 -30 270
-120 -27 248
-113 -26 236
-149 -34 312
-166 -39 351
-104 -24 223
-147 -35 315
-138 -33 298
-145 -35 316
-101 -24 223
-126 -30 281
-99 -24 222
-114 -28 257
-106 -26 243
-117 -29 269
-125 -31 290
-104 -26 243
-137 -35 322
-115 -29 273
-85 -22 205
-111 -29 268
-99 -26 242
-115 -30 282
-100 -26 249
-106 -28 265
-126 -34 317
-105 -29 269
-122 -33 312
-96 -27 251
-123 -35 322
-94 -26 248
-110 -31 294
-105 -30 284
-130 -38 352
-141 -41 386
-119 -35 329
-94 -28 264
-123 -37 346
-123 -37 349
-96 -29 277
-112 -34 324
-115 -36 335
-86 -27 256
-77 -24 230
-75 -24 227
-94 -30 287
-93 -30 288
-86 -28 270
-92 -31 290
-72 -24 229
-69 -23 223
-92 -31 297
-103 -36 336
-78 -27 259
-63 -22 212
-74 -26 253
-70 -25 242
-69 -25 239
-65 -24 230
-72 -27 257
-64 -24 230
-58 -22 214
-75 -29 277
-76 -30 284
-55 -21 210
-67 -27 256
-58 -23 226
-68 -27 264
-46 -19 184
-45 -19 184
-71 -30 288
-58 -25 240
-95 -41 393
-61 -27 259
-71 -32 303
-52 -23 228
-65 -29 284
-64 -29 283
-54 -25 246
-34 -16 160
-60 -29 277
-63 -31 297
-54 -27 258
-64 -32 308
-58 -29 283
-45 -23 227
-64 -33 321
-57 -31 295
-60 -32 312
-49 -27 259
-39 -22 214
-52 -29 285
-40 -23 227
-38 -22 218
-51 -30 292
-50 -31 296
-52 -32 311
-44 -28 269
-48 -31 295
-32 -21 207
-31 -21 207
-35 -24 236
-37 -26 252
-42 -30 286
-37 -27 260
-37 -28 269
-33 -25 242
-31 -24 236
-33 -26 257
-20 -16 166
-26 -21 211
-42 -35 341
-33 -29 278
-21 -19 189
-30 -28 268
-33 -31 300
-22 -21 209
-30 -30 288
-22 -23 228
-20 -21 211
-27 -29 283
-24 -27 263
-19 -22 218
-23 -27 267
-26 -32 308
-20 -26 252
-17 -23 223
-16 -23 227
-18 -26 254
-10 -16 160
-20 -31 301
-18 -30 292
-14 -25 247
-18 -32 307
-14 -27 261
-10 -22 218
-15 -32 305
-10 -24 237
-12 -30 294
-9 -25 241
-9 -28 269
-7 -24 234
-6 -22 220
-4 -20 197
-4 -20 199
0 0 0
0 0 0
0 0 0
0 0 0
0 0 0
0 0 0
1 -7 74
1 -14 144
0 -30 286
1 -22 217
2 -12 122
2 -19 185
3 -29 277
4 -23 226
4 -20 199
4 -16 165
6 -24 235
5 -15 155
7 -22 217
7 -22 218
8 -24 232
8 -18 183
8 -19 186
10 -24 229
10 -20 197
11 -21 207
11 -20 194
12 -22 211
14 -25 242
10 -14 142
15 -24 233
8 -9 96
14 -19 189
17 -23 225
17 -22 213
20 -26 252
19 -24 230
22 -26 252
24 -28 271
24 -27 262
24 -26 250
20 -20 195
20 -20 192
26 -26 254
21 -19 186
29 -27 263
28 -26 249
21 -18 177
10 -6 65
30 -25 243
25 -20 196
37 -31 294
28 -22 213
19 -13 132
25 -18 175
26 -18 180
31 -23 218
37 -26 252
32 -22 211
30 -20 194
35 -23 222
24 -14 144
23 -14 137
30 -18 180
10 -4 45
10 -3 41
790 -544 4939
776 -525 4762
778 -517 4686
755 -493 4471
766 -492 4456
766 -484 4381
747 -464 4196
803 -491 4439
811 -488 4408
849 -503 4541
916 -534 4823
6 0 12
28 -13 127
50 -25 233
30 -13 133
43 -20 192
42 -19 186
37 -17 161
57 -27 252
34 -14 140
38 -16 155
37 -16 152
32 -13 127
41 -17 165
41 -17 162
38 -15 147
42 -16 159
55 -23 214
49 -19 185
38 -14 139
36 -13 130
49 -19 180
62 -24 226
53 -20 189
40 -14 137
38 -13 128
43 -15 147
53 -19 182
28 -8 87
36 -12 115
57 -20 189
39 -13 123
45 -15 142
73 -26 238
38 -12 115
46 -15 143
28 -8 81
32 -9 93
68 -23 209
46 -14 134
46 -14 133
54 -17 157
59 -18 171
45 -13 125
31 -8 83
33 -9 88
42 -12 114
43 -12 114
74 -22 206
54 -15 146
49 -13 128
64 -18 171
48 -13 125
72 -21 189
69 -19 179
71 -20 183
84 -24 217
85 -24 218
91 -26 234
70 -19 173
64 -17 156
37 -9 85
83 -22 203
62 -16 147
75 -20 179
73 -19 172
71 -18 166
110 -29 261
92 -24 214
93 -24 215
98 -25 226
109 -28 249
87 -22 196
85 -21 189
120 -31 269
70 -17 150
59 -14 126
140 -35 308
108 -27 233
89 -21 190
83 -19 173
86 -20 180
122 -29 255
89 -21 183
72 -16 143
68 -15 135
79 -18 157
98 -22 194
97 -22 192
111 -25 218
82 -18 157
106 -24 205
109 -24 209
96 -21 182
83 -18 155
82 -17 152
85 -18 157
139 -31 260
124 -27 230
130 -28 239
112 -24 203
158 -34 287
121 -26 216
112 -23 197
100 -20 175
163 -35 289
117 -24 202
149 -31 259
179 -38 310
-103 -19 178
-132 -25 231
-162 -31 285
-107 -20 190
-79 -15 142
-84 -16 151
-104 -20 189
-144 -28 262
-143 -28 263
-179 -36 331
-199 -41 371
-266 -55 499
-231 -48 437
-215 -45 411
-268 -57 515
-226 -48 438
-274 -59 535
-245 -53 483
-217 -47 431
-246 -54 491
-270 -59 544
-255 -56 518
-212 -47 434
-186 -41 385
-241 -54 501
-219 -50 458
-189 -43 400
-169 -38 359
-193 -44 414
-194 -45 421
-184 -43 403
-204 -48 448
-188 -44 416
-171 -41 382
-181 -44 409
-187 -45 425
-193 -47 442
-169 -41 390
-195 -49 455
-178 -44 419
-158 -40 374
-155 -39 371
-175 -45 423
-191 -49 464
-199 -52 487
-176 -46 435
-155 -41 387
-189 -50 475
-161 -43 410
-199 -54 510
-199 -54 513
-151 -41 393
-167 -46 440
-174 -49 462
-171 -48 459
-151 -43 410
-170 -49 466
-147 -42 405
-161 -47 447
-151 -44 425
-140 -41 397
-149 -45 427
-156 -47 451
-130 -39 380
-155 -48 456
-143 -44 425
-128 -40 387
-127 -40 386
-152 -49 466
-100 -32 311
-132 -43 412
-138 -45 437
-117 -39 375
-128 -43 413
-136 -46 442
-137 -47 452
-112 -39 374
-123 -43 414
-128 -45 435
-112 -40 385
-90 -32 314
-115 -42 406
-116 -43 414
-107 -40 385
-109 -41 397
-106 -40 391
-108 -41 402
-98 -38 371
-107 -42 411
-100 -40 387
-102 -41 401
-112 -46 445
-104 -43 419
-113 -47 458
-92 -39 381
-104 -45 435
-104 -45 439
-98 -43 420
-98 -44 426
-113 -51 497
-95 -43 423
-100 -46 451
-78 -36 357
-81 -39 379
-85 -41 403
-87 -42 415
-80 -40 390
-93 -47 458
-73 -38 369
-80 -42 408
-72 -38 374
-78 -42 412
-87 -47 461
-71 -39 384
-71 -40 391
-73 -41 407
-77 -45 441
-65 -38 377
-74 -44 435
-73 -45 440
-72 -45 440
-69 -44 433
-73 -47 460
-67 -44 436
-46 -31 311
-56 -38 378
-53 -37 365
-52 -37 365
-69 -50 489
-54 -40 399
-46 -35 347
-60 -46 455
-46 -37 364
-49 -40 392
-44 -37 362
-46 -40 393
-44 -39 384
-43 -39 381
-44 -41 400
-53 -50 493
-40 -39 386
-36 -36 360
-29 -30 303
-36 -39 383
-44 -48 470
-40 -45 446
-32 -38 380
-36 -44 435
-36 -45 444
-35 -45 445
-38 -52 505
-32 -45 446
-27 -40 396
-28 -43 424
-28 -45 443
-25 -42 416
-23 -41 402
-25 -47 460
-21 -42 415
-18 -38 375
-12 -30 295
-22 -52 506
-17 -45 439
-12 -35 344
-13 -39 385
-11 -38 375
-9 -35 349
-8 -36 358
0 0 0
0 0 0
0 0 0
0 0 0
0 0 0
-1 -27 271
-2 -43 426
0 -38 372
0 -41 402
1 -44 432
2 -38 374
3 -33 324
4 -40 393
5 -36 360
7 -39 382
8 -41 398
10 -47 462
10 -41 404
12 -44 427
13 -40 396
12 -36 351
13 -36 351
17 -42 413
15 -34 337
17 -36 352
14 -28 274
21 -41 405
20 -37 366
23 -41 399
19 -31 302
20 -31 305
24 -37 359
31 -46 444
28 -39 381
28 -38 374
26 -33 322
33 -41 402
24 -27 270
37 -43 422
31 -35 343
43 -48 462
30 -31 302
29 -29 286
37 -37 364
34 -32 313
38 -36 347
35 -31 308
39 -35 341
43 -38 368
36 -30 293
40 -33 324
42 -33 327
43 -34 331
41 -31 306
48 -37 356
43 -31 304
58 -43 415
50 -35 344
59 -41 400
46 -31 304
53 -35 341
46 -29 287
43 -27 267
23 -13 132
4 0 6
781 -523 4880
761 -501 4673
763 -493 4595
769 -488 4550
759 -474 4415
807 -496 4612
807 -488 4538
818 -487 4525
904 -530 4921
48 -24 239
47 -24 233
51 -25 249
77 -39 377
64 -32 304
64 -31 301
89 -44 419
67 -32 308
59 -27 264
87 -41 393
68 -31 296
65 -29 282
82 -37 353
63 -27 265
68 -29 280
79 -34 326
70 -29 281
79 -33 316
87 -36 344
68 -27 264
71 -29 274
81 -32 309
100 -40 378
82 -32 306
90 -35 331
81 -31 296
90 -34 324
85 -32 303
87 -32 307
85 -31 295
59 -20 196
82 -29 277
100 -36 338
94 -33 313
82 -28 269
171 -62 568
79 -26 251
84 -28 266
94 -32 297
78 -25 240
67 -21 204
91 -30 278
92 -30 279
107 -34 321
110 -35 329
79 -24 229
93 -29 270
98 -30 282
70 -21 197
112 -34 317
115 -35 322
105 -31 292
118 -35 326
106 -31 289
102 -30 275
106 -31 284
105 -30 278
102 -29 266
139 -40 364
125 -35 324
123 -35 316
157 -44 401
114 -31 287
173 -49 438
115 -31 283
77 -20 185
149 -40 364
136 -36 328
144 -38 345
156 -41 372
115 -30 270
150 -39 351
145 -37 336
144 -37 331
181 -47 415
181 -46 411
171 -43 384
175 -44 392
136 -33 299
186 -46 409
169 -41 367
171 -42 370
164 -40 351
153 -37 324
155 -37 325
149 -35 311
156 -37 324
178 -42 367
166 -39 338
230 -54 469
197 -46 398
157 -36 312
142 -32 278
185 -42 363
139 -31 268
217 -49 421
170 -38 326
186 -41 355
226 -50 429
218 -48 411
186 -40 347
238 -52 443
205 -44 377
170 -36 309
214 -46 388
148 -31 264
166 -34 295
218 -46 387
168 -34 293
210 -43 366
-143 -26 248
-164 -30 286
-179 -34 315
-144 -27 255
-93 -17 166
-90 -16 162
-172 -33 311
-226 -44 412
-263 -52 484
-296 -59 548
-316 -63 590
-305 -61 573
-317 -64 601
-349 -72 666
-298 -61 573
-307 -64 596
-304 -63 593
-317 -67 624
-309 -65 612
-292 -62 583
-305 -65 615
-291 -63 591
-291 -63 596
-280 -61 577
-281 -62 584
-276 -61 577
-291 -65 614
-273 -61 581
-278 -63 597
-280 -64 606
-287 -66 626
-229 -53 505
-266 -62 590
-268 -63 599
-235 -55 529
-246 -58 559
-241 -57 551
-234 -56 540
-262 -64 609
-250 -61 586
-231 -57 548
-214 -53 511
-243 -61 585
-229 -58 557
-217 -55 531
-227 -58 562
-251 -65 625
-249 -65 626
-200 -52 507
-218 -57 558
-237 -63 611
-247 -66 642
-230 -62 605
-231 -63 614
-196 -54 524
-205 -57 554
-227 -63 618
-201 -57 552
-216 -61 600
-218 -63 611
-184 -53 521
-200 -58 573
-189 -56 546
-193 -57 563
-176 -53 518
-191 -58 568
-167 -51 503
-199 -62 604
-193 -60 592
-189 -59 585
-166 -53 519
-186 -60 586
-169 -55 540
-154 -50 498
-181 -60 591
-187 -62 613
-166 -56 551
-179 -61 602
-165 -57 560
-170 -59 585
-159 -56 552
-178 -63 626
-150 -54 534
-167 -60 598
-147 -54 536
-146 -54 537
-153 -57 571
-150 -57 564
-150 -57 571
-119 -46 461
-132 -52 514
-148 -59 585
-130 -52 521
-116 -47 469
-133 -55 547
-123 -51 513
-136 -57 571
-148 -63 631
-127 -55 550
-134 -59 586
-131 -58 582
-130 -59 585
-121 -55 551
-118 -55 548
-123 -58 577
-115 -55 549
-125 -60 602
-136 -67 665
-121 -60 603
-104 -53 527
-114 -58 585
-118 -62 615
-110 -58 580
-109 -59 588
-116 -63 633
-100 -56 559
-105 -59 596
-103 -59 593
-89 -52 520
-99 -59 592
-96 -58 584
-77 -47 476
-94 -59 590
-77 -49 496
-80 -52 526
-96 -64 640
-81 -55 554
-79 -55 548
-83 -59 591
-82 -59 596
-57 -42 429
-78 -59 591
-66 -51 512
-71 -56 565
-72 -58 584
-76 -63 632
-68 -58 580
-68 -59 592
-48 -43 437
-59 -54 546
-58 -55 549
-55 -53 533
-47 -47 474
-59 -61 610
-47 -50 506
-48 -53 532
-46 -52 527
-48 -56 561
-45 -55 553
-49 -62 618
-44 -58 582
-37 -50 506
-38 -54 546
-41 -60 604
-37 -57 572
-29 -47 477
-31 -53 536
-27 -50 500
-29 -55 557
-28 -56 567
-25 -53 528
-30 -66 660
-25 -61 610
-25 -64 638
-19 -54 541
-19 -57 570
-18 -61 611
-16 -59 594
0 0 0
0 0 0
0 0 0
0 0 0
0 0 0
-4 -51 515
-2 -47 469
-1 -51 512
0 -56 561
1 -50 500
2 -45 453
4 -50 506
5 -55 547
7 -54 541
9 -57 567
10 -53 530
12 -59 588
13 -54 536
13 -46 458
15 -49 495
20 -61 612
19 -53 534
21 -55 550
21 -50 500
26 -58 577
27 -57 567
28 -56 558
27 -51 506
28 -49 488
33 -56 560
34 -55 544
30 -45 455
35 -52 521
42 -60 597
38 -51 511
46 -60 597
40 -50 500
40 -49 484
46 -55 542
44 -49 489
53 -59 580
38 -40 398
51 -53 529
51 -51 503
59 -58 572
56 -53 525
54 -49 491
56 -50 501
63 -55 547
58 -49 489
64 -54 531
66 -54 531
58 -46 454
64 -49 489
55 -41 413
82 -62 609
64 -46 460
67 -48 473
72 -50 496
74 -50 498
63 -42 416
48 -30 304
31 -18 188
23 -12 127
8 -2 31
0 0 0
0 0 0
773 -486 4659
783 -484 4634
798 -485 4643
831 -497 4752
3 1 -3
61 -32 321
71 -37 368
69 -36 354
93 -48 474
118 -61 594
81 -40 396
77 -37 369
93 -45 443
92 -44 435
91 -43 423
102 -48 466
95 -44 427
127 -59 569
100 -45 439
103 -46 449
97 -42 414
95 -41 399
112 -48 469
110 -47 455
115 -48 469
143 -60 580
115 -47 455
122 -50 480
117 -47 455
124 -49 477
131 -52 498
114 -44 425
102 -39 374
109 -41 395
128 -48 464
152 -57 547
112 -41 394
87 -31 299
107 -38 367
137 -49 468
133 -47 449
167 -59 560
150 -52 497
116 -39 377
108 -36 345
135 -45 432
144 -48 457
136 -45 425
132 -43 408
126 -40 384
142 -45 430
132 -42 397
127 -40 378
139 -43 409
133 -41 388
121 -37 349
154 -47 443
162 -49 461
161 -48 452
123 -36 340
171 -50 473
176 -52 483
136 -39 366
128 -36 341
173 -49 461
166 -47 437
156 -44 408
186 -52 483
137 -37 349
153 -42 387
179 -49 452
184 -50 461
193 -52 481
158 -42 387
216 -58 529
169 -44 407
192 -50 460
208 -54 495
229 -59 543
240 -62 564
250 -64 582
255 -65 590
198 -49 451
218 -54 495
236 -59 531
202 -49 449
273 -67 607
221 -54 485
208 -50 451
217 -52 469
220 -52 470
227 -54 483
244 -57 514
256 -60 537
264 -62 550
214 -49 439
220 -50 448
220 -50 446
241 -54 484
250 -56 498
256 -57 507
234 -52 459
252 -56 491
298 -66 578
285 -62 548
206 -44 391
215 -46 406
254 -54 477
321 -69 600
245 -52 453
278 -59 510
256 -54 466
284 -59 514
284 -59 511
292 -60 522
303 -62 537
269 -55 472
-320 -59 554
-304 -56 531
-323 -60 568
-284 -53 504
-195 -36 348
-227 -42 408
-330 -63 597
-339 -65 618
-337 -65 619
-400 -78 741
-354 -69 661
-378 -74 710
-364 -72 690
-384 -77 733
-369 -74 710
-327 -66 633
-377 -77 737
-334 -68 658
-344 -71 683
-354 -73 707
-395 -82 795
-359 -75 729
-348 -73 711
-352 -75 727
-330 -71 687
-341 -73 714
-351 -76 742
-319 -70 679
-357 -79 765
-285 -63 617
-336 -75 733
-328 -74 721
-315 -71 697
-324 -74 724
-312 -72 703
-305 -70 693
-329 -77 753
-338 -79 781
-300 -71 699
-302 -72 708
-310 -74 734
-300 -72 716
-286 -69 688
-295 -72 717
-316 -78 773
-278 -69 687
-309 -78 769
-314 -79 788
-292 -74 740
-260 -67 666
-293 -76 756
-290 -76 756
-253 -67 666
-264 -70 699
-256 -69 685
-262 -71 708
-247 -67 673
-266 -73 730
-297 -82 823
-284 -80 796
-263 -74 744
-242 -69 690
-252 -72 728
-268 -78 780
-235 -69 692
-230 -68 682
-222 -66 665
-245 -74 741
-217 -66 664
-212 -65 656
-218 -67 681
-225 -70 710
-200 -63 637
-224 -71 722
-214 -69 696
-213 -69 699
-200 -65 664
-207 -68 694
-197 -66 670
-227 -77 780
-217 -74 751
-193 -66 676
-195 -68 692
-202 -71 723
-196 -70 712
-175 -63 641
-185 -67 687
-186 -68 697
-185 -69 702
-180 -68 693
-162 -62 630
-178 -69 701
-178 -70 710
-175 -69 708
-161 -64 657
-167 -68 691
-169 -69 708
-161 -67 684
-169 -71 727
-156 -66 679
-172 -74 759
-167 -73 748
-136 -60 621
-169 -76 780
-147 -67 689
-145 -67 689
-133 -62 641
-143 -68 699
-157 -76 777
-137 -67 690
-146 -73 747
-125 -63 652
-137 -70 721
-138 -72 742
-126 -67 688
-134 -72 743
-133 -73 750
-129 -72 737
-126 -71 734
-116 -67 689
-111 -65 671
-120 -72 735
-104 -64 655
-115 -71 732
-107 -68 699
-109 -70 722
-98 -65 665
-104 -70 720
-107 -73 751
-100 -70 721
-104 -74 761
-99 -72 743
-82 -61 634
-96 -73 755
-92 -72 740
-81 -65 666
-84 -69 709
-76 -64 658
-82 -71 726
-75 -67 689
-75 -69 708
-74 -70 717
-70 -68 696
-64 -64 661
-67 -68 705
-63 -67 691
-68 -75 768
-61 -69 708
-60 -70 725
-58 -70 720
-52 -66 676
-52 -67 694
-52 -70 722
-51 -72 739
-44 -66 680
-48 -75 770
-45 -73 752
-36 -62 643
-41 -73 753
-40 -76 779
-35 -71 725
-28 -62 637
-32 -73 754
-28 -70 717
-25 -68 697
-21 -62 638
-23 -73 746
-21 -75 765
0 0 0
0 0 0
0 0 0
0 0 0
0 0 0
-6 -59 608
-6 -74 759
-3 -71 732
-1 -62 634
0 -62 642
2 -66 673
4 -73 748
6 -63 649
8 -67 691
10 -63 649
13 -71 728
15 -74 761
14 -56 573
19 -73 747
22 -76 775
20 -60 612
25 -72 735
27 -71 721
27 -64 660
27 -59 603
30 -63 642
33 -65 663
37 -68 699
37 -65 663
38 -63 644
43 -69 707
42 -65 663
41 -60 611
48 -68 692
42 -56 578
47 -60 618
54 -68 694
52 -63 640
58 -68 689
58 -65 665
59 -64 655
58 -61 623
62 -63 639
58 -57 578
68 -66 670
69 -65 660
66 -60 607
74 -66 670
79 -68 694
79 -67 675
75 -62 625
70 -56 565
87 -68 692
74 -56 571
93 -70 708
72 -53 534
85 -61 618
88 -62 626
85 -58 588
89 -60 606
62 -40 408
88 -57 574
53 -32 331
0 0 0
0 0 0
0 0 0
0 0 0
799 -489 4818
0 0 0
26 -12 135
64 -34 349
101 -55 553
102 -54 545
118 -63 628
115 -60 599
110 -56 562
129 -65 652
125 -62 625
125 -61 612
125 -60 603
141 -68 674
126 -59 594
124 -57 574
139 -64 637
128 -58 577
137 -61 610
163 -72 716
137 -60 594
158 -68 675
159 -68 672
144 -60 597
133 -55 546
127 -52 514
163 -66 653
174 -70 690
173 -69 677
167 -65 645
174 -68 665
153 -58 577
148 -56 551
155 -58 571
145 -53 527
182 -67 655
148 -53 524
145 -52 509
146 -52 507
172 -60 592
179 -62 608
160 -55 539
199 -68 663
212 -72 702
169 -56 549
173 -57 557
181 -59 579
181 -59 572
187 -60 585
169 -54 522
190 -60 583
186 -58 565
159 -49 475
179 -55 530
200 -61 589
196 -59 572
174 -52 501
194 -58 555
208 -61 588
188 -55 527
203 -59 565
183 -52 504
193 -55 527
217 -62 588
207 -58 555
211 -59 560
214 -59 562
193 -53 503
230 -63 594
225 -61 577
234 -63 595
211 -56 531
211 -56 526
228 -60 564
242 -63 594
236 -61 574
265 -68 640
290 -74 696
215 -54 509
257 -65 604
246 -61 574
304 -76 707
270 -67 621
273 -67 621
305 -74 689
264 -63 590
276 -66 614
272 -65 599
270 -64 591
295 -69 641
317 -74 684
267 -62 569
293 -67 620
269 -61 563
352 -81 736
314 -71 650
316 -71 648
298 -66 606
267 -59 539
299 -66 599
291 -64 579
314 -68 619
322 -70 632
317 -68 617
311 -67 600
309 -66 591
304 -64 577
313 -66 590
349 -73 655
335 -70 623
324 -67 598
334 -69 611
348 -71 632
337 -68 607
383 -78 688
367 -74 653
352 -70 621
-459 -82 795
-445 -80 776
-467 -85 822
-416 -76 738
-375 -68 670
-405 -74 728
-448 -83 811
-411 -77 750
-454 -85 835
-436 -82 808
-433 -82 808
-420 -80 790
-404 -78 766
-438 -85 837
-429 -84 825
-434 -85 842
-425 -84 831
-423 -84 832
-425 -85 844
-410 -82 819
-399 -81 805
-393 -80 798
-400 -82 818
-401 -83 827
-412 -86 857
-431 -90 903
-422 -89 892
-409 -87 870
-385 -82 826
-374 -80 809
-380 -82 829
-383 -83 841
-368 -81 816
-374 -83 836
-385 -86 867
-376 -85 855
-364 -82 834
-375 -85 866
-389 -89 906
-368 -85 865
-375 -87 887
-362 -85 863
-357 -84 859
-334 -80 812
-339 -81 831
-339 -82 838
-334 -81 833
-347 -85 872
-332 -82 842
-322 -80 823
-340 -86 877
-321 -81 836
-301 -77 792
-323 -83 856
-318 -83 851
-302 -79 816
-318 -84 867
-319 -85 877
-315 -85 875
-323 -88 904
-301 -82 850
-282 -78 804
-307 -86 884
-318 -89 924
-289 -82 850
-262 -75 778
-260 -75 778
-298 -87 900
-255 -75 779
-289 -86 893
-281 -84 874
-280 -85 882
-258 -79 822
-277 -86 889
-277 -86 899
-233 -73 767
-257 -82 852
-261 -84 874
-263 -85 891
-230 -75 788
-255 -85 882
-243 -81 850
-251 -85 887
-240 -82 859
-251 -87 909
-241 -84 881
-233 -82 863
-226 -81 846
-225 -82 855
-236 -87 906
-200 -74 780
-219 -82 862
-214 -81 854
-222 -85 895
-208 -81 847
-214 -84 885
-189 -75 791
-189 -76 803
-194 -79 835
-179 -74 781
-193 -81 853
-201 -86 901
-193 -83 875
-178 -78 821
-185 -82 864
-164 -74 777
-181 -82 868
-176 -81 857
-169 -79 836
-170 -81 854
-165 -80 841
-171 -84 886
-160 -80 843
-153 -78 821
-161 -83 875
-145 -76 802
-161 -85 901
-145 -78 829
-149 -82 865
-151 -85 893
-149 -85 893
-136 -79 833
-130 -77 815
-136 -82 863
-133 -82 863
-117 -73 777
-120 -76 809
-128 -83 878
-126 -84 886
-123 -83 882
-123 -85 903
-123 -87 923
-107 -77 819
-114 -85 894
-101 -77 810
-101 -78 830
-102 -81 861
-99 -81 855
-101 -85 897
-102 -87 922
-91 -80 849
-88 -79 841
-97 -90 954
-89 -86 904
-80 -80 843
-76 -78 822
-83 -87 921
-74 -81 853
-71 -80 849
-73 -85 898
-69 -84 890
-66 -83 875
-65 -85 894
-62 -84 892
-58 -83 882
-54 -81 856
-51 -80 846
-46 -76 807
-48 -83 879
-43 -79 832
-45 -88 928
-38 -79 831
-35 -77 810
-32 -76 806
-33 -84 883
-31 -85 892
-27 -81 857
-22 -75 796
-23 -85 899
0 0 0
0 0 0
0 0 0
0 0 0
-10 -87 918
-8 -88 923
-4 -79 837
-2 -83 872
0 -84 889
2 -84 881
4 -82 859
7 -79 835
9 -78 823
11 -76 804
14 -81 857
17 -83 871
19 -80 841
23 -87 910
25 -84 878
26 -79 826
28 -77 806
32 -82 866
35 -84 885
35 -78 823
40 -84 883
43 -85 889
40 -74 779
47 -82 855
46 -76 793
49 -77 809
52 -79 829
55 -80 834
53 -72 760
55 -73 761
62 -79 823
63 -77 807
65 -77 810
66 -75 786
77 -86 895
75 -80 839
73 -75 784
79 -79 829
79 -77 799
85 -81 839
85 -78 818
89 -79 827
87 -76 790
96 -82 854
92 -76 794
92 -75 776
92 -72 752
103 -79 824
95 -71 744
109 -81 836
107 -77 803
104 -73 762
106 -73 755
88 -59 611
95 -62 650
85 -54 565
0 0 0
0 0 0
0 0 0
0 0 0
0 0 0
40 -21 225
80 -45 466
106 -59 613
125 -69 711
148 -80 828
138 -74 759
147 -77 797
158 -82 842
150 -77 787
137 -69 709
146 -72 740
147 -72 735
141 -68 696
166 -79 809
166 -78 797
169 -78 797
173 -79 808
160 -72 736
171 -76 773
173 -76 774
181 -78 797
175 -75 760
172 -73 739
191 -79 808
182 -75 760
176 -71 725
189 -76 770
191 -76 770
207 -81 823
193 -75 759
201 -77 779
202 -76 773
202 -76 764
203 -75 761
208 -76 769
184 -66 671
187 -67 673
182 -64 647
199 -70 701
173 -60 602
233 -81 807
230 -79 787
212 -71 716
193 -64 645
239 -79 793
219 -72 717
229 -74 743
206 -66 658
242 -77 768
221 -69 692
200 -62 618
218 -67 670
255 -78 777
235 -71 708
257 -78 768
268 -80 795
254 -75 745
242 -71 703
264 -77 759
276 -80 786
259 -74 731
270 -77 755
277 -78 768
265 -74 727
269 -75 730
271 -75 730
292 -80 778
269 -73 712
269 -72 705
259 -69 673
299 -79 771
265 -69 675
324 -85 821
349 -91 877
301 -77 749
299 -76 737
310 -79 759
273 -68 660
309 -77 743
328 -81 781
326 -80 770
298 -73 697
354 -86 825
313 -75 721
329 -79 752
340 -81 771
376 -89 846
408 -96 911
363 -85 805
358 -83 786
362 -83 788
348 -79 751
343 -78 734
371 -84 789
359 -80 757
318 -70 664
389 -86 808
386 -85 796
369 -81 754
388 -84 788
438 -95 883
400 -86 800
417 -89 828
390 -83 767
387 -82 756
394 -82 762
430 -90 827
419 -87 799
389 -80 737
423 -87 795
403 -82 752
387 -78 715
413 -83 759
407 -81 743
454 -91 823
410 -81 735
435 -85 775
486 -95 862
-502 -87 871
-498 -87 869
-526 -92 926
-517 -91 916
-507 -90 906
-512 -92 921
-523 -94 948
-498 -90 910
-502 -91 923
-471 -86 872
-487 -90 909
-485 -90 913
-527 -98 999
-487 -91 930
-481 -91 926
-471 -89 913
-459 -88 897
-471 -91 927
-473 -92 939
-464 -90 927
-480 -94 967
-490 -97 995
-473 -94 968
-476 -95 982
-462 -93 959
-468 -95 981
-469 -96 990
-480 -99 1022
-443 -92 951
-448 -93 968
-466 -98 1016
-419 -89 920
-436 -93 966
-468 -101 1046
-452 -98 1018
-445 -97 1010
-452 -99 1035
-441 -97 1017
-441 -98 1027
-432 -97 1015
-449 -102 1063
-418 -95 997
-387 -89 932
-423 -98 1026
-398 -93 974
-433 -102 1069
-401 -95 1000
-406 -97 1020
-394 -95 999
-384 -93 982
-385 -94 993
-400 -99 1041
-368 -91 967
-361 -90 957
-362 -91 968
-349 -89 942
-356 -91 969
-373 -97 1026
-347 -91 962
-353 -93 990
-342 -91 967
-334 -90 953
-346 -94 997
-328 -89 954
-342 -94 1003
-329 -91 976
-321 -90 963
-325 -92 983
-326 -93 994
-316 -91 975
-326 -95 1016
-328 -96 1031
-317 -94 1008
-312 -94 1004
-325 -98 1054
-325 -99 1064
-312 -97 1036
-302 -94 1011
-275 -87 933
-285 -91 977
-299 -96 1035
-285 -93 998
-279 -92 989
-287 -96 1028
-286 -96 1035
-277 -94 1013
-278 -96 1029
-292 -101 1092
-274 -96 1040
-278 -99 1065
-247 -89 961
-258 -94 1013
-272 -100 1083
-256 -95 1031
-250 -94 1021
-246 -94 1017
-216 -83 905
-246 -97 1044
-225 -89 967
-243 -98 1057
-210 -86 928
-212 -87 947
-231 -97 1047
-217 -92 997
-225 -97 1050
-199 -87 940
-194 -86 931
-218 -98 1059
-214 -97 1057
-204 -94 1021
-200 -94 1016
-191 -91 988
-209 -101 1098
-188 -92 1005
-189 -94 1024
-187 -95 1029
-182 -94 1018
-187 -98 1067
-185 -99 1074
-181 -98 1068
-171 -95 1030
-163 -91 994
-164 -94 1018
-182 -106 1155
-161 -96 1043
-153 -93 1007
-153 -95 1028
-149 -94 1025
-151 -97 1057
-147 -96 1049
-138 -93 1011
-137 -94 1025
-134 -94 1024
-123 -88 961
-135 -99 1075
-122 -92 998
-123 -95 1034
-112 -89 968
-119 -97 1051
-104 -87 945
-117 -100 1088
-113 -99 1081
-106 -96 1041
-98 -91 994
-97 -93 1008
-92 -91 986
-95 -97 1051
-85 -90 977
-84 -92 997
-79 -90 979
-82 -97 1051
-79 -96 1043
-74 -94 1017
-70 -93 1007
-73 -100 1089
-63 -91 989
-62 -93 1011
-58 -93 1009
-50 -85 921
-54 -94 1027
-49 -91 989
-49 -97 1057
-42 -90 975
-43 -96 1044
-41 -99 1072
-36 -95 1029
-32 -92 999
-27 -87 951
-26 -92 997
0 0 0
0 0 0
0 0 0
0 0 0
-12 -96 1039
-8 -90 979
-6 -92 995
-3 -91 988
0 -91 985
2 -90 972
5 -94 1023
8 -90 978
11 -98 1066
13 -88 957
18 -103 1108
20 -97 1048
22 -92 997
27 -103 1109
27 -90 976
32 -96 1035
33 -90 976
38 -96 1040
38 -89 958
43 -95 1024
45 -92 995
46 -89 958
53 -96 1038
54 -94 1009
56 -92 989
56 -87 935
66 -99 1061
63 -88 953
67 -90 970
72 -94 1008
74 -93 999
72 -87 933
73 -84 909
83 -93 1002
82 -88 950
85 -89 958
89 -90 968
89 -87 932
94 -90 961
101 -93 1002
96 -86 921
105 -92 981
111 -95 1019
101 -84 896
103 -83 889
117 -93 990
122 -94 1003
117 -88 941
125 -92 986
133 -96 1027
115 -81 862
129 -89 949
129 -87 929
101 -66 704
112 -72 768
0 0 0
0 0 0
0 0 0
0 0 0
45 -24 270
67 -37 399
0 0 0
152 -85 898
163 -89 948
160 -87 917
166 -88 932
161 -84 889
173 -89 939
174 -88 931
174 -87 916
185 -91 961
192 -93 984
185 -88 929
180 -85 893
185 -86 904
186 -85 892
192 -86 910
201 -89 939
190 -83 876
188 -81 852
220 -94 987
206 -87 909
213 -89 929
223 -92 961
228 -93 969
236 -95 993
224 -89 929
222 -87 907
225 -87 907
231 -89 923
240 -91 947
240 -90 935
237 -88 912
239 -87 907
212 -76 793
233 -83 865
257 -91 941
244 -85 885
250 -86 895
251 -86 889
234 -79 818
267 -90 928
275 -92 945
269 -89 913
246 -80 826
263 -85 873
290 -93 952
277 -88 901
296 -93 954
271 -84 861
291 -90 919
271 -82 843
299 -90 923
264 -79 805
293 -87 888
280 -82 839
306 -89 908
295 -85 867
312 -89 908
312 -89 900
311 -88 888
313 -88 886
353 -98 990
334 -92 929
346 -95 952
335 -91 912
350 -94 946
363 -97 973
356 -94 944
332 -87 873
373 -97 974
397 -103 1028
367 -94 939
368 -94 934
348 -88 875
387 -97 966
382 -95 946
377 -93 924
359 -88 871
374 -91 900
418 -101 999
385 -92 911
399 -95 938
394 -93 918
439 -103 1015
389 -91 892
399 -92 906
458 -106 1033
420 -96 940
410 -93 910
411 -93 905
419 -94 914
423 -94 917
430 -95 924
454 -100 967
389 -85 822
462 -100 970
449 -97 935
422 -90 871
452 -96 926
471 -100 958
455 -96 918
435 -91 869
499 -104 992
439 -90 864
464 -95 908
473 -97 917
483 -98 931
455 -92 869
464 -93 879
468 -93 881
499 -99 934
476 -94 882
479 -94 881
518 -101 947
488 -95 886
525 -101 947
513 -98 917
532 -101 944
-563 -95 977
-575 -97 1005
-569 -97 1002
-564 -96 1000
-582 -100 1039
-565 -98 1016
-558 -97 1012
-550 -96 1004
-581 -103 1069
-583 -103 1080
-581 -104 1085
-574 -103 1080
-546 -99 1035
-567 -103 1083
-530 -97 1021
-556 -103 1079
-579 -107 1132
-535 -100 1055
-540 -101 1072
-544 -103 1088
-544 -104 1096
-541 -104 1099
-521 -101 1067
-538 -105 1111
-533 -104 1108
-534 -105 1118
-539 -107 1138
-531 -106 1131
-489 -98 1050
-522 -106 1130
-523 -107 1140
-504 -103 1108
-522 -108 1157
-511 -106 1141
-511 -107 1151
-489 -103 1111
-512 -109 1172
-488 -105 1125
-491 -106 1143
-503 -109 1180
-478 -105 1131
-461 -102 1101
-488 -109 1174
-463 -104 1125
-474 -107 1162
-502 -115 1240
-457 -105 1138
-463 -107 1165
-419 -98 1062
-412 -97 1054
-459 -109 1184
-443 -106 1152
-429 -103 1126
-406 -98 1075
-414 -101 1107
-427 -105 1151
-422 -105 1149
-384 -96 1055
-406 -103 1127
-401 -102 1123
-422 -109 1191
-423 -110 1208
-409 -107 1178
-403 -107 1172
-379 -101 1113
-371 -100 1098
-382 -104 1144
-368 -101 1113
-375 -104 1146
-375 -105 1158
-364 -103 1133
-356 -102 1121
-408 -117 1295
-361 -105 1159
-355 -104 1151
-355 -105 1164
-338 -101 1119
-347 -105 1161
-341 -104 1154
-336 -104 1150
-349 -109 1207
-320 -101 1119
-321 -102 1135
-321 -104 1150
-317 -103 1145
-334 -110 1221
-312 -104 1153
-323 -109 1208
-313 -107 1186
-333 -115 1277
-298 -104 1158
-293 -103 1151
-290 -103 1152
-289 -105 1164
-287 -105 1169
-287 -106 1183
-292 -109 1220
-288 -109 1220
-280 -108 1199
-268 -104 1165
-274 -108 1208
-264 -105 1177
-256 -104 1158
-264 -109 1213
-263 -109 1222
-248 -105 1173
-249 -107 1191
-248 -108 1205
-253 -112 1247
-254 -114 1273
-243 -110 1234
-225 -104 1164
-218 -102 1146
-226 -108 1204
-207 -100 1122
-229 -112 1258
-222 -111 1240
-212 -108 1208
-195 -101 1129
-189 -99 1115
-199 -107 1193
-200 -109 1219
-192 -106 1193
-194 -110 1228
-183 -106 1184
-185 -108 1215
-183 -110 1230
-180 -110 1235
-176 -110 1227
-178 -113 1266
-166 -108 1213
-168 -112 1252
-158 -107 1202
-157 -109 1221
-148 -105 1178
-157 -114 1278
-146 -109 1221
-143 -109 1225
-142 -112 1250
-131 -106 1185
-130 -108 1208
-134 -114 1277
-124 -108 1212
-121 -109 1224
-118 -110 1230
-114 -109 1220
-117 -115 1289
-99 -101 1131
-98 -104 1163
-98 -107 1196
-101 -114 1277
-88 -103 1156
-89 -109 1221
-81 -103 1153
-80 -106 1192
-75 -104 1170
-75 -109 1226
-68 -104 1170
-66 -107 1196
-61 -104 1166
-61 -109 1222
-58 -111 1237
-53 -109 1216
-45 -98 1103
-42 -99 1111
-42 -106 1190
-38 -106 1182
-35 -105 1174
-30 -101 1136
0 0 0
0 0 0
0 0 0
-28 -160 1775
-17 -124 1380
-11 -106 1179
-7 -103 1155
-4 -107 1191
-1 -110 1232
2 -99 1102
5 -105 1174
8 -103 1154
12 -105 1169
16 -112 1247
19 -105 1172
23 -108 1202
26 -106 1182
30 -111 1232
33 -106 1183
38 -112 1245
41 -110 1225
42 -103 1151
49 -112 1243
49 -104 1161
55 -110 1223
54 -102 1130
65 -116 1292
64 -107 1191
67 -107 1189
71 -108 1203
76 -110 1224
76 -105 1169
76 -100 1112
83 -106 1175
88 -107 1190
96 -113 1246
94 -106 1175
94 -103 1135
100 -105 1165
101 -103 1139
110 -109 1202
110 -106 1166
111 -103 1137
115 -104 1150
113 -99 1097
116 -99 1090
124 -103 1133
129 -104 1149
129 -102 1126
138 -106 1170
133 -100 1100
138 -101 1112
151 -109 1195
143 -100 1105
123 -84 924
114 -76 836
117 -76 838
113 -72 790
0 0 0
0 0 0
84 -49 549
83 -48 530
0 0 0
0 0 0
188 -106 1159
182 -101 1103
182 -99 1084
196 -105 1148
198 -104 1136
197 -102 1115
202 -103 1120
199 -100 1089
212 -105 1141
196 -95 1034
202 -97 1051
222 -105 1140
223 -104 1128
228 -104 1133
220 -99 1077
221 -98 1067
234 -103 1115
232 -100 1087
235 -100 1084
251 -106 1144
247 -103 1109
243 -100 1078
233 -95 1020
256 -103 1105
247 -98 1054
261 -102 1097
271 -105 1124
270 -103 1106
268 -101 1086
252 -94 1006
281 -104 1112
276 -100 1076
271 -97 1043
277 -99 1055
278 -98 1044
276 -96 1028
277 -95 1017
289 -99 1051
276 -93 990
296 -99 1052
312 -103 1097
299 -98 1037
296 -96 1017
306 -98 1040
290 -92 973
302 -95 1005
333 -104 1097
357 -110 1165
313 -95 1008
339 -103 1082
333 -100 1051
338 -100 1055
356 -105 1103
337 -98 1032
377 -109 1146
363 -104 1091
376 -107 1119
376 -106 1108
364 -102 1061
352 -97 1016
388 -107 1111
398 -109 1130
389 -105 1092
364 -97 1013
405 -108 1116
405 -107 1106
437 -115 1185
407 -106 1091
399 -103 1062
404 -103 1065
386 -98 1006
404 -102 1046
441 -110 1131
405 -100 1029
416 -102 1048
405 -99 1013
447 -108 1109
415 -100 1019
472 -113 1151
477 -113 1152
448 -105 1073
460 -108 1092
461 -107 1085
451 -104 1052
431 -99 998
453 -103 1040
495 -112 1129
470 -105 1060
477 -106 1069
471 -104 1046
508 -112 1120
477 -104 1044
527 -115 1145
520 -112 1119
535 -115 1143
500 -106 1060
519 -110 1091
523 -110 1091
530 -111 1096
558 -116 1145
549 -113 1119
530 -109 1072
636 -130 1277
563 -114 1120
556 -112 1099
550 -110 1077
582 -116 1133
537 -106 1035
571 -112 1094
515 -100 978
587 -114 1108
560 -108 1049
553 -106 1028
578 -110 1066
562 -107 1029
547 -103 994
561 -105 1012
599 -112 1073
574 -106 1020
-590 -96 1024
-606 -99 1060
-669 -110 1177
-645 -107 1145
-601 -100 1073
-627 -105 1128
-659 -111 1196
-605 -103 1106
-627 -107 1155
-628 -108 1165
-645 -112 1205
-627 -109 1181
-628 -110 1191
-630 -111 1203
-654 -116 1259
-638 -114 1239
-680 -122 1330
-640 -116 1261
-588 -107 1167
-643 -118 1286
-643 -119 1296
-597 -111 1213
-629 -117 1287
-609 -115 1256
-620 -117 1288
-636 -121 1333
-612 -118 1293
-594 -115 1265
-588 -114 1262
-620 -122 1341
-610 -121 1331
-604 -120 1328
-582 -116 1289
-581 -117 1299
-597 -121 1345
-571 -117 1297
-595 -123 1362
-545 -113 1258
-558 -117 1299
-569 -120 1335
-575 -122 1362
-567 -121 1354
-536 -116 1291
-585 -127 1420
-532 -116 1302
-541 -119 1335
-484 -107 1205
-505 -113 1270
-527 -119 1335
-482 -110 1234
-514 -118 1326
-537 -124 1397
-488 -114 1281
-491 -115 1301
-493 -117 1317
-453 -108 1221
-466 -112 1268
-473 -115 1300
-456 -112 1266
-437 -108 1224
-468 -117 1321
-449 -113 1280
-440 -112 1267
-447 -115 1300
-443 -115 1301
-447 -117 1325
-444 -117 1328
-409 -109 1238
-443 -119 1353
-453 -123 1397
-440 -120 1369
-412 -114 1297
-442 -123 1403
-401 -113 1288
-404 -115 1310
-395 -113 1295
-369 -107 1222
-396 -116 1325
-384 -114 1300
-373 -111 1275
-387 -117 1338
-400 -122 1398
-377 -116 1333
-395 -123 1410
-380 -120 1373
-360 -115 1316
-382 -123 1414
-359 -117 1342
-358 -118 1357
-345 -115 1324
-344 -116 1335
-334 -114 1310
-334 -115 1326
-338 -118 1358
-331 -117 1346
-336 -121 1387
-314 -114 1313
-327 -120 1384
-326 -121 1396
-328 -124 1423
-302 -115 1329
-279 -108 1244
-321 -126 1453
-320 -127 1468
-286 -115 1329
-298 -122 1404
-295 -122 1411
-272 -114 1319
-269 -115 1327
-269 -116 1344
-275 -121 1397
-266 -119 1373
-279 -127 1463
-246 -113 1309
-243 -114 1314
-254 -121 1397
-256 -124 1428
-251 -123 1425
-251 -125 1449
-221 -112 1298
-225 -116 1347
-231 -122 1409
-238 -128 1476
-206 -112 1301
-209 -116 1344
-218 -124 1431
-219 -127 1467
-193 -114 1323
-201 -121 1399
-189 -116 1345
-193 -121 1403
-199 -128 1476
-186 -122 1413
-179 -120 1389
-168 -115 1336
-177 -125 1443
-165 -119 1374
-162 -120 1389
-160 -121 1405
-151 -117 1359
-147 -117 1356
-144 -118 1364
-143 -121 1400
-131 -114 1319
-135 -121 1401
-121 -112 1299
-126 -120 1385
-127 -125 1451
-114 -117 1349
-111 -117 1358
-112 -123 1421
-112 -127 1466
-98 -116 1346
-90 -111 1289
-96 -122 1415
-88 -118 1365
-86 -120 1389
-86 -126 1455
-77 -119 1375
-66 -109 1260
-67 -117 1348
-66 -122 1408
-61 -119 1379
-57 -119 1378
-56 -126 1458
-49 -119 1372
-44 -117 1348
-41 -120 1387
-34 -111 1281
-32 -117 1348
0 0 0
0 0 0
-34 -185 2118
-18 -125 1440
-12 -113 1308
-8 -112 1290
-5 -116 1341
-1 -121 1388
2 -111 1283
6 -123 1412
10 -121 1391
13 -116 1336
18 -126 1447
21 -119 1367
25 -118 1361
30 -122 1405
33 -116 1331
36 -115 1326
41 -118 1354
48 -127 1456
49 -120 1378
52 -116 1331
57 -118 1354
59 -116 1326
67 -124 1418
72 -125 1435
72 -118 1354
76 -118 1356
76 -112 1279
89 -126 1444
85 -114 1308
94 -122 1394
97 -120 1371
95 -113 1294
99 -113 1294
103 -113 1289
112 -119 1357
119 -122 1393
114 -113 1286
121 -116 1328
124 -115 1315
119 -107 1223
133 -117 1327
134 -115 1305
136 -113 1286
142 -115 1311
159 -125 1424
147 -112 1278
159 -119 1352
153 -111 1266
165 -118 1338
148 -103 1172
143 -97 1105
0 0 0
0 0 0
0 0 0
103 -63 724
121 -73 833
0 0 0
0 0 0
0 0 0
175 -99 1123
197 -110 1239
212 -116 1308
203 -109 1229
216 -114 1285
215 -112 1261
212 -109 1223
217 -109 1228
226 -112 1259
232 -113 1269
237 -114 1274
241 -114 1275
248 -116 1295
246 -113 1261
236 -107 1194
245 -109 1218
264 -116 1297
254 -110 1228
253 -108 1204
271 -114 1271
258 -107 1194
279 -115 1276
266 -108 1199
269 -107 1196
282 -111 1236
297 -116 1284
318 -123 1359
271 -103 1142
313 -118 1302
296 -110 1216
296 -108 1200
314 -114 1259
303 -108 1198
329 -117 1287
339 -119 1310
322 -111 1229
347 -119 1308
317 -107 1181
315 -105 1158
324 -107 1180
340 -112 1224
349 -113 1243
332 -107 1168
337 -107 1172
344 -108 1183
325 -101 1105
357 -110 1204
363 -111 1211
348 -105 1148
358 -107 1166
355 -105 1147
376 -110 1200
385 -112 1218
376 -109 1177
422 -121 1308
419 -119 1286
387 -109 1175
426 -119 1281
424 -117 1265
435 -119 1285
397 -108 1161
441 -119 1276
419 -112 1200
450 -119 1277
455 -120 1281
437 -114 1217
447 -115 1234
467 -120 1278
441 -112 1195
459 -116 1233
456 -114 1214
475 -118 1252
491 -121 1285
476 -116 1234
469 -114 1205
499 -120 1271
477 -114 1204
500 -119 1252
510 -120 1265
494 -115 1215
490 -114 1195
526 -121 1271
531 -122 1274
511 -116 1215
516 -116 1217
547 -123 1279
497 -110 1151
522 -115 1200
526 -115 1199
588 -128 1330
528 -114 1185
578 -124 1288
564 -120 1246
544 -115 1191
603 -127 1310
562 -118 1211
538 -112 1150
573 -118 1215
563 -116 1185
616 -126 1287
576 -117 1192
637 -129 1310
604 -121 1231
594 -118 1201
618 -122 1241
595 -117 1185
636 -124 1259
613 -119 1202
631 -122 1229
668 -128 1293
625 -119 1199
628 -119 1195
658 -124 1243
652 -122 1223
619 -115 1151
650 -120 1201
650 -120 1191
684 -125 1245
709 -129 1282
693 -126 1243
733 -132 1306
-684 -108 1188
-648 -102 1133
-660 -105 1162
-672 -107 1192
-706 -114 1262
-688 -111 1239
-659 -107 1195
-685 -112 1251
-694 -115 1278
-694 -115 1287
-688 -115 1286
-696 -117 1311
-685 -116 1299
-690 -117 1318
-699 -120 1346
-701 -121 1361
-714 -124 1397
-713 -125 1404
-696 -122 1381
-669 -118 1338
-735 -131 1481
-701 -126 1424
-691 -125 1416
-675 -123 1393
-691 -126 1436
-699 -129 1465
-665 -123 1404
-706 -132 1504
-702 -132 1507
-716 -136 1549
-674 -129 1470
-688 -132 1513
-671 -130 1487
-668 -130 1492
-659 -129 1485
-645 -127 1464
-654 -130 1497
-643 -129 1485
-641 -130 1492
-651 -133 1529
-611 -125 1447
-622 -129 1485
-636 -133 1531
-612 -128 1486
-632 -134 1546
-589 -126 1455
-617 -133 1536
-588 -127 1478
-596 -130 1510
-593 -131 1517
-576 -128 1485
-581 -130 1512
-564 -127 1480
-563 -128 1491
-504 -115 1348
-551 -127 1488
-547 -127 1489
-531 -125 1458
-518 -123 1437
-544 -130 1523
-539 -130 1521
-517 -126 1474
-495 -122 1426
-527 -131 1531
-513 -128 1505
-540 -136 1599
-506 -129 1513
-524 -135 1584
-519 -135 1584
-520 -136 1603
-485 -128 1509
-474 -127 1491
-486 -131 1544
-471 -128 1511
-479 -132 1555
-478 -133 1565
-458 -128 1516
-483 -137 1616
-460 -132 1558
-463 -134 1584
-449 -131 1551
-446 -132 1559
-461 -138 1628
-425 -128 1518
-450 -137 1625
-441 -136 1613
-437 -136 1617
-409 -129 1530
-426 -136 1613
-394 -127 1509
-373 -122 1446
-372 -123 1460
-382 -128 1518
-394 -133 1585
-400 -137 1629
-380 -132 1569
-367 -129 1532
-383 -136 1621
-337 -121 1446
-345 -126 1499
-376 -139 1656
-365 -137 1626
-350 -133 1581
-355 -137 1628
-354 -138 1645
-328 -130 1546
-334 -134 1599
-312 -127 1514
-330 -136 1623
-307 -129 1537
-319 -136 1619
-305 -132 1573
-297 -130 1554
-315 -141 1677
-280 -127 1512
-271 -125 1490
-266 -124 1488
-296 -141 1679
-278 -134 1603
-264 -130 1552
-246 -123 1472
-256 -131 1561
-250 -130 1549
-247 -130 1558
-239 -129 1540
-220 -121 1446
-228 -127 1523
-218 -125 1491
-211 -123 1474
-219 -130 1558
-212 -129 1540
-209 -130 1549
-199 -126 1510
-205 -133 1589
-194 -129 1540
-207 -141 1681
-197 -137 1643
-184 -132 1573
-168 -123 1473
-169 -127 1519
-165 -127 1519
-164 -130 1556
-152 -124 1483
-157 -132 1576
-155 -134 1601
-154 -137 1638
-142 -131 1562
-140 -133 1588
-123 -121 1451
-123 -125 1497
-119 -126 1506
-117 -128 1533
-113 -129 1542
-107 -127 1519
-106 -132 1574
-112 -145 1729
-101 -137 1633
-92 -130 1556
-86 -129 1540
-77 -122 1456
-79 -131 1562
-72 -128 1523
-66 -125 1491
-65 -131 1561
-58 -125 1498
-59 -138 1641
-50 -126 1509
-50 -138 1650
-43 -132 1576
-35 -122 1453
0 0 0
0 0 0
-35 -180 2137
-24 -154 1834
-14 -122 1451
-10 -126 1497
-6 -124 1476
-2 -130 1552
2 -133 1577
6 -133 1582
11 -138 1640
15 -126 1495
19 -129 1532
25 -136 1615
31 -143 1700
31 -123 1464
39 -138 1638
42 -131 1553
45 -128 1516
52 -133 1580
57 -135 1596
60 -131 1552
69 -142 1676
67 -127 1504
69 -123 1455
78 -131 1552
84 -133 1577
87 -131 1549
89 -127 1508
94 -129 1523
97 -127 1503
109 -136 1610
115 -138 1627
111 -128 1510
124 -138 1626
125 -133 1574
135 -140 1651
128 -128 1506
134 -129 1521
133 -124 1465
142 -128 1509
143 -126 1479
149 -127 1492
163 -135 1591
168 -136 1593
157 -123 1443
168 -128 1505
181 -135 1587
183 -134 1567
166 -117 1379
161 -111 1304
158 -106 1250
125 -82 961
0 0 0
0 0 0
0 0 0
0 0 0
0 0 0
128 -73 864
173 -99 1154
204 -114 1335
251 -139 1618
240 -130 1517
222 -118 1373
257 -135 1566
227 -117 1356
239 -120 1400
242 -120 1395
