VERSION 0.7
FIELDS x y z
SIZE 4 4 4
TYPE I I I
COUNT 1 1 1
WIDTH 3331
HEIGHT 1
VIEWPOINT 0.0 0.0 0.0 1.0 0.0 0.0 0.0
POINTS 3331
DATA ascii
-322 -539 1664
-316 -537 1657
-312 -538 1663
-306 -537 1658
-302 -538 1664
-297 -539 1668
-291 -537 1661
-286 -538 1664
-281 -537 1663
-277 -538 1667
-271 -537 1663
-265 -535 1659
-262 -540 1672
-256 -538 1668
-250 -536 1663
-245 -535 1661
-240 -535 1661
-236 -539 1672
-232 -541 1681
-228 -542 1683
-220 -537 1668
-215 -536 1667
-210 -535 1663
-205 -536 1667
-199 -534 1662
-196 -539 1677
-192 -541 1682
-184 -533 1659
-180 -536 1669
-174 -533 1660
-166 -525 1635
-150 -487 1516
-137 -461 1434
-130 -453 1411
-126 -450 1403
-121 -449 1398
-117 -452 1407
-113 -451 1405
-110 -454 1415
-105 -453 1412
-100 -451 1405
-97 -455 1420
-94 -461 1437
-90 -460 1433
-87 -469 1462
-84 -474 1478
-82 -491 1530
-83 -524 1635
-79 -532 1660
-75 -539 1682
-71 -544 1696
-65 -541 1686
-60 -541 1686
-56 -543 1692
-51 -543 1694
-46 -543 1695
-40 -542 1691
-35 -541 1688
-30 -540 1684
-25 -541 1688
-20 -540 1684
-15 -540 1685
-10 -546 1701
-5 -539 1680
0 -542 1690
4 -541 1687
9 -538 1676
14 -540 1684
19 -540 1682
24 -540 1683
29 -542 1688
34 -541 1686
39 -541 1685
44 -540 1683
49 -540 1681
55 -544 1693
60 -543 1692
64 -538 1676
69 -540 1682
74 -540 1679
79 -541 1683
84 -538 1673
90 -542 1684
94 -536 1667
100 -543 1689
105 -541 1682
109 -538 1671
115 -545 1693
119 -541 1679
123 -536 1664
129 -538 1670
135 -541 1678
140 -541 1679
144 -540 1676
149 -540 1675
154 -539 1669
160 -542 1678
166 -545 1687
170 -543 1680
174 -540 1671
179 -539 1668
184 -538 1664
189 -540 1669
194 -539 1666
201 -543 1679
206 -545 1683
210 -540 1669
215 -540 1667
218 -537 1656
223 -537 1656
230 -542 1670
235 -540 1665
239 -540 1663
245 -541 1666
249 -539 1658
254 -540 1661
258 -536 1649
265 -541 1662
270 -542 1665
274 -539 1655
279 -539 1656
284 -539 1652
289 -538 1651
296 -542 1662
301 -543 1663
304 -539 1652
310 -541 1655
314 -540 1652
320 -541 1654
325 -541 1652
328 -538 1642
335 -540 1649
340 -542 1652
345 -542 1651
350 -541 1648
355 -542 1649
362 -544 1656
363 -539 1638
368 -538 1635
372 -538 1633
381 -543 1648
385 -541 1640
393 -546 1654
395 -541 1639
399 -540 1635
403 -539 1631
409 -541 1634
415 -542 1637
420 -541 1633
423 -539 1626
430 -542 1633
437 -544 1637
441 -542 1632
446 -543 1633
452 -544 1635
455 -541 1625
458 -539 1618
463 -539 1616
472 -544 1628
472 -538 1610
480 -542 1620
484 -541 1614
487 -539 1608
500 -547 1630
497 -539 1605
503 -540 1607
508 -539 1604
516 -543 1613
516 -538 1596
524 -541 1603
533 -545 1614
535 -542 1603
538 -540 1596
547 -544 1608
550 -542 1599
558 -545 1605
557 -539 1587
560 -538 1581
568 -540 1588
573 -540 1584
577 -539 1582
584 -542 1586
590 -542 1586
593 -540 1578
595 -537 1568
605 -542 1582
607 -540 1571
612 -540 1570
618 -541 1571
623 -540 1568
631 -544 1576
635 -542 1571
640 -542 1568
640 -538 1554
651 -544 1568
655 -542 1562
665 -547 1573
671 -548 1573
674 -546 1567
677 -544 1559
674 -537 1539
682 -541 1546
694 -546 1557
695 -543 1547
700 -543 1545
706 -544 1546
708 -542 1538
710 -539 1528
721 -544 1539
717 -537 1519
728 -542 1529
730 -539 1521
745 -546 1538
741 -540 1517
749 -542 1521
754 -542 1519
755 -540 1510
767 -545 1522
770 -543 1515
766 -537 1496
775 -539 1500
776 -537 1491
776 -534 1479
774 -529 1464
775 -526 1454
773 -522 1439
770 -516 1422
767 -511 1405
769 -509 1398
764 -503 1379
766 -501 1370
763 -496 1354
770 -498 1358
766 -493 1340
766 -489 1329
767 -487 1321
765 -483 1308
767 -482 1302
-896 -530 1471
-887 -528 1467
-879 -526 1464
-877 -528 1473
-879 -532 1486
-868 -529 1479
-861 -528 1479
-862 -531 1492
-858 -532 1495
-843 -525 1481
-844 -529 1494
-835 -527 1490
-832 -528 1496
-826 -528 1497
-821 -528 1498
-812 -525 1495
-811 -528 1504
-806 -528 1507
-807 -532 1519
-803 -533 1524
-791 -528 1513
-789 -530 1522
-784 -530 1525
-781 -532 1531
-778 -533 1537
-776 -535 1544
-767 -532 1539
-761 -532 1540
-754 -530 1537
-751 -532 1544
-752 -536 1559
-745 -535 1557
-739 -534 1557
-735 -535 1560
-727 -533 1558
-712 -526 1538
-717 -533 1561
-719 -539 1580
-706 -532 1564
-703 -534 1569
-701 -536 1578
-690 -532 1568
-690 -536 1582
-675 -528 1560
-676 -533 1577
-669 -531 1572
-662 -530 1570
-660 -532 1580
-656 -533 1585
-649 -532 1582
-648 -535 1592
-646 -538 1602
-636 -533 1591
-628 -531 1585
-623 -531 1586
-621 -533 1596
-616 -534 1600
-613 -536 1606
-608 -535 1608
-603 -535 1608
-593 -531 1597
-591 -534 1608
-587 -535 1612
-582 -535 1615
-575 -533 1610
-570 -533 1611
-567 -536 1620
-558 -532 1610
-556 -534 1619
-552 -536 1625
-548 -537 1629
-540 -534 1622
-536 -535 1626
-529 -533 1622
-525 -535 1628
-521 -535 1630
-513 -532 1622
-511 -536 1634
-508 -537 1641
-499 -533 1630
-495 -534 1634
-494 -539 1649
-484 -533 1634
-481 -536 1644
-476 -536 1644
-472 -537 1649
-469 -539 1656
-460 -535 1644
-451 -531 1633
-453 -538 1657
-446 -537 1653
-440 -536 1650
-434 -534 1646
-430 -536 1654
-424 -534 1649
-418 -533 1646
-415 -536 1656
-410 -536 1659
-406 -538 1664
-402 -539 1668
-394 -535 1658
-391 -538 1667
-386 -538 1669
-380 -537 1665
-375 -536 1665
-366 -532 1652
-364 -536 1665
-359 -536 1665
-354 -536 1667
-349 -537 1669
-346 -540 1680
-340 -538 1675
-337 -541 1685
-333 -543 1692
-322 -534 1664
-318 -535 1670
-314 -536 1673
-308 -536 1672
-306 -540 1687
-300 -540 1687
-293 -537 1677
-289 -538 1681
-284 -537 1680
-279 -537 1681
-274 -538 1683
-267 -534 1673
-264 -538 1685
-257 -534 1673
-254 -540 1692
-248 -537 1683
-244 -540 1693
-239 -540 1692
-232 -536 1682
-227 -536 1683
-222 -537 1684
-218 -539 1692
-214 -542 1702
-208 -539 1693
-202 -538 1688
-198 -538 1690
-193 -541 1699
-189 -541 1701
-183 -539 1694
-175 -530 1668
-168 -524 1648
-156 -504 1586
-139 -464 1461
-133 -457 1438
-128 -454 1428
-123 -451 1419
-118 -449 1413
-114 -449 1414
-110 -450 1417
-106 -452 1423
-102 -454 1428
-98 -457 1438
-95 -461 1451
-91 -462 1457
-87 -466 1467
-84 -472 1487
-83 -491 1547
-82 -513 1615
-80 -530 1670
-76 -539 1698
-71 -542 1707
-66 -541 1705
-61 -544 1713
-56 -543 1712
-51 -544 1714
-46 -544 1714
-41 -542 1706
-36 -541 1706
-31 -542 1709
-25 -542 1706
-20 -543 1709
-15 -543 1710
-10 -543 1711
-5 -538 1696
0 -541 1704
4 -544 1713
9 -543 1711
14 -541 1704
19 -543 1709
24 -540 1701
30 -543 1710
34 -539 1698
40 -542 1706
45 -539 1697
49 -535 1682
55 -540 1699
60 -541 1702
65 -541 1701
70 -541 1699
75 -542 1703
80 -542 1703
85 -542 1703
90 -540 1697
96 -542 1702
100 -538 1688
105 -537 1686
111 -542 1702
116 -543 1703
121 -544 1707
126 -542 1698
131 -542 1701
136 -540 1693
141 -541 1696
145 -537 1683
152 -544 1703
157 -544 1705
162 -543 1701
166 -541 1695
172 -543 1697
176 -540 1688
181 -541 1691
187 -542 1694
192 -542 1693
197 -542 1693
202 -543 1694
206 -540 1686
212 -541 1687
216 -540 1684
221 -538 1677
228 -543 1693
232 -541 1686
238 -543 1690
239 -535 1664
246 -538 1675
251 -538 1673
257 -540 1678
263 -542 1684
266 -539 1674
272 -541 1679
278 -542 1680
284 -543 1685
287 -539 1672
293 -542 1678
296 -539 1668
302 -540 1671
307 -540 1669
312 -540 1671
318 -541 1671
321 -538 1661
325 -536 1655
332 -539 1664
338 -541 1667
343 -540 1664
348 -541 1664
354 -542 1668
359 -542 1666
362 -539 1656
368 -541 1662
371 -538 1650
379 -541 1661
384 -542 1661
389 -542 1660
391 -538 1647
400 -543 1661
403 -541 1653
406 -538 1643
412 -539 1645
415 -536 1635
425 -542 1653
429 -542 1650
432 -539 1641
439 -542 1648
446 -544 1652
448 -541 1642
456 -544 1652
459 -541 1641
467 -544 1649
471 -544 1647
476 -543 1643
479 -541 1635
485 -542 1636
487 -538 1624
494 -541 1632
497 -539 1624
502 -539 1621
509 -541 1627
516 -543 1632
518 -540 1620
526 -543 1628
527 -539 1615
538 -545 1632
537 -538 1610
545 -542 1617
549 -541 1613
555 -542 1616
562 -543 1618
565 -541 1611
571 -542 1612
576 -542 1610
581 -543 1610
583 -540 1599
586 -538 1592
598 -544 1609
600 -542 1600
607 -544 1604
610 -541 1594
615 -542 1593
626 -547 1606
624 -540 1587
630 -542 1589
634 -541 1585
635 -537 1571
643 -540 1577
650 -542 1581
657 -543 1582
661 -542 1579
668 -544 1582
672 -543 1578
672 -539 1564
685 -546 1580
680 -538 1556
690 -542 1564
699 -545 1571
700 -542 1561
705 -541 1558
711 -542 1557
717 -543 1558
719 -541 1550
724 -541 1548
726 -538 1538
736 -542 1546
743 -543 1548
741 -538 1531
749 -541 1537
756 -542 1538
756 -539 1525
763 -540 1526
769 -541 1526
777 -543 1531
770 -535 1505
774 -534 1500
788 -540 1516
775 -528 1478
772 -522 1461
777 -523 1459
774 -517 1442
768 -510 1419
766 -506 1405
768 -504 1397
767 -500 1384
768 -498 1375
766 -494 1362
764 -489 1347
765 -487 1339
765 -484 1328
765 -481 1318
772 -483 1320
752 -468 1277
-907 -532 1492
-900 -530 1490
-894 -530 1492
-883 -527 1485
-882 -529 1494
-882 -532 1505
-873 -530 1502
-868 -530 1504
-865 -531 1510
-853 -527 1500
-856 -532 1518
-845 -528 1509
-845 -531 1520
-835 -528 1515
-833 -530 1523
-830 -532 1529
-818 -527 1518
-817 -530 1529
-812 -530 1532
-812 -533 1542
-799 -528 1531
-802 -534 1549
-799 -535 1554
-787 -530 1543
-783 -531 1548
-774 -529 1542
-769 -529 1545
-764 -529 1547
-765 -533 1561
-759 -532 1561
-752 -531 1560
-755 -537 1579
-744 -533 1569
-745 -537 1584
-734 -533 1574
-730 -534 1579
-720 -530 1570
-715 -530 1572
-714 -533 1582
-711 -535 1589
-699 -529 1575
-698 -533 1588
-692 -532 1588
-688 -533 1592
-683 -533 1594
-672 -528 1581
-669 -530 1588
-664 -530 1590
-666 -536 1609
-663 -537 1616
-649 -530 1596
-650 -535 1613
-640 -532 1603
-640 -536 1617
-632 -533 1612
-630 -536 1623
-625 -536 1623
-616 -533 1616
-610 -532 1614
-605 -532 1616
-602 -534 1623
-598 -535 1629
-593 -536 1631
-591 -539 1642
-580 -533 1627
-574 -532 1625
-574 -537 1641
-568 -536 1640
-563 -536 1641
-558 -536 1644
-552 -536 1644
-542 -531 1629
-542 -536 1645
-531 -530 1631
-530 -535 1645
-525 -534 1645
-518 -532 1641
-517 -536 1654
-509 -533 1645
-507 -537 1657
-501 -536 1655
-492 -532 1645
-492 -537 1662
-483 -534 1653
-478 -534 1654
-474 -534 1656
-470 -536 1664
-464 -535 1662
-460 -536 1666
-452 -533 1657
-451 -538 1673
-445 -536 1670
-443 -540 1683
-433 -535 1666
-431 -539 1681
-421 -532 1661
-418 -535 1669
-415 -538 1681
-409 -536 1677
-404 -536 1678
-398 -535 1674
-398 -543 1699
-388 -535 1677
-384 -537 1683
-379 -537 1685
-375 -539 1691
-368 -536 1684
-364 -539 1691
-358 -537 1688
-353 -537 1687
-347 -537 1687
-340 -533 1677
-337 -536 1687
-335 -541 1703
-329 -539 1699
-323 -538 1696
-317 -537 1693
-310 -533 1682
-306 -535 1689
-303 -540 1703
-296 -537 1696
-291 -536 1693
-287 -538 1699
-283 -540 1707
-277 -539 1703
-273 -541 1711
-267 -540 1709
-260 -537 1698
-255 -537 1698
-250 -536 1698
-247 -541 1714
-240 -536 1699
-235 -538 1705
-230 -538 1706
-227 -542 1718
-220 -538 1706
-215 -538 1707
-211 -541 1716
-205 -538 1707
-200 -539 1711
-195 -539 1712
-189 -536 1703
-184 -536 1704
-179 -537 1707
-172 -533 1693
-165 -527 1673
-144 -473 1504
-135 -461 1466
-127 -448 1423
-124 -452 1436
-120 -451 1435
-114 -448 1425
-112 -455 1447
-107 -452 1439
-103 -452 1439
-99 -453 1441
-95 -457 1454
-91 -461 1466
-88 -466 1484
-85 -475 1511
-83 -489 1557
-83 -513 1633
-80 -530 1685
-77 -540 1719
-71 -538 1712
-67 -542 1725
-62 -544 1732
-57 -543 1728
-52 -545 1736
-46 -543 1728
-41 -542 1727
-36 -540 1718
-31 -540 1719
-26 -542 1724
-21 -540 1717
-15 -541 1721
-10 -540 1720
-5 -543 1727
0 -540 1717
4 -544 1730
9 -545 1734
14 -544 1731
19 -540 1718
25 -541 1722
30 -543 1727
35 -541 1721
40 -542 1724
45 -541 1720
50 -540 1717
55 -541 1719
60 -541 1719
66 -541 1719
71 -540 1715
76 -540 1716
81 -542 1720
86 -540 1715
91 -541 1718
96 -539 1709
102 -542 1719
106 -538 1707
112 -541 1716
117 -540 1712
122 -542 1718
127 -541 1714
132 -540 1709
137 -540 1710
142 -539 1706
148 -542 1715
152 -538 1704
158 -543 1717
163 -541 1712
168 -541 1710
172 -538 1701
178 -540 1707
183 -539 1703
188 -541 1709
193 -541 1708
198 -540 1704
203 -540 1704
207 -537 1692
213 -538 1694
219 -541 1703
223 -539 1697
230 -544 1713
234 -541 1703
239 -540 1698
244 -540 1699
248 -537 1689
253 -538 1691
259 -539 1692
262 -536 1683
270 -540 1695
275 -540 1694
279 -539 1691
286 -542 1699
291 -542 1698
295 -541 1693
299 -539 1685
305 -539 1686
309 -538 1682
315 -539 1683
321 -541 1689
326 -542 1691
330 -539 1680
336 -540 1684
341 -540 1683
345 -540 1679
350 -539 1675
357 -541 1683
362 -542 1684
365 -538 1672
372 -541 1679
377 -542 1680
382 -541 1677
386 -539 1671
391 -539 1670
395 -538 1665
399 -537 1659
407 -541 1670
414 -543 1676
416 -539 1662
424 -544 1675
427 -540 1663
431 -539 1660
440 -544 1672
443 -542 1665
446 -539 1655
453 -541 1659
459 -542 1663
462 -540 1655
466 -539 1648
472 -540 1651
482 -545 1666
482 -540 1648
490 -542 1655
494 -542 1652
499 -541 1649
505 -543 1652
510 -543 1650
516 -543 1649
522 -544 1651
522 -539 1634
530 -542 1640
537 -544 1645
537 -538 1628
541 -538 1626
550 -542 1635
554 -541 1631
556 -538 1619
566 -543 1633
574 -545 1638
576 -542 1627
579 -540 1621
587 -543 1628
591 -542 1621
595 -541 1617
603 -544 1624
602 -538 1605
613 -544 1620
618 -544 1618
621 -542 1611
633 -548 1627
632 -543 1610
641 -546 1617
640 -541 1601
642 -538 1590
650 -541 1596
660 -545 1607
666 -546 1607
671 -545 1604
668 -539 1583
672 -538 1579
685 -544 1595
687 -542 1585
695 -545 1591
695 -541 1578
704 -543 1583
706 -541 1576
713 -543 1577
716 -541 1570
727 -546 1582
727 -542 1569
736 -545 1574
735 -540 1560
743 -542 1564
750 -544 1566
752 -541 1556
755 -540 1550
757 -538 1541
764 -539 1543
770 -540 1542
773 -539 1536
778 -538 1533
781 -537 1528
780 -533 1513
776 -527 1494
774 -523 1479
769 -516 1457
769 -512 1445
764 -506 1424
768 -506 1422
769 -503 1411
768 -499 1398
768 -496 1388
770 -495 1382
770 -492 1371
769 -488 1358
763 -481 1336
766 -480 1332
768 -479 1325
768 -476 1316
770 -475 1309
-909 -527 1495
-898 -524 1489
-892 -524 1490
-892 -527 1501
-891 -529 1511
-881 -526 1505
-880 -529 1514
-875 -529 1518
-876 -533 1531
-868 -531 1528
-859 -528 1524
-853 -528 1525
-847 -528 1527
-847 -531 1538
-846 -533 1548
-830 -527 1531
-824 -526 1532
-822 -528 1540
-830 -536 1566
-816 -531 1552
-810 -531 1554
-801 -528 1549
-799 -530 1557
-801 -535 1573
-789 -530 1561
-788 -533 1572
-770 -524 1548
-776 -532 1573
-766 -529 1565
-763 -530 1572
-757 -530 1573
-752 -530 1575
-749 -531 1581
-747 -533 1589
-740 -532 1589
-729 -528 1577
-728 -531 1588
-726 -533 1597
-720 -533 1598
-717 -534 1605
-716 -538 1616
-709 -536 1614
-695 -530 1597
-694 -533 1608
-687 -531 1605
-682 -532 1608
-685 -537 1627
-674 -533 1616
-667 -531 1613
-664 -533 1620
-658 -533 1619
-653 -533 1623
-643 -529 1613
-645 -535 1632
-639 -534 1632
-633 -534 1632
-628 -533 1632
-623 -534 1635
-620 -536 1642
-610 -532 1632
-605 -531 1633
-601 -533 1637
-602 -538 1657
-591 -533 1642
-588 -535 1650
-581 -533 1645
-575 -533 1646
-575 -537 1660
-568 -536 1658
-563 -536 1661
-558 -536 1662
-551 -534 1657
-545 -534 1657
-542 -536 1664
-537 -536 1667
-533 -537 1672
-525 -534 1663
-521 -536 1670
-516 -536 1670
-510 -535 1671
-508 -538 1680
-500 -535 1673
-496 -537 1679
-489 -535 1673
-487 -538 1685
-482 -538 1686
-475 -537 1683
-467 -534 1675
-461 -532 1672
-461 -539 1693
-455 -538 1690
-450 -538 1692
-444 -536 1688
-437 -535 1684
-435 -538 1694
-427 -535 1687
-423 -536 1690
-419 -537 1696
-415 -540 1704
-409 -539 1702
-402 -536 1694
-401 -541 1713
-393 -538 1703
-388 -537 1702
-383 -538 1705
-379 -540 1711
-374 -540 1714
-366 -536 1702
-360 -535 1697
-356 -536 1704
-353 -540 1717
-345 -536 1704
-343 -540 1718
-335 -535 1704
-330 -537 1709
-326 -538 1714
-320 -537 1711
-315 -538 1714
-311 -539 1719
-305 -538 1716
-301 -540 1722
-294 -536 1711
-289 -537 1714
-284 -538 1718
-279 -538 1720
-275 -541 1729
-265 -532 1699
-264 -539 1722
-258 -538 1721
-252 -535 1712
-248 -538 1720
-243 -538 1722
-237 -536 1716
-231 -536 1716
-228 -539 1725
-222 -539 1727
-216 -537 1721
-213 -541 1735
-208 -542 1739
-203 -544 1743
-197 -540 1732
-191 -538 1727
-186 -538 1725
-181 -539 1731
-173 -532 1706
-168 -530 1700
-152 -495 1589
-136 -460 1476
-131 -456 1466
-126 -453 1457
-120 -450 1447
-116 -450 1446
-111 -448 1441
-107 -449 1444
-103 -450 1446
-100 -454 1460
-97 -460 1479
-92 -459 1474
-89 -464 1491
-85 -468 1504
-84 -487 1567
-82 -505 1625
-82 -536 1723
-78 -540 1735
-73 -543 1748
-68 -543 1747
-63 -544 1748
-58 -546 1755
-52 -544 1749
-47 -542 1743
-42 -543 1746
-37 -544 1750
-31 -542 1742
-26 -545 1752
-21 -542 1742
-16 -543 1744
-10 -543 1746
-5 -540 1737
0 -543 1746
4 -540 1737
9 -540 1735
14 -539 1731
20 -545 1752
25 -543 1743
30 -541 1738
35 -545 1750
40 -540 1733
46 -541 1737
51 -541 1736
56 -540 1735
61 -545 1749
66 -539 1730
71 -541 1736
77 -542 1739
82 -544 1745
87 -539 1730
92 -543 1740
98 -543 1742
104 -548 1755
107 -540 1730
112 -539 1728
118 -540 1730
123 -539 1725
128 -540 1730
133 -541 1730
139 -542 1734
145 -544 1741
149 -540 1727
154 -540 1726
158 -537 1718
165 -543 1734
169 -539 1721
174 -538 1719
179 -540 1723
185 -540 1722
190 -541 1726
196 -544 1734
202 -544 1736
204 -538 1713
211 -541 1724
218 -545 1736
218 -534 1701
225 -539 1715
231 -540 1718
237 -543 1726
241 -539 1713
247 -542 1723
252 -540 1716
257 -541 1716
263 -543 1724
265 -537 1703
271 -539 1708
276 -538 1704
281 -538 1703
288 -542 1715
292 -539 1704
300 -544 1719
301 -538 1699
310 -543 1715
314 -541 1709
320 -543 1715
325 -543 1712
327 -538 1696
332 -538 1695
339 -540 1702
341 -536 1686
350 -541 1702
352 -537 1689
359 -540 1697
365 -540 1696
369 -539 1692
374 -540 1692
380 -540 1693
385 -540 1692
389 -539 1685
395 -540 1689
401 -541 1691
406 -541 1690
409 -538 1680
419 -545 1700
423 -543 1691
424 -538 1676
432 -541 1683
437 -541 1682
442 -541 1681
451 -545 1693
456 -546 1694
455 -539 1670
466 -545 1688
468 -541 1675
472 -541 1672
475 -538 1664
483 -541 1672
484 -537 1656
493 -541 1669
497 -540 1662
499 -536 1651
508 -541 1662
510 -537 1649
517 -539 1655
529 -546 1675
527 -539 1650
535 -542 1660
535 -537 1641
542 -539 1647
553 -544 1661
558 -544 1660
564 -546 1662
563 -540 1642
570 -541 1644
575 -541 1644
583 -543 1649
586 -542 1642
592 -543 1643
594 -540 1633
606 -546 1650
606 -542 1634
617 -547 1648
619 -544 1638
623 -543 1632
623 -538 1616
626 -536 1610
636 -541 1622
644 -543 1626
643 -538 1609
652 -541 1617
660 -544 1622
670 -548 1632
673 -546 1626
673 -542 1611
677 -541 1605
682 -541 1605
692 -545 1614
696 -544 1608
695 -539 1591
700 -539 1591
705 -539 1589
714 -542 1595
721 -544 1598
723 -541 1587
731 -543 1591
735 -542 1586
740 -543 1585
746 -543 1583
749 -541 1577
750 -539 1568
755 -539 1565
768 -544 1577
771 -543 1571
774 -541 1564
769 -534 1542
781 -539 1554
777 -533 1533
781 -532 1530
773 -523 1502
768 -517 1480
770 -515 1472
768 -510 1456
768 -507 1445
770 -505 1438
768 -501 1423
763 -494 1402
766 -493 1397
763 -489 1381
768 -488 1378
766 -484 1364
768 -483 1357
768 -480 1348
766 -476 1333
768 -474 1326
768 -472 1317
772 -471 1313
-909 -523 1498
-908 -525 1508
-911 -530 1524
-906 -530 1526
-893 -525 1516
-887 -525 1516
-885 -527 1525
-889 -532 1543
-872 -525 1525
-870 -527 1535
-860 -524 1528
-862 -528 1543
-856 -528 1543
-857 -532 1557
-851 -531 1558
-846 -532 1563
-833 -527 1549
-836 -532 1568
-829 -531 1566
-822 -530 1565
-822 -533 1577
-815 -532 1577
-806 -529 1572
-802 -530 1576
-804 -535 1594
-792 -531 1582
-785 -529 1581
-780 -530 1584
-780 -533 1596
-767 -528 1582
-770 -533 1600
-762 -532 1598
-758 -532 1601
-751 -531 1600
-746 -531 1603
-745 -534 1614
-732 -529 1599
-729 -530 1605
-725 -531 1611
-719 -531 1611
-711 -529 1607
-712 -533 1623
-706 -533 1624
-704 -535 1632
-692 -530 1618
-691 -533 1629
-689 -536 1640
-683 -535 1640
-680 -537 1647
-671 -533 1638
-668 -536 1647
-659 -533 1639
-657 -535 1648
-649 -533 1643
-647 -536 1653
-634 -529 1636
-632 -532 1645
-626 -531 1645
-627 -537 1662
-620 -535 1659
-614 -534 1658
-608 -533 1658
-603 -534 1662
-600 -536 1668
-594 -535 1668
-590 -536 1672
-584 -536 1673
-581 -538 1680
-573 -536 1675
-569 -536 1678
-564 -537 1682
-563 -541 1694
-552 -535 1680
-546 -535 1679
-542 -535 1682
-536 -535 1682
-530 -535 1682
-531 -541 1703
-519 -534 1683
-516 -536 1691
-513 -538 1698
-506 -537 1695
-502 -537 1699
-494 -535 1691
-491 -537 1700
-485 -537 1700
-479 -536 1699
-473 -535 1696
-469 -536 1702
-467 -540 1713
-456 -534 1696
-455 -538 1712
-449 -537 1709
-442 -536 1705
-440 -539 1718
-434 -538 1713
-427 -536 1709
-421 -535 1708
-414 -533 1703
-412 -537 1715
-405 -535 1711
-402 -538 1720
-395 -536 1714
-393 -540 1727
-386 -538 1722
-382 -539 1727
-377 -539 1727
-372 -540 1731
-367 -539 1730
-357 -533 1710
-352 -534 1714
-350 -538 1730
-343 -536 1721
-340 -538 1730
-339 -545 1753
-329 -537 1729
-323 -536 1726
-317 -536 1725
-312 -535 1725
-306 -535 1723
-304 -540 1741
-298 -540 1740
-294 -541 1746
-290 -543 1753
-282 -538 1737
-277 -538 1737
-271 -538 1738
-268 -542 1750
-261 -538 1737
-256 -538 1740
-251 -538 1741
-245 -539 1742
-239 -536 1734
-236 -541 1751
-230 -540 1747
-224 -538 1742
-218 -537 1738
-216 -543 1759
-209 -539 1745
-204 -539 1747
-198 -538 1745
-194 -541 1755
-189 -541 1753
-183 -540 1752
-177 -537 1740
-171 -534 1732
-157 -507 1646
-139 -463 1504
-132 -456 1481
-126 -450 1461
-121 -448 1454
-118 -452 1468
-113 -452 1469
-109 -451 1466
-104 -450 1463
-101 -454 1474
-97 -458 1487
-93 -462 1501
-89 -464 1507
-86 -469 1524
-83 -476 1545
-82 -502 1630
-82 -528 1715
-77 -533 1731
-73 -540 1754
-68 -542 1760
-63 -544 1767
-58 -543 1765
-52 -542 1760
-47 -543 1765
-42 -540 1755
-37 -545 1772
-31 -542 1760
-26 -539 1752
-21 -543 1765
-16 -543 1765
-11 -542 1762
-5 -542 1760
0 -543 1762
4 -543 1762
9 -541 1757
15 -538 1747
20 -538 1748
25 -540 1755
30 -540 1752
36 -544 1764
41 -539 1751
46 -542 1760
51 -542 1757
56 -541 1753
62 -542 1758
67 -542 1759
72 -541 1754
77 -541 1753
82 -539 1748
88 -543 1759
93 -539 1746
99 -546 1770
103 -540 1750
109 -545 1765
114 -542 1754
119 -539 1746
124 -539 1742
130 -542 1754
135 -541 1750
139 -537 1736
145 -539 1742
151 -542 1751
154 -536 1730
162 -544 1757
166 -542 1749
172 -545 1759
177 -542 1750
181 -540 1740
186 -540 1741
192 -541 1742
198 -542 1748
202 -539 1736
207 -539 1736
213 -541 1742
216 -537 1728
224 -542 1744
229 -543 1747
234 -542 1741
239 -541 1739
243 -539 1731
249 -541 1737
254 -541 1735
260 -542 1740
266 -543 1742
268 -538 1723
274 -540 1728
279 -538 1723
285 -540 1728
291 -541 1730
296 -542 1732
302 -542 1733
305 -539 1721
312 -541 1728
316 -540 1723
323 -543 1731
326 -540 1720
330 -538 1714
337 -540 1720
343 -542 1723
347 -540 1717
353 -541 1718
357 -539 1712
363 -540 1715
366 -538 1705
373 -539 1710
380 -542 1718
384 -541 1713
391 -543 1718
393 -539 1704
401 -543 1715
407 -544 1718
409 -540 1705
416 -542 1710
419 -539 1699
425 -540 1702
429 -539 1696
439 -545 1715
441 -541 1700
445 -540 1695
452 -542 1700
458 -543 1703
466 -546 1709
469 -544 1701
472 -541 1693
476 -539 1685
485 -544 1699
486 -539 1683
494 -542 1691
498 -541 1686
505 -543 1690
512 -545 1694
513 -541 1680
518 -541 1679
529 -547 1696
532 -545 1688
534 -541 1676
543 -545 1685
544 -541 1671
552 -544 1679
556 -542 1673
559 -540 1663
567 -543 1670
570 -541 1664
576 -542 1663
582 -542 1664
592 -547 1676
592 -542 1660
597 -542 1657
603 -543 1659
607 -542 1654
614 -543 1656
617 -541 1648
624 -543 1652
628 -542 1647
631 -540 1640
639 -543 1646
644 -543 1643
651 -544 1646
659 -546 1651
657 -541 1632
670 -547 1650
676 -547 1648
672 -540 1625
685 -547 1642
684 -541 1623
690 -542 1624
693 -540 1616
699 -541 1618
705 -542 1616
711 -543 1617
713 -540 1608
720 -541 1609
725 -541 1606
733 -543 1610
737 -543 1607
740 -541 1599
744 -540 1594
756 -546 1608
761 -545 1605
760 -541 1589
765 -541 1586
773 -543 1591
771 -538 1574
772 -535 1563
777 -535 1560
777 -531 1547
773 -525 1528
767 -518 1503
771 -517 1499
769 -512 1483
761 -504 1456
769 -506 1459
767 -501 1444
767 -498 1433
769 -497 1426
762 -489 1402
765 -488 1396
769 -487 1393
767 -484 1379
766 -480 1366
765 -476 1353
769 -476 1350
772 -475 1345
770 -471 1331
771 -469 1323
771 -466 1313
-926 -527 1527
-918 -525 1525
-918 -529 1537
-910 -527 1536
-909 -530 1545
-907 -531 1552
-892 -526 1540
-888 -526 1544
-882 -526 1544
-880 -528 1552
-874 -528 1555
-873 -530 1564
-868 -530 1568
-858 -527 1562
-862 -533 1581
-857 -533 1583
-848 -531 1579
-844 -531 1583
-835 -529 1579
-837 -534 1596
-832 -534 1598
-815 -527 1578
-814 -529 1589
-808 -529 1589
-803 -529 1593
-805 -534 1610
-792 -529 1595
-789 -530 1603
-784 -531 1606
-776 -528 1601
-774 -531 1610
-768 -531 1612
-767 -533 1623
-761 -533 1624
-755 -532 1624
-755 -536 1638
-742 -531 1622
-737 -531 1625
-739 -536 1643
-726 -531 1629
-727 -535 1644
-716 -531 1634
-707 -528 1627
-709 -534 1645
-707 -536 1655
-699 -534 1650
-693 -533 1649
-686 -532 1647
-680 -531 1648
-680 -535 1662
-672 -534 1659
-669 -535 1665
-662 -534 1663
-651 -529 1649
-648 -531 1657
-649 -537 1676
-641 -534 1669
-634 -533 1667
-633 -537 1681
-621 -531 1665
-616 -531 1667
-612 -532 1672
-614 -538 1692
-606 -536 1687
-599 -535 1684
-595 -536 1689
-588 -534 1686
-583 -534 1686
-577 -534 1687
-576 -538 1701
-570 -537 1699
-559 -532 1686
-561 -539 1709
-553 -536 1700
-552 -540 1715
-542 -535 1702
-534 -533 1696
-533 -537 1710
-526 -536 1707
-522 -537 1712
-515 -535 1707
-514 -540 1724
-507 -538 1718
-500 -536 1714
-497 -538 1722
-491 -538 1721
-484 -536 1718
-479 -536 1719
-472 -535 1715
-469 -536 1722
-464 -537 1725
-457 -535 1720
-455 -540 1735
-447 -536 1724
-442 -536 1726
-436 -536 1726
-431 -536 1729
-425 -535 1726
-423 -539 1738
-419 -541 1746
-412 -538 1739
-404 -536 1731
-399 -535 1730
-397 -539 1744
-390 -538 1741
-387 -540 1749
-382 -541 1751
-375 -539 1748
-370 -539 1749
-362 -535 1736
-358 -537 1742
-355 -541 1756
-350 -541 1756
-345 -541 1759
-339 -541 1758
-329 -533 1734
-326 -537 1748
-320 -536 1744
-314 -534 1740
-311 -537 1750
-304 -536 1746
-301 -539 1756
-295 -537 1752
-291 -541 1764
-284 -538 1754
-280 -539 1759
-276 -541 1766
-270 -541 1766
-263 -536 1752
-258 -538 1759
-253 -539 1761
-248 -540 1765
-242 -537 1756
-237 -538 1759
-232 -538 1761
-229 -543 1777
-220 -536 1753
-217 -540 1768
-212 -541 1770
-207 -541 1773
-201 -540 1768
-196 -542 1776
-191 -541 1774
-185 -541 1774
-179 -539 1766
-174 -538 1763
-166 -530 1737
-143 -472 1548
-134 -459 1504
-128 -451 1481
-123 -452 1483
-118 -450 1477
-114 -451 1479
-109 -449 1473
-105 -449 1475
-102 -456 1495
-98 -456 1496
-94 -460 1510
-91 -466 1529
-87 -471 1548
-83 -476 1564
-83 -500 1642
-82 -527 1729
-79 -538 1768
-74 -540 1773
-69 -540 1773
-63 -541 1776
-58 -543 1783
-53 -544 1787
-48 -543 1783
-43 -546 1794
-37 -543 1784
-32 -544 1787
-27 -543 1783
-21 -542 1778
-16 -542 1781
-11 -541 1775
-5 -543 1782
0 -541 1776
4 -542 1778
10 -544 1786
15 -541 1776
20 -544 1785
25 -541 1774
31 -541 1773
36 -542 1778
41 -542 1778
46 -541 1774
52 -543 1780
57 -544 1784
62 -542 1776
67 -537 1760
73 -541 1771
78 -540 1770
83 -539 1765
89 -541 1770
93 -537 1759
99 -541 1770
104 -540 1767
109 -539 1762
116 -544 1780
120 -541 1769
125 -540 1765
131 -541 1768
136 -540 1763
140 -537 1756
146 -540 1764
151 -539 1759
157 -540 1763
161 -538 1756
168 -541 1765
172 -538 1755
178 -540 1760
183 -541 1763
188 -539 1756
194 -542 1765
199 -542 1764
204 -540 1759
209 -539 1754
214 -538 1751
221 -542 1762
224 -538 1749
232 -544 1767
235 -540 1753
242 -543 1762
245 -538 1745
250 -538 1744
256 -539 1747
262 -542 1755
269 -544 1764
272 -541 1751
277 -539 1746
285 -544 1761
288 -541 1749
293 -540 1746
298 -540 1746
304 -541 1746
306 -536 1729
315 -541 1746
320 -541 1743
325 -541 1743
330 -541 1743
335 -541 1741
342 -542 1745
346 -541 1739
352 -542 1743
355 -539 1732
359 -537 1725
368 -542 1739
371 -540 1730
376 -539 1726
384 -543 1738
385 -537 1719
396 -544 1741
399 -543 1734
404 -542 1731
405 -535 1709
414 -541 1724
421 -543 1732
424 -540 1720
431 -543 1728
434 -540 1716
441 -542 1722
444 -540 1714
449 -539 1711
460 -546 1731
461 -541 1713
467 -542 1715
470 -539 1705
476 -540 1706
484 -543 1716
486 -540 1703
491 -540 1702
501 -545 1717
501 -539 1698
506 -539 1695
512 -540 1696
522 -545 1711
523 -540 1695
527 -540 1691
533 -540 1690
542 -543 1700
544 -541 1691
548 -539 1684
554 -540 1685
563 -544 1694
566 -541 1686
572 -542 1687
577 -542 1684
583 -543 1685
589 -544 1687
587 -537 1664
603 -547 1692
603 -543 1677
611 -545 1682
615 -544 1678
618 -542 1670
624 -542 1670
630 -543 1671
633 -541 1661
635 -538 1651
646 -544 1666
648 -541 1655
658 -545 1665
662 -544 1661
670 -546 1666
671 -543 1653
674 -540 1644
685 -545 1658
687 -543 1647
696 -545 1653
698 -543 1645
703 -543 1643
710 -544 1644
715 -544 1642
720 -544 1638
725 -544 1636
730 -543 1632
731 -541 1622
737 -541 1622
745 -543 1626
745 -540 1612
754 -542 1618
758 -542 1614
765 -542 1614
769 -542 1610
771 -540 1601
772 -537 1590
778 -538 1590
786 -539 1592
779 -531 1565
774 -524 1543
771 -518 1524
770 -515 1511
766 -509 1491
765 -504 1476
767 -503 1469
762 -497 1448
762 -494 1437
766 -493 1432
768 -491 1425
765 -486 1408
764 -482 1395
768 -482 1392
766 -478 1377
766 -475 1367
767 -473 1358
770 -472 1353
769 -469 1342
770 -467 1334
774 -466 1330
770 -462 1314
-940 -530 1552
-929 -527 1546
-925 -527 1550
-921 -528 1555
-907 -523 1543
-916 -531 1569
-907 -529 1566
-904 -531 1573
-884 -522 1550
-891 -529 1575
-886 -530 1578
-884 -532 1586
-869 -525 1570
-873 -531 1590
-860 -527 1579
-860 -530 1591
-861 -534 1605
-843 -526 1585
-849 -533 1607
-841 -531 1605
-832 -529 1600
-834 -533 1616
-819 -527 1600
-819 -531 1613
-810 -529 1609
-810 -532 1621
-804 -532 1622
-801 -533 1629
-796 -533 1632
-784 -529 1620
-783 -532 1631
-778 -532 1635
-764 -526 1617
-770 -534 1644
-759 -530 1634
-759 -534 1647
-749 -530 1639
-749 -534 1653
-741 -533 1650
-737 -533 1653
-734 -535 1661
-723 -531 1651
-718 -531 1652
-717 -534 1665
-712 -535 1668
-706 -534 1669
-693 -528 1652
-694 -533 1669
-689 -533 1672
-684 -533 1673
-677 -532 1671
-673 -533 1676
-665 -531 1672
-665 -535 1687
-657 -534 1683
-653 -535 1688
-646 -533 1685
-638 -531 1679
-634 -532 1684
-634 -537 1700
-624 -532 1688
-621 -534 1696
-616 -534 1698
-606 -531 1689
-603 -533 1698
-597 -532 1695
-588 -529 1687
-593 -538 1717
-588 -538 1720
-576 -533 1703
-574 -535 1713
-567 -534 1709
-560 -533 1708
-559 -536 1721
-552 -535 1718
-547 -535 1719
-540 -534 1717
-537 -536 1723
-530 -535 1722
-530 -540 1739
-520 -535 1726
-517 -538 1735
-509 -534 1725
-506 -537 1737
-500 -536 1734
-494 -536 1734
-489 -536 1735
-482 -535 1733
-477 -535 1735
-473 -537 1741
-469 -537 1744
-463 -537 1745
-457 -536 1743
-452 -537 1745
-449 -539 1754
-446 -543 1767
-437 -538 1752
-431 -537 1751
-427 -539 1759
-419 -535 1746
-417 -539 1760
-411 -540 1762
-406 -539 1761
-401 -539 1763
-392 -535 1751
-390 -540 1768
-385 -540 1768
-379 -539 1767
-371 -535 1754
-369 -540 1771
-360 -535 1754
-354 -534 1753
-351 -538 1766
-346 -538 1766
-341 -539 1770
-336 -539 1772
-329 -537 1766
-323 -535 1758
-319 -538 1771
-314 -538 1770
-309 -539 1776
-302 -536 1766
-300 -541 1782
-293 -538 1773
-286 -535 1764
-285 -544 1793
-276 -537 1771
-271 -537 1772
-268 -541 1787
-261 -539 1780
-254 -536 1771
-250 -539 1779
-244 -538 1777
-241 -542 1793
-235 -541 1787
-229 -539 1781
-224 -540 1785
-219 -540 1788
-214 -543 1795
-209 -541 1791
-202 -537 1779
-196 -537 1778
-192 -540 1787
-187 -541 1792
-180 -536 1775
-176 -539 1786
-169 -535 1774
-150 -491 1626
-136 -461 1529
-129 -451 1496
-123 -448 1484
-120 -451 1495
-116 -452 1500
-110 -449 1488
-107 -453 1502
-102 -451 1497
-98 -455 1510
-95 -460 1525
-90 -459 1524
-87 -465 1543
-83 -470 1561
-83 -493 1637
-82 -521 1730
-79 -532 1766
-74 -539 1788
-70 -543 1802
-64 -544 1804
-59 -546 1810
-53 -542 1797
-48 -539 1788
-43 -543 1801
-37 -542 1799
-32 -546 1810
-27 -546 1813
-21 -543 1800
-16 -539 1787
-11 -541 1795
-5 -544 1803
0 -538 1786
4 -540 1792
10 -542 1796
15 -537 1780
20 -539 1788
26 -539 1787
31 -542 1795
36 -541 1793
42 -542 1797
47 -543 1798
52 -541 1791
57 -540 1788
63 -539 1786
69 -546 1807
73 -541 1790
79 -542 1795
84 -537 1776
89 -540 1787
95 -540 1786
100 -542 1794
105 -541 1789
110 -538 1778
116 -540 1785
122 -543 1795
126 -539 1782
133 -544 1797
138 -542 1789
142 -540 1782
148 -541 1786
153 -541 1785
158 -540 1781
164 -542 1788
169 -541 1783
175 -542 1786
180 -542 1787
185 -542 1785
190 -539 1775
197 -544 1789
202 -543 1787
206 -539 1774
210 -537 1765
217 -541 1777
223 -544 1786
229 -543 1784
234 -543 1783
238 -540 1774
244 -542 1778
248 -538 1766
252 -538 1762
257 -537 1758
264 -539 1764
267 -535 1752
273 -537 1757
279 -539 1762
287 -543 1776
290 -539 1762
296 -541 1765
301 -539 1760
304 -536 1750
312 -541 1763
317 -541 1762
323 -542 1765
330 -544 1771
334 -543 1766
336 -537 1748
343 -540 1755
347 -538 1747
352 -537 1745
361 -543 1762
363 -537 1742
370 -540 1749
375 -541 1751
380 -539 1746
387 -542 1754
393 -543 1754
395 -539 1742
402 -541 1746
405 -538 1735
412 -540 1743
417 -539 1738
425 -544 1751
428 -541 1740
434 -541 1739
436 -537 1727
443 -539 1732
448 -539 1729
457 -544 1744
460 -541 1734
466 -542 1735
475 -546 1747
477 -542 1733
482 -542 1730
487 -541 1727
492 -541 1726
498 -542 1729
506 -545 1734
507 -540 1718
513 -542 1722
520 -543 1725
522 -539 1711
529 -542 1717
533 -540 1712
542 -544 1722
543 -540 1707
549 -540 1706
555 -541 1706
561 -542 1709
568 -543 1711
572 -542 1705
578 -543 1707
581 -541 1699
591 -545 1711
593 -543 1701
599 -543 1699
603 -542 1694
609 -542 1693
610 -539 1682
621 -544 1695
626 -543 1692
629 -542 1685
636 -543 1688
637 -539 1673
643 -540 1674
652 -543 1682
659 -544 1684
660 -541 1671
670 -545 1682
675 -544 1678
676 -541 1666
680 -540 1661
690 -544 1670
692 -541 1661
696 -541 1656
707 -545 1667
710 -543 1659
717 -545 1662
720 -542 1654
725 -543 1653
733 -545 1657
737 -544 1651
743 -544 1649
747 -543 1645
749 -541 1635
752 -540 1629
762 -543 1637
768 -543 1635
767 -539 1621
773 -539 1620
773 -536 1606
780 -537 1607
780 -533 1594
776 -527 1573
773 -522 1555
770 -516 1536
770 -513 1524
766 -507 1504
765 -503 1490
769 -502 1485
767 -498 1471
764 -493 1454
766 -491 1444
769 -490 1440
765 -484 1421
764 -481 1408
767 -480 1403
768 -477 1393
765 -473 1377
771 -474 1377
770 -470 1365
770 -467 1355
769 -464 1343
779 -467 1349
772 -460 1327
773 -458 1319
-947 -528 1565
-941 -528 1567
-943 -532 1582
-924 -525 1562
-927 -529 1579
-923 -530 1584
-912 -527 1577
-913 -530 1590
-900 -526 1581
-901 -530 1594
-896 -530 1597
-886 -527 1591
-876 -524 1585
-882 -532 1609
-876 -531 1610
-862 -526 1596
-867 -532 1618
-858 -530 1613
-852 -529 1614
-846 -529 1616
-843 -530 1622
-836 -529 1621
-838 -534 1639
-833 -535 1642
-825 -533 1640
-811 -527 1625
-811 -531 1637
-810 -533 1648
-799 -530 1639
-793 -529 1640
-793 -533 1654
-783 -530 1646
-777 -529 1646
-771 -530 1649
-762 -526 1641
-763 -531 1657
-754 -528 1651
-751 -530 1658
-742 -528 1653
-743 -532 1669
-734 -530 1663
-726 -528 1659
-728 -533 1679
-718 -530 1670
-715 -532 1678
-711 -532 1681
-705 -532 1681
-700 -532 1685
-698 -535 1694
-689 -532 1687
-685 -534 1694
-678 -532 1692
-671 -531 1689
-667 -531 1693
-668 -537 1711
-667 -540 1724
-656 -536 1713
-648 -534 1708
-640 -532 1702
-636 -533 1706
-633 -535 1716
-627 -535 1716
-627 -539 1732
-614 -533 1713
-610 -533 1716
-609 -537 1730
-600 -534 1722
-597 -536 1730
-591 -536 1732
-586 -536 1734
-577 -533 1723
-575 -536 1736
-566 -533 1726
-564 -536 1739
-556 -534 1732
-555 -538 1746
-547 -535 1738
-543 -537 1746
-534 -533 1736
-528 -533 1736
-527 -536 1749
-521 -536 1748
-515 -536 1748
-508 -534 1745
-505 -536 1754
-500 -537 1755
-490 -531 1740
-489 -536 1756
-482 -535 1754
-480 -538 1765
-474 -538 1766
-468 -537 1763
-466 -541 1778
-458 -539 1772
-452 -538 1770
-443 -533 1755
-440 -537 1767
-437 -539 1776
-428 -534 1761
-426 -539 1776
-419 -537 1771
-416 -540 1783
-411 -541 1788
-403 -537 1775
-398 -538 1778
-393 -539 1783
-385 -534 1768
-382 -538 1783
-377 -539 1784
-370 -537 1779
-364 -535 1773
-360 -537 1780
-354 -536 1779
-350 -539 1789
-346 -541 1798
-339 -538 1786
-335 -541 1797
-328 -538 1788
-320 -533 1773
-315 -535 1779
-312 -539 1794
-308 -541 1802
-304 -543 1807
-294 -535 1783
-290 -538 1792
-286 -539 1798
-278 -536 1788
-275 -540 1803
-269 -538 1796
-264 -540 1801
-256 -533 1780
-253 -539 1799
-247 -537 1794
-242 -540 1803
-236 -537 1794
-231 -538 1797
-227 -541 1807
-221 -540 1805
-217 -544 1820
-210 -539 1804
-204 -538 1801
-200 -541 1810
-193 -539 1803
-189 -540 1807
-183 -539 1804
-176 -535 1792
-171 -536 1796
-155 -503 1683
-138 -463 1551
-131 -454 1522
-126 -453 1517
-122 -453 1519
-117 -451 1512
-112 -450 1509
-107 -450 1510
-103 -452 1515
-99 -454 1523
-96 -459 1538
-90 -456 1529
-88 -465 1561
-85 -474 1589
-82 -487 1633
-82 -515 1729
-80 -533 1788
-75 -541 1814
-70 -542 1819
-65 -545 1827
-60 -546 1830
-54 -542 1819
-49 -547 1835
-43 -542 1818
-38 -539 1806
-33 -544 1825
-27 -545 1828
-22 -542 1816
-16 -543 1822
-11 -542 1817
-5 -544 1823
0 -543 1821
4 -541 1813
10 -542 1818
15 -542 1818
21 -545 1825
26 -542 1818
31 -543 1818
37 -543 1819
42 -541 1813
47 -542 1814
52 -538 1802
58 -543 1820
64 -542 1813
69 -543 1817
74 -541 1812
80 -541 1812
85 -540 1807
90 -540 1807
96 -543 1816
100 -537 1796
107 -542 1813
111 -537 1794
118 -545 1820
123 -541 1806
128 -543 1814
133 -540 1802
138 -537 1794
144 -541 1806
150 -542 1807
155 -540 1802
160 -539 1798
166 -542 1808
172 -544 1814
175 -536 1785
180 -535 1783
185 -536 1784
194 -544 1811
199 -545 1812
204 -543 1806
208 -539 1793
214 -542 1801
218 -538 1789
223 -536 1781
230 -540 1794
235 -541 1797
240 -539 1788
245 -539 1787
251 -540 1789
255 -538 1784
261 -538 1783
266 -539 1783
272 -539 1783
279 -542 1793
284 -541 1789
289 -542 1791
295 -542 1791
300 -543 1791
304 -540 1781
308 -538 1775
314 -539 1777
321 -542 1786
328 -543 1789
331 -541 1780
338 -543 1787
339 -536 1762
345 -537 1766
355 -545 1789
356 -538 1766
360 -535 1756
370 -543 1779
374 -541 1772
377 -537 1758
384 -539 1765
389 -539 1762
394 -539 1760
401 -542 1769
406 -540 1764
411 -540 1760
418 -542 1768
421 -539 1756
426 -539 1754
433 -542 1762
437 -540 1754
444 -541 1759
450 -542 1761
457 -545 1767
459 -540 1751
465 -542 1754
471 -542 1753
476 -542 1753
480 -540 1746
485 -540 1744
494 -544 1754
499 -543 1752
502 -541 1742
509 -542 1745
511 -539 1734
519 -542 1743
524 -542 1739
530 -542 1739
532 -539 1728
543 -545 1744
544 -541 1730
552 -543 1736
552 -538 1719
563 -543 1732
564 -540 1720
574 -543 1730
577 -542 1723
584 -543 1726
587 -541 1719
593 -542 1718
599 -543 1719
605 -543 1718
613 -545 1724
619 -546 1725
621 -543 1713
626 -543 1711
630 -541 1705
635 -541 1701
640 -541 1700
647 -543 1703
655 -544 1706
659 -543 1701
663 -542 1696
673 -546 1707
675 -544 1697
684 -547 1704
685 -543 1689
690 -543 1688
687 -537 1666
701 -543 1685
710 -546 1690
709 -541 1674
718 -544 1679
717 -539 1664
728 -543 1674
731 -542 1668
741 -545 1675
744 -543 1667
746 -541 1659
749 -540 1652
761 -544 1662
762 -541 1652
767 -541 1649
773 -541 1647
772 -537 1632
779 -538 1634
776 -533 1615
774 -528 1596
776 -526 1589
769 -517 1561
767 -512 1544
765 -508 1528
770 -508 1526
771 -505 1515
769 -501 1499
764 -494 1478
764 -491 1466
766 -489 1458
767 -487 1449
763 -481 1429
768 -482 1429
765 -477 1412
766 -474 1402
768 -473 1394
768 -470 1384
769 -468 1376
771 -466 1368
774 -465 1363
774 -463 1353
777 -462 1349
777 -459 1338
779 -457 1330
-950 -525 1572
-958 -532 1597
-953 -532 1600
-935 -526 1583
-931 -526 1588
-931 -529 1599
-928 -531 1607
-917 -527 1599
-915 -529 1608
-908 -529 1608
-897 -525 1600
-898 -529 1614
-891 -528 1614
-886 -528 1617
-887 -532 1632
-878 -530 1627
-870 -528 1625
-856 -523 1612
-864 -532 1639
-851 -527 1626
-848 -529 1635
-849 -532 1649
-844 -533 1652
-835 -530 1648
-828 -530 1648
-826 -531 1655
-820 -531 1657
-814 -531 1658
-811 -532 1665
-801 -529 1658
-805 -536 1681
-791 -530 1664
-786 -531 1668
-786 -534 1681
-775 -530 1672
-768 -529 1671
-761 -528 1670
-755 -528 1670
-749 -527 1671
-750 -532 1688
-744 -532 1688
-739 -532 1691
-733 -531 1691
-722 -528 1681
-727 -535 1707
-719 -533 1703
-712 -532 1700
-710 -534 1709
-700 -531 1703
-700 -536 1717
-689 -531 1704
-688 -534 1718
-678 -531 1708
-676 -534 1719
-665 -529 1707
-667 -535 1726
-661 -535 1727
-652 -532 1720
-651 -535 1733
-641 -531 1721
-642 -537 1742
-633 -534 1733
-633 -539 1749
-621 -533 1734
-616 -534 1736
-613 -535 1744
-605 -533 1739
-604 -537 1753
-596 -536 1749
-593 -537 1756
-588 -537 1757
-579 -534 1748
-575 -535 1754
-566 -533 1746
-565 -536 1760
-559 -537 1762
-557 -540 1773
-553 -541 1778
-541 -535 1761
-537 -536 1766
-530 -535 1763
-524 -533 1759
-523 -538 1776
-518 -539 1780
-509 -536 1770
-504 -535 1771
-498 -535 1771
-490 -532 1763
-491 -540 1788
-486 -540 1792
-478 -537 1781
-474 -539 1790
-466 -536 1781
-457 -532 1768
-457 -538 1788
-451 -537 1787
-448 -540 1798
-441 -539 1795
-431 -534 1778
-429 -537 1790
-425 -539 1798
-421 -541 1805
-411 -535 1787
-405 -534 1786
-404 -541 1808
-397 -538 1799
-390 -537 1795
-386 -538 1802
-381 -539 1804
-375 -538 1802
-371 -540 1809
-364 -538 1802
-356 -535 1794
-351 -536 1797
-349 -541 1814
-342 -538 1805
-336 -537 1804
-331 -538 1806
-324 -535 1799
-319 -535 1799
-318 -544 1829
-309 -537 1808
-304 -538 1810
-297 -536 1804
-291 -534 1800
-287 -536 1806
-284 -542 1826
-277 -538 1812
-270 -536 1808
-266 -538 1815
-260 -537 1811
-256 -540 1822
-248 -535 1807
-243 -536 1809
-238 -537 1813
-236 -545 1840
-228 -539 1823
-223 -541 1827
-219 -543 1835
-213 -541 1828
-207 -540 1825
-201 -539 1824
-196 -539 1824
-190 -538 1821
-186 -542 1836
-180 -542 1835
-172 -535 1810
-164 -524 1774
-142 -472 1599
-132 -454 1539
-127 -451 1529
-123 -454 1538
-118 -451 1526
-112 -446 1512
-108 -450 1525
-104 -451 1529
-100 -455 1543
-96 -454 1540
-92 -461 1562
-88 -461 1563
-85 -471 1597
-82 -482 1634
-82 -512 1734
-81 -534 1810
-76 -540 1830
-71 -540 1832
-65 -540 1832
-60 -543 1841
-55 -544 1845
-49 -544 1844
-44 -542 1838
-38 -541 1835
-33 -545 1848
-27 -541 1835
-22 -541 1834
-16 -542 1838
-11 -543 1840
-5 -540 1830
0 -541 1832
4 -543 1840
10 -541 1833
15 -543 1840
21 -541 1831
26 -542 1835
32 -544 1842
37 -546 1847
42 -537 1817
48 -543 1837
53 -541 1833
59 -544 1842
64 -542 1833
69 -538 1819
75 -540 1828
81 -543 1837
86 -542 1832
92 -542 1834
96 -539 1822
102 -538 1818
108 -542 1831
113 -541 1828
119 -542 1829
124 -543 1833
129 -541 1826
135 -541 1825
139 -538 1816
146 -541 1826
151 -541 1825
157 -542 1828
162 -542 1827
168 -543 1828
174 -544 1832
177 -537 1807
183 -539 1813
189 -541 1820
194 -540 1816
200 -542 1822
206 -543 1826
210 -540 1815
215 -539 1812
219 -536 1800
227 -542 1821
234 -544 1826
237 -539 1809
243 -540 1812
250 -544 1823
252 -538 1803
260 -544 1820
263 -539 1803
271 -543 1816
276 -542 1812
282 -544 1818
286 -540 1805
289 -536 1791
297 -542 1808
302 -541 1806
309 -542 1809
313 -540 1799
318 -539 1797
324 -541 1803
327 -537 1788
335 -541 1800
340 -541 1800
346 -542 1801
352 -543 1804
358 -543 1804
360 -539 1788
367 -540 1791
375 -544 1803
377 -539 1786
382 -539 1783
392 -546 1805
395 -543 1793
402 -545 1800
403 -538 1776
412 -543 1793
414 -539 1777
423 -543 1790
422 -536 1764
432 -541 1779
437 -541 1780
442 -540 1774
446 -539 1769
457 -546 1790
462 -545 1788
465 -542 1776
470 -542 1773
473 -539 1762
478 -539 1761
486 -541 1768
490 -539 1760
496 -541 1765
497 -536 1747
506 -540 1759
513 -542 1762
520 -543 1766
525 -543 1764
531 -544 1764
535 -543 1759
540 -542 1755
543 -539 1744
549 -540 1746
557 -542 1752
563 -543 1753
566 -541 1745
573 -542 1746
578 -542 1746
580 -539 1734
590 -543 1744
590 -538 1728
599 -542 1736
605 -542 1737
611 -543 1736
616 -542 1733
623 -544 1735
624 -540 1722
629 -540 1719
636 -541 1722
643 -543 1725
645 -540 1715
655 -544 1724
657 -541 1715
665 -543 1718
674 -546 1726
678 -545 1721
678 -540 1705
686 -543 1710
693 -544 1711
698 -544 1708
701 -542 1700
711 -546 1711
713 -543 1700
717 -542 1695
719 -540 1685
728 -542 1691
733 -542 1688
737 -540 1681
738 -538 1671
753 -544 1689
752 -540 1674
759 -541 1674
762 -539 1667
765 -538 1661
772 -539 1660
774 -537 1652
774 -533 1638
780 -533 1636
770 -523 1603
767 -518 1584
769 -516 1575
770 -513 1564
765 -506 1542
766 -504 1532
766 -500 1518
764 -495 1502
763 -492 1489
768 -492 1487
767 -488 1473
769 -486 1465
759 -477 1435
767 -479 1438
767 -476 1427
765 -472 1412
775 -475 1420
774 -472 1407
772 -468 1392
770 -464 1379
772 -462 1371
772 -460 1361
778 -460 1361
775 -456 1345
782 -457 1348
782 -455 1337
-966 -528 1600
-964 -530 1609
-953 -527 1603
-956 -531 1619
-938 -525 1601
-935 -526 1607
-932 -527 1614
-928 -529 1621
-923 -528 1623
-913 -526 1618
-915 -531 1635
-908 -529 1634
-901 -528 1633
-900 -531 1645
-884 -525 1628
-879 -525 1631
-882 -530 1649
-879 -532 1656
-870 -530 1653
-864 -530 1655
-862 -532 1663
-854 -530 1660
-842 -526 1649
-843 -530 1665
-838 -531 1669
-839 -534 1684
-831 -533 1681
-815 -526 1661
-820 -533 1685
-812 -532 1683
-807 -532 1686
-798 -529 1681
-790 -528 1678
-791 -532 1694
-783 -530 1690
-781 -533 1701
-776 -533 1704
-768 -531 1700
-758 -528 1692
-761 -534 1712
-754 -533 1711
-749 -534 1715
-745 -534 1719
-738 -533 1719
-728 -530 1710
-728 -535 1726
-722 -534 1725
-715 -532 1723
-714 -537 1738
-707 -535 1735
-696 -531 1724
-693 -533 1732
-688 -533 1734
-686 -536 1744
-675 -532 1733
-675 -536 1749
-668 -535 1746
-663 -535 1750
-650 -529 1732
-650 -534 1749
-640 -530 1736
-639 -534 1752
-636 -535 1758
-627 -533 1753
-627 -537 1768
-621 -538 1770
-614 -536 1765
-611 -538 1776
-605 -538 1776
-600 -538 1777
-594 -537 1777
-588 -537 1777
-580 -535 1771
-571 -532 1764
-566 -532 1765
-561 -532 1768
-561 -538 1786
-556 -538 1789
-549 -537 1787
-539 -533 1774
-538 -538 1791
-533 -538 1794
-526 -536 1790
-522 -538 1796
-514 -535 1787
-513 -540 1806
-504 -536 1793
-497 -535 1790
-496 -539 1806
-488 -537 1801
-485 -539 1808
-477 -537 1802
-469 -534 1794
-464 -535 1797
-464 -541 1818
-454 -536 1801
-447 -534 1798
-447 -541 1822
-442 -541 1822
-436 -540 1821
-430 -541 1823
-426 -543 1831
-421 -543 1832
-414 -540 1824
-405 -536 1811
-401 -538 1819
-398 -542 1832
-390 -538 1819
-382 -535 1810
-375 -533 1804
-373 -538 1822
-370 -542 1837
-361 -537 1820
-353 -533 1808
-351 -538 1826
-345 -537 1823
-342 -541 1839
-336 -539 1833
-330 -540 1836
-324 -539 1832
-316 -535 1819
-311 -536 1823
-309 -542 1844
-302 -539 1835
-297 -540 1838
-290 -538 1831
-287 -541 1843
-280 -538 1834
-272 -534 1821
-270 -540 1842
-262 -536 1830
-256 -535 1826
-254 -542 1850
-247 -538 1837
-243 -541 1849
-235 -537 1836
-231 -540 1844
-224 -537 1834
-222 -544 1859
-215 -540 1847
-208 -539 1842
-202 -537 1835
-197 -538 1841
-193 -541 1852
-187 -541 1850
-180 -537 1838
-174 -534 1826
-165 -524 1793
-145 -476 1631
-135 -460 1574
-130 -457 1565
-123 -450 1542
-119 -450 1542
-114 -452 1548
-109 -450 1541
-105 -452 1548
-101 -453 1552
-97 -455 1558
-93 -460 1576
-89 -464 1590
-85 -466 1596
-83 -483 1654
-83 -509 1745
-82 -536 1836
-77 -541 1854
-71 -538 1843
-66 -541 1854
-61 -542 1856
-56 -546 1872
-50 -542 1857
-44 -540 1851
-39 -543 1859
-33 -540 1850
-28 -546 1869
-22 -545 1868
-17 -541 1852
-11 -544 1864
-5 -539 1845
0 -540 1850
4 -540 1850
10 -540 1850
15 -541 1853
21 -547 1874
26 -542 1856
32 -537 1840
37 -539 1846
43 -540 1849
48 -542 1855
54 -540 1849
60 -543 1857
65 -543 1857
71 -543 1857
76 -543 1855
81 -540 1845
87 -540 1846
92 -538 1838
98 -544 1860
103 -540 1843
110 -545 1862
114 -542 1849
120 -543 1855
125 -539 1839
130 -540 1842
136 -539 1838
141 -538 1835
147 -543 1850
153 -542 1847
158 -541 1844
162 -537 1829
169 -540 1841
175 -541 1843
179 -538 1831
185 -541 1839
192 -545 1854
197 -542 1843
202 -543 1845
206 -538 1830
213 -543 1845
218 -540 1835
223 -540 1832
228 -539 1830
235 -541 1835
241 -544 1846
245 -541 1833
249 -537 1821
258 -544 1844
261 -540 1828
265 -536 1814
273 -541 1831
279 -542 1833
283 -540 1825
290 -543 1833
296 -543 1834
301 -543 1833
306 -542 1830
311 -542 1826
313 -536 1806
321 -540 1820
329 -543 1828
332 -539 1814
340 -543 1827
343 -539 1812
351 -544 1826
353 -539 1810
360 -540 1813
364 -539 1807
371 -541 1812
378 -543 1820
382 -542 1813
386 -539 1802
392 -540 1807
400 -543 1815
405 -544 1815
410 -542 1809
413 -539 1796
421 -543 1808
427 -543 1809
431 -542 1803
435 -540 1796
443 -543 1804
448 -542 1801
453 -542 1799
456 -538 1786
463 -540 1791
468 -540 1788
476 -543 1797
483 -545 1801
483 -538 1779
494 -544 1798
496 -541 1785
501 -540 1782
505 -539 1776
515 -544 1790
513 -536 1763
524 -542 1781
532 -544 1787
536 -544 1783
