VERSION 0.7
FIELDS x y z
SIZE 4 4 4
TYPE I I I
COUNT 1 1 1
WIDTH 3222
HEIGHT 1
VIEWPOINT 0.0 0.0 0.0 1.0 0.0 0.0 0.0
POINTS 3222
DATA ascii
121 -558 3222
128 -548 3168
138 -551 3185
147 -551 3182
155 -546 3153
164 -546 3152
175 -553 3192
184 -553 3188
194 -554 3196
202 -549 3168
211 -550 3169
219 -548 3156
229 -548 3158
241 -555 3199
248 -550 3166
258 -552 3176
267 -552 3176
275 -549 3157
287 -554 3189
293 -548 3151
303 -550 3161
313 -551 3164
319 -545 3134
332 -553 3173
343 -555 3184
345 -544 3120
355 -545 3128
367 -549 3149
376 -549 3149
387 -552 3162
394 -549 3142
398 -542 3105
416 -554 3171
421 -548 3134
427 -544 3110
444 -554 3165
446 -545 3116
459 -551 3145
467 -549 3136
474 -547 3120
481 -544 3104
493 -547 3119
500 -545 3105
508 -544 3100
519 -546 3108
529 -547 3114
537 -546 3107
543 -543 3088
556 -546 3105
566 -547 3108
575 -548 3108
586 -549 3116
594 -548 3107
603 -549 3109
614 -550 3115
617 -544 3080
632 -550 3111
643 -551 3117
649 -549 3100
658 -549 3100
665 -547 3089
677 -549 3097
684 -548 3088
698 -552 3107
698 -544 3065
715 -551 3097
716 -545 3062
726 -545 3064
742 -550 3090
742 -544 3050
746 -540 3029
759 -543 3043
764 -540 3025
763 -533 2983
771 -532 2977
758 -518 2893
762 -515 2875
765 -511 2850
753 -498 2774
759 -496 2763
752 -486 2707
762 -488 2713
752 -476 2643
757 -474 2633
760 -471 2614
757 -465 2576
763 -464 2569
767 -461 2553
774 -461 2548
772 -455 2517
777 -454 2504
778 -450 2482
811 -465 2562
824 -468 2576
907 -511 2809
953 -532 2922
974 -538 2955
997 -546 2997
1004 -545 2987
1012 -544 2980
1024 -546 2986
1036 -548 2993
1042 -546 2980
1048 -545 2970
1055 -544 2962
1067 -545 2967
1070 -542 2947
1086 -546 2966
1083 -540 2928
1102 -545 2953
1101 -540 2924
1127 -548 2965
1128 -545 2940
1134 -543 2930
1135 -540 2907
1154 -545 2930
1166 -546 2933
1175 -546 2930
1172 -540 2898
1181 -541 2895
1203 -546 2923
1205 -543 2902
1212 -543 2895
1221 -542 2891
1218 -537 2860
1239 -543 2884
1250 -544 2886
1252 -541 2868
1273 -546 2890
1269 -541 2859
1285 -543 2870
1291 -542 2861
1291 -538 2836
1304 -540 2842
1327 -546 2868
1339 -547 2872
1343 -545 2857
1339 -540 2826
1354 -543 2835
1361 -542 2827
1375 -544 2834
1389 -546 2841
1395 -545 2831
1410 -548 2839
1440 -556 2876
1427 -547 2827
1432 -545 2815
1436 -544 2803
1440 -542 2787
1450 -542 2786
1463 -544 2789
1454 -537 2751
1477 -543 2773
1490 -544 2777
1482 -538 2741
1504 -543 2761
1511 -542 2753
1512 -539 2734
1532 -544 2751
1542 -544 2747
1562 -548 2763
-1659 -534 2841
-1623 -525 2800
-1631 -531 2834
-1619 -530 2834
-1607 -529 2833
-1597 -529 2837
-1590 -530 2846
-1575 -528 2839
-1567 -529 2847
-1567 -532 2868
-1556 -531 2869
-1552 -533 2883
-1544 -534 2891
-1532 -533 2889
-1542 -540 2930
-1518 -535 2908
-1508 -534 2911
-1486 -530 2890
-1492 -535 2923
-1473 -532 2909
-1485 -540 2956
-1449 -530 2905
-1474 -543 2979
-1441 -534 2935
-1440 -537 2957
-1423 -534 2944
-1408 -532 2936
-1401 -533 2946
-1398 -536 2963
-1392 -537 2973
-1385 -538 2983
-1380 -540 2996
-1367 -539 2992
-1356 -538 2991
-1356 -542 3016
-1339 -539 3002
-1337 -542 3022
-1329 -542 3028
-1316 -541 3025
-1304 -540 3022
-1292 -539 3020
-1278 -537 3012
-1273 -539 3026
-1264 -539 3029
-1262 -542 3050
-1250 -541 3047
-1235 -539 3038
-1211 -533 3005
-1212 -537 3034
-1197 -535 3022
-1202 -541 3062
-1194 -542 3068
-1188 -544 3080
-1168 -539 3056
-1161 -540 3065
-1157 -542 3081
-1141 -540 3068
-1138 -543 3088
-1127 -542 3085
-1119 -542 3091
-1109 -542 3094
-1097 -541 3088
-1089 -542 3097
-1074 -539 3082
-1067 -540 3092
-1064 -544 3113
-1055 -544 3117
-1036 -539 3090
-1036 -544 3123
-1021 -541 3106
-1027 -549 3157
-1006 -543 3124
-985 -537 3088
-984 -541 3116
-981 -545 3140
-967 -543 3128
-953 -540 3115
-946 -542 3127
-940 -544 3140
-937 -547 3163
-921 -543 3143
-909 -542 3136
-896 -540 3124
-893 -544 3150
-883 -544 3150
-875 -545 3158
-862 -542 3144
-845 -538 3121
-842 -541 3145
-829 -539 3132
-827 -544 3161
-817 -544 3164
-811 -546 3176
-803 -547 3184
-789 -544 3170
-775 -541 3152
-774 -546 3186
-761 -544 3174
-750 -543 3170
-744 -546 3186
-736 -547 3193
-732 -551 3217
-717 -547 3196
-706 -546 3190
-698 -547 3196
-684 -543 3177
-683 -550 3219
-673 -550 3220
-657 -545 3190
-656 -551 3230
-640 -546 3201
-633 -548 3211
-619 -544 3190
-605 -541 3171
-603 -547 3207
-593 -547 3209
-585 -548 3216
-572 -544 3196
-560 -542 3182
-552 -543 3192
-546 -547 3213
-533 -543 3194
-526 -546 3211
-518 -547 3219
-506 -545 3204
-502 -550 3237
-487 -544 3201
-481 -549 3230
-473 -550 3235
-460 -545 3211
-450 -545 3208
-437 -541 3188
-434 -549 3234
-426 -550 3243
-411 -544 3205
-403 -545 3212
-395 -547 3225
-385 -547 3224
-376 -547 3226
-369 -551 3246
-357 -547 3226
-351 -552 3255
-336 -544 3208
-329 -547 3225
-320 -549 3239
-308 -543 3203
-300 -546 3222
-292 -549 3242
-279 -541 3194
-276 -554 3269
-266 -554 3269
-254 -549 3241
-242 -544 3209
-236 -550 3245
-228 -555 3276
-218 -552 3255
-206 -547 3229
-197 -548 3233
-191 -556 3280
-177 -545 3214
-164 -533 3148
-133 -458 2703
-122 -445 2629
-113 -441 2602
-109 -456 2694
-100 -451 2663
-91 -446 2630
-79 -424 2500
-76 -449 2649
-80 -523 3084
-75 -551 3250
-66 -554 3268
-56 -550 3243
-47 -552 3255
-38 -554 3266
-28 -554 3264
-19 -552 3256
-9 -546 3220
0 -553 3259
8 -554 3261
18 -555 3268
27 -549 3233
37 -551 3245
46 -548 3224
56 -555 3266
65 -549 3233
74 -552 3246
84 -553 3253
94 -558 3285
102 -550 3236
112 -550 3237
121 -551 3242
131 -552 3246
140 -549 3226
151 -557 3274
159 -552 3242
170 -556 3268
179 -555 3258
188 -553 3247
196 -550 3228
207 -553 3245
215 -550 3226
222 -544 3193
236 -556 3259
242 -548 3213
253 -551 3228
262 -551 3227
271 -550 3221
279 -548 3211
291 -552 3232
299 -551 3224
309 -551 3223
319 -553 3234
329 -554 3239
335 -549 3206
345 -549 3206
354 -548 3201
364 -549 3206
378 -557 3251
383 -550 3209
395 -553 3227
399 -546 3182
411 -550 3203
426 -557 3245
429 -550 3202
438 -550 3197
446 -547 3184
456 -548 3186
466 -549 3193
477 -551 3203
484 -548 3183
492 -547 3175
503 -549 3187
511 -548 3175
517 -544 3154
533 -551 3192
539 -548 3172
543 -543 3140
560 -550 3182
567 -548 3169
575 -547 3163
586 -549 3169
593 -547 3156
609 -553 3189
612 -547 3153
616 -542 3125
629 -546 3145
635 -543 3125
652 -550 3162
662 -550 3164
667 -547 3144
676 -547 3139
687 -548 3145
693 -545 3128
701 -545 3124
715 -548 3141
733 -555 3179
734 -549 3140
741 -548 3130
748 -545 3115
753 -543 3099
760 -541 3087
772 -543 3098
765 -532 3031
760 -522 2973
764 -519 2953
757 -509 2891
760 -505 2868
759 -499 2830
758 -492 2794
755 -485 2749
756 -480 2721
759 -477 2701
756 -470 2659
771 -475 2681
768 -468 2643
767 -463 2611
764 -456 2572
764 -452 2545
769 -450 2534
786 -456 2564
802 -461 2588
838 -477 2676
880 -496 2783
935 -522 2924
960 -531 2973
977 -536 2995
1008 -548 3061
1009 -544 3033
1021 -545 3039
1031 -546 3040
1048 -550 3059
1047 -544 3026
1049 -541 3004
1063 -543 3014
1081 -548 3036
1087 -546 3024
1096 -546 3020
1097 -542 2996
1111 -545 3007
1124 -547 3013
1124 -542 2984
1137 -544 2992
1149 -546 2997
1151 -542 2976
1149 -537 2943
1170 -543 2972
1185 -546 2983
1198 -548 2991
1200 -544 2969
1216 -547 2983
1220 -545 2967
1222 -542 2944
1239 -545 2961
1255 -548 2974
1259 -546 2958
1267 -546 2952
1270 -543 2933
1282 -545 2938
1296 -547 2945
1289 -540 2905
1305 -543 2916
1311 -542 2906
1318 -541 2897
1337 -545 2916
1354 -548 2929
1334 -536 2861
1366 -546 2908
1379 -547 2912
1373 -541 2875
1393 -546 2896
1397 -544 2880
1403 -542 2869
1415 -544 2872
1429 -545 2877
1428 -542 2854
1434 -541 2842
1461 -547 2874
1468 -547 2866
1478 -547 2863
1489 -548 2862
1488 -544 2839
1485 -540 2811
1516 -548 2848
1513 -544 2822
1512 -540 2799
1518 -539 2789
1526 -539 2783
1555 -546 2813
1573 -549 2824
1578 -548 2814
1576 -544 2788
-1662 -526 2848
-1671 -532 2884
-1657 -530 2880
-1664 -535 2914
-1645 -532 2902
-1644 -535 2922
-1622 -531 2905
-1621 -534 2924
-1603 -531 2913
-1595 -532 2920
-1579 -530 2914
-1599 -540 2973
-1578 -536 2956
-1563 -534 2950
-1556 -535 2959
-1553 -537 2976
-1541 -537 2976
-1518 -532 2954
-1522 -537 2984
-1518 -539 2999
-1484 -530 2954
-1481 -532 2971
-1483 -537 3000
-1465 -534 2986
-1457 -534 2993
-1463 -540 3028
-1443 -536 3012
-1439 -538 3026
-1420 -535 3011
-1419 -538 3032
-1408 -537 3033
-1380 -531 2998
-1386 -536 3034
-1384 -540 3055
-1375 -540 3058
-1360 -538 3051
-1341 -534 3032
-1329 -533 3031
-1321 -534 3039
-1302 -530 3020
-1298 -532 3035
-1287 -531 3034
-1277 -531 3037
-1280 -537 3071
-1265 -534 3059
-1256 -534 3063
-1250 -536 3077
-1253 -541 3109
-1238 -539 3100
-1221 -536 3085
-1209 -535 3081
-1212 -540 3115
-1203 -541 3120
-1194 -541 3124
-1182 -540 3121
-1175 -541 3131
-1179 -547 3169
-1155 -541 3135
-1147 -542 3143
-1128 -537 3118
-1130 -543 3154
-1126 -545 3171
-1111 -543 3159
-1097 -541 3149
-1095 -545 3174
-1086 -545 3180
-1085 -550 3207
-1063 -543 3173
-1056 -545 3182
-1045 -544 3180
-1039 -546 3194
-1023 -543 3178
-1017 -544 3190
-1014 -549 3216
-995 -543 3186
-984 -543 3186
-978 -545 3200
-966 -543 3194
-962 -547 3215
-956 -549 3228
-949 -550 3240
-932 -546 3217
-909 -538 3172
-903 -541 3188
-897 -542 3201
-885 -541 3195
-879 -543 3210
-874 -546 3226
-866 -547 3237
-852 -545 3222
-841 -544 3218
-833 -545 3226
-827 -547 3242
-810 -542 3215
-809 -548 3252
-795 -545 3236
-779 -541 3211
-776 -545 3238
-766 -545 3240
-756 -545 3240
-742 -542 3221
-737 -545 3243
-729 -547 3253
-722 -548 3264
-713 -549 3268
-702 -548 3264
-693 -548 3268
-680 -546 3253
-673 -548 3269
-663 -548 3266
-654 -548 3271
-641 -546 3255
-631 -545 3253
-622 -546 3260
-616 -549 3278
-604 -547 3270
-598 -550 3287
-592 -554 3311
-574 -546 3267
-567 -548 3280
-555 -546 3268
-543 -544 3255
-537 -548 3279
-525 -545 3265
-518 -548 3281
-505 -545 3261
-501 -551 3298
-490 -549 3288
-482 -551 3299
-468 -545 3269
-459 -547 3278
-448 -545 3267
-444 -552 3307
-433 -551 3302
-425 -553 3316
-411 -547 3279
-404 -550 3302
-391 -545 3271
-384 -550 3298
-375 -550 3300
-362 -545 3269
-356 -551 3307
-347 -552 3312
-336 -549 3295
-325 -548 3289
-317 -550 3300
-307 -550 3301
-297 -548 3290
-287 -548 3288
-274 -541 3248
-266 -545 3271
-260 -552 3315
-249 -548 3291
-237 -544 3267
-230 -548 3292
-220 -549 3296
-211 -551 3309
-201 -549 3299
-190 -546 3281
-182 -550 3305
-169 -537 3228
-145 -491 2948
-125 -451 2711
-113 -434 2608
-107 -441 2647
-100 -443 2659
-91 -440 2642
-79 -418 2509
-75 -434 2605
-80 -512 3077
-77 -550 3303
-67 -553 3321
-58 -552 3315
-48 -549 3293
-38 -550 3300
-29 -548 3286
-19 -555 3331
-10 -553 3320
0 -550 3296
9 -551 3302
18 -554 3323
28 -548 3288
37 -552 3310
47 -554 3320
57 -555 3327
66 -555 3323
75 -549 3287
86 -553 3313
95 -554 3316
105 -554 3319
114 -549 3287
124 -551 3300
133 -550 3290
144 -555 3320
153 -554 3315
162 -553 3304
174 -559 3340
181 -551 3295
190 -552 3295
200 -551 3294
209 -549 3276
219 -552 3298
228 -551 3287
236 -546 3256
248 -552 3293
258 -553 3298
268 -555 3307
276 -550 3278
287 -553 3296
296 -552 3289
307 -556 3308
313 -548 3265
325 -553 3288
335 -553 3292
345 -554 3296
355 -556 3305
359 -547 3253
373 -554 3291
385 -557 3310
390 -551 3268
400 -552 3275
410 -552 3273
423 -556 3299
426 -548 3249
430 -542 3210
451 -556 3290
458 -553 3274
466 -551 3260
476 -551 3259
480 -546 3226
498 -554 3276
500 -547 3231
508 -546 3221
523 -551 3254
528 -547 3225
537 -546 3217
552 -551 3249
559 -550 3236
567 -548 3224
577 -548 3226
591 -552 3248
598 -551 3237
605 -548 3218
617 -551 3234
621 -546 3202
636 -551 3231
643 -548 3214
646 -543 3181
659 -546 3196
676 -553 3234
681 -549 3212
692 -550 3215
705 -553 3230
708 -548 3200
722 -551 3216
727 -548 3194
733 -546 3180
752 -553 3220
755 -548 3189
763 -547 3180
767 -543 3156
777 -544 3159
760 -526 3049
767 -524 3040
754 -509 2951
760 -507 2936
764 -505 2920
761 -497 2871
760 -490 2833
763 -487 2810
755 -477 2751
757 -473 2724
770 -476 2740
761 -466 2680
766 -464 2666
770 -462 2652
769 -456 2618
784 -460 2641
784 -456 2613
803 -462 2646
833 -475 2719
883 -499 2850
936 -524 2991
954 -529 3019
994 -546 3112
998 -543 3092
1007 -543 3090
1018 -544 3093
1032 -547 3104
1042 -547 3104
1050 -546 3095
1053 -543 3075
1064 -544 3076
1073 -544 3074
1091 -548 3095
1098 -547 3086
1105 -546 3075
1108 -543 3055
1125 -547 3074
1122 -541 3038
1146 -548 3075
1149 -545 3053
1161 -546 3057
1160 -542 3028
1172 -543 3032
1183 -544 3032
1192 -543 3028
1194 -540 3007
1207 -542 3014
1228 -547 3038
1236 -547 3032
1224 -538 2977
1252 -546 3019
1257 -544 3005
1268 -545 3006
1280 -546 3010
1292 -547 3011
1294 -544 2992
1296 -541 2971
1319 -547 2998
1323 -545 2984
1328 -543 2970
1345 -546 2982
1363 -550 2999
1344 -538 2932
1373 -546 2971
1368 -541 2937
1398 -549 2977
1388 -542 2933
1396 -541 2926
1397 -538 2905
1416 -542 2920
1425 -542 2916
1426 -539 2895
1436 -539 2893
1449 -540 2897
1462 -542 2900
1474 -543 2902
1500 -549 2931
1494 -544 2896
1503 -544 2891
1500 -539 2864
1537 -549 2911
1545 -549 2905
1546 -546 2885
1548 -543 2866
1559 -544 2865
1567 -544 2859
1567 -541 2837
1600 -549 2876
1609 -549 2870
1597 -542 2828
-1687 -524 2892
-1697 -530 2931
-1689 -531 2938
-1694 -535 2968
-1690 -537 2983
-1649 -527 2933
-1670 -537 2992
-1642 -531 2964
-1625 -529 2956
-1628 -533 2984
-1630 -537 3008
-1606 -532 2987
-1602 -534 3002
-1605 -539 3031
-1580 -534 3007
-1583 -538 3035
-1569 -537 3031
-1562 -537 3040
-1549 -537 3039
-1535 -535 3035
-1535 -538 3058
-1499 -529 3010
-1511 -537 3057
-1490 -533 3039
-1500 -540 3083
-1482 -537 3070
-1465 -535 3058
-1466 -539 3085
-1456 -539 3089
-1453 -541 3107
-1435 -538 3093
-1435 -542 3117
-1413 -537 3096
-1399 -535 3088
-1382 -533 3077
-1362 -529 3056
-1345 -526 3043
-1331 -524 3037
-1318 -523 3032
-1306 -522 3029
-1299 -523 3039
-1289 -523 3041
-1289 -527 3066
-1278 -526 3067
-1273 -528 3081
-1267 -530 3093
-1282 -540 3157
-1264 -537 3139
-1271 -544 3183
-1255 -541 3172
-1249 -543 3183
-1236 -541 3178
-1226 -541 3180
-1218 -542 3189
-1209 -542 3193
-1199 -543 3197
-1186 -541 3192
-1173 -539 3184
-1185 -550 3246
-1165 -545 3221
-1155 -545 3226
-1146 -545 3229
-1135 -545 3228
-1112 -538 3193
-1119 -547 3244
-1099 -542 3219
-1094 -544 3234
-1070 -537 3195
-1076 -545 3244
-1062 -543 3236
-1055 -545 3246
-1045 -544 3246
-1025 -539 3219
-1025 -544 3250
-1022 -548 3274
-1007 -546 3262
-989 -541 3236
-990 -547 3273
-976 -545 3262
-963 -543 3253
-963 -548 3287
-949 -546 3276
-939 -546 3277
-917 -539 3237
-922 -548 3293
-914 -549 3301
-894 -543 3264
-897 -551 3314
-874 -543 3268
-869 -546 3287
-859 -545 3286
-850 -546 3292
-844 -549 3311
-830 -546 3295
-818 -545 3289
-816 -550 3323
-799 -545 3293
-790 -546 3300
-779 -545 3296
-773 -547 3311
-764 -548 3319
-751 -546 3304
-743 -547 3314
-739 -551 3341
-721 -546 3309
-708 -543 3294
-709 -551 3343
-695 -548 3328
-687 -550 3338
-677 -550 3338
-666 -548 3331
-658 -550 3344
-643 -546 3320
-632 -545 3316
-629 -551 3350
-614 -546 3324
-607 -549 3342
-600 -551 3354
-580 -542 3302
-580 -551 3358
-568 -550 3348
-562 -553 3368
-551 -552 3363
-540 -551 3356
-531 -552 3367
-523 -554 3379
-508 -548 3341
-497 -547 3334
-487 -546 3333
-481 -551 3364
-475 -556 3394
-463 -553 3378
-448 -547 3337
-440 -549 3355
-432 -551 3365
-420 -549 3351
-408 -546 3335
-402 -551 3368
-392 -550 3362
-380 -547 3344
-371 -549 3357
-363 -551 3368
-353 -551 3366
-341 -548 3353
-332 -549 3354
-320 -545 3333
-314 -551 3371
-303 -551 3368
-293 -550 3364
-282 -548 3351
-272 -546 3342
-264 -550 3361
-253 -548 3351
-243 -548 3351
-232 -545 3332
-224 -549 3358
-214 -548 3352
-205 -550 3366
-195 -550 3362
-187 -555 3395
-174 -545 3331
-154 -512 3133
-133 -471 2878
-122 -459 2810
-110 -446 2727
-103 -448 2741
-93 -441 2698
-79 -410 2511
-72 -409 2500
-82 -513 3135
-78 -552 3372
-68 -550 3362
-58 -550 3364
-49 -554 3388
-39 -553 3377
-29 -553 3380
-20 -559 3415
-10 -556 3398
0 -552 3368
9 -549 3352
19 -551 3363
29 -557 3403
38 -558 3403
48 -558 3404
58 -556 3390
68 -554 3377
77 -552 3368
87 -556 3388
97 -551 3361
106 -552 3367
116 -553 3370
127 -555 3382
136 -552 3362
145 -551 3357
157 -559 3405
164 -550 3346
174 -549 3340
185 -553 3364
194 -551 3353
202 -548 3332
215 -555 3374
222 -549 3337
236 -558 3391
241 -549 3334
255 -559 3393
261 -550 3337
272 -552 3348
282 -552 3352
293 -555 3368
300 -551 3340
312 -554 3360
319 -550 3335
327 -547 3316
340 -552 3343
351 -554 3356
360 -554 3350
369 -552 3339
377 -550 3325
390 -554 3349
400 -554 3350
402 -545 3292
417 -552 3332
431 -558 3366
439 -555 3348
448 -554 3343
451 -546 3291
466 -552 3327
474 -551 3318
485 -552 3324
495 -552 3322
506 -554 3335
510 -548 3297
522 -550 3306
532 -551 3308
539 -548 3290
550 -550 3301
564 -553 3319
570 -550 3300
578 -549 3289
591 -552 3307
600 -551 3301
609 -551 3294
617 -550 3287
630 -553 3304
635 -548 3275
647 -551 3288
657 -551 3287
664 -549 3273
680 -554 3300
687 -552 3286
695 -551 3279
708 -553 3288
714 -550 3270
728 -553 3288
731 -549 3260
744 -552 3273
751 -550 3260
758 -547 3244
763 -544 3224
773 -545 3223
777 -541 3200
764 -525 3103
770 -523 3088
760 -511 3013
764 -507 2989
768 -504 2969
765 -496 2923
756 -485 2854
759 -481 2831
754 -473 2780
753 -467 2742
763 -469 2750
770 -468 2742
770 -463 2710
773 -460 2691
767 -452 2643
776 -452 2643
787 -454 2650
828 -473 2761
876 -496 2891
942 -528 3076
974 -541 3147
986 -543 3153
1002 -546 3171
1011 -546 3167
1025 -548 3178
1036 -549 3179
1043 -548 3168
1052 -548 3165
1057 -545 3148
1070 -547 3155
1071 -543 3128
1094 -550 3164
1098 -547 3145
1103 -545 3130
1110 -544 3121
1121 -544 3122
1141 -550 3149
1152 -550 3149
1150 -545 3114
1166 -548 3129
1168 -545 3106
1172 -542 3088
1183 -543 3090
1206 -549 3122
1217 -550 3122
1221 -547 3104
1239 -551 3122
1243 -549 3104
1251 -548 3099
1272 -553 3123
1256 -542 3056
1280 -548 3088
1284 -546 3072
1296 -547 3073
1294 -543 3044
1320 -549 3078
1328 -549 3072
1320 -542 3027
1350 -550 3070
1347 -545 3039
1351 -543 3022
1355 -541 3007
1386 -550 3051
1399 -551 3054
1400 -548 3031
1394 -542 2995
1394 -538 2969
1425 -546 3012
1429 -545 2997
1434 -543 2983
1452 -546 2996
1455 -544 2981
1477 -549 3001
1485 -548 2994
1484 -544 2969
1509 -550 2996
1512 -548 2978
1509 -543 2949
1526 -546 2960
1523 -541 2931
1546 -546 2952
1568 -551 2973
1550 -541 2916
1570 -545 2932
1575 -544 2918
1588 -545 2919
1601 -546 2922
1597 -542 2893
1611 -543 2897
1629 -546 2907
1649 -550 2921
-1749 -533 3000
-1724 -529 2979
-1730 -534 3011
-1732 -538 3037
-1704 -532 3010
-1689 -530 3006
-1696 -536 3041
-1686 -536 3045
-1667 -533 3033
-1669 -537 3061
-1655 -536 3057
-1636 -532 3044
-1625 -532 3048
-1621 -534 3063
-1611 -534 3068
-1622 -541 3112
-1583 -532 3060
-1600 -541 3117
-1585 -539 3111
-1569 -537 3103
-1558 -537 3105
-1541 -534 3095
-1539 -537 3115
-1531 -538 3123
-1526 -540 3138
-1521 -541 3152
-1495 -536 3124
-1485 -536 3127
-1481 -538 3144
-1464 -535 3132
-1462 -538 3152
-1450 -538 3152
-1440 -538 3156
-1439 -541 3179
-1416 -536 3154
-1385 -528 3111
-1360 -522 3079
-1344 -520 3069
-1330 -518 3063
-1328 -521 3082
-1308 -517 3062
-1325 -528 3129
-1309 -525 3115
-1307 -528 3137
-1304 -531 3158
-1305 -536 3188
-1300 -538 3203
-1301 -542 3233
-1287 -541 3227
-1275 -540 3224
-1283 -547 3272
-1253 -539 3224
-1253 -543 3252
-1240 -542 3248
-1235 -544 3263
-1218 -541 3249
-1210 -542 3258
-1190 -538 3232
-1194 -544 3272
-1179 -542 3264
-1173 -544 3277
-1157 -541 3261
-1159 -547 3300
-1150 -547 3305
-1138 -546 3300
-1129 -547 3308
-1117 -546 3304
-1099 -542 3282
-1096 -546 3308
-1101 -553 3354
-1073 -544 3303
-1072 -549 3333
-1052 -543 3303
-1051 -548 3335
-1022 -538 3275
-1029 -547 3332
-1025 -551 3356
-1010 -548 3340
-993 -544 3322
-975 -540 3294
-972 -544 3320
-966 -546 3338
-961 -549 3357
-945 -546 3338
-943 -550 3369
-922 -544 3332
-912 -544 3333
-908 -547 3356
-896 -546 3352
-901 -555 3409
-878 -547 3360
-872 -550 3381
-862 -551 3383
-848 -548 3367
-840 -549 3379
-819 -542 3334
-812 -544 3347
-809 -549 3378
-795 -546 3365
-786 -547 3371
-772 -544 3355
-766 -547 3371
-750 -543 3349
-745 -546 3369
-736 -547 3376
-730 -550 3399
-719 -549 3395
-711 -551 3407
-696 -547 3382
-686 -547 3383
-678 -548 3393
-666 -547 3387
-659 -549 3401
-648 -549 3397
-637 -548 3393
-631 -551 3417
-615 -546 3385
-610 -551 3414
-604 -554 3438
-590 -551 3416
-577 -548 3401
-568 -549 3409
-557 -548 3403
-552 -554 3436
-538 -549 3407
-529 -550 3414
-518 -549 3412
-507 -549 3408
-494 -545 3387
-491 -552 3432
-475 -546 3396
-466 -548 3404
-460 -552 3432
-450 -552 3432
-437 -548 3410
-426 -547 3400
-419 -550 3424
-409 -550 3423
-399 -550 3425
-386 -547 3405
-378 -549 3418
-370 -552 3438
-358 -549 3420
-347 -548 3415
-337 -548 3411
-329 -551 3430
-319 -551 3432
-308 -550 3423
-299 -551 3430
-286 -546 3400
-277 -546 3402
-270 -552 3438
-261 -554 3453
-248 -550 3424
-239 -551 3429
-230 -554 3448
-219 -552 3435
-208 -549 3421
-199 -551 3433
-190 -553 3444
-180 -553 3446
-165 -536 3339
-138 -480 2992
-125 -464 2890
-111 -441 2747
-106 -453 2825
-95 -439 2737
-80 -408 2544
-71 -396 2469
-80 -497 3097
-78 -544 3387
-70 -552 3433
-60 -552 3437
-50 -555 3453
-40 -554 3448
-30 -559 3477
-20 -553 3437
-10 -555 3453
0 -553 3440
9 -554 3443
19 -557 3460
29 -551 3424
39 -559 3473
49 -552 3427
59 -555 3447
68 -549 3413
79 -555 3444
89 -554 3441
98 -552 3427
109 -556 3452
120 -558 3462
129 -556 3451
139 -554 3438
148 -551 3418
158 -552 3424
169 -555 3438
178 -553 3427
188 -553 3427
200 -558 3457
207 -552 3417
217 -552 3415
229 -555 3437
239 -557 3444
249 -557 3444
257 -553 3420
267 -553 3417
278 -554 3427
286 -552 3408
298 -555 3427
306 -551 3401
317 -554 3419
328 -555 3426
337 -554 3416
348 -556 3428
354 -550 3391
369 -557 3436
376 -553 3409
387 -555 3419
399 -557 3428
406 -553 3402
419 -557 3427
426 -553 3403
438 -556 3418
444 -551 3386
456 -554 3400
464 -551 3385
473 -551 3379
481 -548 3363
495 -553 3391
503 -552 3382
511 -550 3367
520 -549 3362
531 -550 3368
544 -553 3383
548 -547 3345
558 -548 3349
577 -557 3399
580 -550 3359
590 -550 3358
600 -550 3356
614 -555 3380
624 -554 3377
630 -551 3358
639 -551 3352
651 -552 3357
657 -549 3339
666 -549 3334
680 -552 3351
693 -555 3366
699 -551 3343
704 -548 3322
717 -550 3334
726 -550 3330
742 -555 3356
748 -552 3335
759 -552 3337
763 -548 3311
767 -544 3284
769 -539 3249
759 -525 3167
757 -518 3118
767 -518 3117
757 -505 3038
761 -502 3015
764 -498 2993
755 -486 2920
752 -479 2872
755 -476 2850
761 -474 2840
756 -466 2786
761 -464 2775
763 -460 2750
777 -464 2768
785 -464 2765
782 -457 2723
793 -459 2732
817 -468 2784
863 -490 2910
921 -518 3074
970 -540 3204
995 -549 3252
1007 -549 3254
1016 -549 3250
1028 -550 3254
1040 -552 3259
1042 -547 3231
1053 -548 3232
1059 -547 3220
1075 -550 3235
1077 -546 3209
1090 -548 3217
1103 -549 3223
1115 -550 3227
1121 -549 3213
1125 -546 3194
1141 -549 3208
1145 -546 3189
1157 -548 3194
1168 -548 3195
1174 -547 3181
1188 -548 3188
1205 -552 3207
1190 -541 3136
1215 -548 3175
1234 -552 3195
1237 -549 3175
1241 -547 3157
1246 -544 3140
1272 -552 3180
1271 -547 3150
1273 -544 3127
1296 -550 3156
1315 -554 3175
1314 -549 3144
1322 -549 3138
1340 -552 3152
1328 -543 3099
1340 -544 3101
1346 -543 3089
1368 -548 3113
1371 -545 3095
1381 -545 3091
1404 -551 3118
1405 -547 3094
1406 -544 3071
1412 -543 3060
1447 -553 3110
1446 -548 3082
1452 -547 3071
1452 -544 3047
1480 -551 3081
1497 -553 3091
1491 -548 3056
1503 -549 3056
1517 -550 3061
1506 -543 3014
1522 -545 3022
1528 -544 3011
1542 -545 3015
1564 -550 3036
1550 -542 2985
1567 -544 2994
1593 -550 3020
1606 -551 3024
1594 -544 2977
1599 -542 2964
1607 -542 2956
1650 -553 3013
1647 -549 2985
1653 -548 2973
1670 -550 2982
1683 -551 2983
-1790 -536 3072
-1768 -532 3056
-1767 -535 3077
-1745 -532 3062
-1737 -532 3070
-1725 -532 3071
-1738 -539 3118
-1716 -535 3101
-1712 -537 3117
-1710 -540 3136
-1680 -534 3105
-1683 -538 3135
-1664 -535 3122
-1640 -531 3101
-1652 -538 3147
-1650 -541 3167
-1632 -538 3156
-1631 -541 3178
-1622 -541 3185
-1611 -541 3187
-1591 -538 3174
-1573 -535 3162
-1566 -536 3172
-1555 -536 3174
-1548 -537 3184
-1536 -537 3185
-1522 -535 3181
-1511 -535 3184
-1501 -535 3188
-1496 -537 3202
-1486 -537 3206
-1493 -543 3248
-1469 -538 3221
-1462 -540 3232
-1440 -535 3209
-1436 -538 3227
-1415 -533 3204
-1408 -535 3215
-1403 -536 3230
-1394 -537 3237
-1386 -538 3246
-1385 -542 3272
-1366 -538 3254
-1349 -535 3240
-1343 -537 3254
-1338 -539 3269
-1335 -542 3290
-1318 -539 3275
-1317 -543 3303
-1304 -542 3298
-1293 -542 3301
-1282 -541 3300
-1267 -540 3292
-1262 -542 3309
-1253 -542 3314
-1230 -536 3282
-1238 -545 3334
-1215 -539 3303
-1220 -546 3346
-1198 -541 3318
-1195 -544 3339
-1182 -543 3334
-1179 -546 3356
-1171 -547 3366
-1159 -546 3364
-1147 -546 3363
-1131 -542 3346
-1129 -547 3375
-1117 -546 3371
-1104 -544 3365
-1093 -544 3365
-1080 -543 3360
-1072 -544 3369
-1071 -549 3400
-1054 -545 3381
-1043 -545 3380
-1029 -543 3371
-1025 -546 3392
-1008 -542 3370
-1000 -543 3380
-989 -543 3380
-981 -544 3390
-976 -547 3410
-969 -549 3424
-962 -551 3437
-942 -546 3405
-935 -548 3419
-925 -548 3421
-916 -548 3427
-904 -547 3423
-899 -550 3443
-888 -550 3443
-872 -546 3422
-873 -554 3470
-857 -550 3447
-846 -550 3448
-828 -545 3415
-824 -549 3442
-817 -551 3460
-808 -552 3466
-791 -547 3436
-777 -544 3422
-770 -547 3436
-759 -546 3435
-749 -547 3439
-739 -546 3439
-732 -549 3458
-725 -551 3472
-715 -552 3477
-703 -551 3470
-690 -548 3458
-676 -545 3436
-671 -550 3467
-664 -552 3485
-653 -551 3478
-641 -550 3474
-629 -548 3463
-620 -550 3473
-611 -551 3481
-601 -551 3482
-591 -551 3484
-581 -551 3486
-571 -552 3488
-560 -551 3485
-548 -550 3477
-540 -552 3492
-532 -554 3504
-524 -556 3521
-507 -549 3478
-501 -554 3507
-490 -553 3499
-482 -555 3515
-465 -548 3470
-458 -551 3492
-448 -551 3492
-442 -557 3532
-423 -546 3460
-418 -552 3501
-405 -549 3478
-395 -550 3486
-386 -551 3496
-377 -552 3501
-367 -552 3503
-353 -547 3473
-344 -549 3485
-335 -551 3492
-325 -551 3493
-314 -549 3483
-303 -549 3482
-295 -552 3503
-284 -551 3493
-274 -552 3500
-264 -551 3494
-254 -551 3497
-244 -553 3511
-235 -555 3521
-225 -555 3524
-214 -553 3509
-204 -556 3525
-193 -552 3503
-182 -549 3484
-170 -545 3456
-146 -498 3162
-122 -445 2824
-117 -457 2901
-110 -461 2927
-98 -445 2825
-80 -402 2550
-70 -388 2463
-77 -471 2989
-80 -546 3461
-72 -560 3549
-61 -555 3519
-51 -555 3516
-41 -557 3530
-31 -554 3513
-20 -556 3526
-10 -555 3518
0 -555 3517
9 -551 3490
19 -557 3526
30 -556 3519
40 -558 3534
50 -554 3509
60 -555 3510
70 -552 3496
80 -552 3492
91 -558 3529
101 -554 3504
110 -552 3494
120 -551 3482
130 -551 3484
142 -556 3511
151 -554 3502
161 -553 3492
171 -552 3486
180 -550 3472
192 -554 3498
203 -556 3509
213 -555 3503
222 -553 3485
233 -555 3499
243 -556 3506
251 -551 3470
263 -555 3499
271 -551 3469
284 -556 3498
291 -550 3465
302 -552 3476
311 -550 3461
324 -555 3487
336 -558 3511
344 -555 3488
352 -552 3466
364 -554 3482
373 -552 3467
385 -555 3485
394 -554 3473
404 -554 3477
413 -553 3464
423 -553 3466
432 -552 3455
440 -549 3438
458 -558 3493
462 -551 3450
476 -556 3476
483 -553 3454
497 -557 3480
504 -553 3454
515 -555 3464
521 -551 3435
531 -551 3434
544 -553 3448
557 -556 3466
566 -555 3458
575 -555 3452
586 -555 3454
593 -552 3434
606 -555 3450
610 -550 3416
625 -554 3439
633 -552 3427
645 -554 3438
649 -549 3404
663 -552 3420
673 -552 3419
678 -548 3394
693 -552 3416
701 -551 3405
713 -553 3415
729 -557 3438
736 -555 3422
746 -555 3420
750 -550 3390
758 -549 3380
769 -550 3385
772 -545 3352
778 -542 3331
764 -526 3232
775 -527 3233
762 -512 3138
767 -509 3119
759 -497 3047
759 -492 3010
762 -488 2983
761 -482 2945
750 -470 2869
766 -474 2895
769 -470 2869
763 -462 2815
770 -461 2810
763 -452 2752
776 -455 2765
792 -459 2791
812 -466 2831
879 -500 3032
940 -529 3208
964 -537 3252
990 -546 3304
1000 -546 3302
1015 -549 3316
1031 -553 3334
1038 -551 3323
1036 -545 3281
1050 -547 3290
1065 -550 3305
1077 -551 3309
1085 -550 3300
1092 -549 3288
1109 -552 3308
1119 -552 3304
1114 -545 3258
1135 -551 3287
1143 -550 3278
1151 -548 3268
1157 -547 3257
1159 -543 3230
1177 -547 3249
1193 -550 3265
1200 -549 3252
1214 -551 3262
1228 -552 3268
1222 -546 3224
1247 -552 3260
1250 -549 3239
1258 -549 3231
1274 -551 3242
1280 -549 3228
1295 -552 3237
1309 -554 3244
1306 -548 3210
1312 -546 3195
1326 -548 3202
1340 -550 3208
1350 -550 3205
1364 -552 3211
1367 -549 3192
1390 -554 3217
1386 -549 3182
1393 -548 3172
1393 -544 3145
1414 -548 3166
1417 -546 3147
1438 -550 3169
1441 -548 3149
1460 -551 3165
1476 -554 3173
1487 -554 3173
1496 -554 3165
1502 -552 3152
1496 -546 3115
1501 -545 3101
1515 -547 3106
1534 -550 3121
1529 -545 3086
1560 -552 3123
1568 -552 3116
1572 -549 3099
1580 -549 3091
1586 -547 3078
1593 -547 3069
1611 -549 3079
1615 -548 3064
1626 -548 3062
1646 -552 3076
1648 -549 3056
1657 -549 3051
1686 -555 3081
1684 -551 3053
1690 -550 3041
1698 -549 3033
1713 -551 3038
-1822 -535 3128
-1799 -531 3111
-1799 -535 3135
-1778 -532 3121
-1763 -530 3119
-1763 -533 3140
-1766 -537 3169
-1747 -535 3159
-1736 -535 3163
-1743 -540 3200
-1711 -533 3164
-1709 -536 3184
-1707 -538 3203
-1687 -535 3190
-1689 -539 3219
-1675 -538 3216
-1657 -536 3205
-1650 -537 3218
-1636 -536 3215
-1633 -538 3233
-1628 -540 3249
-1613 -539 3243
-1615 -543 3272
-1583 -536 3234
-1578 -537 3248
-1574 -540 3265
-1553 -536 3247
-1550 -539 3267
-1534 -537 3258
-1531 -539 3279
-1522 -540 3286
-1508 -539 3282
-1497 -539 3285
-1488 -539 3290
-1480 -540 3301
-1476 -542 3318
-1463 -541 3316
-1444 -538 3301
-1449 -544 3338
-1430 -540 3322
-1420 -541 3326
-1409 -541 3328
-1402 -542 3341
-1395 -543 3351
-1382 -542 3350
-1381 -546 3375
-1349 -537 3325
-1347 -541 3350
-1332 -539 3342
-1316 -537 3330
-1326 -545 3385
-1302 -539 3352
-1293 -540 3360
-1292 -544 3388
-1261 -535 3336
-1264 -541 3375
-1257 -543 3388
-1239 -539 3368
-1236 -542 3391
-1224 -542 3389
-1218 -544 3406
-1216 -548 3431
-1195 -543 3404
-1194 -547 3433
-1172 -542 3403
-1166 -544 3420
-1152 -542 3411
-1146 -545 3428
-1133 -543 3422
-1123 -544 3425
-1112 -543 3425
-1111 -548 3458
-1091 -543 3430
-1081 -543 3433
-1076 -546 3451
-1068 -548 3464
-1052 -545 3447
-1045 -546 3459
-1035 -547 3465
-1030 -550 3485
-1006 -542 3441
-1006 -548 3477
-995 -548 3479
-986 -548 3484
-974 -548 3483
-965 -548 3488
-950 -546 3474
-945 -549 3495
-933 -548 3493
-917 -545 3474
-911 -548 3492
-897 -546 3481
-886 -545 3478
-884 -550 3512
-872 -549 3508
-865 -551 3524
-854 -551 3523
-849 -555 3547
-840 -556 3556
-826 -554 3545
-813 -552 3534
-801 -551 3529
-799 -557 3570
-781 -552 3539
-773 -553 3548
-753 -547 3507
-748 -550 3532
-736 -550 3529
-722 -547 3510
-714 -548 3523
-704 -549 3525
-698 -552 3550
-684 -550 3534
-671 -548 3522
-662 -549 3530
-654 -551 3546
-643 -550 3540
-631 -549 3537
-624 -552 3555
-618 -556 3583
-603 -552 3554
-596 -555 3577
-581 -551 3551
-573 -554 3569
-562 -553 3565
-551 -553 3564
-541 -553 3566
-529 -551 3556
-516 -549 3540
-511 -554 3577
-495 -548 3535
-487 -551 3555
-475 -549 3543
-468 -553 3568
-455 -550 3549
-444 -549 3546
-435 -551 3558
-423 -549 3545
-417 -555 3584
-402 -548 3544
-396 -554 3582
-386 -555 3589
-373 -551 3562
-362 -550 3557
-353 -553 3577
-343 -554 3581
-332 -553 3576
-322 -553 3576
-310 -551 3564
-300 -552 3569
-292 -556 3598
-278 -550 3554
-267 -548 3541
-259 -551 3566
-249 -554 3580
-238 -551 3564
-230 -558 3607
-218 -555 3587
-208 -555 3592
-196 -550 3559
-185 -548 3545
-175 -548 3545
-154 -515 3332
-122 -437 2828
-115 -442 2861
-110 -454 2934
-97 -435 2813
-83 -405 2618
-68 -370 2392
-72 -433 2800
-81 -541 3499
-72 -548 3543
-62 -553 3573
-52 -551 3561
-42 -563 3635
-31 -557 3597
-21 -552 3566
-10 -556 3592
0 -556 3592
9 -557 3596
20 -558 3598
30 -556 3590
41 -555 3582
51 -558 3599
61 -554 3575
72 -558 3599
81 -552 3557
92 -555 3578
102 -552 3560
113 -557 3587
123 -555 3572
133 -550 3542
145 -560 3603
155 -557 3587
164 -553 3561
175 -554 3566
186 -557 3586
196 -556 3574
206 -555 3572
215 -552 3550
226 -552 3550
236 -552 3547
246 -553 3550
255 -549 3526
267 -552 3543
277 -553 3551
287 -551 3535
297 -552 3538
310 -556 3563
317 -551 3534
329 -554 3550
340 -555 3557
349 -553 3539
357 -549 3517
372 -556 3559
378 -550 3519
390 -553 3536
402 -555 3546
409 -551 3523
422 -554 3541
434 -556 3553
445 -557 3555
455 -558 3558
467 -559 3563
473 -554 3534
482 -553 3525
493 -554 3526
502 -552 3513
514 -554 3526
530 -560 3565
532 -551 3504
541 -551 3499
557 -556 3533
566 -555 3523
575 -553 3512
584 -553 3507
592 -550 3488
606 -554 3511
617 -555 3512
629 -557 3524
632 -550 3480
647 -554 3503
654 -552 3487
664 -551 3482
675 -552 3483
687 -554 3492
698 -554 3493
709 -555 3495
716 -552 3478
727 -553 3483
736 -552 3473
758 -561 3526
759 -554 3483
761 -548 3441
774 -551 3455
771 -541 3394
779 -540 3384
769 -526 3293
761 -514 3216
755 -504 3150
766 -505 3156
756 -492 3075
757 -487 3042
753 -479 2987
757 -476 2967
754 -468 2916
757 -465 2896
765 -465 2889
758 -455 2830
782 -465 2886
774 -455 2822
787 -458 2839
803 -462 2862
849 -484 2993
917 -517 3199
961 -536 3314
992 -548 3384
1000 -547 3376
1017 -551 3398
1019 -547 3367
1036 -551 3388
1040 -547 3364
1061 -553 3398
1068 -552 3384
1067 -546 3346
1086 -551 3372
1093 -549 3358
1107 -551 3369
1121 -553 3377
1124 -549 3352
1133 -549 3346
1147 -551 3356
1152 -549 3337
1170 -552 3357
1176 -550 3341
1189 -552 3348
1196 -551 3336
1206 -551 3333
1210 -548 3311
1229 -552 3333
1234 -550 3317
1236 -546 3291
1255 -550 3310
1260 -548 3293
1268 -547 3285
1285 -550 3300
1302 -553 3315
1298 -547 3275
1308 -547 3273
1329 -552 3296
1339 -552 3290
1347 -551 3282
1335 -542 3225
1363 -550 3266
1359 -544 3227
1395 -554 3286
1403 -554 3278
1405 -550 3254
1421 -553 3265
1421 -549 3237
1437 -551 3247
1436 -547 3218
1446 -547 3213
1463 -550 3224
1465 -547 3204
1505 -558 3263
1487 -548 3198
1489 -545 3178
1506 -547 3188
1528 -552 3208
1527 -548 3181
1540 -549 3184
1556 -551 3192
1569 -552 3194
1575 -551 3181
1593 -554 3191
1588 -549 3157
1604 -551 3165
1619 -552 3170
1599 -542 3106
1636 -551 3153
1646 -552 3149
1635 -545 3105
1658 -549 3124
1680 -553 3141
1677 -549 3112
1698 -552 3127
1706 -552 3119
1700 -547 3085
1727 -552 3110
1741 -553 3113
1742 -551 3091
-1865 -537 3204
-1846 -535 3195
-1841 -537 3210
-1803 -529 3167
-1834 -541 3245
-1810 -537 3226
-1791 -534 3216
-1787 -536 3232
-1781 -538 3247
-1762 -535 3236
-1751 -535 3240
-1736 -534 3235
-1746 -540 3280
-1708 -532 3231
-1725 -541 3290
-1699 -536 3264
-1704 -541 3300
-1675 -535 3267
-1668 -536 3280
-1671 -540 3311
-1650 -537 3294
-1639 -537 3298
-1636 -540 3318
-1619 -537 3308
-1605 -536 3306
-1613 -543 3349
-1590 -538 3327
-1588 -541 3349
-1561 -536 3319
-1572 -543 3369
-1547 -538 3341
-1540 -540 3354
-1531 -540 3360
-1527 -542 3379
-1510 -540 3369
-1497 -540 3368
-1479 -537 3353
-1477 -540 3376
-1451 -534 3346
-1445 -536 3358
-1437 -537 3370
-1433 -539 3388
-1432 -543 3413
-1417 -542 3408
-1409 -542 3417
-1387 -538 3391
-1393 -545 3436
-1373 -541 3416
-1368 -543 3433
-1347 -539 3410
-1345 -542 3436
-1341 -545 3456
-1335 -547 3471
-1314 -543 3447
-1300 -541 3440
-1287 -540 3437
-1277 -541 3441
-1274 -544 3465
-1258 -542 3455
-1255 -545 3478
-1234 -540 3451
-1227 -542 3464
-1215 -541 3463
-1204 -542 3466
-1208 -548 3511
-1181 -541 3465
-1175 -543 3480
-1166 -544 3489
-1157 -544 3496
-1148 -545 3502
-1130 -542 3483
-1127 -545 3507
-1117 -546 3514
-1116 -550 3546
-1101 -548 3534
-1086 -546 3522
-1074 -545 3519
-1062 -545 3517
-1055 -547 3532
-1044 -546 3532
-1031 -545 3527
-1023 -547 3539
-1010 -545 3531
-1006 -549 3556
-991 -547 3543
-983 -548 3554
-975 -550 3568
-963 -549 3565
-945 -544 3537
-940 -548 3561
-936 -552 3588
-918 -548 3564
-911 -550 3579
-894 -546 3556
-883 -546 3555
-882 -552 3594
-869 -550 3589
-854 -548 3573
-845 -549 3579
-837 -551 3595
-821 -547 3571
-813 -549 3585
-795 -544 3552
-790 -547 3577
-780 -548 3584
-775 -552 3612
-766 -553 3620
-750 -549 3595
-740 -550 3601
-728 -549 3596
-716 -547 3587
-715 -555 3640
-707 -558 3655
-688 -551 3610
-679 -552 3623
-665 -550 3608
-660 -555 3639
-647 -552 3626
-634 -550 3611
-625 -552 3626
-613 -550 3613
-601 -549 3608
-596 -554 3644
-580 -550 3613
-571 -551 3622
-563 -553 3638
-547 -549 3609
-540 -552 3630
-526 -549 3609
-521 -554 3648
-505 -548 3609
-498 -553 3637
-488 -554 3646
-476 -552 3636
-462 -549 3612
-455 -552 3634
-444 -551 3631
-433 -551 3632
-419 -546 3599
-411 -550 3622
-402 -553 3642
-386 -545 3590
-380 -551 3634
-371 -554 3653
-357 -549 3620
-347 -550 3624
-340 -555 3659
-328 -553 3647
-316 -551 3631
-306 -552 3639
-293 -548 3613
-286 -555 3656
-276 -555 3657
-262 -549 3620
-254 -553 3644
-243 -553 3647
-232 -551 3635
-221 -550 3627
-210 -549 3618
-199 -549 3622
-189 -549 3619
-179 -550 3625
-162 -530 3492
-134 -469 3092
-117 -441 2911
-110 -446 2941
-99 -434 2860
-87 -420 2768
-70 -374 2464
-71 -415 2738
-81 -529 3487
-73 -547 3605
-63 -552 3635
-53 -557 3667
-42 -553 3638
-32 -555 3655
-21 -553 3642
-11 -557 3665
0 -554 3644
10 -554 3646
20 -555 3652
31 -560 3682
42 -558 3672
52 -554 3645
63 -556 3654
72 -551 3620
83 -554 3644
94 -556 3657
104 -553 3634
115 -553 3634
126 -557 3658
136 -555 3647
147 -554 3635
158 -558 3662
167 -551 3615
179 -556 3647
190 -557 3650
198 -550 3607
209 -553 3628
221 -555 3637
233 -560 3667
241 -553 3624
250 -551 3609
264 -557 3648
273 -556 3636
284 -555 3630
295 -556 3638
304 -554 3623
316 -556 3635
324 -552 3604
336 -555 3623
346 -554 3618
354 -550 3592
369 -556 3631
378 -555 3619
385 -550 3586
394 -548 3570
410 -555 3618
418 -552 3598
430 -555 3611
439 -553 3597
450 -553 3597
462 -555 3611
473 -555 3609
482 -555 3604
494 -555 3607
497 -548 3556
513 -553 3591
521 -551 3575
537 -557 3612
551 -560 3632
558 -558 3612
566 -555 3590
575 -553 3581
587 -555 3591
595 -553 3574
615 -561 3626
609 -546 3528
628 -554 3576
638 -554 3572
646 -552 3557
655 -550 3547
669 -554 3567
679 -553 3560
691 -555 3570
701 -555 3566
709 -553 3553
720 -553 3553
727 -551 3536
743 -555 3560
754 -556 3562
759 -551 3533
773 -554 3549
775 -548 3508
776 -542 3463
766 -527 3371
762 -518 3308
762 -511 3264
763 -506 3227
760 -498 3172
756 -489 3115
749 -478 3046
759 -479 3048
764 -477 3030
756 -466 2962
764 -466 2958
761 -459 2910
767 -457 2900
772 -455 2884
795 -463 2934
810 -468 2957
849 -485 3064
908 -513 3239
965 -540 3404
989 -548 3453
1016 -557 3507
1017 -552 3472
1024 -550 3459
1034 -550 3454
1056 -556 3490
1066 -556 3487
1064 -550 3444
1089 -557 3489
1085 -550 3439
1104 -555 3465
1107 -551 3439
1121 -553 3447
1126 -550 3428
1148 -556 3460
1141 -548 3406
1162 -553 3433
1166 -550 3412
1179 -551 3417
1191 -552 3418
1188 -546 3378
1213 -553 3416
1214 -548 3387
1225 -549 3386
1233 -548 3376
1247 -549 3382
1265 -553 3400
1265 -548 3369
1273 -548 3360
1287 -550 3368
1305 -553 3383
1311 -551 3369
1319 -550 3360
1340 -554 3382
1335 -548 3339
1360 -554 3374
1367 -553 3362
1361 -546 3318
1380 -550 3336
1408 -557 3376
1408 -553 3345
1411 -550 3324
1417 -549 3310
1433 -551 3320
1449 -553 3331
1453 -551 3310
1465 -551 3310
1463 -547 3280
1476 -548 3281
1480 -546 3264
1507 -552 3297
1509 -549 3275
1527 -552 3286
1533 -551 3274
1565 -559 3316
1562 -554 3283
1574 -554 3281
1589 -556 3286
1586 -552 3255
1596 -551 3250
1603 -550 3238
1628 -555 3263
1649 -559 3280
1630 -549 3217
1651 -553 3233
1664 -554 3233
1646 -545 3174
1670 -549 3196
1684 -550 3198
1712 -556 3228
1721 -556 3220
1725 -554 3203
1743 -556 3211
1732 -550 3168
1751 -553 3178
1760 -552 3172
1765 -551 3156
1774 -550 3149
-1916 -541 3293
-1916 -544 3317
-1876 -536 3272
-1869 -537 3285
-1855 -537 3285
-1846 -537 3291
-1824 -534 3278
-1833 -540 3318
-1830 -542 3337
-1809 -539 3323
-1797 -539 3326
-1774 -535 3309
-1773 -538 3332
-1767 -539 3345
-1745 -536 3330
-1736 -537 3338
-1737 -540 3364
-1717 -538 3352
-1695 -534 3333
-1708 -542 3385
-1696 -541 3388
-1669 -536 3360
-1674 -541 3396
-1665 -542 3405
-1646 -539 3391
-1642 -541 3410
-1609 -534 3367
-1602 -536 3381
-1612 -543 3428
-1590 -539 3408
-1566 -534 3384
-1571 -540 3422
-1561 -540 3429
-1560 -544 3454
-1544 -542 3446
-1530 -541 3443
-1505 -536 3414
-1513 -542 3460
-1503 -543 3466
-1489 -542 3463
-1487 -545 3486
-1467 -541 3469
-1462 -544 3487
-1439 -539 3460
-1458 -550 3536
-1415 -538 3461
-1403 -538 3463
-1393 -538 3468
-1387 -540 3483
-1396 -548 3536
-1378 -545 3522
-1355 -540 3493
-1367 -549 3554
-1341 -543 3520
-1328 -542 3517
-1320 -543 3526
-1295 -538 3492
-1295 -542 3523
-1296 -547 3560
-1269 -541 3518
-1252 -538 3503
-1252 -542 3536
-1251 -547 3566
-1233 -544 3550
-1226 -545 3562
-1214 -545 3564
-1194 -541 3538
-1195 -546 3576
-1167 -538 3526
-1174 -547 3583
-1157 -544 3567
-1151 -546 3585
-1137 -545 3578
-1125 -544 3576
-1126 -550 3617
-1108 -546 3595
-1093 -544 3584
-1094 -550 3626
-1091 -554 3653
-1064 -546 3604
-1057 -548 3619
-1039 -544 3595
-1031 -546 3606
-1025 -549 3626
-1011 -547 3619
-996 -544 3602
-989 -547 3619
-982 -549 3634
-963 -545 3609
-958 -548 3632
-942 -544 3611
-948 -555 3681
-921 -545 3621
-917 -549 3649
-899 -545 3621
-894 -548 3645
-881 -547 3639
-865 -544 3620
-856 -545 3630
-855 -551 3670
-840 -549 3656
-832 -550 3667
-823 -552 3677
-812 -552 3681
-803 -553 3692
-790 -552 3682
-773 -547 3653
-764 -549 3663
-762 -555 3708
-746 -552 3686
-739 -555 3707
-731 -557 3721
-719 -556 3716
-701 -551 3683
-694 -553 3702
-677 -549 3674
-666 -549 3672
-656 -549 3677
-648 -552 3696
-635 -549 3681
-617 -543 3639
-616 -552 3701
-606 -553 3708
-597 -555 3719
-580 -549 3679
-569 -549 3680
-560 -550 3691
-553 -554 3720
-537 -550 3688
-531 -554 3720
-516 -550 3692
-506 -550 3694
-498 -554 3721
-482 -548 3683
-472 -550 3690
-463 -551 3701
-451 -550 3694
-438 -547 3674
-431 -552 3705
-420 -552 3708
-404 -545 3662
-399 -552 3711
-383 -545 3664
-374 -547 3679
-369 -556 3739
-353 -549 3689
-346 -554 3725
-332 -550 3696
-321 -548 3686
-313 -554 3727
-300 -550 3699
-292 -554 3728
-280 -553 3715
-270 -554 3724
-255 -546 3669
-249 -557 3743
-239 -557 3745
-226 -553 3715
-215 -553 3719
-207 -558 3754
-194 -554 3721
-184 -555 3730
-168 -539 3624
-147 -503 3382
-128 -471 3170
-113 -447 3008
-103 -445 2991
-87 -411 2761
-71 -370 2490
-66 -380 2558
-79 -510 3425
-74 -545 3662
-64 -552 3706
-54 -556 3734
-43 -556 3736
-32 -556 3735
-21 -551 3698
-11 -552 3708
0 -558 3745
10 -551 3698
21 -552 3704
31 -555 3723
42 -555 3725
53 -557 3733
64 -554 3714
74 -553 3704
85 -553 3704
95 -549 3680
107 -559 3745
118 -557 3729
128 -555 3720
139 -556 3720
150 -555 3712
159 -550 3683
170 -552 3696
180 -550 3680
192 -554 3706
202 -550 3678
213 -552 3692
225 -555 3710
234 -551 3683
246 -553 3695
258 -557 3716
266 -552 3687
279 -557 3714
288 -553 3692
296 -548 3655
311 -556 3703
319 -551 3673
330 -552 3679
343 -556 3702
351 -552 3672
363 -553 3683
375 -555 3693
384 -554 3682
397 -556 3695
406 -554 3683
417 -555 3686
427 -554 3680
439 -556 3689
450 -555 3684
461 -557 3692
468 -552 3661
484 -558 3698
489 -552 3656
503 -555 3675
514 -556 3679
523 -554 3666
532 -552 3651
545 -554 3665
558 -557 3682
567 -555 3668
583 -560 3698
585 -552 3643
597 -553 3648
610 -556 3666
618 -554 3647
628 -553 3639
645 -559 3677
653 -556 3660
666 -558 3667
672 -554 3642
686 -557 3659
696 -557 3655
700 -551 3616
716 -555 3642
725 -554 3631
736 -555 3634
746 -554 3628
756 -554 3622
763 -551 3602
766 -546 3568
780 -548 3579
762 -529 3449
774 -530 3454
768 -519 3381
759 -506 3299
765 -504 3281
758 -493 3206
759 -487 3168
757 -480 3119
756 -474 3078
756 -468 3036
756 -463 3002
769 -466 3017
760 -454 2942
776 -459 2969
789 -462 2984
816 -472 3050
834 -477 3081
918 -520 3353
959 -538 3464
992 -551 3543
1004 -551 3547
1018 -553 3555
1020 -548 3522
1032 -549 3524
1055 -556 3566
1052 -549 3516
1061 -548 3508
1081 -553 3537
1089 -552 3526
1107 -556 3549
1104 -549 3501
1126 -555 3534
1138 -555 3535
1151 -557 3539
1147 -550 3494
1164 -553 3509
1167 -549 3483
1182 -551 3493
1189 -550 3480
1205 -553 3494
1218 -554 3497
1224 -552 3483
1232 -551 3470
1251 -554 3491
1254 -551 3467
1262 -550 3456
1271 -550 3450
1286 -552 3458
1299 -553 3462
1306 -551 3448
1312 -549 3433
1330 -553 3450
1334 -550 3428
1349 -552 3438
1359 -552 3431
1371 -553 3433
1394 -557 3459
1392 -553 3426
1404 -553 3425
1429 -559 3455
1433 -556 3436
1430 -551 3400
1445 -553 3407
1460 -555 3412
1454 -549 3371
1481 -555 3404
1478 -550 3370
1486 -549 3361
1506 -553 3377
1521 -555 3384
1501 -543 3311
1544 -555 3378
1535 -548 3331
1541 -547 3319
1572 -554 3358
1570 -550 3326
1581 -550 3324
1579 -546 3292
1604 -551 3319
1625 -554 3336
1631 -553 3322
1633 -550 3300
1656 -555 3321
1665 -554 3313
1677 -555 3312
1676 -551 3285
1695 -554 3295
1710 -555 3300
1716 -554 3287
1737 -557 3302
1747 -557 3295
1751 -555 3278
1764 -556 3277
1780 -558 3282
1772 -552 3242
1787 -553 3245
1788 -551 3223
1810 -554 3238
1824 -555 3239
-1944 -538 3344
-1930 -538 3345
-1911 -535 3335
-1921 -541 3378
-1904 -540 3373
-1909 -544 3407
-1896 -544 3408
-1859 -536 3366
-1858 -539 3391
-1860 -543 3420
-1819 -534 3369
-1819 -538 3394
-1822 -542 3425
-1797 -538 3403
-1795 -540 3426
-1780 -539 3423
-1766 -539 3423
-1740 -534 3398
-1737 -536 3418
-1750 -544 3471
-1725 -540 3447
-1716 -540 3457
-1681 -533 3412
-1708 -545 3493
-1686 -541 3475
-1661 -537 3452
-1651 -537 3457
-1652 -541 3486
-1640 -541 3490
-1625 -540 3485
-1600 -535 3458
-1614 -544 3518
-1589 -539 3491
-1582 -540 3505
-1575 -541 3516
-1555 -539 3501
-1549 -540 3516
-1543 -542 3531
-1535 -543 3541
-1512 -539 3519
-1507 -541 3535
-1495 -541 3536
-1490 -543 3556
-1500 -551 3610
-1464 -542 3553
-1455 -542 3561
-1448 -544 3576
-1442 -546 3590
-1419 -542 3565
-1429 -549 3620
-1406 -545 3596
-1389 -543 3584
-1379 -543 3589
-1371 -545 3601
-1353 -542 3585
-1352 -546 3615
-1342 -546 3621
-1320 -542 3593
-1307 -541 3591
-1308 -546 3627
-1288 -542 3606
-1288 -547 3640
-1264 -542 3605
-1252 -541 3606
-1243 -542 3613
-1237 -544 3632
-1225 -544 3630
-1218 -546 3648
-1212 -548 3664
-1197 -546 3654
-1182 -545 3645
-1160 -540 3615
-1163 -546 3661
-1150 -545 3657
-1143 -547 3673
-1129 -546 3664
-1119 -546 3670
-1100 -543 3648
-1098 -547 3678
-1091 -549 3695
-1075 -546 3680
-1072 -551 3712
-1051 -545 3677
-1047 -549 3704
-1033 -548 3696
-1018 -546 3686
-1014 -549 3711
-1003 -550 3717
-1002 -555 3754
-976 -547 3701
-981 -556 3764
-950 -545 3688
-936 -543 3681
-931 -547 3706
-922 -548 3715
-918 -552 3744
-897 -546 3705
-893 -550 3735
-882 -551 3740
-865 -547 3717
-862 -552 3750
-844 -548 3723
-842 -553 3764
-837 -558 3794
-820 -554 3767
-798 -546 3719
-796 -553 3766
-776 -547 3724
-774 -553 3770
-767 -556 3792
-751 -552 3766
-732 -546 3726
-727 -551 3758
-715 -551 3758
-701 -548 3742
-701 -557 3801
-685 -553 3776
-671 -551 3763
-661 -552 3769
-652 -553 3782
-636 -549 3755
-627 -551 3768
-614 -549 3756
-607 -553 3783
-592 -550 3760
-581 -549 3758
-574 -553 3784
-561 -552 3778
-545 -547 3742
-543 -555 3802
-526 -549 3761
-515 -550 3766
-510 -556 3810
-496 -553 3787
-486 -554 3798
-472 -551 3775
-459 -549 3759
-454 -555 3807
-442 -554 3800
-426 -548 3758
-417 -551 3780
-405 -549 3767
-392 -548 3756
-382 -549 3764
-374 -553 3791
-359 -547 3754
-354 -556 3814
-340 -551 3777
-326 -547 3753
-319 -554 3797
-307 -551 3782
-298 -554 3802
-284 -550 3774
-274 -551 3780
-264 -553 3793
-251 -550 3772
-243 -555 3806
-229 -548 3758
-220 -553 3794
-208 -552 3789
-197 -550 3772
-188 -556 3810
-173 -546 3741
-153 -516 3538
-133 -481 3301
-111 -433 2972
-107 -452 3101
-90 -418 2866
-72 -371 2543
-60 -342 2349
-81 -513 3520
-75 -543 3723
-66 -554 3797
-55 -554 3792
-44 -552 3781
-33 -553 3788
-22 -559 3827
-11 -552 3779
0 -559 3829
10 -556 3806
21 -555 3797
32 -553 3787
43 -552 3777
54 -552 3775
65 -555 3796
76 -555 3796
87 -558 3816
97 -552 3776
107 -546 3733
119 -552 3769
130 -553 3778
142 -555 3787
152 -553 3776
163 -554 3785
174 -553 3771
184 -550 3754
196 -552 3769
209 -559 3814
217 -551 3757
228 -552 3766
239 -551 3756
251 -555 3778
261 -553 3765
273 -556 3785
282 -552 3754
293 -551 3750
305 -553 3763
316 -554 3769
327 -553 3763
341 -560 3804
351 -557 3787
362 -558 3789
371 -554 3764
386 -561 3809
394 -556 3775
402 -552 3745
412 -551 3737
426 -555 3760
438 -557 3770
447 -554 3752
459 -556 3762
469 -555 3755
479 -554 3747
491 -555 3750
502 -556 3754
512 -554 3745
525 -557 3759
537 -558 3764
546 -556 3750
555 -554 3732
567 -556 3744
578 -555 3741
590 -556 3747
605 -561 3773
608 -553 3721
620 -554 3725
629 -552 3709
640 -553 3714
654 -555 3729
662 -553 3711
676 -556 3729
680 -550 3686
703 -560 3749
707 -554 3711
715 -552 3696
