VERSION 0.7
FIELDS x y z
SIZE 4 4 4
TYPE I I I
COUNT 1 1 1
WIDTH 3268
HEIGHT 1
VIEWPOINT 0.0 0.0 0.0 1.0 0.0 0.0 0.0
POINTS 3268
DATA ascii
93 -549 2484
100 -547 2474
108 -548 2476
115 -547 2475
122 -547 2474
129 -546 2465
138 -554 2503
145 -551 2487
151 -547 2470
158 -546 2466
166 -548 2475
173 -547 2470
180 -546 2464
187 -547 2465
195 -550 2478
202 -548 2470
209 -548 2470
216 -547 2464
223 -547 2462
228 -543 2443
237 -546 2456
245 -548 2466
253 -550 2475
257 -543 2443
265 -545 2450
274 -548 2462
280 -545 2449
290 -550 2471
295 -547 2458
302 -547 2453
309 -546 2450
318 -549 2461
324 -548 2456
331 -547 2451
337 -544 2437
346 -547 2450
351 -544 2434
361 -548 2453
367 -547 2447
375 -548 2448
383 -549 2451
387 -545 2433
397 -549 2452
400 -543 2422
408 -545 2429
415 -544 2426
425 -547 2438
432 -548 2441
437 -545 2427
443 -543 2417
454 -548 2435
456 -542 2409
466 -545 2422
474 -546 2424
481 -546 2423
485 -543 2406
496 -547 2422
502 -546 2416
508 -545 2410
516 -546 2413
523 -546 2412
529 -544 2403
540 -548 2418
545 -546 2410
556 -549 2423
561 -548 2413
568 -548 2412
575 -548 2410
576 -542 2381
589 -547 2402
594 -545 2395
601 -545 2390
609 -546 2392
616 -545 2389
625 -547 2396
632 -548 2396
640 -548 2397
644 -545 2381
649 -543 2372
659 -546 2381
665 -545 2376
667 -540 2354
681 -546 2378
690 -548 2383
697 -548 2381
702 -546 2371
702 -540 2344
715 -545 2363
719 -543 2350
729 -545 2358
734 -543 2349
745 -547 2361
750 -545 2350
758 -545 2350
765 -545 2349
766 -541 2327
772 -541 2324
773 -536 2301
771 -530 2275
772 -526 2253
768 -518 2221
766 -512 2192
766 -509 2173
763 -502 2142
766 -500 2131
762 -493 2099
766 -491 2091
763 -485 2064
765 -483 2050
765 -478 2029
768 -477 2020
768 -472 2000
767 -468 1981
771 -467 1973
775 -466 1965
777 -463 1952
777 -460 1935
776 -456 1916
776 -452 1900
782 -452 1897
787 -452 1892
806 -459 1922
816 -461 1929
842 -473 1975
894 -498 2078
922 -511 2126
957 -527 2190
978 -535 2219
995 -540 2238
996 -536 2221
1005 -538 2224
1009 -536 2214
1015 -535 2208
1022 -535 2205
1036 -539 2217
1040 -538 2209
1055 -542 2223
1063 -542 2221
1062 -538 2201
1071 -540 2203
1074 -537 2191
1088 -541 2202
1096 -542 2202
1092 -536 2176
1106 -540 2186
1107 -536 2171
1124 -542 2188
1132 -542 2187
1136 -541 2177
1141 -540 2170
1152 -541 2173
1153 -539 2158
1165 -541 2165
1174 -542 2164
1177 -540 2155
1186 -541 2155
1182 -536 2131
1196 -539 2140
1196 -536 2124
1215 -542 2142
1225 -543 2143
-1274 -525 2158
-1262 -523 2153
-1259 -524 2163
-1259 -528 2180
-1243 -524 2168
-1254 -532 2203
-1233 -526 2183
-1231 -528 2196
-1210 -522 2174
-1210 -525 2191
-1208 -527 2203
-1200 -527 2206
-1198 -529 2218
-1188 -528 2217
-1167 -522 2194
-1169 -526 2215
-1166 -528 2226
-1154 -526 2221
-1149 -527 2229
-1139 -526 2226
-1137 -528 2238
-1118 -523 2220
-1126 -530 2252
-1109 -526 2236
-1103 -526 2241
-1102 -529 2258
-1087 -525 2244
-1099 -535 2287
-1078 -528 2262
-1074 -530 2271
-1073 -533 2288
-1059 -529 2275
-1051 -529 2277
-1051 -533 2294
-1033 -528 2275
-1042 -536 2314
-1032 -535 2311
-1015 -529 2290
-1020 -536 2321
-1001 -530 2297
-996 -531 2306
-988 -531 2306
-994 -538 2339
-977 -533 2320
-970 -533 2322
-959 -531 2317
-951 -531 2318
-947 -532 2327
-943 -534 2339
-931 -531 2328
-925 -532 2333
-927 -537 2360
-914 -534 2347
-911 -537 2360
-902 -536 2359
-891 -534 2351
-880 -531 2343
-874 -532 2349
-869 -534 2358
-864 -535 2365
-854 -534 2361
-849 -535 2368
-841 -534 2369
-827 -530 2352
-830 -537 2383
-828 -540 2401
-815 -536 2385
-811 -539 2398
-802 -538 2395
-798 -540 2407
-789 -539 2403
-779 -537 2396
-772 -538 2402
-768 -540 2412
-761 -540 2416
-750 -537 2405
-742 -537 2404
-739 -540 2419
-731 -540 2422
-727 -542 2434
-719 -542 2434
-704 -536 2407
-697 -536 2410
-698 -543 2442
-686 -539 2425
-674 -535 2412
-674 -541 2440
-669 -543 2451
-658 -541 2439
-657 -545 2461
-645 -541 2446
-634 -538 2434
-631 -542 2452
-626 -544 2461
-614 -541 2447
-610 -543 2461
-602 -543 2461
-593 -542 2456
-590 -546 2474
-578 -541 2455
-577 -547 2483
-560 -538 2442
-558 -543 2469
-550 -543 2466
-542 -541 2462
-532 -539 2453
-527 -542 2465
-519 -541 2463
-515 -544 2479
-509 -546 2486
-498 -542 2472
-491 -543 2476
-486 -545 2486
-475 -542 2471
-468 -542 2474
-462 -543 2480
-456 -544 2485
-448 -544 2484
-439 -542 2477
-435 -546 2496
-428 -546 2499
-415 -539 2467
-410 -543 2484
-403 -543 2483
-395 -542 2480
-389 -545 2494
-380 -541 2479
-373 -542 2482
-363 -538 2467
-359 -543 2490
-353 -546 2503
-344 -544 2492
-338 -545 2499
-331 -546 2504
-322 -542 2487
-315 -544 2496
-309 -545 2502
-301 -544 2497
-294 -545 2502
-286 -545 2501
-279 -545 2501
-271 -545 2501
-264 -544 2496
-256 -543 2492
-248 -542 2491
-242 -544 2498
-234 -542 2491
-227 -545 2502
-220 -544 2500
-214 -547 2513
-205 -544 2502
-200 -549 2524
-191 -546 2510
-183 -543 2496
-174 -538 2473
-159 -514 2364
-137 -463 2132
-128 -455 2093
-120 -449 2067
-114 -448 2060
-109 -451 2076
-104 -457 2102
-97 -452 2078
-92 -459 2113
-88 -472 2171
-85 -486 2233
-81 -506 2327
-78 -530 2435
-73 -543 2495
-66 -547 2514
-59 -547 2515
-52 -550 2527
-45 -552 2536
-37 -552 2535
-30 -549 2522
-22 -546 2511
-15 -554 2546
-7 -551 2534
0 -549 2523
6 -550 2528
14 -548 2517
21 -549 2519
28 -549 2520
36 -549 2522
43 -550 2527
51 -550 2523
58 -550 2526
64 -541 2484
73 -553 2536
81 -554 2540
87 -549 2517
95 -548 2515
102 -548 2514
110 -552 2530
118 -554 2538
124 -549 2515
132 -551 2522
139 -550 2519
146 -548 2508
153 -546 2501
160 -547 2506
168 -547 2503
174 -546 2496
182 -546 2497
191 -551 2522
197 -547 2499
204 -546 2496
213 -551 2516
218 -544 2487
226 -547 2499
234 -548 2501
241 -548 2500
248 -546 2493
256 -548 2500
264 -550 2508
269 -545 2484
277 -547 2491
284 -545 2484
290 -543 2474
299 -548 2492
307 -549 2497
313 -546 2484
319 -544 2472
330 -550 2498
334 -545 2475
342 -546 2478
348 -544 2471
355 -544 2467
365 -548 2487
372 -547 2478
377 -544 2465
386 -546 2474
392 -545 2465
399 -545 2465
409 -548 2480
417 -549 2481
421 -545 2463
430 -547 2471
436 -545 2459
442 -544 2456
452 -548 2469
458 -546 2459
463 -543 2446
473 -546 2457
483 -550 2474
485 -544 2446
495 -547 2456
504 -549 2464
511 -548 2459
517 -547 2453
524 -546 2450
533 -548 2455
537 -545 2441
544 -545 2440
552 -545 2440
559 -545 2437
565 -545 2433
572 -544 2429
580 -545 2431
592 -549 2447
594 -544 2424
604 -547 2435
607 -543 2416
614 -543 2415
626 -547 2432
630 -544 2417
637 -545 2416
644 -544 2410
655 -547 2424
660 -545 2414
664 -543 2400
674 -545 2407
683 -546 2412
690 -546 2410
694 -544 2397
704 -546 2406
708 -544 2393
716 -544 2393
726 -546 2401
734 -547 2400
742 -547 2400
747 -546 2393
751 -543 2379
756 -542 2372
767 -545 2382
769 -541 2363
777 -542 2364
773 -534 2328
772 -528 2301
768 -521 2266
769 -517 2248
769 -512 2224
760 -502 2177
770 -504 2184
765 -497 2150
763 -491 2124
764 -487 2105
766 -485 2092
765 -480 2071
765 -476 2051
767 -473 2037
768 -470 2022
771 -468 2010
771 -465 1993
772 -461 1977
774 -459 1964
778 -458 1957
779 -455 1941
787 -456 1944
785 -452 1923
791 -452 1921
812 -460 1954
842 -473 2008
889 -496 2103
928 -515 2177
951 -524 2213
969 -530 2237
995 -540 2277
995 -536 2258
1007 -539 2266
1012 -538 2260
1027 -542 2274
1024 -537 2248
1032 -537 2247
1044 -540 2255
1052 -541 2254
1061 -542 2255
1065 -540 2244
1078 -543 2254
1070 -536 2220
1094 -544 2251
1089 -538 2224
1112 -546 2252
1115 -544 2241
1118 -542 2230
1123 -541 2222
1136 -544 2230
1134 -539 2209
1142 -540 2207
1154 -542 2213
1169 -545 2224
1163 -540 2197
1165 -537 2184
1184 -543 2201
1179 -537 2177
1196 -542 2190
1201 -541 2183
1214 -544 2191
1221 -543 2186
1219 -540 2167
1230 -541 2170
1226 -537 2147
-1297 -527 2198
-1287 -526 2197
-1271 -522 2186
-1279 -528 2215
-1269 -528 2216
-1262 -528 2220
-1239 -521 2196
-1244 -526 2220
-1234 -525 2218
-1223 -524 2216
-1212 -522 2213
-1216 -527 2236
-1212 -529 2247
-1196 -525 2233
-1187 -524 2235
-1182 -525 2241
-1186 -530 2266
-1166 -524 2245
-1162 -526 2255
-1159 -528 2266
-1155 -529 2276
-1150 -531 2285
-1141 -530 2283
-1133 -530 2286
-1128 -531 2294
-1122 -532 2301
-1114 -531 2302
-1105 -530 2301
-1094 -528 2296
-1086 -528 2297
-1088 -533 2322
-1079 -532 2319
-1069 -531 2317
-1062 -531 2322
-1049 -529 2312
-1050 -533 2333
-1041 -532 2333
-1032 -531 2330
-1022 -530 2328
-1023 -534 2349
-1016 -534 2352
-1009 -534 2357
-999 -533 2352
-991 -533 2354
-984 -533 2357
-976 -533 2358
-978 -538 2385
-962 -533 2365
-958 -535 2376
-948 -534 2372
-937 -531 2365
-937 -536 2386
-926 -534 2380
-922 -536 2392
-913 -535 2390
-905 -535 2391
-895 -533 2384
-900 -540 2420
-881 -534 2392
-878 -536 2406
-877 -540 2426
-859 -534 2397
-854 -535 2407
-844 -533 2401
-841 -537 2418
-832 -535 2414
-834 -542 2443
-822 -538 2431
-813 -538 2429
-810 -540 2444
-797 -537 2429
-796 -541 2452
-791 -543 2460
-775 -538 2437
-768 -537 2438
-760 -537 2439
-752 -537 2440
-745 -537 2443
-739 -538 2450
-730 -537 2446
-727 -540 2461
-722 -542 2470
-713 -541 2468
-707 -542 2475
-695 -538 2458
-688 -539 2461
-686 -543 2483
-672 -538 2461
-661 -535 2449
-660 -540 2474
-650 -538 2467
-646 -541 2481
-641 -543 2492
-630 -540 2479
-618 -536 2462
-620 -545 2502
-609 -541 2487
-601 -541 2488
-596 -544 2501
-584 -540 2484
-576 -539 2482
-570 -540 2488
-564 -542 2497
-558 -543 2502
-546 -539 2486
-543 -543 2507
-535 -543 2505
-528 -543 2508
-522 -544 2514
-514 -544 2515
-508 -546 2523
-498 -543 2511
-492 -544 2517
-485 -544 2519
-475 -543 2512
-470 -545 2526
-459 -541 2505
-453 -543 2514
-445 -542 2512
-440 -545 2525
-433 -545 2530
-424 -543 2520
-416 -543 2522
-409 -544 2524
-402 -544 2527
-393 -542 2515
-386 -543 2522
-378 -541 2515
-373 -546 2538
-367 -548 2549
-355 -541 2517
-351 -547 2541
-342 -544 2528
-338 -550 2557
-327 -543 2529
-319 -544 2530
-314 -548 2550
-304 -543 2530
-297 -543 2527
-290 -544 2531
-282 -543 2527
-275 -545 2536
-267 -543 2529
-262 -547 2550
-253 -545 2540
-246 -545 2540
-239 -548 2553
-230 -544 2534
-224 -548 2553
-216 -547 2549
-209 -546 2545
-200 -544 2535
-194 -545 2543
-186 -544 2538
-177 -541 2521
-165 -527 2457
-143 -479 2236
-130 -457 2132
-121 -447 2087
-114 -442 2063
-109 -448 2088
-105 -457 2131
-99 -456 2130
-94 -461 2150
-88 -465 2171
-85 -480 2237
-81 -498 2321
-80 -535 2495
-74 -542 2527
-68 -551 2568
-60 -550 2563
-53 -553 2577
-45 -551 2570
-38 -550 2564
-30 -552 2571
-22 -549 2557
-15 -553 2579
-8 -552 2572
0 -547 2550
6 -550 2562
14 -550 2563
21 -551 2565
29 -555 2584
36 -551 2566
44 -549 2558
51 -546 2541
59 -551 2567
66 -549 2554
74 -549 2557
81 -549 2555
88 -547 2544
96 -551 2561
104 -552 2565
111 -551 2559
118 -548 2545
125 -547 2540
134 -550 2556
141 -549 2550
148 -549 2549
155 -548 2545
163 -549 2548
169 -546 2532
177 -547 2536
186 -550 2550
193 -549 2546
201 -550 2549
209 -553 2561
214 -547 2533
223 -551 2554
230 -549 2543
237 -549 2542
244 -548 2535
252 -548 2536
260 -549 2539
267 -549 2536
274 -547 2529
281 -547 2526
289 -549 2535
297 -550 2540
304 -549 2534
309 -545 2514
319 -549 2533
324 -546 2515
334 -549 2531
340 -546 2516
348 -548 2522
354 -546 2511
362 -546 2512
369 -546 2510
378 -549 2524
383 -546 2507
392 -548 2516
395 -542 2487
408 -549 2520
413 -546 2503
421 -546 2505
429 -548 2510
435 -546 2500
444 -548 2509
451 -547 2505
459 -549 2509
463 -544 2487
473 -547 2498
478 -544 2484
485 -544 2484
493 -545 2487
502 -547 2491
508 -545 2483
514 -544 2476
524 -547 2487
529 -545 2477
539 -547 2487
542 -543 2465
554 -547 2484
559 -545 2473
568 -546 2477
576 -547 2478
583 -547 2476
586 -543 2456
598 -547 2474
602 -544 2458
610 -545 2461
619 -547 2466
626 -546 2461
637 -550 2476
637 -543 2447
647 -545 2453
656 -547 2460
664 -547 2459
673 -549 2462
676 -546 2447
687 -548 2457
694 -548 2454
697 -545 2438
708 -548 2448
714 -546 2439
720 -546 2435
730 -547 2441
734 -545 2429
743 -546 2433
749 -546 2427
757 -546 2427
764 -545 2421
763 -539 2394
774 -542 2403
775 -538 2382
773 -532 2353
770 -524 2318
772 -521 2302
765 -512 2258
767 -509 2243
764 -502 2213
765 -498 2192
762 -492 2163
764 -489 2147
763 -485 2126
768 -483 2117
765 -478 2092
767 -475 2076
768 -471 2059
772 -470 2051
768 -464 2022
771 -462 2011
772 -459 1995
778 -459 1993
784 -459 1989
784 -455 1973
792 -456 1974
800 -457 1978
805 -457 1973
836 -471 2032
876 -490 2111
915 -508 2185
952 -525 2254
976 -534 2292
982 -534 2287
993 -536 2294
1010 -541 2314
1012 -538 2298
1026 -542 2310
1030 -540 2301
1035 -539 2292
1038 -537 2280
1057 -543 2303
1062 -542 2296
1071 -543 2295
1072 -540 2280
1072 -536 2261
1088 -541 2277
1094 -540 2271
1103 -541 2271
1109 -541 2266
1118 -541 2266
1119 -538 2249
1128 -539 2251
1139 -541 2255
1150 -543 2258
1148 -539 2238
1149 -536 2222
1172 -543 2250
1175 -541 2237
1176 -539 2223
1185 -539 2222
1190 -538 2215
1201 -540 2219
1212 -542 2222
1216 -540 2211
1230 -544 2221
1226 -538 2196
1232 -538 2190
1245 -540 2197
1245 -537 2181
-1311 -525 2223
-1303 -525 2227
-1294 -524 2228
-1289 -525 2235
-1279 -524 2234
-1279 -527 2251
-1253 -520 2222
-1255 -524 2242
-1247 -524 2245
-1256 -530 2278
-1243 -528 2270
-1232 -527 2269
-1227 -527 2275
-1217 -526 2274
-1202 -523 2264
-1204 -527 2285
-1197 -528 2289
-1188 -527 2289
-1182 -527 2295
-1176 -528 2301
-1165 -527 2297
-1169 -532 2323
-1148 -526 2300
-1147 -529 2316
-1148 -533 2336
-1125 -526 2308
-1131 -532 2337
-1123 -531 2339
-1100 -524 2311
-1112 -534 2354
-1083 -523 2311
-1094 -532 2355
-1073 -526 2328
-1080 -533 2363
-1065 -529 2349
-1072 -536 2382
-1063 -535 2382
-1037 -526 2345
-1030 -526 2346
-1035 -533 2379
-1030 -534 2388
-1020 -533 2385
-1018 -536 2399
-1011 -536 2402
-998 -533 2394
-999 -538 2417
-986 -535 2404
-976 -534 2403
-974 -537 2417
-963 -534 2410
-956 -535 2415
-944 -532 2406
-933 -530 2399
-933 -535 2422
-931 -538 2439
-916 -534 2420
-915 -537 2439
-908 -538 2443
-903 -539 2452
-895 -539 2454
-878 -533 2429
-875 -536 2445
-873 -540 2463
-857 -535 2441
-853 -537 2453
-851 -540 2470
-842 -539 2467
-831 -537 2462
-824 -537 2462
-816 -537 2465
-814 -541 2482
-797 -535 2456
-796 -539 2478
-786 -537 2473
-782 -540 2485
-768 -535 2466
-764 -538 2480
-763 -542 2502
-752 -540 2491
-742 -538 2486
-736 -539 2492
-731 -542 2504
-719 -538 2490
-715 -541 2504
-710 -542 2513
-696 -538 2493
-691 -540 2503
-690 -545 2528
-677 -541 2511
-677 -547 2539
-665 -543 2526
-654 -541 2515
-645 -539 2509
-636 -538 2506
-635 -544 2533
-624 -541 2520
-614 -539 2512
-611 -542 2529
-598 -537 2508
-597 -544 2540
-588 -543 2534
-581 -543 2538
-572 -542 2533
-565 -542 2534
-557 -542 2536
-553 -545 2550
-544 -544 2546
-534 -542 2538
-532 -547 2562
-521 -544 2551
-513 -544 2550
-505 -543 2546
-498 -544 2551
-493 -546 2564
-484 -545 2557
-475 -543 2552
-468 -544 2555
-458 -541 2542
-450 -541 2543
-447 -546 2567
-437 -543 2556
-430 -544 2562
-425 -548 2578
-417 -546 2572
-409 -546 2570
-397 -540 2545
-388 -539 2538
-383 -542 2556
-378 -545 2569
-370 -545 2572
-363 -546 2576
-354 -543 2562
-348 -547 2578
-341 -547 2579
-334 -547 2582
-324 -544 2567
-319 -548 2588
-309 -544 2570
-302 -545 2574
-295 -546 2577
-287 -545 2577
-279 -545 2575
-271 -545 2574
-264 -545 2577
-258 -548 2591
-249 -545 2578
-241 -545 2576
-233 -544 2570
-226 -544 2571
-219 -546 2581
-211 -546 2581
-202 -542 2564
-197 -548 2591
-187 -542 2563
-181 -544 2575
-171 -538 2545
-152 -502 2374
-135 -466 2203
-124 -449 2127
-117 -448 2119
-112 -453 2146
-105 -449 2124
-99 -452 2139
-94 -458 2168
-89 -462 2187
-84 -469 2219
-82 -497 2350
-81 -530 2509
-76 -547 2585
-68 -548 2593
-61 -549 2596
-53 -551 2604
-46 -555 2623
-38 -549 2597
-30 -549 2598
-23 -552 2608
-15 -545 2578
-8 -553 2613
0 -550 2600
7 -548 2591
14 -550 2600
22 -552 2606
29 -549 2593
37 -550 2595
44 -548 2586
52 -549 2594
60 -551 2601
67 -551 2603
75 -549 2590
83 -552 2605
90 -549 2592
98 -551 2597
105 -552 2603
113 -549 2591
120 -551 2596
128 -550 2595
136 -551 2596
142 -547 2579
150 -550 2591
158 -551 2592
165 -548 2581
172 -547 2575
180 -547 2575
189 -551 2591
196 -550 2589
202 -547 2573
210 -548 2575
217 -547 2569
227 -553 2597
234 -551 2586
241 -549 2578
247 -547 2569
254 -545 2557
264 -550 2578
270 -547 2565
277 -547 2565
284 -545 2552
293 -549 2572
299 -545 2553
309 -550 2577
316 -548 2566
321 -546 2552
332 -550 2572
336 -546 2550
345 -547 2554
355 -551 2575
360 -548 2557
368 -548 2558
374 -547 2550
382 -547 2551
390 -548 2552
399 -550 2561
404 -546 2542
410 -544 2533
418 -545 2537
428 -548 2547
431 -543 2523
440 -545 2532
449 -546 2537
458 -549 2547
463 -545 2530
472 -547 2538
480 -548 2540
488 -549 2541
495 -548 2534
504 -550 2542
505 -543 2511
514 -544 2514
521 -544 2511
532 -548 2528
538 -546 2517
548 -549 2531
551 -544 2506
557 -543 2501
568 -546 2513
576 -547 2515
580 -544 2499
589 -545 2505
596 -545 2502
610 -551 2527
613 -547 2505
621 -547 2506
623 -543 2483
633 -545 2493
641 -546 2494
644 -542 2474
657 -547 2494
667 -549 2502
678 -551 2512
679 -546 2485
687 -547 2487
695 -547 2486
706 -550 2498
708 -546 2478
715 -545 2473
726 -548 2482
726 -542 2455
737 -545 2465
750 -549 2483
752 -545 2463
759 -545 2460
763 -543 2447
768 -541 2436
776 -542 2437
777 -537 2415
771 -528 2371
763 -518 2323
767 -515 2310
768 -512 2291
765 -505 2261
764 -500 2236
768 -498 2226
767 -493 2200
763 -486 2168
762 -481 2143
766 -479 2133
766 -476 2114
768 -473 2099
764 -466 2068
772 -467 2070
775 -466 2061
778 -463 2049
779 -460 2032
779 -457 2015
782 -455 2005
786 -453 1996
788 -451 1984
804 -457 2005
836 -472 2068
864 -484 2120
907 -504 2205
947 -523 2284
979 -536 2341
994 -541 2357
999 -540 2349
1004 -539 2341
1015 -540 2346
1019 -539 2336
1029 -540 2338
1032 -538 2326
1042 -539 2328
1044 -536 2314
1058 -540 2327
1068 -542 2330
1076 -542 2328
1076 -538 2308
1081 -537 2301
1096 -541 2314
1102 -540 2306
1108 -540 2302
1120 -542 2308
1125 -541 2300
1124 -537 2280
1138 -540 2290
1144 -540 2284
1144 -536 2266
1157 -539 2274
1163 -538 2268
1164 -535 2253
1181 -540 2268
1184 -538 2256
1190 -538 2250
1213 -545 2277
1207 -538 2247
1226 -544 2266
1221 -538 2239
1232 -540 2243
1237 -539 2235
1235 -535 2215
1246 -537 2217
1257 -538 2220
1264 -538 2216
-1327 -524 2252
-1328 -528 2271
-1315 -525 2265
-1306 -525 2266
-1303 -526 2277
-1293 -526 2278
-1298 -531 2303
-1283 -528 2294
-1290 -534 2323
-1268 -528 2302
-1263 -529 2310
-1251 -527 2305
-1247 -529 2315
-1244 -531 2327
-1220 -524 2299
-1225 -529 2326
-1210 -526 2316
-1202 -526 2318
-1202 -529 2335
-1195 -529 2340
-1191 -531 2350
-1174 -527 2336
-1178 -532 2361
-1168 -531 2360
-1167 -534 2377
-1149 -529 2359
-1141 -529 2360
-1133 -529 2362
-1131 -531 2377
-1113 -527 2359
-1114 -531 2380
-1116 -536 2404
-1097 -530 2381
-1086 -528 2377
-1084 -531 2393
-1076 -531 2394
-1072 -533 2406
-1068 -535 2416
-1046 -527 2385
-1056 -536 2428
-1043 -534 2420
-1037 -534 2424
-1030 -534 2429
-1025 -536 2437
-1013 -534 2431
-1002 -532 2426
-1000 -535 2441
-990 -534 2437
-988 -537 2455
-976 -534 2445
-967 -534 2446
-964 -536 2460
-954 -535 2454
-949 -536 2465
-932 -531 2443
-932 -535 2464
-923 -535 2463
-923 -539 2485
-917 -540 2494
-905 -538 2483
-892 -534 2471
-889 -537 2487
-880 -536 2483
-869 -534 2476
-869 -539 2499
-853 -534 2477
-848 -536 2488
-842 -537 2495
-836 -538 2500
-831 -540 2512
-820 -537 2503
-809 -535 2494
-806 -538 2509
-796 -537 2505
-796 -542 2532
-785 -540 2523
-767 -532 2490
-767 -538 2516
-756 -535 2507
-748 -535 2508
-748 -541 2535
-734 -536 2514
-734 -542 2543
-722 -538 2529
-712 -537 2523
-710 -541 2546
-702 -541 2545
-700 -546 2569
-691 -545 2566
-678 -540 2547
-677 -545 2571
-664 -541 2552
-659 -544 2566
-650 -542 2563
-649 -548 2589
-633 -541 2558
-626 -542 2563
-621 -544 2575
-613 -544 2576
-601 -540 2559
-596 -543 2572
-589 -543 2573
-582 -544 2580
-571 -541 2566
-574 -550 2612
-559 -544 2584
-552 -545 2587
-542 -542 2575
-535 -543 2580
-528 -543 2582
-521 -544 2587
-512 -543 2583
-503 -541 2577
-501 -548 2608
-490 -544 2590
-481 -542 2583
-475 -544 2594
-470 -547 2609
-465 -551 2626
-452 -545 2600
-448 -550 2623
-435 -543 2590
-432 -549 2620
-419 -542 2587
-414 -545 2604
-408 -548 2619
-397 -543 2596
-389 -542 2592
-380 -541 2588
-376 -547 2614
-365 -541 2590
-363 -549 2627
-351 -543 2601
-345 -546 2612
-336 -543 2600
-329 -545 2609
-323 -547 2619
-315 -548 2624
-304 -542 2596
-297 -542 2597
-289 -542 2598
-285 -548 2626
-276 -547 2620
-267 -543 2605
-262 -548 2627
-252 -545 2614
-245 -545 2615
-236 -543 2604
-229 -543 2605
-223 -547 2623
-214 -544 2611
-207 -547 2624
-200 -548 2629
-192 -547 2624
-185 -549 2633
-174 -538 2582
-159 -517 2481
-136 -464 2230
-126 -449 2157
-121 -454 2181
-113 -450 2160
-108 -454 2178
-102 -455 2186
-95 -456 2187
-91 -464 2226
-85 -471 2259
-83 -493 2365
-81 -529 2540
-76 -545 2613
-69 -548 2631
-62 -552 2648
-54 -548 2630
-46 -550 2638
-39 -553 2651
-31 -551 2643
-23 -554 2656
-15 -550 2637
-8 -550 2635
0 -550 2639
7 -547 2623
14 -550 2636
22 -552 2646
30 -548 2628
37 -550 2636
45 -549 2630
53 -550 2635
60 -549 2629
68 -545 2612
76 -548 2626
84 -553 2646
91 -549 2627
98 -548 2621
107 -550 2631
113 -546 2613
122 -548 2622
129 -547 2613
137 -547 2617
145 -550 2630
153 -552 2639
161 -553 2643
168 -550 2627
176 -553 2639
183 -550 2627
191 -550 2626
199 -550 2625
206 -551 2626
213 -548 2613
219 -544 2593
227 -546 2602
236 -548 2612
243 -547 2607
252 -550 2618
258 -547 2603
265 -545 2593
276 -551 2621
280 -546 2594
289 -548 2606
299 -551 2620
304 -548 2602
313 -549 2608
319 -547 2594
328 -549 2606
332 -542 2573
340 -544 2581
349 -546 2590
357 -546 2588
364 -547 2589
373 -548 2592
381 -548 2594
387 -547 2585
394 -546 2581
400 -543 2567
410 -547 2585
419 -548 2589
428 -550 2595
436 -551 2597
443 -550 2593
448 -547 2575
453 -544 2564
464 -548 2578
471 -547 2573
478 -547 2571
488 -550 2583
491 -544 2554
502 -548 2571
508 -546 2563
514 -545 2554
523 -546 2559
531 -547 2560
537 -545 2553
549 -550 2571
555 -548 2562
559 -544 2543
567 -545 2543
571 -542 2530
586 -549 2560
589 -544 2537
597 -545 2539
604 -545 2536
614 -547 2542
619 -544 2531
630 -548 2546
638 -548 2543
646 -549 2545
653 -547 2538
659 -547 2532
667 -547 2531
674 -546 2527
680 -545 2519
690 -548 2529
697 -547 2526
703 -546 2517
713 -547 2523
721 -548 2524
727 -547 2516
739 -550 2529
741 -546 2510
744 -543 2492
756 -546 2503
762 -545 2498
769 -544 2492
772 -542 2477
778 -540 2468
772 -531 2424
767 -523 2385
768 -519 2363
765 -512 2330
765 -507 2307
766 -503 2285
763 -496 2253
764 -493 2234
766 -490 2218
761 -483 2185
768 -482 2181
765 -476 2152
766 -473 2136
771 -472 2129
770 -468 2106
770 -464 2086
773 -462 2076
774 -459 2060
775 -455 2042
782 -456 2043
783 -453 2026
788 -452 2021
802 -457 2040
831 -470 2095
851 -477 2127
902 -502 2233
939 -519 2305
969 -532 2359
984 -536 2375
998 -540 2388
1008 -541 2391
1007 -537 2370
1023 -541 2385
1040 -546 2405
1042 -543 2390
1040 -538 2364
1053 -542 2376
1053 -538 2355
1064 -540 2361
1081 -544 2379
1079 -540 2354
1087 -540 2353
1096 -541 2354
1100 -539 2341
1113 -542 2350
1126 -544 2358
1124 -540 2337
1124 -536 2317
1145 -543 2342
1144 -539 2323
1139 -533 2294
1159 -539 2315
1174 -543 2327
1163 -534 2288
1187 -542 2316
1196 -543 2316
1206 -544 2318
1203 -539 2295
1221 -544 2311
1222 -541 2294
1237 -545 2306
1243 -544 2300
1241 -540 2277
1255 -543 2286
1247 -536 2255
1258 -538 2257
1272 -541 2266
1278 -540 2258
1286 -540 2257
-1346 -524 2286
-1335 -523 2284
-1328 -523 2289
-1330 -527 2310
-1315 -524 2300
-1305 -523 2300
-1299 -524 2306
-1292 -524 2311
-1293 -528 2331
-1296 -532 2353
-1267 -523 2318
-1269 -527 2339
-1260 -527 2340
-1253 -527 2346
-1242 -526 2343
-1243 -529 2361
-1231 -527 2358
-1215 -524 2345
-1211 -525 2354
-1199 -524 2350
-1203 -529 2375
-1183 -523 2356
-1204 -536 2415
-1186 -532 2398
-1185 -534 2415
-1172 -532 2407
-1158 -529 2396
-1148 -528 2396
-1143 -530 2404
-1139 -531 2415
-1128 -530 2410
-1135 -537 2446
-1118 -532 2428
-1110 -532 2431
-1107 -534 2444
-1093 -531 2433
-1087 -532 2440
-1081 -533 2446
-1073 -533 2449
-1059 -530 2438
-1058 -533 2455
-1056 -536 2471
-1042 -533 2458
-1034 -533 2462
-1036 -538 2488
-1018 -533 2464
-1019 -537 2488
-1001 -532 2465
-998 -535 2482
-994 -537 2492
-985 -536 2491
-978 -536 2497
-960 -531 2473
-957 -533 2486
-959 -539 2514
-948 -537 2508
-937 -535 2501
-934 -538 2517
-920 -534 2503
-922 -540 2531
-906 -535 2510
-897 -534 2509
-899 -540 2539
-883 -535 2518
-878 -537 2528
-866 -534 2518
-864 -538 2534
-856 -538 2538
-846 -536 2532
-838 -536 2534
-833 -538 2544
-822 -536 2535
-818 -538 2549
-812 -539 2555
-801 -537 2548
-793 -538 2550
-784 -536 2547
-780 -539 2561
-771 -538 2560
-773 -545 2593
-765 -545 2594
-754 -543 2585
-741 -539 2570
-730 -536 2558
-731 -543 2592
-719 -540 2578
-711 -540 2578
-704 -541 2583
-694 -539 2575
-689 -541 2589
-676 -537 2570
-674 -542 2595
-670 -545 2609
-660 -543 2602
-655 -545 2616
-643 -541 2598
-638 -544 2613
-628 -542 2603
-623 -545 2617
-612 -542 2607
-606 -543 2614
-601 -546 2629
-588 -542 2607
-580 -541 2605
-574 -543 2615
-567 -543 2618
-561 -546 2630
-549 -542 2613
-545 -545 2631
-535 -543 2621
-528 -544 2625
-522 -546 2637
-512 -544 2627
-506 -545 2634
-498 -545 2635
-492 -548 2648
-485 -548 2651
-475 -546 2641
-467 -546 2641
-458 -544 2632
-448 -541 2620
-442 -543 2632
-435 -544 2637
-429 -547 2650
-421 -547 2650
-410 -542 2629
-406 -547 2655
-398 -547 2652
-389 -546 2650
-381 -545 2645
-374 -547 2654
-364 -543 2638
-357 -545 2646
-350 -546 2650
-344 -549 2669
-332 -541 2631
-326 -545 2650
-318 -545 2648
-311 -546 2653
-303 -546 2653
-293 -541 2632
-287 -545 2651
-280 -547 2660
-275 -552 2684
-264 -544 2649
-257 -547 2660
-248 -545 2651
-240 -544 2649
-233 -547 2660
-225 -545 2651
-216 -541 2636
-210 -548 2667
-202 -546 2660
-194 -546 2659
-187 -547 2661
-177 -540 2630
-165 -527 2567
-143 -482 2345
-128 -452 2204
-120 -448 2182
-115 -453 2206
-109 -454 2214
-103 -454 2210
-96 -454 2213
-91 -459 2234
-85 -465 2263
-83 -489 2380
-83 -529 2576
-77 -541 2636
-69 -543 2642
-63 -553 2693
-55 -549 2671
-47 -552 2685
-39 -550 2677
-31 -548 2668
-24 -552 2687
-16 -548 2667
-8 -551 2681
0 -552 2685
7 -550 2675
15 -548 2663
22 -551 2679
30 -551 2680
38 -549 2671
46 -549 2668
54 -552 2681
61 -549 2670
69 -550 2670
77 -551 2679
84 -545 2647
92 -548 2661
100 -550 2672
108 -549 2664
116 -549 2665
124 -550 2667
132 -552 2680
139 -548 2659
148 -555 2691
155 -550 2667
161 -546 2648
169 -546 2648
179 -553 2681
185 -548 2654
192 -545 2639
201 -548 2652
209 -550 2660
218 -553 2677
225 -551 2668
232 -550 2657
241 -552 2667
247 -548 2648
254 -547 2644
265 -553 2670
271 -550 2656
277 -546 2636
286 -549 2648
293 -548 2641
298 -543 2617
310 -551 2653
318 -551 2655
325 -549 2644
332 -548 2641
336 -542 2607
347 -548 2636
358 -552 2654
361 -546 2623
369 -546 2625
380 -551 2645
385 -546 2622
395 -550 2641
399 -544 2610
410 -549 2633
414 -545 2611
423 -547 2618
430 -545 2610
440 -548 2624
448 -548 2623
451 -543 2597
460 -545 2603
469 -546 2606
476 -546 2604
487 -549 2621
492 -546 2605
498 -545 2597
507 -546 2599
513 -544 2592
528 -552 2627
533 -549 2610
534 -542 2577
543 -543 2580
551 -544 2582
559 -544 2581
565 -543 2575
574 -545 2580
584 -547 2588
593 -547 2590
596 -543 2569
605 -544 2573
615 -547 2584
622 -546 2578
635 -551 2597
639 -548 2583
650 -551 2593
653 -547 2574
664 -550 2585
670 -548 2577
671 -543 2549
684 -547 2565
685 -542 2540
700 -548 2566
705 -546 2555
715 -547 2560
722 -547 2558
729 -546 2553
737 -546 2551
744 -546 2548
751 -546 2544
756 -544 2533
768 -547 2544
772 -545 2532
765 -534 2482
775 -536 2486
766 -525 2433
768 -521 2414
765 -514 2379
766 -510 2357
766 -505 2334
763 -499 2303
765 -496 2286
764 -491 2260
764 -486 2236
763 -481 2212
763 -477 2190
764 -473 2171
769 -472 2165
770 -469 2148
770 -465 2128
776 -465 2123
779 -462 2111
779 -459 2092
788 -460 2097
784 -454 2068
785 -451 2050
794 -453 2056
825 -467 2119
846 -475 2153
896 -499 2259
937 -518 2342
955 -524 2367
985 -537 2421
993 -537 2419
1011 -543 2442
1016 -542 2432
1018 -539 2416
1030 -541 2425
1037 -541 2421
1045 -541 2419
1052 -541 2413
1055 -538 2400
1068 -541 2410
1069 -538 2393
1086 -543 2410
1085 -539 2388
1097 -541 2395
1100 -539 2381
1127 -548 2420
1115 -539 2375
1125 -540 2378
1137 -542 2383
1140 -540 2370
1158 -545 2389
1152 -539 2358
1170 -544 2376
1163 -537 2344
1183 -543 2365
1190 -543 2361
1205 -546 2372
1206 -543 2356
1193 -534 2312
1211 -539 2329
1220 -539 2327
1229 -540 2328
1239 -541 2328
1245 -540 2322
1246 -538 2306
1275 -547 2342
1271 -542 2317
1278 -542 2312
1293 -545 2322
1284 -538 2288
1296 -540 2293
1301 -539 2285
-1380 -530 2346
-1357 -524 2323
-1357 -527 2340
-1348 -526 2342
-1342 -527 2350
-1331 -526 2347
-1320 -524 2345
-1316 -526 2356
-1308 -526 2360
-1296 -524 2356
-1291 -526 2365
-1291 -529 2382
-1275 -525 2370
-1273 -528 2385
-1276 -532 2407
-1252 -525 2380
-1250 -528 2396
-1237 -526 2390
-1242 -531 2418
-1229 -529 2409
-1217 -527 2406
-1218 -531 2426
-1208 -530 2425
-1199 -530 2426
-1197 -532 2441
-1186 -531 2437
-1181 -532 2446
-1158 -525 2419
-1160 -529 2441
-1156 -532 2454
-1149 -532 2458
-1144 -533 2466
-1129 -530 2455
-1140 -539 2497
-1120 -533 2474
-1104 -529 2460
-1098 -530 2467
-1089 -529 2466
-1100 -538 2511
-1087 -536 2503
-1066 -530 2475
-1073 -537 2513
-1059 -534 2502
-1055 -536 2514
-1035 -530 2486
-1035 -534 2507
-1028 -534 2513
-1018 -533 2509
-1015 -535 2523
-1005 -535 2521
-998 -535 2527
-990 -535 2527
-980 -534 2525
-974 -535 2533
-967 -535 2537
-960 -536 2542
-950 -534 2537
-952 -540 2566
-934 -534 2541
-924 -533 2537
-914 -532 2535
-915 -537 2561
-910 -539 2570
-910 -544 2596
-899 -542 2589
-886 -539 2577
-879 -539 2581
-876 -542 2598
-861 -538 2579
-859 -542 2598
-846 -539 2585
-839 -539 2591
-836 -543 2608
-814 -533 2565
-817 -540 2600
-806 -539 2593
-804 -542 2612
-793 -541 2607
-791 -545 2628
-776 -539 2604
-775 -544 2630
-758 -538 2601
-754 -540 2614
-749 -543 2628
-744 -545 2639
-729 -539 2614
-720 -539 2613
-709 -536 2602
-708 -542 2630
-705 -546 2651
-692 -542 2634
-684 -542 2633
-673 -539 2623
-662 -536 2611
-663 -544 2647
-650 -540 2631
-645 -542 2642
-633 -539 2628
-633 -545 2660
-620 -541 2640
-613 -542 2645
-608 -545 2660
-599 -543 2656
-590 -543 2653
-582 -542 2652
-577 -545 2666
-570 -546 2674
-559 -543 2657
-547 -539 2640
-540 -540 2645
-536 -544 2665
-524 -540 2646
-516 -540 2648
-515 -548 2686
-505 -545 2676
-497 -545 2674
-491 -547 2684
-482 -545 2679
-471 -542 2665
-465 -544 2676
-457 -544 2673
-449 -544 2677
-438 -541 2661
-434 -546 2686
-423 -541 2663
-418 -545 2683
-411 -546 2687
-402 -545 2686
-396 -548 2697
-385 -544 2678
-377 -543 2676
-372 -547 2697
-363 -545 2689
-355 -546 2694
-348 -546 2695
-338 -544 2681
-329 -542 2676
-323 -545 2687
-314 -543 2679
-308 -546 2697
-299 -544 2685
-292 -547 2700
-283 -545 2689
-273 -540 2667
-268 -545 2691
-260 -545 2693
-251 -543 2683
-242 -542 2675
-235 -543 2682
-229 -548 2705
-221 -546 2698
-212 -543 2685
-206 -549 2713
-197 -545 2692
-187 -540 2669
-181 -544 2690
-170 -534 2641
-147 -488 2410
-133 -462 2284
-122 -446 2205
-117 -452 2233
-109 -445 2202
-102 -447 2208
-97 -449 2220
-91 -454 2245
-87 -464 2294
-83 -482 2385
-82 -519 2564
-78 -539 2663
-70 -543 2682
-63 -550 2717
-55 -547 2702
-48 -550 2717
-40 -550 2718
-32 -551 2720
-24 -548 2707
-16 -550 2718
-8 -547 2699
0 -547 2698
7 -547 2700
15 -549 2711
23 -554 2732
31 -550 2712
39 -551 2719
46 -550 2714
54 -551 2718
62 -547 2700
70 -552 2724
78 -548 2701
85 -547 2696
94 -550 2710
101 -544 2680
110 -550 2709
118 -552 2717
126 -551 2712
133 -548 2697
140 -545 2682
150 -552 2718
155 -544 2679
164 -548 2696
172 -546 2686
179 -545 2679
189 -551 2710
194 -544 2673
204 -550 2702
212 -550 2701
220 -549 2696
227 -548 2688
235 -547 2687
243 -548 2688
250 -547 2681
258 -547 2683
266 -547 2679
274 -547 2682
281 -545 2672
291 -550 2692
299 -551 2696
305 -547 2677
315 -550 2691
320 -547 2673
331 -551 2694
337 -548 2678
345 -549 2681
354 -551 2688
358 -545 2659
365 -544 2654
374 -546 2662
382 -546 2659
391 -547 2665
400 -548 2671
405 -545 2654
416 -550 2675
420 -545 2648
429 -546 2656
438 -548 2660
445 -547 2655
457 -552 2680
459 -545 2644
463 -540 2619
478 -548 2658
485 -548 2656
489 -544 2632
499 -546 2643
510 -549 2657
512 -543 2625
525 -549 2652
529 -545 2629
539 -548 2642
550 -550 2654
555 -548 2640
556 -542 2609
569 -546 2630
577 -547 2631
585 -546 2627
594 -548 2635
596 -543 2607
609 -547 2625
615 -546 2618
621 -544 2607
634 -549 2628
642 -549 2626
651 -550 2632
653 -545 2604
659 -544 2598
665 -542 2588
681 -549 2619
687 -548 2611
691 -545 2595
695 -542 2578
714 -551 2619
717 -547 2600
720 -543 2578
731 -546 2590
736 -544 2577
745 -545 2580
755 -547 2588
759 -544 2572
764 -542 2559
771 -542 2557
774 -538 2538
773 -532 2508
770 -525 2472
765 -517 2431
762 -510 2395
760 -503 2363
764 -502 2354
762 -496 2323
769 -496 2321
761 -486 2274
763 -483 2256
767 -481 2245
765 -475 2218
767 -473 2204
767 -469 2183
778 -471 2192
769 -462 2147
774 -461 2140
778 -459 2130
777 -455 2107
774 -450 2081
790 -455 2104
808 -462 2132
804 -455 2101
847 -476 2194
902 -504 2318
933 -517 2377
963 -529 2431
978 -534 2448
1008 -546 2501
1007 -541 2477
1007 -537 2455
1017 -538 2456
1028 -540 2464
1032 -538 2450
1042 -540 2454
1047 -538 2444
1065 -544 2467
1065 -540 2446
1080 -544 2459
1086 -543 2453
1090 -541 2441
1092 -538 2426
1102 -539 2427
1113 -541 2431
1122 -542 2431
1129 -542 2427
1134 -540 2418
1149 -544 2430
1141 -537 2395
1154 -539 2402
1168 -542 2412
1169 -539 2395
1181 -541 2401
1196 -544 2411
1191 -539 2382
1199 -539 2380
1206 -539 2376
1204 -534 2352
1217 -537 2359
1232 -540 2371
1239 -540 2365
1238 -536 2346
1242 -535 2335
1265 -541 2360
1278 -544 2368
1277 -540 2348
1283 -539 2340
1293 -541 2341
1291 -537 2320
1305 -539 2327
1310 -538 2319
1315 -537 2311
-1383 -523 2353
-1368 -520 2344
-1365 -522 2356
-1374 -528 2389
-1367 -529 2395
-1351 -526 2385
-1335 -523 2374
-1335 -526 2391
-1322 -524 2386
-1319 -526 2399
-1316 -528 2411
-1309 -528 2417
-1306 -530 2430
-1282 -524 2403
-1291 -530 2438
-1271 -525 2418
-1264 -526 2423
-1267 -531 2449
-1264 -533 2462
-1248 -529 2449
-1237 -528 2447
-1231 -529 2453
-1235 -534 2481
-1226 -533 2482
-1202 -526 2452
-1195 -527 2458
-1203 -534 2494
-1190 -532 2486
-1185 -533 2496
-1171 -530 2486
-1163 -530 2489
-1160 -533 2503
-1156 -534 2514
-1143 -532 2507
-1134 -532 2508
-1129 -533 2517
-1118 -532 2512
-1129 -541 2558
-1108 -535 2532
-1094 -532 2521
-1101 -539 2558
-1077 -531 2524
-1076 -535 2543
-1069 -535 2548
-1051 -530 2525
-1042 -529 2525
-1045 -535 2555
-1031 -532 2544
-1027 -534 2557
-1019 -534 2559
-1011 -534 2562
-1015 -540 2593
-994 -534 2562
-1001 -542 2605
-977 -533 2565
-975 -536 2582
-967 -537 2586
-949 -531 2561
-948 -535 2581
-954 -543 2622
-934 -536 2590
-926 -536 2592
-913 -533 2582
-907 -534 2588
-906 -538 2611
-897 -538 2610
-880 -532 2587
-886 -541 2629
-873 -538 2617
-862 -536 2609
-860 -539 2629
-851 -539 2628
-843 -539 2629
-841 -543 2652
-827 -539 2634
-816 -537 2626
-810 -538 2633
-806 -541 2649
-789 -535 2623
-794 -544 2668
-780 -540 2646
-781 -546 2680
-770 -544 2673
-762 -544 2674
-749 -540 2657
-735 -536 2638
-728 -537 2644
-727 -542 2671
-719 -542 2673
-718 -548 2701
-703 -542 2675
-693 -541 2668
-691 -545 2692
-677 -541 2672
-672 -544 2688
-662 -542 2680
-655 -543 2686
-649 -544 2693
-636 -541 2677
-623 -536 2657
-624 -544 2696
-614 -542 2688
-605 -541 2685
-602 -546 2708
-592 -544 2701
-588 -548 2719
-576 -544 2702
-570 -546 2713
-564 -548 2726
-553 -545 2709
-548 -548 2727
-536 -545 2711
-531 -547 2725
-520 -544 2711
-511 -543 2706
-505 -545 2718
-504 -553 2757
-485 -541 2699
-480 -544 2714
-475 -548 2734
-462 -543 2709
-458 -547 2730
-446 -542 2707
-442 -547 2731
-432 -545 2722
-422 -542 2708
-415 -544 2717
-409 -546 2731
-399 -544 2720
-391 -544 2722
-385 -547 2735
-376 -545 2727
-365 -541 2709
-357 -541 2707
-350 -543 2719
-346 -549 2749
-335 -543 2720
-327 -543 2720
-318 -542 2713
-312 -546 2737
-305 -548 2746
-293 -541 2711
-287 -543 2722
-280 -546 2737
-271 -544 2726
-263 -544 2729
-257 -548 2749
-248 -546 2737
-240 -545 2733
-232 -545 2735
-223 -545 2731
-216 -546 2737
-207 -543 2723
-200 -547 2744
-192 -546 2738
-184 -546 2740
-173 -536 2690
-155 -506 2541
-137 -468 2348
-126 -455 2285
-118 -449 2251
-112 -450 2261
-106 -455 2285
-99 -451 2265
-92 -453 2274
-87 -461 2314
-83 -477 2394
-83 -516 2588
-80 -546 2741
-73 -551 2765
-64 -548 2749
-57 -553 2774
-48 -550 2757
-40 -549 2752
-32 -547 2744
-24 -550 2758
-16 -550 2755
-8 -549 2752
0 -548 2745
7 -546 2737
15 -548 2743
23 -548 2745
31 -553 2769
39 -548 2746
47 -546 2735
55 -549 2751
63 -548 2745
71 -548 2744
79 -551 2758
87 -551 2756
95 -548 2741
102 -545 2725
111 -549 2745
119 -548 2741
126 -546 2728
134 -545 2726
143 -550 2748
151 -549 2744
159 -547 2734
169 -554 2768
175 -548 2734
183 -548 2736
190 -547 2730
198 -548 2732
207 -550 2745
215 -549 2739
223 -549 2738
231 -549 2734
239 -550 2741
246 -547 2724
254 -548 2729
261 -546 2716
270 -547 2720
276 -543 2703
288 -552 2746
294 -548 2722
302 -547 2719
309 -546 2714
319 -549 2728
323 -544 2700
334 -548 2719
341 -546 2709
350 -549 2719
356 -545 2703
365 -548 2712
374 -548 2715
382 -550 2720
388 -546 2703
396 -547 2704
406 -549 2712
416 -552 2729
422 -550 2715
427 -545 2690
435 -546 2695
442 -545 2686
454 -549 2708
461 -548 2701
472 -552 2720
474 -546 2686
481 -544 2677
489 -545 2679
497 -544 2676
505 -544 2674
512 -544 2669
523 -547 2685
532 -549 2690
536 -544 2667
546 -546 2674
548 -541 2647
566 -550 2692
567 -544 2661
577 -546 2670
582 -543 2654
592 -546 2664
600 -545 2659
612 -549 2676
620 -549 2675
624 -546 2657
631 -545 2651
643 -549 2667
650 -548 2663
655 -545 2648
662 -545 2645
673 -547 2654
678 -545 2639
688 -547 2647
696 -547 2646
702 -545 2636
709 -545 2631
720 -547 2642
724 -544 2624
730 -543 2619
740 -545 2623
746 -543 2613
762 -549 2641
766 -546 2624
764 -540 2591
774 -541 2595
772 -534 2560
773 -530 2536
765 -519 2483
760 -511 2442
763 -508 2424
761 -502 2395
767 -501 2387
766 -496 2362
760 -487 2317
762 -484 2301
761 -479 2275
769 -480 2275
767 -474 2248
768 -470 2228
769 -467 2210
772 -465 2196
774 -462 2182
774 -458 2162
777 -456 2148
782 -455 2141
784 -452 2127
797 -456 2142
815 -463 2172
846 -477 2234
885 -495 2317
925 -513 2400
969 -534 2492
988 -540 2517
996 -540 2516
1005 -541 2517
1017 -543 2523
1019 -540 2507
1028 -541 2508
1046 -546 2530
1038 -538 2488
1053 -542 2503
1060 -541 2497
1082 -549 2529
1068 -538 2474
1087 -543 2497
1089 -540 2481
1093 -538 2469
1111 -544 2489
1102 -536 2449
1118 -540 2464
1125 -539 2460
1140 -543 2473
1148 -543 2469
1151 -541 2456
1156 -539 2445
1158 -537 2430
1174 -541 2445
1185 -542 2448
1193 -542 2445
1189 -537 2419
1204 -540 2430
1212 -541 2427
1232 -546 2448
1228 -541 2420
1239 -542 2423
1245 -542 2417
1260 -545 2426
1258 -540 2403
1264 -540 2398
1284 -545 2417
1296 -547 2419
1285 -539 2381
1287 -537 2366
1305 -541 2383
1307 -539 2368
1311 -537 2357
1324 -539 2363
1333 -540 2361
1339 -539 2354
-1405 -523 2391
-1397 -523 2396
-1410 -531 2436
-1394 -528 2427
-1375 -524 2411
-1365 -524 2412
-1364 -526 2428
-1347 -522 2414
-1341 -523 2422
-1331 -523 2423
-1329 -525 2437
-1328 -528 2453
-1329 -531 2473
-1315 -529 2466
-1312 -531 2480
-1292 -526 2460
-1284 -527 2465
-1277 -527 2469
-1279 -531 2492
-1268 -530 2490
-1253 -527 2480
-1247 -528 2486
-1242 -529 2497
-1235 -530 2503
-1230 -531 2512
-1208 -525 2486
-1214 -531 2519
-1203 -530 2515
-1184 -525 2496
-1189 -531 2526
-1186 -533 2539
-1184 -535 2555
-1150 -524 2502
-1151 -528 2525
-1152 -532 2549
-1154 -537 2574
-1140 -534 2563
-1121 -529 2543
-1126 -535 2575
-1117 -535 2575
-1117 -539 2597
-1106 -538 2594
-1089 -533 2575
-1084 -535 2585
-1072 -533 2579
-1066 -534 2586
-1062 -536 2599
-1046 -532 2583
-1045 -535 2602
-1027 -531 2581
-1025 -534 2598
-1018 -534 2602
-1016 -537 2620
-1013 -540 2638
-1002 -538 2631
-988 -535 2618
-980 -535 2621
-977 -538 2637
-962 -534 2621
-961 -539 2643
-959 -542 2663
-947 -540 2654
-936 -538 2648
-931 -540 2659
-913 -535 2633
-906 -535 2638
-902 -538 2653
-893 -537 2652
-891 -541 2672
-883 -541 2673
-875 -541 2677
-867 -541 2679
-855 -539 2670
-846 -538 2669
-836 -537 2664
-831 -539 2677
-825 -540 2683
-823 -545 2708
-814 -544 2705
-797 -538 2677
-794 -541 2696
-785 -541 2698
-777 -541 2699
-770 -542 2703
-758 -539 2691
-757 -544 2720
-742 -539 2696
-733 -539 2695
-731 -544 2720
-716 -538 2696
-711 -541 2708
-708 -544 2728
-696 -542 2716
-690 -543 2724
-676 -538 2702
-672 -542 2720
-664 -542 2724
-651 -538 2705
-650 -544 2734
-637 -540 2715
-632 -543 2732
-627 -546 2747
-615 -542 2731
-607 -542 2733
-591 -535 2697
-587 -539 2718
-584 -543 2742
-579 -547 2758
-566 -542 2735
-560 -544 2748
-557 -549 2772
-540 -540 2729
-535 -543 2747
-524 -541 2735
-519 -543 2749
-507 -540 2731
-500 -541 2737
-497 -547 2768
-489 -546 2767
-480 -545 2764
-466 -539 2733
-461 -543 2752
-451 -540 2737
-445 -543 2755
-439 -545 2767
-431 -546 2770
-420 -542 2751
-415 -546 2772
-407 -546 2774
-398 -545 2770
-390 -545 2770
-379 -542 2753
-373 -545 2768
-363 -542 2757
-356 -544 2763
-351 -548 2785
-340 -544 2765
-332 -544 2765
-322 -542 2756
-316 -545 2771
-307 -544 2766
-303 -551 2803
-293 -548 2787
-283 -544 2767
-277 -547 2785
-267 -545 2774
-260 -546 2781
-252 -547 2783
-242 -543 2763
-235 -546 2781
-227 -544 2772
-221 -550 2799
-211 -547 2787
-204 -549 2798
-195 -547 2784
-185 -543 2764
-176 -540 2750
-163 -523 2662
-139 -470 2397
-128 -456 2323
-120 -452 2302
-113 -449 2287
-106 -449 2286
-100 -453 2309
-95 -458 2331
-88 -460 2342
-84 -476 2423
-83 -508 2587
-82 -550 2799
-73 -544 2768
-65 -551 2807
-57 -549 2795
-49 -551 2803
-41 -550 2799
-33 -556 2831
-24 -549 2793
-16 -546 2779
-8 -550 2798
0 -551 2804
7 -549 2795
15 -549 2792
23 -550 2795
32 -551 2805
40 -548 2785
48 -550 2795
56 -550 2795
64 -550 2795
71 -542 2753
80 -545 2770
89 -551 2797
97 -551 2799
105 -551 2799
112 -547 2777
120 -547 2777
129 -549 2784
136 -545 2765
145 -549 2787
153 -549 2784
161 -547 2775
170 -551 2792
177 -548 2776
187 -553 2804
193 -547 2770
201 -547 2769
209 -546 2765
217 -546 2765
225 -547 2766
233 -546 2760
242 -548 2769
249 -545 2757
256 -544 2750
266 -547 2763
272 -543 2743
282 -548 2765
288 -543 2740
297 -545 2748
306 -546 2756
315 -549 2768
320 -543 2738
330 -547 2756
338 -546 2751
347 -548 2761
353 -546 2747
363 -548 2757
372 -550 2766
379 -548 2757
387 -548 2756
391 -543 2726
402 -546 2741
410 -546 2741
419 -548 2749
426 -546 2737
433 -545 2731
439 -543 2719
451 -548 2742
459 -547 2738
466 -546 2733
477 -550 2749
479 -543 2712
488 -544 2719
494 -542 2706
508 -548 2734
514 -547 2726
522 -547 2724
531 -548 2728
534 -543 2702
543 -543 2702
551 -544 2704
560 -544 2706
570 -547 2716
584 -552 2742
583 -543 2695
596 -548 2718
602 -546 2706
610 -546 2706
618 -547 2705
624 -545 2696
633 -546 2699
637 -542 2679
648 -545 2688
657 -546 2692
661 -543 2676
673 -546 2688
681 -546 2687
691 -548 2694
693 -543 2668
705 -546 2683
717 -549 2696
723 -548 2685
730 -547 2679
732 -542 2655
744 -546 2670
759 -551 2692
757 -543 2654
766 -544 2655
767 -539 2631
771 -537 2616
769 -530 2579
767 -523 2544
762 -514 2500
760 -508 2467
761 -504 2445
763 -500 2425
762 -495 2397
758 -488 2361
761 -485 2345
761 -481 2322
762 -477 2302
765 -475 2288
771 -474 2283
767 -467 2249
773 -467 2244
774 -463 2225
777 -461 2213
784 -461 2212
780 -455 2178
784 -453 2168
794 -456 2177
814 -463 2210
838 -473 2256
898 -503 2397
925 -514 2445
966 -533 2531
987 -540 2563
990 -538 2549
1003 -540 2559
1013 -541 2559
1024 -543 2564
1028 -541 2552
1042 -544 2566
1047 -543 2556
1060 -545 2564
1055 -539 2530
1059 -537 2519
1073 -540 2531
1082 -541 2529
1100 -546 2550
1100 -542 2530
1110 -543 2530
1114 -541 2518
1131 -545 2535
1137 -545 2528
1137 -541 2507
1151 -544 2517
1156 -542 2508
1161 -541 2498
1169 -541 2495
1183 -544 2506
1196 -546 2512
1190 -540 2481
1199 -541 2480
1207 -541 2475
1215 -541 2473
1220 -540 2463
1226 -539 2456
1242 -543 2469
1251 -543 2466
1244 -537 2435
1271 -545 2469
1262 -538 2432
1274 -540 2437
1278 -538 2426
1291 -540 2431
1301 -541 2432
1307 -540 2423
1323 -544 2435
1319 -539 2409
1335 -542 2421
1346 -544 2423
1362 -547 2433
1357 -542 2406
1375 -546 2419
-1438 -528 2450
-1410 -520 2419
-1418 -526 2452
-1407 -525 2451
-1402 -526 2460
-1390 -525 2457
-1391 -528 2477
-1382 -528 2479
-1368 -526 2472
-1357 -525 2472
-1347 -524 2472
-1354 -530 2503
-1341 -528 2497
-1331 -527 2497
-1314 -524 2486
-1315 -528 2506
-1313 -530 2522
-1295 -526 2506
-1298 -531 2530
-1270 -522 2495
-1283 -531 2540
-1275 -531 2544
-1269 -533 2553
-1250 -528 2535
-1255 -533 2564
-1233 -527 2539
-1224 -527 2540
-1219 -529 2550
-1223 -534 2579
-1210 -532 2572
-1207 -534 2587
-1187 -529 2564
-1189 -534 2590
-1170 -529 2570
-1173 -534 2595
-1163 -533 2596
-1144 -528 2574
-1151 -535 2611
-1134 -531 2595
-1139 -537 2627
-1122 -533 2611
-1116 -534 2619
-1096 -528 2593
-1100 -534 2624
-1087 -532 2617
-1092 -538 2650
-1072 -533 2625
-1074 -538 2652
-1052 -531 2622
-1067 -543 2682
-1030 -528 2612
-1038 -537 2656
-1022 -532 2638
-1021 -536 2660
-1013 -536 2663
-1008 -538 2672
-1001 -539 2680
-989 -537 2672
-984 -539 2683
-979 -540 2694
-962 -536 2672
-971 -545 2723
-952 -539 2693
-932 -533 2665
-924 -533 2665
-921 -536 2684
-917 -538 2697
-908 -538 2697
-900 -538 2699
-891 -537 2699
-886 -540 2713
-875 -538 2706
-865 -537 2702
-863 -540 2723
-850 -538 2710
-843 -539 2717
-834 -538 2714
-823 -536 2708
-819 -539 2724
-815 -542 2739
-804 -540 2733
-793 -538 2726
-786 -539 2732
-781 -541 2743
-779 -545 2766
-762 -540 2740
-756 -541 2749
-749 -542 2753
-740 -542 2754
-730 -540 2747
-723 -541 2753
-707 -536 2728
-709 -544 2768
-697 -541 2755
-689 -540 2755
-683 -542 2767
-676 -544 2774
-665 -542 2765
-653 -538 2748
-653 -545 2784
-641 -542 2770
-632 -542 2771
-630 -547 2797
-624 -549 2810
-610 -544 2784
-601 -543 2782
-592 -542 2780
-586 -545 2792
-585 -552 2830
-565 -541 2773
-557 -541 2776
-556 -547 2810
-546 -546 2804
-533 -542 2784
-529 -546 2803
-521 -546 2807
-510 -544 2796
-498 -540 2776
-496 -546 2808
-491 -549 2827
-480 -547 2817
-469 -544 2803
-463 -547 2814
-452 -543 2799
-443 -542 2793
-439 -548 2822
-423 -538 2774
-420 -544 2805
-411 -544 2803
-401 -541 2789
-390 -538 2775
-386 -543 2802
-377 -542 2796
-370 -544 2809
-360 -542 2797
-355 -547 2824
-348 -548 2829
-335 -540 2791
-330 -546 2818
-322 -546 2821
-313 -546 2820
-306 -548 2833
-297 -546 2823
-286 -542 2801
-281 -548 2832
-271 -544 2814
-264 -548 2831
-255 -545 2818
-249 -550 2844
-239 -547 2828
-232 -548 2835
-223 -547 2827
-215 -549 2838
-205 -544 2811
-198 -547 2829
-188 -541 2797
-180 -542 2805
-168 -532 2749
-149 -494 2556
-131 -459 2375
-122 -452 2338
-114 -446 2308
-108 -451 2333
-101 -450 2331
-96 -459 2372
-90 -463 2396
-84 -469 2426
-82 -497 2572
-82 -543 2807
-73 -541 2799
-66 -551 2849
-58 -550 2845
-50 -550 2843
-42 -552 2852
-33 -553 2858
-25 -549 2836
-16 -547 2827
-8 -549 2838
0 -552 2855
7 -551 2847
16 -551 2847
24 -547 2824
32 -544 2812
40 -546 2818
48 -547 2822
57 -548 2831
65 -548 2829
73 -547 2825
81 -548 2829
89 -546 2815
97 -546 2816
105 -544 2806
114 -548 2827
122 -547 2817
131 -549 2829
140 -551 2839
148 -553 2847
156 -551 2835
164 -551 2837
173 -551 2839
182 -555 2859
187 -545 2805
196 -547 2815
205 -550 2829
212 -546 2808
221 -549 2822
228 -545 2800
237 -547 2807
244 -544 2793
252 -544 2795
263 -551 2826
270 -547 2807
277 -546 2799
287 -549 2817
293 -545 2794
302 -546 2798
311 -547 2803
317 -543 2782
327 -547 2801
336 -548 2806
343 -547 2796
351 -546 2791
357 -544 2779
368 -548 2798
376 -547 2793
383 -546 2785
391 -546 2786
399 -546 2784
411 -550 2804
416 -546 2783
425 -547 2786
433 -548 2789
437 -543 2761
448 -546 2777
455 -544 2767
466 -548 2783
474 -547 2781
481 -547 2776
489 -546 2771
500 -549 2783
503 -544 2758
513 -546 2767
519 -544 2754
533 -550 2784
539 -548 2771
542 -542 2741
554 -547 2761
557 -542 2734
569 -545 2751
575 -543 2741
580 -541 2725
597 -548 2763
601 -544 2740
614 -550 2765
617 -544 2738
628 -547 2750
634 -545 2739
645 -548 2748
653 -548 2749
660 -547 2742
667 -546 2736
679 -549 2750
685 -547 2737
694 -548 2738
696 -544 2715
706 -545 2719
717 -547 2730
722 -544 2713
729 -544 2708
733 -541 2692
747 -546 2712
760 -549 2729
758 -542 2690
765 -541 2682
769 -538 2666
774 -536 2654
765 -525 2597
765 -519 2568
762 -512 2530
767 -510 2518
765 -504 2485
762 -497 2449
761 -492 2422
760 -486 2393
765 -485 2383
762 -479 2351
764 -476 2333
764 -471 2308
768 -469 2298
769 -465 2277
775 -465 2274
