VERSION 0.7
FIELDS x y z
SIZE 4 4 4
TYPE I I I
COUNT 1 1 1
WIDTH 3297
HEIGHT 1
VIEWPOINT 0.0 0.0 0.0 1.0 0.0 0.0 0.0
POINTS 3297
DATA ascii
814 -457 1516
847 -473 1565
864 -479 1584
900 -496 1638
942 -517 1702
965 -527 1732
985 -534 1754
994 -536 1757
989 -530 1734
996 -531 1732
1004 -532 1735
-1060 -526 1772
-1057 -527 1780
-1044 -524 1771
-1043 -527 1783
-1037 -526 1785
-1028 -525 1784
-1021 -524 1784
-1014 -524 1785
-1012 -526 1795
-1004 -525 1796
-999 -525 1799
-992 -525 1801
-993 -529 1816
-987 -529 1819
-981 -529 1821
-972 -527 1818
-967 -528 1823
-955 -525 1816
-955 -528 1829
-953 -530 1841
-948 -531 1844
-929 -523 1821
-942 -534 1862
-920 -525 1833
-922 -530 1851
-910 -526 1841
-907 -528 1851
-901 -528 1853
-897 -529 1860
-890 -529 1860
-889 -531 1872
-881 -531 1871
-873 -529 1869
-871 -532 1880
-867 -533 1886
-855 -529 1876
-853 -532 1888
-847 -532 1891
-839 -531 1888
-837 -533 1899
-824 -529 1886
-818 -529 1887
-810 -528 1886
-809 -531 1899
-808 -534 1912
-795 -530 1900
-792 -532 1908
-792 -536 1925
-792 -540 1942
-774 -532 1915
-769 -533 1920
-764 -533 1923
-763 -537 1938
-750 -532 1922
-751 -537 1942
-742 -535 1936
-733 -533 1932
-728 -534 1937
-718 -531 1928
-715 -533 1936
-713 -536 1950
-702 -532 1937
-699 -535 1949
-697 -538 1962
-686 -534 1950
-679 -533 1948
-675 -535 1955
-666 -532 1948
-663 -535 1959
-656 -534 1958
-653 -536 1968
-647 -537 1971
-636 -533 1957
-633 -535 1968
-626 -534 1966
-621 -535 1970
-615 -535 1973
-608 -535 1972
-602 -534 1972
-604 -542 2001
-587 -532 1967
-581 -532 1967
-584 -540 1999
-578 -541 2003
-568 -537 1991
-561 -536 1988
-556 -537 1993
-548 -535 1987
-543 -536 1990
-536 -535 1989
-530 -536 1992
-525 -537 1997
-518 -535 1993
-513 -536 1998
-508 -537 2003
-499 -535 1995
-497 -540 2013
-490 -538 2009
-482 -536 2001
-480 -540 2018
-476 -542 2028
-469 -542 2026
-457 -535 2002
-452 -536 2008
-448 -539 2019
-440 -536 2010
-438 -542 2030
-429 -538 2018
-423 -538 2018
-417 -538 2021
-414 -542 2037
-405 -539 2023
-399 -538 2020
-394 -540 2031
-388 -540 2032
-380 -537 2020
-374 -537 2020
-369 -539 2028
-364 -541 2037
-356 -537 2024
-352 -541 2040
-345 -540 2035
-340 -541 2040
-333 -539 2032
-323 -534 2013
-320 -537 2029
-313 -537 2025
-308 -539 2034
-303 -540 2039
-298 -542 2047
-290 -539 2036
-285 -540 2042
-278 -539 2038
-274 -542 2050
-267 -542 2049
-262 -543 2054
-254 -540 2042
-248 -539 2039
-240 -536 2029
-237 -542 2052
-229 -538 2037
-223 -537 2033
-218 -540 2044
-211 -538 2039
-205 -539 2044
-200 -542 2053
-194 -541 2049
-188 -542 2055
-181 -539 2044
-174 -537 2036
-163 -521 1976
-144 -478 1813
-132 -453 1720
-128 -458 1738
-121 -451 1712
-115 -450 1707
-110 -450 1706
-106 -453 1717
-101 -451 1712
-96 -454 1723
-93 -464 1761
-89 -467 1773
-85 -479 1818
-82 -492 1866
-82 -524 1988
-78 -533 2024
-72 -538 2041
-67 -545 2067
-61 -542 2058
-55 -544 2066
-49 -545 2070
-43 -543 2059
-36 -542 2058
-30 -541 2054
-24 -541 2052
-18 -541 2053
-12 -543 2060
-6 -542 2056
0 -544 2064
5 -544 2062
11 -542 2056
17 -543 2060
23 -544 2061
29 -544 2061
35 -544 2061
41 -542 2054
47 -542 2052
53 -541 2051
60 -545 2065
66 -543 2058
72 -542 2051
78 -544 2059
84 -544 2059
90 -545 2061
96 -541 2048
102 -545 2062
108 -543 2053
114 -543 2052
120 -544 2057
125 -539 2039
133 -545 2059
139 -546 2062
144 -541 2044
150 -541 2043
156 -540 2039
163 -544 2054
170 -547 2063
175 -544 2054
180 -542 2044
187 -543 2046
193 -543 2046
199 -543 2045
205 -544 2048
211 -544 2050
216 -541 2036
222 -541 2034
229 -544 2048
234 -541 2035
241 -542 2039
247 -543 2042
253 -542 2038
258 -540 2027
264 -541 2031
272 -545 2044
278 -545 2045
283 -543 2037
289 -543 2035
293 -539 2018
300 -541 2025
307 -542 2027
312 -541 2024
319 -543 2029
325 -543 2028
332 -544 2033
337 -543 2028
343 -543 2027
348 -541 2019
354 -541 2016
361 -542 2020
368 -544 2025
371 -540 2009
377 -539 2005
385 -543 2019
391 -542 2014
398 -543 2018
402 -540 2007
408 -541 2007
415 -542 2009
419 -540 2002
425 -539 1998
433 -542 2006
440 -544 2011
446 -544 2011
452 -544 2009
455 -539 1992
459 -538 1984
468 -541 1997
476 -543 2003
483 -545 2006
485 -540 1987
492 -542 1992
500 -544 1998
505 -542 1991
510 -541 1986
517 -542 1989
520 -539 1977
529 -542 1985
536 -543 1989
541 -543 1985
545 -541 1976
553 -543 1981
561 -545 1987
563 -540 1970
571 -543 1977
577 -542 1973
582 -541 1968
590 -544 1976
594 -542 1967
600 -542 1965
606 -541 1962
614 -544 1968
618 -542 1961
627 -544 1967
625 -537 1940
635 -541 1951
638 -538 1940
648 -542 1951
658 -545 1962
663 -544 1956
669 -544 1954
678 -547 1961
680 -544 1948
683 -541 1938
692 -544 1944
697 -543 1940
701 -541 1931
708 -542 1932
717 -545 1940
722 -544 1935
726 -543 1928
736 -545 1935
741 -545 1930
744 -543 1921
749 -542 1918
756 -543 1917
763 -543 1917
766 -541 1908
773 -542 1907
772 -537 1889
777 -536 1883
770 -528 1850
770 -524 1835
775 -523 1831
771 -516 1805
764 -508 1774
763 -504 1756
765 -502 1746
766 -499 1734
766 -495 1719
766 -491 1704
766 -488 1689
762 -482 1668
764 -480 1658
768 -479 1652
770 -477 1643
769 -473 1627
776 -474 1629
766 -465 1595
772 -466 1595
774 -464 1585
771 -459 1566
779 -461 1571
780 -458 1560
783 -457 1553
781 -453 1537
791 -456 1544
788 -451 1527
791 -451 1522
799 -452 1523
812 -456 1536
839 -469 1576
874 -486 1629
907 -501 1679
938 -515 1723
967 -528 1762
983 -534 1779
991 -535 1779
996 -535 1775
1007 -537 1780
1008 -535 1770
1012 -534 1762
1028 -539 1777
-1068 -524 1787
-1070 -528 1803
-1055 -523 1792
-1047 -522 1790
-1050 -527 1810
-1040 -525 1807
-1033 -524 1807
-1033 -528 1822
-1023 -526 1817
-1022 -528 1828
-1010 -525 1822
-997 -522 1812
-1004 -528 1837
-996 -527 1837
-990 -528 1840
-987 -529 1849
-982 -530 1854
-973 -528 1850
-967 -528 1853
-960 -528 1855
-960 -532 1870
-946 -527 1857
-946 -530 1871
-940 -530 1874
-925 -525 1859
-927 -530 1878
-918 -528 1874
-915 -530 1884
-913 -533 1895
-899 -528 1880
-893 -528 1882
-887 -528 1885
-886 -531 1898
-872 -526 1883
-876 -533 1909
-870 -532 1910
-857 -528 1898
-857 -532 1914
-847 -529 1906
-842 -530 1912
-833 -529 1908
-829 -530 1916
-823 -530 1916
-819 -532 1925
-814 -532 1929
-806 -531 1926
-799 -531 1927
-794 -531 1932
-789 -532 1935
-785 -534 1944
-773 -529 1931
-774 -534 1952
-766 -533 1948
-763 -535 1957
-755 -534 1955
-752 -536 1966
-743 -534 1960
-739 -536 1967
-730 -533 1961
-726 -535 1970
-720 -535 1971
-717 -537 1980
-706 -534 1970
-702 -536 1977
-697 -536 1981
-692 -537 1987
-684 -536 1984
-678 -536 1985
-669 -534 1979
-669 -539 2000
-654 -531 1972
-655 -537 1997
-643 -532 1980
-645 -539 2007
-635 -536 1997
-633 -540 2011
-626 -539 2010
-616 -536 1999
-612 -538 2008
-604 -536 2004
-599 -537 2009
-595 -539 2016
-587 -537 2012
-585 -541 2029
-576 -538 2017
-572 -540 2027
-563 -538 2019
-556 -537 2019
-550 -537 2020
-546 -539 2027
-538 -537 2022
-535 -541 2037
-526 -537 2025
-522 -540 2036
-514 -538 2031
-508 -539 2033
-502 -538 2033
-494 -537 2028
-492 -541 2045
-484 -539 2039
-476 -536 2029
-469 -536 2028
-467 -540 2046
-460 -539 2043
-453 -539 2041
-447 -539 2043
-441 -539 2046
-435 -539 2046
-427 -537 2039
-420 -536 2035
-419 -542 2059
-411 -541 2055
-404 -539 2052
-397 -538 2047
-392 -540 2054
-387 -541 2060
-379 -538 2049
-372 -538 2048
-367 -539 2053
-362 -540 2058
-356 -541 2061
-349 -539 2056
-345 -542 2068
-338 -541 2064
-332 -542 2070
-325 -541 2065
-317 -537 2051
-312 -539 2058
-306 -540 2062
-301 -542 2072
-293 -538 2059
-288 -541 2069
-283 -543 2076
-275 -538 2060
-269 -540 2066
-262 -538 2060
-257 -539 2065
-251 -539 2064
-246 -543 2081
-237 -537 2058
-232 -539 2064
-227 -542 2079
-219 -537 2059
-215 -541 2074
-207 -537 2058
-202 -540 2071
-196 -541 2077
-190 -540 2072
-184 -540 2072
-175 -534 2047
-166 -525 2014
-149 -488 1873
-136 -462 1774
-127 -452 1734
-124 -459 1760
-116 -449 1722
-113 -456 1751
-106 -449 1723
-102 -453 1740
-97 -454 1744
-93 -461 1769
-89 -465 1785
-85 -470 1806
-82 -486 1865
-82 -519 1991
-78 -532 2044
-73 -536 2060
-68 -544 2087
-62 -547 2101
-55 -543 2087
-49 -541 2076
-43 -545 2094
-37 -543 2085
-31 -547 2099
-25 -544 2088
-19 -546 2095
-12 -540 2073
-6 -544 2089
0 -545 2090
5 -545 2091
11 -540 2072
17 -544 2088
23 -541 2074
30 -544 2087
36 -543 2081
42 -545 2089
48 -542 2078
54 -544 2084
60 -545 2088
66 -542 2079
73 -543 2083
79 -544 2082
84 -541 2072
91 -542 2076
96 -539 2064
103 -544 2083
109 -543 2080
115 -542 2075
122 -543 2077
127 -542 2074
133 -541 2068
140 -542 2072
146 -542 2071
153 -545 2081
158 -542 2069
165 -546 2086
170 -543 2072
177 -544 2076
183 -542 2070
188 -541 2063
194 -540 2059
201 -542 2066
208 -546 2081
213 -542 2065
220 -545 2076
225 -543 2068
233 -546 2079
237 -542 2062
244 -543 2066
250 -543 2063
256 -544 2068
262 -543 2062
268 -542 2058
275 -545 2069
279 -541 2055
287 -545 2068
292 -542 2057
298 -542 2055
302 -539 2041
310 -542 2051
316 -542 2052
322 -542 2050
330 -545 2060
334 -541 2045
339 -539 2039
348 -544 2056
350 -538 2033
360 -544 2053
366 -543 2049
372 -543 2046
379 -544 2050
381 -540 2032
389 -542 2040
395 -541 2036
402 -543 2040
407 -542 2035
414 -543 2039
420 -542 2035
427 -544 2042
430 -540 2025
439 -543 2034
445 -544 2037
451 -544 2035
455 -541 2023
460 -540 2017
468 -542 2024
476 -545 2033
478 -540 2014
486 -541 2017
489 -539 2007
500 -544 2023
505 -543 2019
510 -541 2012
514 -540 2005
521 -541 2006
530 -543 2014
534 -541 2005
544 -545 2018
544 -539 1995
553 -542 2005
560 -543 2008
568 -545 2014
570 -541 1996
576 -541 1995
586 -545 2007
587 -540 1988
595 -542 1992
603 -544 1997
604 -539 1979
613 -542 1987
621 -544 1991
626 -543 1987
631 -542 1981
638 -543 1982
648 -546 1993
647 -540 1970
656 -542 1976
664 -544 1980
667 -542 1970
669 -539 1957
685 -546 1983
689 -544 1974
693 -543 1968
697 -542 1960
706 -544 1967
709 -542 1956
718 -544 1963
723 -543 1957
730 -544 1957
732 -541 1945
739 -541 1945
745 -541 1942
753 -543 1945
754 -539 1931
765 -543 1940
769 -542 1934
774 -540 1928
770 -534 1903
778 -536 1906
774 -529 1879
774 -524 1862
766 -515 1826
770 -514 1820
762 -505 1786
769 -506 1786
764 -498 1759
765 -496 1747
764 -491 1729
766 -490 1721
764 -485 1701
769 -484 1698
768 -480 1681
762 -473 1655
761 -470 1639
771 -472 1645
775 -472 1642
775 -468 1628
772 -464 1609
776 -463 1604
777 -460 1593
778 -458 1581
780 -456 1573
784 -456 1570
779 -450 1547
791 -454 1558
787 -449 1539
802 -455 1556
803 -452 1546
836 -468 1596
863 -480 1635
906 -501 1704
942 -518 1758
956 -522 1771
979 -532 1800
989 -534 1804
1001 -538 1813
1001 -534 1799
1010 -536 1802
1011 -533 1789
1029 -540 1809
1029 -537 1794
1036 -537 1792
-1081 -524 1810
-1084 -528 1828
-1068 -524 1814
-1060 -523 1814
-1055 -524 1820
-1053 -525 1830
-1051 -528 1841
-1035 -523 1827
-1037 -527 1843
-1032 -528 1849
-1026 -527 1851
-1015 -525 1846
-1013 -527 1857
-1003 -525 1852
-998 -526 1857
-995 -527 1866
-990 -528 1870
-988 -530 1882
-981 -530 1882
-970 -527 1876
-969 -530 1888
-959 -528 1883
-957 -530 1894
-939 -524 1873
-940 -528 1890
-938 -530 1901
-925 -526 1890
-924 -529 1904
-918 -529 1905
-902 -524 1888
-903 -528 1905
-899 -529 1912
-891 -528 1912
-884 -528 1912
-883 -531 1926
-882 -534 1939
-869 -530 1927
-867 -532 1937
-855 -529 1927
-852 -530 1935
-845 -530 1936
-838 -530 1937
-838 -533 1953
-825 -529 1939
-822 -531 1949
-815 -531 1950
-806 -529 1946
-807 -533 1963
-798 -532 1959
-791 -531 1961
-789 -534 1971
-777 -530 1961
-776 -534 1974
-765 -530 1964
-763 -534 1978
-758 -534 1982
-752 -534 1984
-750 -537 1998
-743 -537 1998
-735 -536 1995
-727 -534 1992
-713 -529 1972
-719 -537 2007
-713 -537 2009
-703 -535 2002
-699 -536 2008
-696 -539 2019
-687 -537 2015
-679 -535 2009
-674 -536 2014
-669 -538 2021
-663 -538 2024
-657 -538 2026
-651 -538 2029
-644 -537 2026
-639 -539 2033
-633 -538 2033
-626 -538 2035
-615 -534 2018
-609 -534 2022
-607 -537 2035
-604 -541 2048
-596 -539 2044
-589 -538 2042
-582 -538 2043
-579 -541 2053
-570 -538 2044
-565 -540 2053
-555 -536 2038
-553 -540 2055
-545 -538 2051
-537 -536 2043
-533 -538 2053
-529 -541 2065
-522 -541 2064
-510 -535 2042
-505 -536 2048
-503 -540 2064
-493 -536 2050
-488 -537 2056
-482 -538 2060
-475 -537 2057
-471 -539 2066
-463 -537 2058
-460 -540 2074
-452 -538 2066
-445 -537 2063
-443 -543 2087
-437 -543 2089
-427 -539 2071
-423 -541 2082
-415 -539 2075
-408 -538 2071
-402 -539 2075
-396 -539 2075
-390 -539 2077
-384 -539 2078
-377 -538 2075
-374 -543 2096
-364 -537 2072
-359 -539 2080
-355 -543 2097
-348 -541 2090
-341 -540 2088
-335 -540 2088
-329 -540 2088
-322 -540 2087
-314 -537 2078
-310 -540 2090
-304 -540 2091
-298 -542 2097
-290 -538 2083
-287 -543 2103
-279 -541 2096
-273 -540 2092
-266 -539 2088
-260 -540 2092
-255 -543 2105
-248 -541 2097
-241 -539 2091
-235 -539 2091
-230 -541 2100
-223 -540 2095
-217 -541 2100
-210 -539 2090
-206 -544 2111
-199 -542 2104
-192 -541 2099
-186 -541 2102
-178 -535 2080
-169 -528 2050
-157 -507 1971
-138 -464 1802
-129 -454 1763
-125 -455 1769
-118 -448 1742
-113 -450 1748
-108 -452 1755
-103 -454 1763
-98 -451 1753
-95 -462 1796
-90 -466 1813
-85 -466 1812
-83 -486 1887
-82 -514 1997
-80 -534 2077
-74 -540 2097
-69 -547 2127
-63 -547 2126
-56 -544 2112
-50 -544 2112
-44 -546 2121
-38 -548 2130
-31 -545 2117
-25 -543 2111
-19 -542 2105
-13 -545 2116
-6 -545 2116
0 -542 2106
5 -548 2127
11 -544 2111
18 -543 2110
24 -545 2115
30 -547 2122
36 -542 2104
43 -545 2117
49 -544 2111
55 -546 2119
61 -546 2117
67 -543 2106
74 -545 2114
80 -547 2122
86 -544 2109
92 -542 2101
98 -540 2094
105 -545 2113
111 -546 2114
117 -544 2107
123 -544 2104
129 -542 2099
135 -543 2103
141 -541 2094
148 -544 2106
154 -542 2098
160 -542 2097
166 -543 2099
172 -542 2094
179 -543 2099
184 -541 2089
190 -541 2090
197 -543 2097
204 -545 2104
210 -545 2103
216 -543 2096
223 -545 2101
230 -547 2110
234 -543 2093
241 -543 2093
246 -541 2082
252 -543 2088
259 -542 2087
266 -546 2098
272 -545 2096
277 -542 2083
284 -543 2087
289 -542 2080
296 -544 2086
301 -542 2078
308 -542 2080
315 -543 2083
320 -542 2076
326 -543 2078
335 -546 2090
337 -540 2064
346 -544 2079
352 -544 2078
357 -542 2070
363 -542 2071
369 -542 2067
374 -540 2062
380 -539 2057
387 -541 2060
394 -543 2068
400 -543 2065
405 -541 2058
412 -542 2062
420 -544 2069
423 -540 2051
429 -540 2050
439 -545 2069
444 -544 2061
447 -539 2044
455 -542 2052
459 -540 2043
465 -539 2040
472 -540 2041
480 -542 2049
485 -542 2045
491 -541 2042
496 -541 2037
505 -543 2047
507 -539 2028
515 -540 2033
523 -542 2039
524 -538 2019
535 -542 2035
539 -540 2026
544 -540 2022
551 -540 2023
562 -545 2040
567 -544 2033
574 -545 2035
576 -541 2018
581 -540 2014
591 -544 2027
593 -540 2010
604 -544 2025
604 -539 2003
613 -541 2010
615 -537 1995
627 -543 2013
633 -542 2009
640 -544 2012
645 -543 2007
654 -545 2012
656 -542 2000
661 -541 1994
668 -542 1996
676 -543 1998
686 -546 2007
686 -541 1988
696 -544 1998
700 -542 1988
711 -546 2000
711 -542 1983
718 -542 1982
726 -544 1985
732 -544 1983
738 -544 1981
746 -545 1984
746 -541 1965
752 -540 1962
763 -544 1972
766 -542 1962
770 -540 1954
773 -538 1944
772 -533 1925
775 -531 1916
771 -525 1890
770 -520 1870
767 -514 1845
764 -508 1823
764 -504 1808
763 -500 1789
766 -498 1782
769 -496 1772
767 -492 1753
766 -487 1735
763 -482 1714
768 -482 1711
768 -478 1696
767 -474 1680
765 -470 1663
769 -469 1657
772 -468 1651
773 -465 1638
774 -462 1626
777 -461 1620
777 -459 1608
781 -458 1602
780 -454 1587
779 -450 1573
785 -451 1573
785 -448 1559
794 -451 1566
808 -456 1581
834 -467 1619
867 -483 1670
902 -499 1724
935 -515 1774
962 -526 1811
972 -528 1816
993 -537 1841
995 -534 1830
1008 -539 1842
1010 -536 1830
1016 -536 1828
1013 -532 1809
1019 -532 1806
1034 -537 1819
1037 -535 1810
1046 -536 1811
-1102 -528 1847
-1093 -527 1846
-1083 -525 1842
-1079 -526 1849
-1068 -524 1844
-1060 -523 1844
-1061 -526 1859
-1063 -531 1877
-1047 -526 1863
-1051 -531 1884
-1034 -525 1868
-1028 -526 1871
-1022 -526 1874
-1020 -528 1885
-1021 -532 1901
-1004 -526 1884
-998 -526 1888
-997 -529 1899
-987 -527 1895
-984 -529 1904
-981 -531 1915
-967 -526 1901
-967 -530 1915
-958 -528 1912
-956 -531 1925
-942 -526 1912
-942 -530 1927
-932 -528 1921
-929 -529 1930
-922 -529 1932
-917 -530 1936
-912 -531 1942
-912 -534 1958
-905 -534 1959
-887 -527 1935
-876 -524 1927
-881 -531 1955
-881 -535 1971
-869 -531 1960
-861 -530 1959
-865 -536 1983
-847 -529 1959
-841 -529 1961
-842 -534 1981
-828 -529 1967
-825 -531 1976
-813 -528 1964
-821 -536 1999
-811 -534 1994
-805 -534 1996
-793 -530 1983
-795 -536 2006
-787 -535 2004
-783 -537 2013
-772 -533 2002
-765 -533 2002
-763 -536 2015
-762 -540 2032
-749 -535 2016
-743 -535 2019
-743 -540 2038
-732 -537 2027
-724 -535 2023
-719 -536 2029
-709 -533 2020
-706 -536 2031
-699 -535 2030
-694 -536 2035
-687 -535 2035
-683 -538 2045
-674 -535 2037
-672 -538 2050
-665 -538 2050
-656 -536 2044
-653 -539 2056
-644 -537 2050
-639 -538 2056
-633 -538 2057
-628 -539 2062
-618 -536 2054
-617 -540 2070
-609 -539 2067
-603 -539 2069
-596 -538 2067
-590 -539 2072
-584 -539 2072
-576 -537 2067
-568 -536 2064
-563 -537 2070
-559 -539 2079
-553 -540 2083
-547 -540 2082
-540 -540 2083
-534 -539 2084
-524 -536 2074
-520 -539 2084
-517 -541 2095
-507 -538 2082
-503 -540 2092
-496 -539 2090
-489 -538 2088
-484 -541 2097
-478 -541 2098
-469 -537 2086
-465 -541 2100
-457 -539 2093
-453 -541 2105
-446 -540 2099
-440 -541 2106
-430 -536 2086
-429 -543 2115
-423 -543 2116
-416 -542 2113
-410 -543 2115
-403 -542 2115
-396 -541 2110
-388 -538 2101
-382 -540 2107
-376 -539 2105
-369 -539 2104
-365 -541 2116
-359 -543 2121
-351 -539 2108
-344 -539 2109
-339 -541 2116
-332 -539 2110
-324 -536 2098
-319 -539 2112
-314 -541 2117
-306 -539 2111
-301 -540 2116
-296 -543 2127
-289 -541 2122
-282 -541 2120
-276 -540 2116
-270 -542 2125
-262 -538 2109
-256 -539 2115
-252 -543 2133
-246 -543 2131
-239 -542 2129
-232 -540 2121
-226 -542 2127
-218 -537 2110
-214 -543 2132
-206 -539 2117
-201 -542 2130
-195 -542 2128
-188 -542 2129
-181 -540 2121
-173 -532 2092
-163 -520 2046
-143 -474 1865
-131 -455 1789
-125 -452 1778
-120 -453 1780
-115 -452 1776
-108 -448 1761
-104 -451 1776
-100 -455 1791
-96 -461 1815
-91 -462 1819
-87 -472 1857
-83 -481 1894
-83 -512 2013
-80 -534 2099
-75 -538 2115
-69 -545 2144
-63 -546 2146
-57 -545 2142
-50 -544 2139
-44 -545 2145
-38 -548 2155
-32 -546 2147
-25 -547 2150
-19 -544 2140
-13 -547 2150
-6 -545 2144
0 -543 2135
5 -542 2131
12 -546 2146
18 -548 2154
24 -544 2137
30 -545 2141
37 -544 2138
43 -543 2132
49 -543 2134
56 -546 2145
62 -543 2133
68 -545 2141
74 -544 2137
80 -543 2130
87 -544 2135
93 -544 2134
99 -542 2127
106 -544 2134
112 -544 2133
119 -546 2140
125 -545 2137
131 -544 2132
137 -545 2134
143 -543 2127
149 -541 2120
156 -545 2133
163 -547 2139
168 -542 2121
174 -542 2118
181 -544 2128
188 -545 2132
193 -543 2121
200 -545 2127
206 -543 2121
213 -545 2127
217 -540 2109
224 -541 2111
231 -544 2122
238 -546 2130
243 -543 2118
250 -544 2120
255 -543 2113
262 -543 2116
267 -541 2104
275 -544 2118
281 -544 2114
287 -543 2112
292 -541 2101
300 -544 2115
306 -544 2114
310 -539 2092
318 -544 2110
324 -542 2102
331 -543 2106
336 -542 2100
342 -541 2096
347 -540 2090
357 -545 2108
361 -542 2098
366 -541 2090
374 -543 2097
381 -543 2098
385 -541 2089
393 -544 2099
399 -543 2092
407 -545 2101
412 -543 2093
419 -545 2096
425 -544 2093
431 -544 2092
436 -542 2083
443 -544 2088
447 -541 2077
456 -544 2086
460 -542 2079
468 -543 2082
474 -544 2081
479 -543 2076
485 -542 2072
491 -542 2071
503 -548 2092
502 -541 2063
509 -541 2064
517 -543 2069
525 -545 2075
531 -545 2073
536 -544 2068
537 -538 2043
547 -542 2058
554 -543 2058
561 -544 2062
568 -544 2062
573 -543 2055
584 -548 2072
586 -544 2055
589 -541 2042
596 -542 2044
599 -539 2032
607 -540 2035
613 -541 2034
619 -540 2032
626 -541 2033
631 -540 2028
639 -542 2031
645 -542 2030
653 -543 2031
658 -542 2028
668 -545 2036
669 -541 2020
680 -545 2032
679 -539 2008
686 -540 2010
696 -543 2019
704 -544 2020
704 -539 2002
716 -544 2015
719 -541 2004
728 -544 2011
733 -543 2006
741 -544 2009
744 -542 1999
749 -541 1992
759 -544 2000
759 -539 1981
768 -541 1988
770 -538 1974
774 -537 1967
770 -530 1939
775 -529 1933
769 -521 1901
765 -515 1877
769 -513 1869
768 -508 1849
765 -502 1825
764 -498 1808
764 -495 1793
766 -493 1783
765 -488 1765
769 -487 1758
766 -482 1736
763 -477 1716
768 -476 1712
771 -475 1704
771 -471 1690
772 -469 1679
770 -465 1661
773 -463 1654
777 -462 1647
776 -458 1632
782 -459 1632
789 -460 1634
783 -454 1609
790 -455 1609
786 -449 1588
792 -450 1587
802 -453 1596
829 -465 1636
850 -474 1664
896 -496 1741
931 -513 1796
953 -522 1824
980 -534 1862
986 -534 1860
997 -536 1865
1009 -539 1872
1017 -540 1873
1016 -537 1858
1024 -538 1858
1023 -534 1843
1036 -537 1851
1048 -541 1858
1043 -535 1835
1046 -534 1828
1064 -539 1845
-1106 -524 1855
-1101 -525 1862
-1095 -524 1864
-1085 -523 1861
-1085 -526 1876
-1080 -526 1880
-1078 -528 1890
-1057 -522 1869
-1063 -527 1892
-1054 -526 1891
-1045 -525 1889
-1039 -525 1893
-1033 -525 1897
-1037 -530 1918
-1034 -532 1928
-1016 -526 1909
-1009 -526 1909
-1001 -525 1910
-1002 -529 1927
-997 -529 1931
-987 -527 1926
-979 -527 1927
-976 -528 1935
-965 -526 1928
-956 -524 1926
-954 -527 1938
-953 -529 1950
-946 -529 1952
-943 -531 1962
-937 -532 1966
-926 -529 1958
-927 -533 1975
-919 -532 1974
-910 -530 1970
-908 -533 1983
-898 -531 1977
-886 -528 1968
-884 -530 1978
-884 -534 1996
-879 -535 2001
-869 -533 1996
-860 -531 1992
-854 -531 1995
-848 -531 1998
-843 -532 2003
-837 -533 2006
-830 -532 2007
-826 -534 2015
-818 -532 2012
-810 -531 2010
-803 -531 2010
-803 -535 2028
-797 -535 2031
-786 -532 2021
-778 -531 2019
-774 -533 2027
-774 -537 2044
-767 -537 2045
-760 -537 2047
-746 -531 2027
-745 -535 2044
-745 -539 2063
-737 -538 2060
-729 -537 2058
-728 -541 2075
-718 -539 2067
-705 -534 2050
-703 -537 2063
-695 -535 2060
-688 -535 2061
-688 -540 2082
-680 -539 2078
-672 -538 2075
-666 -537 2076
-662 -539 2085
-653 -538 2081
-647 -538 2081
-641 -538 2083
-634 -538 2085
-626 -537 2081
-622 -538 2090
-614 -537 2084
-608 -537 2087
-601 -536 2086
-594 -536 2085
-591 -539 2099
-583 -538 2096
-574 -536 2088
-571 -539 2102
-564 -538 2100
-558 -538 2103
-549 -536 2094
-546 -539 2107
-538 -537 2102
-536 -541 2119
-526 -538 2108
-521 -539 2113
-513 -538 2110
-508 -539 2115
-503 -541 2122
-494 -538 2112
-486 -536 2105
-483 -540 2121
-476 -540 2121
-469 -539 2119
-465 -541 2129
-460 -543 2136
-450 -539 2124
-444 -539 2124
-439 -540 2130
-433 -541 2134
-426 -540 2130
-420 -541 2135
-412 -540 2129
-406 -540 2130
-401 -541 2138
-395 -542 2142
-386 -538 2125
-380 -539 2130
-374 -539 2132
-368 -540 2136
-361 -538 2130
-355 -540 2136
-349 -540 2138
-344 -542 2147
-335 -538 2132
-330 -540 2141
-324 -541 2143
-318 -542 2149
-311 -540 2140
-305 -541 2147
-300 -544 2157
-291 -539 2140
-288 -544 2161
-280 -543 2155
-273 -542 2151
-267 -541 2150
-260 -541 2148
-257 -547 2172
-247 -539 2143
-242 -543 2160
-235 -540 2148
-227 -538 2139
-223 -542 2156
-216 -542 2155
-211 -544 2165
-203 -540 2148
-199 -547 2176
-191 -542 2157
-183 -539 2143
-178 -542 2159
-167 -529 2104
-149 -490 1950
-133 -456 1816
-128 -458 1824
-119 -444 1767
-116 -452 1799
-110 -448 1785
-105 -450 1793
-101 -456 1818
-96 -456 1817
-91 -459 1829
-87 -468 1865
-83 -476 1894
-83 -505 2012
-81 -532 2117
-76 -538 2141
-70 -544 2168
-64 -545 2172
-57 -545 2169
-51 -547 2177
-45 -544 2167
-39 -548 2184
-32 -548 2180
-26 -546 2172
-19 -547 2176
-13 -542 2158
-6 -544 2166
0 -547 2178
5 -542 2158
12 -542 2158
18 -544 2164
25 -549 2186
31 -545 2170
37 -544 2165
43 -541 2152
50 -546 2170
56 -546 2171
63 -544 2162
69 -546 2171
75 -545 2164
82 -545 2166
88 -544 2162
94 -542 2152
101 -546 2170
107 -543 2154
113 -544 2160
120 -546 2168
126 -545 2161
132 -543 2152
139 -545 2161
145 -545 2160
152 -545 2160
158 -546 2164
164 -545 2158
170 -541 2145
179 -550 2176
184 -546 2163
190 -544 2154
197 -546 2161
202 -544 2152
208 -543 2145
215 -545 2155
224 -550 2173
229 -548 2165
234 -544 2147
242 -548 2162
248 -547 2157
253 -544 2146
259 -543 2140
266 -544 2146
273 -547 2154
278 -543 2139
284 -542 2135
292 -546 2150
294 -539 2120
302 -542 2130
310 -545 2143
315 -542 2130
322 -543 2133
328 -544 2134
337 -548 2150
342 -545 2139
348 -545 2137
355 -545 2136
362 -547 2144
366 -544 2128
372 -543 2125
379 -543 2125
384 -542 2118
391 -544 2124
399 -545 2129
406 -546 2132
410 -544 2121
414 -541 2107
423 -543 2116
428 -542 2112
437 -546 2125
441 -543 2110
448 -544 2113
457 -547 2125
462 -545 2118
465 -542 2102
477 -548 2125
479 -543 2105
484 -542 2099
489 -540 2089
498 -543 2100
505 -543 2101
511 -544 2100
518 -544 2100
526 -546 2106
528 -542 2088
534 -542 2087
545 -546 2103
549 -544 2093
555 -544 2090
564 -546 2097
567 -543 2083
571 -541 2073
575 -539 2064
588 -545 2086
593 -544 2082
599 -544 2078
604 -543 2074
610 -542 2069
617 -543 2070
620 -540 2057
626 -540 2054
634 -542 2061
639 -540 2053
645 -540 2051
657 -545 2066
663 -545 2064
670 -546 2066
672 -542 2050
681 -544 2055
687 -544 2055
692 -543 2050
695 -541 2038
707 -545 2053
711 -543 2042
716 -542 2038
722 -542 2036
731 -544 2041
734 -542 2028
743 -544 2035
750 -544 2034
756 -545 2033
760 -543 2025
762 -540 2010
765 -537 1998
769 -536 1990
780 -539 2001
775 -532 1971
771 -524 1942
768 -518 1917
766 -513 1896
767 -510 1883
764 -504 1857
767 -502 1848
769 -499 1837
765 -493 1812
770 -493 1808
763 -485 1776
764 -482 1764
767 -480 1754
766 -476 1738
768 -474 1727
768 -471 1713
771 -469 1706
772 -466 1693
775 -465 1687
776 -462 1674
770 -456 1649
775 -456 1645
780 -456 1643
785 -455 1639
782 -451 1620
790 -453 1625
792 -450 1614
803 -454 1624
822 -461 1649
854 -477 1700
896 -497 1770
920 -507 1804
952 -522 1854
967 -527 1868
998 -540 1912
998 -537 1898
1010 -540 1906
1008 -536 1886
1017 -537 1889
1021 -536 1883
1027 -536 1880
1030 -535 1871
1042 -537 1877
1054 -541 1886
1052 -536 1867
1061 -538 1868
1064 -536 1861
1076 -539 1867
-1125 -526 1889
-1122 -528 1898
-1111 -526 1894
-1099 -523 1886
-1109 -531 1918
-1097 -529 1912
-1090 -528 1915
-1075 -524 1902
-1070 -525 1907
-1065 -525 1912
-1062 -527 1922
-1050 -524 1914
-1046 -525 1921
-1044 -527 1932
-1047 -532 1952
-1027 -525 1930
-1021 -526 1934
-1019 -528 1945
-1005 -524 1934
-1012 -531 1963
-995 -526 1944
-995 -529 1959
-979 -524 1943
-982 -529 1964
-975 -528 1965
-966 -527 1964
-954 -524 1955
-957 -529 1976
-949 -528 1976
-943 -529 1980
-939 -530 1987
-934 -531 1992
-931 -533 2002
-922 -531 1999
-908 -527 1985
-911 -532 2008
-906 -533 2012
-896 -531 2008
-892 -532 2016
-877 -527 1999
-880 -533 2021
-874 -533 2025
-871 -535 2036
-863 -534 2034
-850 -530 2021
-844 -531 2024
-842 -533 2036
-833 -532 2034
-826 -531 2034
-823 -534 2044
-820 -536 2054
-808 -532 2044
-803 -533 2048
-800 -535 2058
-795 -536 2064
-784 -533 2054
-778 -534 2059
-773 -534 2063
-772 -539 2081
-763 -536 2074
-758 -538 2081
-745 -533 2066
-740 -534 2070
-738 -537 2085
-729 -536 2080
-727 -539 2095
-712 -533 2071
-714 -538 2096
-706 -538 2095
-699 -537 2093
-688 -534 2083
-689 -539 2106
-682 -539 2107
-676 -539 2109
-663 -535 2092
-661 -538 2106
-653 -537 2104
-650 -539 2115
-640 -537 2106
-633 -536 2106
-628 -537 2110
-622 -538 2115
-620 -541 2130
-612 -540 2125
-600 -535 2108
-597 -539 2124
-592 -540 2129
-587 -541 2136
-581 -541 2138
-569 -537 2121
-560 -534 2110
-557 -537 2124
-553 -540 2138
-547 -540 2139
-540 -539 2137
-532 -538 2133
-526 -538 2135
-519 -538 2134
-515 -540 2145
-508 -539 2143
-500 -538 2139
-494 -539 2142
-489 -540 2148
-482 -540 2149
-474 -538 2142
-473 -545 2170
-462 -539 2148
-455 -539 2148
-453 -543 2168
-443 -539 2151
-437 -540 2157
-431 -540 2157
-426 -542 2166
-418 -541 2161
-414 -544 2174
-403 -538 2153
-401 -544 2176
-390 -538 2154
-385 -540 2160
-377 -537 2149
-375 -544 2178
-367 -542 2172
-360 -540 2164
-352 -538 2158
-349 -543 2179
-342 -542 2175
-334 -541 2170
-326 -537 2155
-317 -534 2144
-315 -541 2171
-308 -541 2172
-303 -542 2178
-293 -537 2157
-290 -542 2179
-283 -542 2178
-276 -541 2176
-270 -541 2174
-263 -540 2173
-257 -540 2174
-251 -541 2178
-246 -544 2190
-237 -540 2175
-232 -542 2184
-226 -544 2189
-219 -543 2185
-213 -543 2186
-207 -544 2191
-200 -544 2192
-193 -542 2184
-187 -543 2186
-180 -541 2181
-171 -532 2146
-155 -504 2033
-135 -457 1842
-129 -456 1838
-123 -452 1823
-118 -456 1837
-112 -450 1816
-107 -452 1823
-102 -454 1830
-96 -454 1831
-91 -455 1836
-87 -461 1861
-84 -477 1922
-82 -493 1988
-82 -535 2159
-77 -541 2182
-71 -545 2198
-65 -548 2211
-58 -544 2192
-52 -546 2201
-46 -550 2216
-39 -546 2201
-32 -546 2199
-26 -545 2195
-20 -547 2206
-13 -546 2199
-6 -543 2188
0 -547 2202
5 -549 2212
12 -546 2201
18 -545 2196
25 -548 2209
31 -548 2209
38 -545 2196
44 -546 2198
51 -547 2200
57 -546 2198
64 -548 2206
70 -545 2195
77 -547 2199
83 -546 2195
90 -549 2209
96 -547 2199
102 -547 2199
109 -546 2194
115 -547 2199
121 -545 2189
128 -545 2191
135 -549 2203
141 -545 2189
148 -549 2202
154 -545 2187
160 -545 2187
166 -545 2186
173 -545 2185
178 -542 2172
187 -548 2196
191 -543 2174
199 -545 2184
204 -542 2172
211 -543 2174
218 -547 2187
225 -546 2185
233 -550 2200
235 -541 2163
243 -544 2174
249 -544 2174
258 -549 2191
263 -545 2176
269 -544 2173
276 -546 2178
280 -540 2155
286 -541 2155
295 -546 2174
301 -544 2167
307 -543 2163
314 -545 2169
320 -545 2169
326 -543 2159
334 -547 2172
341 -548 2176
345 -544 2158
352 -544 2161
358 -544 2158
362 -540 2141
373 -547 2166
378 -546 2162
384 -545 2156
392 -546 2162
396 -543 2149
403 -544 2150
409 -544 2151
417 -546 2157
424 -547 2158
428 -543 2143
433 -542 2135
441 -544 2145
446 -542 2134
454 -544 2141
461 -545 2144
468 -546 2146
470 -541 2126
480 -545 2140
486 -544 2135
488 -539 2115
495 -540 2116
502 -541 2120
512 -545 2133
516 -543 2122
524 -545 2129
527 -540 2110
533 -540 2108
539 -540 2106
548 -543 2115
556 -544 2119
561 -543 2113
567 -543 2112
573 -543 2108
578 -541 2100
588 -544 2112
596 -546 2116
599 -543 2103
602 -540 2090
614 -545 2109
620 -545 2106
622 -541 2088
628 -541 2086
639 -545 2101
639 -539 2076
649 -543 2087
659 -546 2098
661 -542 2083
665 -541 2074
678 -546 2093
679 -542 2074
689 -545 2083
693 -542 2073
698 -542 2068
707 -543 2073
712 -543 2068
718 -542 2064
725 -543 2066
729 -541 2057
742 -546 2073
740 -540 2048
749 -542 2054
757 -543 2055
762 -542 2050
762 -538 2031
773 -541 2041
770 -534 2013
772 -532 2001
773 -528 1986
768 -520 1954
768 -517 1938
765 -510 1912
766 -507 1897
764 -502 1874
763 -497 1856
765 -495 1845
770 -494 1840
765 -488 1813
766 -485 1800
768 -482 1790
768 -479 1774
770 -476 1763
769 -473 1747
766 -467 1724
769 -466 1717
777 -467 1720
772 -461 1696
774 -459 1685
775 -457 1674
779 -456 1668
778 -452 1653
782 -452 1648
787 -451 1645
795 -453 1648
802 -454 1651
817 -459 1667
851 -476 1724
890 -494 1789
917 -506 1828
954 -524 1888
978 -533 1919
990 -536 1928
994 -535 1921
1008 -539 1933
1004 -534 1910
1012 -535 1911
1025 -539 1921
1028 -537 1912
1031 -535 1903
1038 -536 1901
1047 -537 1902
1057 -539 1906
1052 -533 1883
1067 -538 1895
1081 -542 1905
1083 -540 1895
1081 -535 1877
-1139 -527 1914
-1126 -524 1907
-1121 -524 1912
-1115 -525 1916
-1106 -524 1916
-1101 -524 1920
-1100 -527 1934
-1087 -523 1924
-1082 -524 1930
-1080 -527 1942
-1071 -525 1939
-1068 -527 1949
-1061 -527 1951
-1051 -525 1948
-1043 -524 1948
-1039 -525 1955
-1028 -523 1950
-1034 -529 1976
-1025 -528 1973
-1022 -530 1982
-1015 -530 1986
-1007 -529 1984
-997 -527 1980
-990 -527 1982
-984 -527 1986
-976 -526 1986
-971 -527 1990
-972 -531 2009
-966 -531 2012
-957 -530 2011
-954 -532 2019
-950 -533 2028
-933 -527 2007
-936 -532 2030
-925 -530 2022
-916 -529 2021
-915 -532 2034
-907 -531 2034
-902 -532 2039
-895 -532 2040
-892 -534 2051
-884 -533 2050
-873 -530 2041
-873 -534 2060
-862 -532 2052
-856 -532 2055
-852 -533 2061
-846 -533 2065
-841 -534 2071
-830 -532 2064
-829 -535 2078
-824 -536 2084
-816 -535 2082
-809 -535 2083
-803 -535 2087
-795 -534 2086
-793 -537 2098
-781 -533 2086
-779 -536 2099
-771 -536 2099
-766 -537 2103
-761 -538 2111
-749 -534 2096
-747 -537 2111
-738 -536 2107
-732 -536 2110
-723 -534 2104
-726 -541 2133
-716 -539 2125
-709 -538 2125
-700 -537 2121
-696 -538 2129
-688 -537 2125
-681 -537 2126
-674 -536 2126
-666 -535 2124
-663 -538 2137
-655 -537 2135
-649 -537 2136
-643 -538 2141
-638 -539 2147
-630 -538 2143
-626 -540 2153
-622 -542 2162
-613 -540 2155
-605 -539 2154
-602 -542 2165
-589 -537 2145
-586 -540 2160
-577 -538 2152
-573 -539 2160
-568 -541 2168
-560 -540 2163
-553 -539 2164
-545 -538 2159
-540 -539 2165
-535 -541 2173
-533 -545 2192
-522 -541 2174
-514 -540 2173
-508 -540 2175
-496 -535 2154
-498 -543 2189
-490 -542 2186
-481 -539 2175
-474 -539 2174
-468 -539 2177
-464 -542 2189
-457 -543 2191
-453 -545 2201
-444 -542 2192
-437 -542 2190
-431 -543 2195
-425 -543 2198
-418 -542 2196
-411 -542 2196
-405 -542 2196
-397 -541 2191
-389 -539 2186
-386 -543 2202
-380 -544 2207
-371 -541 2197
-366 -543 2205
-359 -543 2203
-351 -540 2191
-345 -542 2200
-338 -540 2194
-332 -541 2198
-322 -535 2177
-318 -540 2194
-313 -542 2206
-305 -540 2196
-299 -540 2198
-294 -543 2211
-286 -540 2200
-280 -543 2209
-275 -545 2219
-267 -541 2203
-259 -538 2191
-253 -540 2202
-249 -544 2218
-240 -539 2197
-235 -544 2217
-228 -541 2207
-221 -541 2205
-213 -538 2195
-208 -542 2209
-203 -545 2224
-196 -544 2219
-189 -543 2217
-182 -541 2207
-174 -536 2187
-163 -523 2134
-143 -477 1946
-132 -459 1873
-124 -453 1848
-118 -450 1838
-113 -451 1842
-108 -451 1843
-103 -455 1858
-98 -457 1866
-94 -461 1881
-89 -464 1895
-85 -476 1944
-82 -493 2011
-83 -530 2162
-78 -540 2205
-72 -545 2225
-66 -547 2234
-59 -546 2230
-53 -547 2233
-46 -549 2240
-39 -543 2216
-33 -544 2221
-26 -547 2231
-20 -545 2225
-13 -548 2237
-7 -547 2231
0 -548 2237
5 -545 2221
12 -543 2214
19 -546 2226
25 -547 2230
32 -546 2225
39 -551 2248
45 -549 2239
51 -547 2230
58 -545 2220
65 -549 2235
71 -544 2217
77 -545 2220
83 -542 2206
91 -548 2231
96 -543 2209
104 -548 2229
110 -546 2223
116 -542 2207
123 -545 2218
130 -546 2221
135 -543 2210
143 -546 2219
149 -547 2225
155 -543 2206
162 -545 2215
168 -544 2210
176 -547 2221
183 -549 2230
189 -550 2230
195 -546 2215
201 -546 2215
209 -549 2226
213 -544 2203
222 -548 2220
228 -548 2219
232 -542 2195
240 -545 2208
246 -544 2203
254 -547 2213
260 -547 2211
267 -548 2213
273 -547 2211
278 -543 2191
285 -545 2202
291 -543 2191
298 -544 2196
305 -545 2198
313 -549 2212
318 -545 2195
325 -547 2204
329 -543 2185
337 -545 2193
345 -547 2202
351 -546 2196
355 -542 2179
362 -544 2183
367 -542 2176
375 -544 2183
381 -544 2180
386 -541 2168
395 -544 2180
401 -544 2179
409 -546 2186
412 -541 2166
420 -544 2175
426 -543 2171
435 -546 2182
439 -544 2170
447 -545 2174
453 -544 2170
460 -545 2172
467 -546 2173
470 -542 2158
476 -541 2152
485 -544 2162
493 -546 2169
499 -545 2163
501 -540 2144
508 -542 2148
515 -542 2147
527 -548 2168
529 -543 2150
533 -540 2136
541 -542 2141
546 -541 2137
552 -541 2133
563 -545 2149
572 -547 2155
575 -544 2142
580 -543 2136
587 -543 2136
594 -544 2137
596 -540 2118
607 -544 2134
610 -541 2119
620 -544 2131
629 -546 2137
631 -542 2120
637 -542 2117
646 -544 2123
651 -544 2119
657 -543 2116
669 -547 2129
669 -543 2110
675 -542 2105
685 -545 2116
691 -544 2110
696 -543 2105
704 -544 2107
707 -542 2097
718 -545 2106
719 -541 2088
727 -542 2091
735 -544 2094
741 -543 2091
747 -543 2087
754 -543 2086
757 -541 2075
764 -542 2076
768 -540 2067
770 -537 2052
774 -535 2045
774 -531 2027
772 -525 2001
767 -518 1970
767 -514 1953
765 -508 1930
766 -505 1915
768 -502 1904
759 -493 1865
765 -493 1862
765 -489 1846
761 -483 1820
763 -481 1810
767 -480 1804
763 -474 1779
767 -473 1773
771 -472 1767
765 -464 1737
774 -466 1743
772 -462 1725
778 -462 1723
779 -460 1711
778 -456 1695
780 -454 1685
781 -452 1675
785 -451 1668
794 -453 1675
805 -456 1684
820 -462 1701
846 -474 1743
887 -493 1812
924 -510 1873
948 -521 1907
974 -531 1943
978 -530 1937
993 -535 1951
1001 -536 1951
1012 -538 1957
1016 -538 1951
1024 -538 1949
1028 -537 1942
1033 -536 1936
1040 -537 1935
1045 -536 1929
1055 -538 1933
1057 -536 1922
1068 -538 1927
1076 -539 1927
1083 -540 1926
1082 -536 1909
1094 -539 1917
1094 -535 1901
-1151 -526 1935
-1140 -524 1932
-1130 -522 1930
-1131 -526 1945
-1120 -524 1941
-1119 -526 1953
-1111 -526 1955
-1098 -522 1945
-1091 -522 1948
-1087 -523 1955
-1078 -522 1954
-1071 -522 1957
-1075 -527 1978
-1073 -529 1989
-1059 -526 1980
-1050 -524 1977
-1051 -528 1994
-1041 -527 1991
-1035 -527 1994
-1031 -528 2003
-1025 -529 2007
-1015 -527 2003
-1021 -533 2029
-1007 -529 2018
-996 -527 2012
-1001 -533 2038
-984 -527 2019
-983 -531 2034
-975 -530 2032
-963 -527 2025
-957 -527 2028
-950 -527 2028
-953 -532 2051
-950 -534 2063
-935 -530 2048
-937 -534 2069
-922 -530 2052
-919 -532 2062
-911 -531 2063
-907 -532 2069
-900 -532 2072
-894 -532 2074
-886 -532 2075
-879 -531 2075
-870 -530 2071
-873 -536 2096
-866 -535 2098
-858 -534 2096
-851 -534 2099
-845 -535 2101
-831 -530 2086
-829 -533 2099
-827 -536 2112
-822 -537 2118
-812 -535 2111
-808 -537 2121
-797 -533 2111
-793 -536 2121
-785 -534 2118
-780 -536 2125
-770 -533 2117
-768 -536 2130
-763 -538 2139
-753 -535 2129
-754 -540 2153
-742 -537 2140
-739 -540 2154
-732 -539 2152
-725 -539 2153
-716 -537 2147
-713 -540 2161
-704 -538 2156
-699 -539 2162
-693 -540 2166
-680 -535 2148
-673 -535 2149
-671 -538 2163
-667 -540 2173
-657 -538 2164
-648 -536 2159
-645 -538 2171
-642 -541 2184
-631 -538 2172
-629 -542 2190
-619 -539 2178
-613 -539 2182
-603 -537 2172
-600 -540 2185
-592 -539 2184
-584 -537 2178
-579 -539 2185
-573 -539 2189
-564 -537 2182
-561 -541 2197
-552 -539 2190
-544 -537 2184
-538 -538 2188
-531 -537 2186
-528 -541 2204
-519 -538 2194
-516 -542 2211
-506 -538 2195
-500 -540 2202
-493 -539 2202
-488 -541 2208
-480 -539 2204
-476 -542 2214
-469 -541 2213
-460 -538 2203
-456 -542 2219
-449 -542 2220
-441 -540 2214
-438 -545 2231
-431 -544 2229
-422 -541 2218
-416 -542 2222
-408 -540 2217
-401 -539 2212
-396 -542 2225
-390 -543 2228
-383 -542 2225
-375 -540 2218
-370 -543 2230
-364 -543 2234
-357 -542 2230
-349 -541 2224
-342 -540 2222
-337 -543 2235
-329 -541 2225
-324 -542 2234
-316 -542 2230
-310 -543 2236
-304 -544 2240
-297 -542 2234
-289 -540 2227
-282 -539 2223
-278 -543 2240
-269 -540 2229
-263 -540 2226
-257 -542 2237
-249 -538 2222
-244 -542 2236
-236 -538 2221
-232 -545 2248
-224 -542 2238
-218 -544 2246
-211 -542 2238
-206 -545 2252
-198 -542 2237
-192 -544 2247
-186 -546 2257
-177 -540 2232
-167 -529 2184
-145 -480 1982
-133 -458 1895
-125 -449 1857
-120 -452 1870
-114 -448 1850
-110 -456 1886
-105 -455 1881
-98 -452 1871
-94 -459 1897
-90 -463 1917
-85 -470 1943
-83 -487 2015
-83 -525 2170
-79 -542 2242
-73 -545 2253
-66 -542 2239
-60 -547 2263
-53 -546 2257
-46 -547 2259
-40 -545 2253
-33 -547 2261
-27 -550 2273
-20 -549 2268
-13 -548 2263
-7 -548 2266
0 -545 2252
6 -550 2271
12 -548 2263
19 -551 2275
25 -545 2253
32 -548 2263
39 -547 2259
46 -549 2266
52 -550 2272
58 -544 2244
65 -546 2254
72 -545 2249
78 -546 2254
85 -548 2260
92 -548 2260
98 -545 2246
105 -546 2251
111 -545 2247
119 -551 2270
125 -549 2263
131 -544 2239
138 -547 2253
144 -546 2247
152 -548 2257
158 -546 2247
164 -546 2244
171 -548 2253
177 -545 2241
184 -546 2243
190 -544 2236
197 -545 2240
204 -546 2242
209 -541 2223
217 -546 2243
223 -545 2236
230 -545 2237
236 -545 2233
243 -546 2239
250 -546 2237
257 -547 2241
264 -547 2241
271 -548 2244
276 -546 2232
284 -548 2243
289 -546 2233
295 -545 2229
301 -544 2221
309 -546 2231
313 -541 2210
321 -544 2220
327 -544 2218
334 -545 2221
340 -542 2210
347 -544 2214
353 -543 2209
362 -546 2224
367 -544 2212
374 -545 2215
380 -544 2211
384 -541 2198
393 -545 2211
401 -546 2214
405 -543 2203
413 -545 2207
419 -544 2204
427 -546 2211
433 -545 2204
439 -545 2203
446 -545 2202
451 -543 2196
457 -543 2192
463 -542 2189
470 -543 2190
477 -543 2190
483 -543 2186
494 -547 2203
499 -545 2194
505 -545 2191
512 -546 2195
516 -543 2179
526 -547 2194
531 -545 2185
536 -543 2177
545 -546 2185
550 -544 2178
557 -545 2181
562 -544 2174
570 -545 2176
574 -542 2164
580 -543 2163
588 -544 2167
598 -547 2177
599 -541 2154
607 -543 2158
617 -546 2169
620 -543 2156
626 -543 2151
633 -543 2151
639 -543 2150
645 -542 2144
653 -543 2148
663 -547 2160
668 -546 2152
674 -545 2149
681 -546 2148
685 -543 2137
696 -547 2150
696 -542 2126
706 -544 2135
716 -547 2144
720 -545 2136
727 -546 2136
730 -543 2123
740 -546 2132
748 -547 2132
751 -544 2120
755 -543 2112
767 -546 2124
766 -541 2102
770 -539 2092
774 -538 2084
773 -533 2063
771 -527 2036
767 -520 2008
767 -516 1990
771 -514 1981
763 -505 1944
765 -502 1932
769 -501 1924
770 -498 1910
766 -491 1882
765 -487 1864
765 -483 1848
767 -481 1837
765 -476 1816
766 -473 1802
770 -472 1796
769 -468 1780
767 -463 1759
772 -463 1756
778 -463 1753
775 -459 1734
777 -457 1724
781 -455 1717
781 -452 1702
783 -451 1695
798 -456 1712
800 -454 1703
816 -460 1723
839 -470 1757
887 -494 1843
921 -509 1898
945 -519 1932
971 -530 1970
991 -538 1996
1001 -540 1999
1001 -536 1984
1014 -540 1994
1015 -537 1980
1024 -538 1981
1024 -535 1966
1036 -538 1975
1044 -539 1974
1044 -536 1959
1054 -537 1963
1055 -535 1950
1065 -537 1953
1081 -542 1969
1084 -540 1959
1082 -536 1939
1088 -536 1936
1098 -538 1940
1103 -537 1934
1118 -541 1945
-1162 -524 1957
-1156 -525 1961
-1149 -524 1963
-1154 -530 1987
-1133 -523 1965
-1135 -527 1984
-1133 -529 1995
-1115 -524 1978
-1113 -526 1989
-1106 -526 1991
-1093 -523 1982
-1093 -526 1998
-1082 -524 1992
-1087 -530 2018
-1079 -529 2017
-1077 -531 2030
-1066 -529 2024
-1057 -528 2022
-1045 -525 2015
-1046 -529 2033
-1038 -529 2034
-1030 -528 2033
-1026 -529 2042
-1027 -533 2059
-1016 -531 2054
-1006 -529 2050
-1007 -533 2067
-997 -532 2064
-985 -529 2055
-980 -529 2061
-974 -530 2065
-977 -535 2089
-960 -529 2068
-957 -531 2079
-948 -530 2076
-939 -529 2074
-935 -530 2083
-929 -531 2086
-917 -527 2076
-911 -528 2080
-910 -531 2095
-907 -533 2106
-899 -533 2106
-890 -531 2102
-883 -531 2105
-885 -536 2127
-874 -533 2118
-867 -534 2121
-859 -533 2120
-851 -532 2118
-845 -533 2123
-836 -531 2119
-828 -530 2117
-830 -535 2140
-820 -533 2134
-813 -533 2135
-810 -536 2147
-806 -537 2155
-798 -536 2154
-796 -540 2170
-783 -535 2154
-777 -536 2157
-772 -537 2165
-760 -534 2152
-754 -534 2156
-746 -533 2153
-746 -538 2176
-738 -537 2174
-735 -540 2186
-724 -536 2174
-719 -538 2180
-712 -538 2182
-708 -539 2190
-698 -537 2182
-696 -541 2199
-689 -540 2199
-682 -541 2202
-675 -540 2200
-669 -541 2205
-658 -537 2194
-654 -539 2202
-648 -540 2206
-642 -541 2212
-633 -538 2203
-627 -539 2207
-621 -540 2211
-616 -542 2220
-606 -538 2209
-597 -537 2203
-594 -540 2216
-586 -539 2214
-583 -542 2228
-576 -542 2229
-565 -538 2215
-561 -540 2225
-556 -542 2231
-548 -541 2230
-538 -537 2216
-537 -543 2240
-528 -541 2235
-519 -539 2226
-513 -539 2228
-508 -541 2237
-501 -541 2236
-495 -541 2239
-489 -542 2243
-481 -541 2238
-474 -541 2241
-468 -541 2243
-462 -542 2247
-455 -542 2249
-448 -542 2248
-439 -540 2239
-434 -541 2248
-427 -541 2245
-421 -542 2250
-414 -541 2247
-408 -542 2253
-404 -546 2269
-394 -541 2252
-388 -542 2256
-380 -540 2250
-375 -542 2259
-368 -543 2262
-362 -543 2263
-354 -542 2260
-348 -543 2265
-342 -543 2266
-333 -541 2255
-329 -545 2273
-321 -543 2265
-314 -543 2266
-307 -542 2262
-304 -548 2288
-294 -543 2267
-286 -541 2259
-282 -545 2275
-275 -544 2275
-266 -541 2260
-261 -543 2270
-255 -545 2280
-248 -544 2276
-241 -544 2273
-234 -543 2270
-228 -544 2276
-222 -546 2284
-214 -542 2268
-206 -540 2261
-199 -540 2259
-194 -545 2279
-187 -543 2274
-180 -541 2263
-172 -537 2246
-156 -507 2121
-136 -461 1930
-128 -454 1901
-121 -447 1874
-115 -447 1870
-111 -454 1900
-106 -455 1905
-98 -445 1866
-95 -456 1912
-90 -462 1936
-86 -470 1968
-83 -483 2025
-83 -518 2167
-79 -538 2252
-73 -543 2276
-67 -544 2279
-60 -545 2282
-54 -547 2292
-47 -544 2278
-40 -546 2286
-33 -545 2280
-27 -544 2277
-20 -546 2287
-14 -550 2303
-7 -548 2291
0 -546 2285
6 -545 2281
12 -543 2270
19 -547 2287
26 -548 2294
33 -549 2295
39 -546 2281
46 -548 2293
53 -546 2284
59 -546 2283
66 -547 2287
73 -547 2285
79 -544 2273
86 -543 2269
93 -548 2288
100 -547 2284
106 -547 2284
114 -550 2295
120 -548 2286
126 -548 2285
133 -545 2274
139 -542 2262
146 -545 2271
153 -545 2274
159 -546 2274
166 -546 2276
173 -546 2274
179 -544 2263
185 -543 2262
194 -549 2284
199 -545 2268
206 -546 2269
212 -545 2265
220 -547 2273
226 -545 2263
231 -542 2253
240 -547 2271
246 -545 2262
253 -547 2269
260 -547 2269
265 -544 2257
273 -546 2262
280 -546 2263
285 -544 2254
293 -546 2262
300 -547 2262
304 -543 2245
313 -547 2263
320 -548 2264
323 -541 2235
332 -546 2254
339 -545 2250
346 -546 2254
351 -544 2245
359 -546 2253
365 -544 2242
373 -546 2251
380 -547 2254
386 -547 2250
391 -543 2235
399 -545 2242
404 -543 2234
411 -544 2234
419 -546 2243
423 -543 2228
430 -543 2227
439 -546 2240
443 -543 2226
451 -544 2229
456 -543 2222
463 -543 2220
469 -542 2215
476 -543 2219
484 -545 2224
492 -546 2228
496 -543 2214
507 -548 2234
514 -549 2234
515 -542 2207
520 -541 2199
530 -544 2213
537 -545 2214
545 -546 2215
553 -548 2222
557 -545 2207
563 -544 2203
571 -545 2207
577 -545 2204
583 -545 2202
589 -544 2197
593 -541 2185
602 -544 2193
609 -544 2192
617 -546 2197
622 -544 2189
628 -544 2185
633 -542 2178
638 -541 2171
647 -543 2176
656 -545 2185
661 -544 2177
666 -543 2171
676 -546 2179
681 -544 2172
687 -544 2169
696 -546 2174
700 -544 2164
709 -545 2170
715 -545 2166
724 -546 2169
729 -546 2163
732 -543 2151
739 -543 2151
745 -543 2147
756 -546 2158
760 -544 2147
761 -540 2130
771 -543 2138
772 -539 2120
775 -536 2107
773 -531 2084
771 -525 2059
766 -517 2027
767 -513 2009
767 -509 1991
765 -504 1969
763 -499 1945
763 -495 1927
765 -492 1916
764 -488 1895
760 -481 1869
765 -481 1866
765 -477 1848
766 -474 1834
764 -470 1815
769 -470 1812
771 -467 1799
775 -466 1793
776 -463 1780
776 -460 1765
775 -456 1749
779 -455 1744
784 -455 1740
787 -453 1731
784 -448 1710
794 -451 1718
813 -459 1746
834 -468 1776
877 -489 1853
915 -507 1918
946 -521 1968
968 -529 1997
983 -534 2013
1002 -541 2034
1005 -539 2025
1016 -541 2031
1013 -536 2008
1018 -536 2004
1027 -537 2005
1040 -540 2015
1041 -537 2001
1055 -541 2012
1051 -536 1989
1059 -537 1989
1066 -537 1986
1069 -536 1978
1086 -541 1994
1094 -541 1993
1096 -539 1982
1094 -535 1963
1107 -538 1971
1112 -538 1966
1122 -540 1969
1121 -536 1952
-1181 -526 1990
-1169 -524 1984
-1168 -526 1997
-1163 -527 2004
-1160 -529 2013
-1152 -528 2014
-1137 -524 2003
-1128 -524 2003
-1130 -527 2021
-1115 -524 2010
-1112 -525 2018
-1099 -523 2011
-1101 -526 2029
-1092 -525 2027
-1090 -528 2041
-1081 -527 2039
-1080 -529 2053
-1071 -528 2051
-1064 -528 2054
-1061 -530 2064
-1054 -530 2067
-1043 -528 2061
-1035 -527 2061
-1027 -527 2062
-1019 -526 2062
-1013 -526 2066
-1014 -530 2084
-1010 -532 2093
-999 -529 2085
-991 -529 2087
-985 -529 2090
-985 -533 2107
-976 -532 2105
-966 -530 2101
-965 -533 2115
-958 -533 2118
-946 -530 2109
-937 -529 2107
-931 -529 2110
-929 -532 2123
-921 -531 2123
-912 -530 2121
-906 -530 2125
-906 -534 2142
-894 -531 2132
-889 -532 2139
-890 -537 2159
-876 -533 2144
-870 -533 2149
-863 -533 2149
-847 -527 2129
-849 -532 2151
-844 -534 2159
-840 -535 2168
-831 -534 2164
-829 -537 2180
-823 -538 2183
-812 -535 2174
-803 -533 2170
-791 -530 2157
-795 -537 2190
-783 -533 2175
-780 -536 2189
-775 -537 2195
-767 -537 2195
-763 -538 2204
-760 -541 2216
-750 -539 2209
-740 -537 2202
-733 -536 2202
-732 -540 2221
-725 -541 2224
-717 -540 2221
-711 -541 2226
-706 -541 2232
-697 -540 2227
-689 -539 2224
-687 -543 2242
-676 -540 2231
-672 -542 2240
-663 -540 2234
-655 -539 2234
-648 -539 2232
-642 -539 2236
-633 -538 2231
-629 -541 2244
-623 -540 2245
-621 -545 2264
-610 -542 2253
-603 -541 2252
-596 -541 2253
-584 -536 2233
-581 -540 2249
-575 -541 2254
-570 -542 2261
-561 -540 2255
-556 -542 2262
-549 -542 2263
-539 -539 2253
-532 -538 2251
-529 -542 2270
-519 -539 2255
-514 -541 2266
-505 -539 2258
-499 -539 2260
-495 -542 2273
-486 -540 2264
-479 -539 2263
-474 -542 2277
-467 -542 2275
-462 -544 2284
-455 -543 2283
-447 -542 2278
-439 -541 2275
-432 -540 2272
-428 -543 2287
-420 -542 2282
-413 -542 2283
