VERSION 0.7
FIELDS x y z
SIZE 4 4 4
TYPE I I I
COUNT 1 1 1
WIDTH 3255
HEIGHT 1
VIEWPOINT 0.0 0.0 0.0 1.0 0.0 0.0 0.0
POINTS 3255
DATA ascii
-373 -541 2590
-369 -547 2618
-359 -543 2599
-350 -541 2591
-347 -548 2625
-337 -545 2609
-328 -543 2602
-325 -551 2637
-314 -545 2611
-306 -545 2612
-301 -549 2632
-290 -544 2605
-283 -545 2613
-277 -549 2630
-267 -543 2604
-260 -545 2613
-252 -544 2607
-243 -541 2595
-239 -550 2638
-229 -544 2610
-225 -553 2650
-213 -541 2596
-207 -547 2624
-200 -548 2627
-191 -544 2608
-182 -539 2588
-176 -546 2621
-160 -519 2490
-138 -470 2257
-127 -455 2184
-120 -451 2165
-113 -451 2166
-107 -451 2163
-101 -455 2183
-95 -456 2189
-89 -458 2199
-85 -470 2258
-83 -493 2367
-82 -532 2554
-76 -543 2603
-69 -547 2624
-62 -553 2653
-54 -549 2635
-46 -550 2640
-38 -546 2617
-31 -547 2622
-23 -547 2623
-15 -548 2629
-8 -553 2653
0 -550 2635
7 -548 2629
14 -550 2637
22 -547 2624
30 -546 2618
38 -553 2649
45 -552 2646
53 -550 2633
61 -551 2638
68 -551 2637
75 -547 2620
83 -547 2618
91 -551 2635
99 -550 2633
107 -552 2640
114 -549 2624
122 -550 2629
129 -547 2614
137 -548 2619
146 -553 2643
153 -551 2632
160 -547 2615
167 -547 2615
175 -547 2613
184 -552 2634
190 -547 2611
199 -551 2627
206 -550 2624
214 -550 2624
221 -549 2615
228 -548 2611
237 -551 2625
243 -547 2606
250 -546 2598
259 -549 2612
266 -548 2605
274 -549 2610
282 -549 2610
288 -545 2590
297 -548 2603
304 -547 2599
313 -550 2610
321 -550 2612
327 -547 2596
334 -546 2588
342 -548 2596
350 -547 2594
359 -550 2604
367 -550 2606
372 -547 2589
379 -545 2579
391 -553 2613
394 -545 2577
402 -547 2583
412 -549 2594
419 -549 2590
426 -548 2588
433 -547 2581
440 -547 2577
449 -549 2586
456 -547 2578
463 -547 2575
469 -545 2564
480 -549 2580
483 -543 2554
497 -551 2588
500 -546 2565
508 -546 2562
513 -544 2550
524 -547 2565
528 -544 2548
537 -545 2552
545 -546 2553
555 -548 2563
557 -543 2538
566 -544 2542
573 -544 2539
583 -546 2544
589 -545 2538
599 -547 2547
603 -544 2530
611 -544 2532
624 -549 2550
631 -548 2548
634 -545 2528
644 -547 2538
656 -550 2550
660 -547 2535
669 -549 2541
672 -545 2522
682 -547 2528
693 -550 2538
697 -547 2523
707 -549 2532
707 -543 2503
720 -547 2519
727 -547 2517
736 -548 2518
743 -548 2515
749 -547 2509
751 -542 2486
762 -545 2496
768 -544 2488
774 -543 2484
777 -540 2466
770 -530 2419
767 -522 2383
770 -520 2370
764 -511 2328
767 -508 2312
763 -501 2277
765 -498 2259
765 -493 2238
762 -487 2209
762 -483 2188
760 -477 2158
766 -477 2156
769 -475 2143
769 -471 2124
768 -466 2101
770 -464 2086
778 -464 2087
774 -459 2059
781 -459 2057
780 -455 2037
789 -457 2043
791 -454 2030
807 -459 2051
829 -468 2088
856 -480 2139
904 -503 2238
939 -519 2305
979 -537 2383
987 -537 2381
1001 -541 2396
1006 -540 2388
1018 -542 2394
1026 -543 2393
1032 -542 2387
1035 -539 2373
1042 -539 2369
1053 -541 2374
1060 -541 2370
1065 -540 2363
1069 -538 2351
1080 -540 2356
1091 -542 2362
1099 -542 2359
1099 -539 2340
1110 -540 2344
1115 -539 2336
1125 -540 2338
1131 -540 2331
1143 -542 2338
1153 -543 2339
1158 -542 2332
1160 -540 2318
1160 -536 2299
1172 -538 2305
1186 -541 2315
1195 -542 2315
1198 -540 2302
1192 -534 2273
1207 -538 2285
1220 -540 2290
1230 -541 2292
1237 -541 2287
1250 -544 2295
1251 -541 2278
1247 -536 2255
1275 -545 2287
1282 -545 2283
1270 -537 2245
1281 -538 2248
-1354 -527 2299
-1348 -528 2307
-1336 -526 2303
-1319 -523 2291
-1322 -527 2313
-1324 -531 2334
-1312 -529 2330
-1298 -526 2322
-1295 -528 2333
-1279 -525 2322
-1277 -527 2337
-1267 -526 2336
-1266 -529 2351
-1245 -523 2330
-1242 -526 2342
-1240 -528 2357
-1235 -529 2364
-1232 -531 2377
-1222 -530 2377
-1207 -527 2365
-1193 -524 2356
-1203 -532 2395
-1194 -532 2395
-1183 -530 2392
-1177 -531 2398
-1176 -534 2415
-1169 -534 2420
-1154 -531 2409
-1154 -535 2427
-1142 -532 2420
-1130 -531 2416
-1124 -532 2422
-1119 -533 2430
-1108 -531 2427
-1110 -536 2450
-1102 -536 2453
-1087 -532 2439
-1082 -534 2450
-1079 -536 2461
-1068 -534 2458
-1057 -533 2452
-1048 -532 2453
-1047 -536 2471
-1025 -528 2440
-1026 -533 2464
-1026 -537 2484
-1005 -530 2455
-1005 -534 2476
-996 -533 2475
-990 -534 2482
-978 -532 2474
-976 -535 2491
-967 -535 2490
-957 -533 2486
-959 -539 2514
-946 -536 2503
-935 -534 2496
-928 -535 2502
-919 -534 2500
-916 -537 2516
-908 -536 2516
-900 -536 2517
-901 -541 2544
-889 -539 2533
-881 -539 2535
-871 -538 2532
-858 -534 2519
-857 -538 2540
-847 -537 2534
-839 -537 2535
-828 -535 2527
-824 -537 2541
-818 -538 2549
-804 -535 2532
-799 -536 2543
-791 -536 2542
-797 -545 2589
-779 -538 2557
-772 -539 2563
-765 -540 2567
-757 -539 2568
-748 -538 2563
-745 -542 2583
-739 -544 2592
-724 -538 2568
-721 -541 2584
-711 -540 2581
-703 -539 2578
-693 -538 2572
-685 -538 2575
-680 -540 2586
-677 -544 2604
-665 -541 2590
-657 -541 2592
-654 -544 2610
-644 -542 2603
-641 -547 2626
-626 -540 2596
-625 -546 2625
-611 -541 2603
-602 -540 2595
-595 -541 2601
-591 -544 2617
-583 -544 2619
-571 -540 2602
-565 -541 2610
-559 -543 2619
-550 -542 2616
-543 -543 2619
-533 -540 2609
-527 -543 2622
-518 -542 2617
-512 -543 2624
-510 -550 2658
-498 -545 2637
-489 -544 2630
-478 -540 2612
-472 -542 2624
-464 -542 2623
-461 -548 2653
-451 -544 2637
-443 -544 2637
-434 -543 2633
-427 -545 2641
-420 -546 2645
-414 -547 2655
-401 -541 2625
-396 -545 2642
-392 -550 2668
-380 -544 2641
-371 -542 2634
-364 -543 2635
-357 -545 2647
-346 -540 2624
-342 -545 2649
-334 -546 2652
-327 -547 2657
-317 -543 2638
-309 -543 2641
-304 -547 2659
-296 -546 2656
-292 -554 2695
-279 -544 2648
-273 -549 2670
-266 -549 2673
-256 -546 2655
-249 -547 2664
-239 -541 2632
-234 -547 2662
-225 -546 2656
-217 -546 2657
-211 -550 2675
-203 -549 2671
-195 -547 2664
-187 -547 2663
-178 -545 2654
-166 -530 2579
-144 -483 2351
-130 -458 2232
-120 -447 2176
-116 -456 2223
-108 -448 2181
-102 -452 2200
-97 -455 2218
-90 -456 2220
-86 -470 2290
-83 -490 2384
-81 -519 2528
-77 -541 2635
-70 -549 2675
-63 -552 2686
-54 -548 2667
-47 -550 2676
-39 -549 2674
-31 -553 2689
-24 -551 2682
-16 -549 2669
-8 -546 2657
0 -550 2674
7 -547 2661
15 -552 2686
22 -551 2680
30 -549 2668
38 -551 2681
46 -551 2678
53 -548 2666
61 -549 2667
69 -548 2664
76 -542 2631
85 -549 2668
93 -551 2676
101 -553 2686
107 -546 2650
116 -550 2670
123 -548 2657
131 -547 2654
138 -547 2652
146 -547 2651
155 -550 2665
163 -553 2679
169 -545 2642
178 -550 2664
186 -550 2666
193 -549 2656
202 -552 2673
207 -544 2631
215 -546 2642
225 -550 2660
233 -551 2665
239 -547 2644
249 -553 2673
255 -548 2645
263 -550 2655
270 -548 2647
279 -550 2656
286 -548 2646
294 -548 2646
302 -549 2646
309 -549 2647
315 -545 2627
323 -546 2629
334 -552 2657
339 -546 2629
346 -546 2625
354 -546 2625
361 -546 2623
367 -543 2609
377 -546 2620
385 -546 2622
391 -545 2615
398 -544 2608
409 -548 2627
415 -545 2613
422 -545 2609
432 -548 2623
439 -547 2619
446 -547 2614
454 -546 2612
463 -549 2621
470 -547 2613
478 -548 2616
485 -546 2607
494 -549 2617
500 -546 2604
507 -546 2599
515 -547 2602
524 -548 2607
530 -546 2598
540 -548 2606
547 -548 2601
550 -542 2575
561 -546 2592
566 -543 2576
575 -545 2583
583 -545 2583
594 -548 2596
599 -546 2581
604 -544 2569
612 -544 2572
622 -546 2576
630 -547 2579
642 -550 2593
646 -547 2576
653 -547 2573
661 -547 2571
666 -545 2561
677 -547 2570
682 -545 2558
687 -543 2547
697 -546 2557
707 -547 2561
717 -549 2569
723 -548 2560
733 -549 2566
741 -549 2564
740 -543 2533
752 -546 2547
763 -549 2556
762 -543 2527
774 -546 2536
771 -539 2502
777 -537 2492
772 -529 2451
769 -521 2415
763 -513 2373
763 -508 2350
766 -505 2335
769 -503 2320
761 -493 2273
766 -491 2264
767 -488 2246
768 -484 2226
764 -477 2193
769 -476 2185
768 -472 2164
770 -469 2148
774 -467 2138
773 -463 2115
776 -461 2104
781 -460 2097
781 -456 2080
782 -453 2062
786 -452 2054
800 -456 2071
823 -466 2112
848 -476 2158
901 -503 2274
935 -517 2337
968 -531 2399
993 -541 2441
1002 -542 2442
1006 -540 2428
1017 -542 2435
1021 -540 2425
1030 -541 2424
1041 -543 2429
1038 -537 2402
1059 -545 2431
1057 -539 2405
1064 -539 2400
1062 -535 2378
1080 -540 2396
1099 -546 2420
1093 -539 2387
1106 -542 2396
1113 -541 2390
1134 -548 2416
1126 -541 2381
1132 -540 2374
1135 -538 2360
1151 -542 2375
1160 -543 2375
1164 -541 2364
1176 -543 2369
1190 -546 2378
1189 -542 2358
1196 -542 2355
1208 -544 2360
1210 -541 2344
1215 -540 2336
1221 -540 2330
1226 -539 2322
1236 -540 2323
1250 -543 2332
1244 -537 2302
1261 -541 2317
1260 -538 2298
1269 -538 2296
1264 -533 2269
1287 -539 2293
1292 -538 2285
1301 -539 2284
-1365 -524 2320
-1352 -522 2316
-1348 -523 2325
-1347 -526 2340
-1339 -526 2344
-1330 -525 2346
-1335 -530 2372
-1307 -523 2340
-1303 -524 2351
-1292 -523 2349
-1314 -535 2405
-1282 -525 2365
-1282 -528 2382
-1273 -528 2385
-1272 -530 2400
-1261 -529 2398
-1249 -527 2393
-1238 -526 2391
-1242 -531 2418
-1233 -531 2418
-1225 -531 2421
-1217 -530 2424
-1212 -532 2432
-1199 -530 2426
-1194 -531 2434
-1179 -528 2424
-1179 -531 2442
-1168 -530 2438
-1166 -533 2455
-1157 -532 2454
-1156 -535 2472
-1144 -533 2466
-1139 -535 2476
-1131 -534 2479
-1107 -527 2447
-1105 -530 2462
-1094 -528 2457
-1102 -536 2495
-1096 -537 2504
-1079 -532 2484
-1079 -536 2506
-1065 -533 2493
-1055 -532 2492
-1048 -532 2496
-1031 -528 2476
-1036 -534 2509
-1030 -535 2518
-1008 -528 2485
-1013 -535 2519
-1005 -534 2520
-1000 -536 2532
-990 -535 2529
-981 -534 2528
-977 -537 2540
-971 -538 2548
-967 -540 2560
-957 -539 2558
-945 -536 2547
-936 -536 2548
-929 -536 2551
-921 -536 2554
-916 -538 2563
-904 -536 2555
-895 -535 2552
-885 -533 2548
-880 -535 2559
-877 -538 2575
-874 -541 2593
-868 -542 2599
-852 -537 2578
-846 -538 2584
-832 -534 2567
-830 -539 2588
-821 -538 2587
-813 -538 2587
-805 -537 2588
-809 -545 2629
-793 -540 2604
-784 -540 2604
-777 -540 2608
-766 -538 2599
-757 -537 2596
-754 -541 2617
-742 -538 2602
-738 -541 2619
-727 -538 2607
-722 -541 2621
-711 -538 2611
-703 -538 2611
-695 -538 2612
-690 -540 2624
-682 -540 2627
-679 -544 2645
-673 -546 2657
-660 -541 2636
-652 -542 2639
-650 -547 2665
-635 -541 2636
-629 -542 2645
-621 -542 2644
-609 -539 2630
-610 -546 2666
-594 -539 2636
-588 -540 2641
-578 -538 2633
-573 -541 2647
-567 -544 2660
-563 -548 2681
-548 -540 2644
-540 -540 2644
-532 -540 2645
-527 -543 2662
-521 -545 2671
-507 -539 2643
-505 -545 2674
-494 -542 2660
-487 -542 2662
-482 -546 2682
-470 -541 2658
-466 -545 2681
-454 -541 2658
-449 -544 2675
-446 -550 2706
-434 -545 2683
-427 -547 2690
-421 -549 2701
-408 -542 2670
-399 -541 2665
-395 -546 2691
-385 -543 2675
-379 -546 2692
-373 -548 2702
-357 -537 2649
-358 -550 2710
-347 -545 2690
-339 -545 2688
-329 -543 2676
-325 -549 2707
-316 -547 2697
-306 -543 2680
-298 -543 2681
-291 -545 2688
-282 -543 2681
-278 -550 2715
-269 -549 2710
-258 -541 2672
-251 -543 2684
-244 -545 2691
-237 -547 2703
-229 -546 2698
-220 -545 2692
-211 -542 2679
-204 -544 2690
-197 -547 2701
-190 -548 2707
-181 -545 2695
-169 -532 2627
-149 -492 2433
-132 -461 2277
-124 -454 2243
-117 -454 2243
-110 -449 2222
-105 -456 2253
-98 -456 2256
-91 -454 2246
-87 -467 2307
-84 -486 2402
-82 -519 2565
-78 -540 2671
-71 -548 2707
-63 -550 2719
-55 -547 2704
-48 -550 2715
-40 -549 2712
-32 -551 2719
-24 -550 2715
-16 -550 2716
-8 -547 2699
0 -549 2709
7 -548 2707
15 -547 2700
23 -550 2712
31 -550 2715
38 -545 2690
46 -547 2701
54 -549 2707
62 -548 2704
70 -550 2711
78 -550 2710
86 -549 2704
94 -550 2709
102 -551 2715
110 -550 2708
118 -552 2718
125 -548 2700
132 -545 2682
141 -548 2698
150 -552 2717
157 -550 2708
163 -545 2679
172 -547 2692
181 -550 2705
188 -549 2699
195 -547 2687
204 -549 2698
211 -547 2685
219 -546 2683
227 -549 2693
234 -547 2684
244 -551 2705
251 -550 2696
257 -545 2673
265 -545 2673
273 -545 2670
282 -548 2684
290 -548 2684
298 -550 2690
308 -553 2704
314 -550 2690
320 -546 2671
329 -548 2677
337 -548 2678
344 -547 2671
354 -550 2684
359 -547 2668
369 -549 2679
375 -546 2664
382 -545 2657
391 -547 2665
399 -547 2666
410 -552 2689
416 -550 2676
422 -547 2658
430 -547 2659
441 -552 2680
448 -551 2674
453 -546 2652
460 -546 2647
470 -548 2659
474 -545 2639
487 -550 2663
491 -546 2645
502 -549 2657
509 -548 2651
512 -543 2624
530 -554 2676
532 -548 2645
537 -545 2629
546 -547 2637
552 -545 2627
562 -547 2633
566 -543 2617
579 -548 2638
582 -544 2615
590 -544 2617
599 -546 2620
607 -545 2616
615 -546 2617
622 -545 2613
631 -547 2618
636 -544 2603
645 -545 2607
656 -548 2618
658 -543 2594
670 -547 2608
673 -543 2589
686 -547 2605
692 -546 2600
706 -550 2619
710 -547 2603
718 -547 2601
727 -549 2605
732 -547 2594
740 -547 2594
741 -542 2568
755 -546 2586
759 -544 2573
770 -547 2582
771 -542 2557
776 -539 2544
770 -530 2497
769 -524 2469
765 -516 2429
766 -513 2410
766 -507 2383
765 -502 2355
763 -496 2325
763 -491 2301
764 -488 2282
762 -482 2253
764 -479 2237
768 -477 2227
769 -474 2208
767 -468 2181
771 -467 2174
773 -464 2157
774 -461 2141
778 -459 2130
776 -454 2105
787 -457 2115
789 -454 2100
797 -456 2104
825 -468 2157
844 -475 2188
897 -501 2305
935 -518 2381
956 -526 2413
982 -536 2456
997 -540 2473
1013 -545 2491
1019 -543 2483
1014 -537 2451
1025 -539 2455
1035 -540 2458
1040 -539 2449
1056 -543 2466
1064 -543 2463
1066 -540 2447
1078 -543 2455
1083 -541 2445
1083 -538 2425
1096 -540 2434
1104 -541 2432
1110 -540 2426
1121 -541 2429
1128 -541 2425
1137 -542 2423
1137 -538 2404
1141 -537 2394
1163 -543 2421
1172 -544 2420
1180 -544 2418
1171 -537 2381
1190 -542 2399
1201 -544 2404
1205 -542 2392
1213 -542 2390
1229 -546 2402
1222 -539 2369
1235 -542 2376
1238 -539 2363
1260 -546 2387
1259 -542 2368
1264 -541 2359
1263 -537 2339
1277 -540 2348
1292 -543 2356
1289 -539 2334
1292 -537 2321
1312 -542 2340
1338 -550 2369
1328 -543 2334
-1394 -527 2372
-1376 -523 2359
-1372 -525 2368
-1377 -530 2394
-1355 -524 2374
-1354 -527 2389
-1345 -527 2392
-1333 -525 2388
-1338 -530 2415
-1307 -521 2376
-1316 -528 2412
-1306 -527 2410
-1294 -525 2407
-1295 -529 2427
-1284 -528 2425
-1284 -531 2443
-1262 -525 2421
-1272 -533 2458
-1263 -532 2459
-1253 -531 2458
-1249 -533 2469
-1223 -525 2437
-1226 -530 2462
-1222 -532 2475
-1205 -528 2459
-1206 -532 2481
-1194 -530 2475
-1197 -535 2502
-1177 -530 2479
-1176 -533 2497
-1166 -532 2495
-1159 -532 2502
-1151 -532 2505
-1137 -529 2493
-1137 -533 2514
-1132 -535 2524
-1115 -530 2506
-1123 -538 2545
-1108 -535 2532
-1100 -535 2536
-1091 -534 2534
-1086 -536 2546
-1080 -537 2552
-1079 -540 2573
-1051 -530 2526
-1056 -537 2561
-1035 -530 2530
-1041 -537 2568
-1030 -536 2564
-1023 -536 2568
-1017 -537 2575
-991 -528 2532
-989 -531 2549
-986 -534 2565
-977 -533 2564
-974 -536 2580
-963 -534 2574
-955 -534 2575
-951 -536 2588
-939 -534 2581
-933 -535 2589
-929 -538 2602
-918 -536 2595
-907 -534 2589
-898 -533 2588
-896 -537 2609
-882 -534 2593
-877 -536 2604
-874 -538 2618
-859 -534 2602
-857 -538 2620
-841 -532 2596
-844 -539 2632
-836 -540 2636
-828 -540 2637
-821 -540 2641
-809 -538 2631
-798 -536 2623
-796 -539 2643
-783 -536 2630
-778 -539 2642
-770 -538 2642
-772 -546 2681
-762 -544 2676
-751 -542 2666
-739 -539 2653
-731 -540 2656
-724 -540 2661
-722 -544 2682
-707 -539 2659
-703 -543 2677
-698 -545 2689
-686 -542 2676
-679 -542 2679
-668 -540 2669
-656 -537 2657
-653 -541 2677
-645 -541 2677
-640 -544 2693
-631 -542 2687
-624 -544 2697
-613 -541 2683
-606 -542 2690
-599 -543 2695
-595 -547 2716
-578 -538 2672
-572 -540 2683
-570 -546 2712
-559 -543 2702
-552 -544 2708
-539 -540 2685
-540 -548 2726
-526 -542 2699
-521 -546 2718
-513 -546 2719
-505 -545 2718
-498 -546 2723
-484 -540 2695
-482 -547 2729
-473 -546 2722
-460 -540 2698
-454 -542 2705
-446 -543 2709
-438 -542 2706
-432 -545 2724
-421 -541 2704
-415 -543 2716
-409 -546 2731
-403 -549 2745
-391 -543 2717
-382 -542 2711
-374 -542 2712
-370 -548 2744
-358 -542 2712
-350 -543 2716
-345 -547 2738
-337 -547 2739
-327 -544 2727
-320 -546 2736
-310 -543 2719
-305 -548 2746
-295 -543 2723
-286 -541 2712
-277 -541 2710
-272 -547 2741
-264 -547 2742
-256 -545 2734
-247 -544 2729
-242 -551 2765
-231 -543 2722
-224 -546 2739
-216 -545 2734
-207 -543 2723
-199 -545 2734
-193 -549 2755
-184 -548 2748
-173 -538 2698
-158 -515 2585
-135 -462 2317
-128 -461 2311
-117 -448 2246
-112 -451 2261
-106 -456 2290
-99 -454 2279
-92 -453 2275
-88 -463 2322
-84 -479 2403
-82 -512 2568
-79 -538 2697
-71 -542 2721
-64 -547 2743
-56 -547 2744
-48 -549 2752
-40 -543 2723
-32 -547 2743
-24 -547 2743
-16 -554 2778
-8 -552 2765
0 -549 2753
7 -549 2749
15 -545 2731
23 -548 2744
31 -545 2731
39 -547 2742
47 -545 2729
55 -546 2733
63 -545 2727
71 -549 2746
79 -548 2744
87 -547 2739
95 -549 2746
103 -549 2747
111 -547 2734
119 -549 2744
127 -549 2745
135 -548 2738
143 -549 2743
150 -546 2725
159 -549 2740
166 -545 2722
175 -550 2747
182 -547 2732
189 -543 2710
198 -547 2728
206 -546 2723
214 -547 2726
222 -547 2726
230 -547 2724
240 -551 2744
247 -549 2736
254 -547 2724
262 -548 2729
268 -544 2707
278 -548 2728
286 -548 2726
293 -546 2713
303 -549 2728
306 -542 2690
318 -549 2726
324 -545 2705
332 -545 2704
340 -545 2701
348 -545 2702
356 -546 2705
364 -546 2705
374 -549 2719
381 -547 2707
390 -548 2713
397 -547 2706
404 -547 2702
414 -549 2715
418 -544 2687
428 -547 2700
438 -549 2710
444 -547 2697
450 -545 2688
459 -546 2692
470 -550 2708
477 -549 2700
486 -550 2708
491 -546 2685
502 -550 2702
505 -545 2675
516 -548 2691
520 -544 2668
529 -545 2673
540 -549 2690
546 -547 2677
553 -545 2669
559 -544 2660
566 -543 2656
575 -544 2659
584 -545 2664
593 -546 2666
598 -544 2653
607 -545 2656
617 -547 2663
619 -542 2637
632 -546 2658
639 -546 2652
650 -548 2661
656 -546 2651
666 -549 2661
671 -546 2646
677 -544 2637
687 -546 2643
695 -546 2643
701 -545 2634
714 -548 2649
718 -546 2635
728 -547 2640
729 -542 2614
739 -544 2620
750 -546 2629
755 -544 2615
762 -543 2611
766 -541 2598
768 -537 2576
771 -534 2557
765 -524 2511
769 -522 2497
763 -513 2451
765 -509 2432
767 -506 2413
759 -496 2362
766 -496 2360
762 -489 2325
757 -480 2284
763 -480 2279
767 -478 2269
763 -471 2234
768 -471 2229
770 -468 2213
769 -463 2188
775 -463 2185
773 -457 2157
779 -457 2156
782 -455 2142
784 -452 2127
796 -456 2141
818 -464 2179
834 -470 2203
893 -499 2338
937 -520 2432
970 -534 2495
985 -538 2510
1004 -544 2537
1008 -542 2524
1011 -540 2510
1020 -540 2509
1034 -544 2523
1038 -542 2510
1041 -540 2496
1054 -542 2505
1064 -544 2508
1069 -542 2498
1076 -541 2492
1086 -543 2495
1096 -544 2497
1100 -542 2485
1101 -539 2467
1118 -543 2485
1125 -543 2481
1127 -540 2464
1143 -544 2479
1150 -544 2474
1154 -542 2462
1167 -545 2471
1169 -542 2454
1174 -541 2446
1185 -542 2447
1198 -545 2455
1204 -544 2449
1214 -545 2449
1219 -544 2440
1217 -540 2418
1233 -543 2430
1232 -539 2410
1248 -543 2423
1241 -536 2389
1258 -541 2405
1270 -543 2409
1275 -541 2399
1293 -546 2414
1306 -548 2421
1301 -543 2393
1310 -543 2392
1313 -541 2379
1322 -542 2377
1333 -543 2380
1339 -543 2372
1332 -537 2342
-1403 -523 2389
-1413 -529 2423
-1400 -527 2418
-1396 -529 2430
-1393 -531 2443
-1382 -530 2440
-1356 -523 2413
-1368 -531 2453
-1339 -522 2418
-1340 -526 2438
-1334 -527 2446
-1323 -526 2444
-1314 -525 2445
-1293 -520 2425
-1309 -530 2474
-1298 -529 2472
-1282 -526 2461
-1270 -524 2456
-1273 -528 2480
-1268 -530 2490
-1264 -532 2502
-1255 -531 2503
-1236 -526 2484
-1232 -528 2495
-1227 -529 2505
-1219 -530 2509
-1208 -528 2506
-1205 -531 2520
-1192 -528 2513
-1183 -528 2513
-1180 -530 2527
-1182 -535 2551
-1161 -529 2527
-1155 -530 2535
-1157 -534 2559
-1153 -537 2572
-1138 -533 2559
-1140 -538 2584
-1118 -532 2557
-1110 -531 2558
-1100 -531 2558
-1097 -533 2571
-1096 -536 2591
-1076 -531 2566
-1082 -538 2602
-1064 -533 2581
-1065 -537 2607
-1049 -534 2591
-1041 -533 2591
-1034 -534 2597
-1024 -533 2595
-1022 -536 2614
-1007 -532 2597
-1004 -536 2615
-990 -532 2601
-991 -537 2626
-971 -531 2598
-971 -535 2622
-974 -541 2653
-962 -539 2645
-947 -535 2628
-939 -535 2631
-933 -536 2639
-927 -538 2648
-927 -543 2673
-908 -536 2645
-904 -538 2657
-895 -538 2658
-886 -538 2658
-886 -543 2684
-873 -540 2671
-857 -535 2649
-854 -538 2665
-844 -537 2661
-842 -541 2683
-834 -541 2686
-823 -539 2679
-812 -537 2670
-801 -535 2662
-802 -542 2696
-795 -542 2702
-784 -540 2691
-770 -536 2676
-769 -541 2700
-767 -545 2723
-749 -538 2689
-738 -537 2682
-730 -536 2682
-733 -544 2724
-718 -540 2703
-715 -544 2723
-701 -539 2700
-688 -535 2685
-685 -540 2707
-682 -543 2726
-666 -537 2697
-663 -541 2720
-657 -543 2727
-646 -540 2717
-642 -544 2738
-633 -543 2734
-619 -538 2711
-613 -540 2720
-610 -545 2747
-605 -548 2760
-590 -541 2730
-587 -546 2756
-575 -543 2741
-566 -542 2737
-561 -545 2752
-551 -543 2746
-539 -540 2727
-537 -546 2759
-528 -544 2753
-517 -542 2742
-513 -546 2763
-503 -544 2755
-498 -547 2771
-486 -544 2754
-478 -544 2755
-472 -545 2764
-465 -547 2774
-455 -545 2762
-448 -547 2773
-433 -538 2731
-433 -548 2780
-419 -540 2743
-414 -545 2766
-406 -545 2767
-398 -546 2772
-388 -542 2755
-385 -550 2792
-373 -545 2767
-367 -548 2787
-354 -541 2751
-348 -544 2768
-339 -543 2759
-332 -545 2769
-325 -546 2778
-316 -544 2768
-309 -546 2777
-302 -549 2792
-290 -542 2756
-286 -550 2799
-276 -546 2777
-269 -548 2789
-259 -545 2773
-251 -544 2770
-244 -546 2781
-236 -548 2791
-228 -548 2789
-218 -543 2763
-210 -544 2768
-203 -547 2785
-195 -546 2778
-185 -543 2764
-177 -542 2760
-163 -523 2664
-139 -471 2399
-126 -450 2293
-120 -450 2291
-113 -449 2289
-106 -449 2286
-101 -455 2317
-94 -455 2319
-89 -461 2351
-83 -468 2384
-81 -497 2531
-80 -539 2745
-73 -545 2773
-65 -549 2793
-57 -547 2785
-49 -548 2789
-41 -548 2791
-32 -547 2782
-24 -550 2800
-16 -552 2810
-8 -548 2787
0 -553 2813
7 -549 2792
15 -546 2778
23 -550 2799
31 -549 2789
40 -549 2791
48 -552 2806
55 -545 2769
63 -544 2763
72 -551 2802
80 -549 2789
88 -547 2778
97 -554 2816
105 -551 2796
112 -548 2781
119 -543 2755
129 -550 2791
136 -546 2770
145 -548 2780
151 -542 2751
161 -549 2784
168 -544 2758
179 -554 2806
185 -548 2776
194 -551 2791
202 -550 2787
209 -547 2769
217 -545 2760
225 -546 2764
232 -545 2756
243 -550 2779
249 -547 2764
257 -545 2757
266 -549 2771
272 -543 2742
284 -551 2784
290 -547 2760
301 -552 2785
305 -546 2753
314 -548 2761
320 -543 2736
329 -545 2745
337 -546 2748
345 -545 2746
356 -550 2767
364 -549 2764
370 -546 2747
378 -547 2750
385 -545 2738
393 -545 2738
400 -544 2731
407 -543 2723
417 -545 2733
427 -548 2748
432 -544 2728
443 -547 2741
449 -545 2730
457 -545 2726
468 -549 2746
477 -550 2748
481 -546 2727
494 -551 2751
497 -546 2724
509 -549 2740
509 -540 2695
522 -546 2723
527 -543 2704
537 -545 2713
547 -547 2723
554 -546 2716
562 -547 2716
564 -541 2685
574 -543 2694
589 -549 2724
596 -548 2719
604 -548 2716
606 -543 2690
619 -547 2709
623 -544 2692
634 -547 2702
640 -545 2692
648 -545 2688
656 -545 2686
664 -545 2685
671 -544 2680
682 -547 2692
692 -549 2698
700 -548 2694
699 -542 2660
716 -549 2693
711 -538 2640
732 -548 2688
737 -546 2675
746 -547 2677
749 -543 2655
755 -542 2647
772 -548 2676
765 -538 2623
771 -537 2615
769 -530 2581
767 -523 2546
765 -517 2513
764 -511 2482
763 -505 2452
767 -503 2439
761 -494 2394
760 -489 2366
764 -487 2355
761 -481 2323
766 -480 2315
766 -475 2290
767 -472 2272
766 -467 2246
771 -466 2239
774 -463 2226
781 -463 2224
780 -459 2199
781 -456 2182
787 -455 2177
798 -458 2187
822 -468 2234
835 -471 2247
888 -498 2370
930 -516 2457
963 -531 2524
976 -534 2534
989 -537 2544
995 -536 2537
1012 -540 2557
1025 -543 2568
1024 -539 2544
1031 -538 2538
1053 -546 2571
1065 -548 2577
1065 -544 2554
1071 -543 2546
1084 -545 2555
1089 -544 2547
1100 -546 2551
1110 -547 2551
1118 -547 2548
1108 -538 2505
1123 -541 2517
1133 -543 2519
1141 -543 2517
1137 -537 2486
1161 -545 2519
1158 -540 2492
1165 -540 2488
1170 -538 2477
1180 -539 2478
1204 -547 2510
1202 -542 2485
1196 -536 2454
1216 -542 2475
1222 -541 2467
1241 -546 2486
1241 -542 2467
1244 -540 2454
1257 -542 2459
1268 -544 2463
1270 -541 2447
1275 -540 2438
1289 -542 2445
1288 -539 2425
1310 -545 2447
1312 -543 2434
1338 -550 2464
1310 -535 2393
1329 -540 2410
1341 -542 2413
1349 -542 2409
1348 -538 2389
1365 -542 2401
-1430 -525 2436
-1424 -525 2443
-1431 -531 2474
-1393 -520 2426
-1416 -532 2484
-1374 -519 2428
-1388 -527 2472
-1390 -531 2494
-1383 -532 2500
-1379 -533 2511
-1348 -524 2472
-1337 -523 2472
-1347 -531 2509
-1341 -531 2517
-1314 -524 2485
-1314 -527 2505
-1315 -531 2525
-1298 -527 2511
-1292 -528 2519
-1274 -524 2504
-1274 -527 2522
-1263 -527 2521
-1256 -527 2527
-1246 -526 2526
-1244 -529 2542
-1247 -534 2568
-1226 -528 2545
-1229 -533 2571
-1217 -531 2566
-1210 -532 2572
-1199 -531 2569
-1200 -535 2593
-1179 -529 2568
-1176 -531 2583
-1176 -535 2603
-1167 -535 2604
-1155 -533 2599
-1155 -537 2620
-1146 -537 2622
-1113 -525 2568
-1124 -534 2615
-1107 -530 2596
-1098 -529 2597
-1101 -535 2626
-1094 -536 2633
-1083 -534 2629
-1067 -530 2612
-1071 -536 2646
-1068 -539 2660
-1050 -534 2638
-1047 -537 2655
-1042 -538 2665
-1024 -534 2644
-1017 -534 2649
-1015 -538 2668
-998 -533 2647
-996 -536 2665
-984 -534 2659
-977 -535 2663
-972 -537 2675
-964 -537 2677
-955 -536 2679
-947 -537 2681
-930 -532 2659
-938 -541 2706
-922 -536 2687
-916 -538 2696
-905 -536 2688
-904 -541 2713
-901 -544 2730
-882 -537 2701
-872 -536 2697
-872 -541 2724
-860 -539 2715
-853 -540 2721
-834 -533 2688
-828 -534 2695
-827 -539 2723
-820 -539 2726
-819 -545 2754
-809 -543 2750
-799 -543 2747
-783 -537 2719
-784 -544 2755
-780 -546 2770
-764 -541 2746
-757 -542 2751
-743 -538 2731
-741 -543 2758
-739 -547 2783
-723 -541 2755
-714 -541 2754
-703 -539 2743
-700 -543 2766
-686 -538 2745
-682 -542 2762
-682 -548 2797
-664 -540 2759
-657 -542 2768
-646 -539 2756
-640 -541 2767
-631 -541 2765
-625 -543 2776
-618 -543 2780
-611 -545 2790
-606 -547 2804
-593 -543 2784
-587 -546 2797
-572 -539 2765
-567 -542 2783
-562 -545 2798
-550 -542 2783
-544 -544 2796
-535 -544 2794
-526 -543 2791
-517 -543 2788
-506 -540 2775
-503 -544 2799
-490 -540 2776
-485 -543 2792
-476 -542 2792
-466 -540 2780
-460 -543 2797
-452 -544 2800
-439 -537 2769
-440 -549 2830
-427 -542 2796
-421 -547 2817
-409 -540 2787
-406 -547 2823
-396 -545 2813
-388 -547 2821
-377 -542 2797
-368 -542 2796
-363 -545 2816
-354 -544 2810
-345 -543 2804
-341 -550 2843
-329 -544 2811
-320 -543 2803
-313 -546 2821
-304 -544 2812
-297 -547 2825
-289 -546 2824
-281 -547 2825
-270 -543 2807
-264 -547 2828
-255 -546 2821
-248 -548 2835
-240 -548 2835
-229 -543 2806
-222 -546 2824
-215 -548 2835
-205 -543 2807
-198 -546 2824
-189 -546 2825
-180 -542 2805
-167 -528 2733
-147 -487 2522
-131 -460 2382
-124 -459 2376
-113 -445 2301
-107 -447 2312
-101 -449 2324
-96 -459 2375
-90 -462 2389
-84 -466 2410
-83 -500 2584
-82 -545 2820
-74 -546 2824
-66 -551 2850
-58 -547 2830
-50 -548 2835
-41 -547 2827
-33 -548 2833
-25 -554 2865
-16 -545 2818
-8 -550 2844
0 -546 2823
7 -546 2822
16 -553 2859
24 -551 2846
32 -548 2828
40 -546 2821
48 -547 2822
57 -549 2836
65 -547 2824
73 -550 2839
80 -542 2795
89 -547 2824
97 -546 2816
107 -551 2841
113 -542 2797
122 -547 2822
131 -548 2824
139 -547 2818
146 -543 2799
155 -547 2818
165 -553 2848
171 -545 2805
179 -546 2811
188 -548 2820
196 -547 2816
206 -552 2839
212 -546 2806
222 -550 2825
227 -544 2794
238 -550 2824
242 -540 2775
253 -547 2810
261 -546 2800
271 -550 2821
276 -544 2790
285 -546 2799
294 -546 2798
303 -548 2808
312 -550 2815
322 -553 2831
325 -544 2787
336 -548 2806
342 -546 2790
352 -548 2799
361 -549 2806
366 -544 2779
377 -548 2798
380 -541 2761
389 -542 2766
401 -548 2795
407 -545 2780
417 -547 2789
425 -548 2789
431 -545 2774
441 -547 2781
450 -549 2791
458 -548 2787
466 -547 2781
474 -548 2781
479 -544 2762
485 -542 2751
497 -546 2768
504 -544 2760
508 -541 2738
526 -550 2787
533 -550 2784
537 -545 2758
545 -545 2756
553 -545 2754
567 -551 2781
571 -547 2761
577 -545 2748
583 -543 2736
597 -549 2765
601 -544 2740
608 -544 2735
614 -542 2725
625 -545 2738
637 -548 2750
642 -545 2736
651 -546 2741
664 -550 2756
667 -546 2736
677 -548 2742
680 -543 2717
692 -547 2733
701 -547 2734
700 -541 2698
715 -545 2720
720 -544 2709
734 -548 2729
742 -548 2725
745 -544 2703
756 -546 2712
758 -542 2689
765 -541 2683
774 -541 2684
772 -535 2648
768 -526 2604
766 -520 2572
761 -511 2526
757 -503 2485
760 -501 2470
769 -502 2473
767 -495 2439
763 -488 2403
761 -482 2370
763 -479 2354
769 -478 2347
767 -473 2317
765 -468 2289
773 -468 2291
770 -462 2259
776 -462 2254
775 -457 2230
778 -455 2216
781 -453 2204
797 -458 2227
801 -457 2218
842 -476 2310
878 -493 2388
924 -514 2489
961 -530 2564
987 -540 2611
995 -540 2608
1007 -543 2616
1009 -539 2597
1012 -537 2582
1032 -543 2610
1040 -543 2607
1044 -541 2594
1055 -543 2600
1055 -539 2575
1058 -536 2561
1079 -543 2589
1085 -542 2582
1098 -545 2591
1105 -544 2584
1097 -536 2544
1116 -542 2567
1133 -546 2585
1141 -546 2581
1149 -546 2578
1153 -544 2566
1164 -545 2568
1167 -543 2554
1177 -544 2555
1183 -543 2547
1202 -548 2567
1191 -540 2523
1208 -544 2540
1212 -542 2528
1220 -542 2523
1226 -541 2517
1231 -540 2507
1243 -542 2511
1256 -544 2519
1259 -542 2504
1254 -536 2474
1276 -542 2498
1286 -543 2499
1289 -541 2485
1301 -543 2490
1310 -543 2486
1305 -538 2460
1312 -538 2454
1323 -539 2455
1335 -541 2459
1339 -539 2448
1358 -543 2463
1360 -541 2449
1366 -541 2441
1379 -543 2447
1390 -544 2448
-1445 -522 2463
-1437 -522 2468
-1448 -529 2505
-1431 -526 2494
-1427 -527 2505
-1416 -526 2504
-1397 -523 2489
-1392 -524 2498
-1387 -525 2509
-1388 -528 2529
-1382 -530 2538
-1365 -526 2525
-1354 -525 2524
-1356 -529 2547
-1350 -530 2555
-1327 -524 2531
-1317 -524 2531
-1307 -523 2532
-1308 -527 2553
-1305 -529 2567
-1298 -530 2573
-1291 -530 2578
-1291 -533 2597
-1291 -537 2618
-1272 -532 2601
-1251 -527 2579
-1242 -527 2580
-1243 -531 2602
-1228 -528 2592
-1233 -534 2622
-1220 -532 2616
-1214 -533 2625
-1193 -527 2600
-1192 -530 2618
-1184 -530 2622
-1174 -530 2621
-1173 -533 2642
-1171 -536 2658
-1147 -529 2625
-1160 -539 2678
-1137 -532 2647
-1132 -534 2658
-1123 -533 2659
-1118 -535 2669
-1102 -531 2653
-1109 -539 2693
-1080 -529 2646
-1085 -535 2682
-1079 -536 2690
-1070 -536 2690
-1067 -539 2708
-1072 -546 2744
-1048 -537 2706
-1040 -538 2711
-1030 -537 2710
-1019 -536 2704
-1014 -538 2716
-1000 -535 2703
-1001 -540 2731
-991 -539 2728
-980 -537 2723
-973 -538 2731
-970 -541 2746
-953 -536 2726
-946 -537 2730
-942 -540 2746
-933 -539 2745
-918 -535 2728
-910 -535 2731
-905 -538 2745
-903 -541 2764
-899 -544 2780
-885 -541 2765
-878 -542 2772
-867 -540 2764
-854 -537 2754
-850 -540 2769
-837 -537 2755
-834 -540 2775
-821 -538 2762
-819 -542 2786
-801 -536 2755
-804 -543 2796
-788 -538 2768
-784 -541 2787
-775 -541 2787
-761 -536 2767
-758 -540 2788
-746 -538 2779
-742 -541 2796
-736 -542 2804
-723 -539 2788
-717 -541 2800
-704 -538 2784
-707 -546 2830
-688 -539 2791
-688 -545 2826
-678 -544 2820
-672 -545 2830
-654 -538 2793
-652 -543 2821
-643 -543 2818
-635 -542 2819
-632 -547 2846
-616 -541 2813
-605 -538 2801
-598 -540 2811
-590 -540 2812
-589 -547 2850
-579 -546 2843
-570 -545 2841
-558 -541 2823
-556 -548 2856
-545 -546 2847
-540 -549 2863
-525 -542 2830
-516 -542 2830
-507 -540 2824
-505 -548 2863
-497 -548 2863
-485 -544 2846
-476 -544 2844
-466 -542 2834
-459 -543 2843
-449 -542 2837
-440 -541 2832
-437 -547 2865
-428 -546 2861
-417 -543 2843
-413 -550 2879
-402 -545 2858
-390 -541 2836
-387 -549 2875
-375 -544 2850
-369 -547 2866
-360 -545 2860
-347 -539 2827
-344 -547 2869
-334 -545 2858
-328 -548 2875
-314 -539 2830
-309 -545 2860
-300 -544 2857
-291 -542 2845
-283 -542 2847
-275 -545 2860
-269 -548 2878
-259 -546 2865
-248 -540 2837
-243 -546 2868
-232 -540 2836
-224 -542 2845
-216 -543 2852
-210 -548 2880
-199 -542 2849
-192 -546 2869
-182 -540 2839
-171 -533 2802
-157 -513 2698
-131 -451 2373
-123 -449 2360
-116 -449 2360
-109 -446 2343
-104 -453 2383
-97 -454 2385
-89 -452 2375
-85 -467 2454
-82 -491 2578
-81 -528 2774
-75 -548 2879
-67 -544 2858
-59 -548 2880
-50 -550 2887
-42 -547 2874
-33 -546 2865
-25 -549 2880
-17 -552 2896
-8 -549 2879
0 -549 2880
7 -549 2883
16 -549 2883
24 -550 2885
32 -549 2878
41 -548 2875
49 -551 2890
58 -551 2890
66 -549 2879
74 -546 2863
82 -543 2847
91 -546 2861
99 -549 2874
108 -550 2882
116 -550 2882
124 -546 2857
133 -547 2866
140 -546 2856
150 -549 2875
159 -553 2892
168 -555 2902
174 -546 2854
182 -547 2858
192 -550 2875
199 -548 2863
206 -543 2837
216 -549 2866
224 -548 2860
232 -547 2852
241 -547 2853
249 -548 2856
257 -547 2853
264 -544 2835
273 -545 2840
282 -548 2852
292 -551 2867
300 -549 2859
309 -550 2864
312 -541 2812
324 -547 2845
331 -546 2840
337 -543 2820
349 -548 2846
355 -545 2830
367 -550 2853
372 -545 2829
382 -548 2841
389 -545 2826
397 -545 2827
406 -546 2830
415 -547 2833
419 -542 2808
431 -546 2825
434 -541 2795
444 -542 2804
452 -542 2802
462 -545 2812
471 -545 2812
481 -548 2824
486 -544 2803
494 -543 2800
503 -544 2802
511 -544 2803
519 -543 2796
529 -545 2804
534 -542 2787
542 -542 2785
552 -544 2792
563 -547 2806
568 -544 2787
579 -546 2799
585 -544 2786
595 -546 2793
600 -543 2779
607 -542 2772
617 -543 2775
624 -543 2772
637 -547 2790
641 -543 2770
649 -543 2767
658 -544 2770
666 -544 2767
679 -547 2784
690 -550 2796
697 -549 2789
695 -541 2745
713 -548 2782
721 -548 2779
724 -544 2755
733 -545 2757
750 -551 2788
754 -548 2770
758 -545 2752
760 -541 2728
769 -541 2729
769 -536 2701
768 -529 2665
764 -521 2621
763 -515 2589
760 -508 2550
761 -504 2528
759 -497 2492
763 -495 2479
760 -488 2444
760 -484 2420
764 -482 2406
763 -476 2378
765 -473 2359
770 -472 2352
774 -470 2341
772 -464 2310
775 -462 2297
778 -460 2284
778 -456 2262
780 -453 2245
792 -456 2259
806 -460 2275
823 -466 2302
885 -497 2454
930 -518 2553
957 -529 2603
975 -534 2627
990 -538 2645
1003 -541 2655
1014 -543 2661
1023 -543 2659
1022 -538 2632
1041 -544 2658
1055 -547 2671
1052 -542 2639
1056 -539 2626
1063 -539 2621
1070 -538 2614
1092 -546 2646
1088 -539 2612
1099 -541 2616
1109 -542 2617
1126 -546 2635
1123 -541 2606
1129 -540 2599
1143 -543 2609
1146 -540 2593
1168 -547 2622
1180 -549 2628
1175 -543 2595
1192 -547 2610
1190 -542 2585
1200 -543 2585
1206 -542 2578
1218 -544 2583
1218 -540 2561
1233 -543 2572
1233 -540 2552
1260 -548 2588
1240 -536 2526
1256 -540 2540
1264 -539 2536
1277 -541 2541
1287 -543 2542
1293 -541 2533
1305 -543 2537
1309 -541 2525
1322 -544 2531
1336 -546 2537
1333 -541 2513
1343 -542 2512
1341 -538 2490
1367 -546 2520
1352 -536 2472
1372 -541 2491
1380 -541 2487
1396 -544 2496
1406 -545 2495
1400 -540 2467
-1495 -531 2549
-1458 -522 2505
-1463 -526 2533
-1465 -530 2555
-1433 -522 2518
-1429 -523 2528
-1440 -530 2567
-1438 -533 2582
-1424 -531 2576
-1416 -531 2582
-1400 -528 2573
-1395 -529 2581
-1376 -525 2566
-1376 -528 2585
-1343 -519 2543
-1364 -531 2603
-1359 -532 2614
-1360 -536 2635
-1336 -530 2609
-1320 -526 2597
-1313 -527 2603
-1297 -524 2591
-1296 -527 2610
-1292 -529 2622
-1290 -532 2639
-1268 -526 2615
-1267 -529 2634
-1270 -534 2661
-1271 -538 2684
-1249 -532 2658
-1234 -530 2648
-1224 -529 2648
-1228 -534 2677
-1203 -527 2645
-1204 -531 2668
-1206 -536 2694
-1194 -534 2689
-1186 -534 2693
-1168 -530 2675
-1174 -537 2711
-1154 -532 2688
-1154 -535 2710
-1145 -535 2712
-1129 -532 2697
-1128 -535 2717
-1115 -533 2711
-1114 -537 2730
-1112 -540 2749
-1084 -530 2704
-1094 -540 2753
-1077 -535 2733
-1071 -536 2742
-1059 -535 2737
-1057 -538 2755
-1036 -532 2727
-1039 -538 2757
-1032 -538 2764
-1010 -532 2732
-1012 -537 2761
-1004 -538 2767
-1001 -540 2782
-991 -539 2781
-997 -547 2824
-966 -535 2763
-954 -533 2755
-940 -530 2742
-950 -541 2798
-943 -541 2804
-932 -540 2800
-907 -530 2750
-910 -537 2788
-906 -540 2806
-889 -535 2781
-883 -537 2791
-889 -545 2837
-872 -540 2812
-864 -541 2817
-852 -538 2805
-843 -538 2805
-833 -537 2803
-827 -539 2815
-823 -542 2831
-806 -536 2802
-799 -537 2811
-798 -542 2837
-790 -542 2840
-783 -543 2849
-769 -540 2831
-757 -537 2818
-751 -539 2831
-745 -541 2840
-740 -543 2854
-723 -537 2826
-726 -546 2870
-707 -538 2832
-706 -543 2861
-696 -543 2860
-687 -542 2856
-678 -542 2858
-669 -541 2855
-662 -543 2864
-658 -547 2887
-640 -539 2846
-634 -541 2858
-628 -543 2870
-618 -542 2863
-613 -544 2880
-605 -545 2885
-594 -543 2874
-590 -547 2898
-579 -545 2888
-575 -549 2909
-556 -540 2861
-548 -540 2861
-542 -543 2878
-537 -546 2898
-523 -540 2866
-517 -543 2883
-508 -542 2878
-503 -546 2900
-493 -545 2896
-487 -548 2910
-478 -547 2906
-464 -541 2877
-456 -541 2879
-451 -546 2901
-437 -539 2869
-433 -544 2897
-423 -543 2888
-413 -541 2879
-404 -541 2878
-402 -549 2921
-391 -545 2905
-384 -547 2916
-373 -544 2896
-370 -552 2939
-357 -546 2912
-349 -547 2916
-340 -546 2911
-332 -546 2911
-324 -547 2915
-315 -546 2913
-303 -541 2885
-298 -546 2914
-291 -549 2929
-278 -542 2891
-270 -543 2897
-264 -546 2915
-255 -546 2913
-245 -544 2902
-239 -548 2923
-231 -549 2931
-218 -540 2881
-212 -546 2914
-204 -547 2921
-196 -547 2919
-187 -546 2915
-176 -539 2879
-165 -530 2831
-141 -479 2560
-126 -452 2413
-117 -444 2371
-111 -447 2387
-105 -455 2428
-98 -452 2412
-91 -452 2414
-86 -466 2487
-83 -485 2589
-82 -527 2812
-77 -551 2941
-68 -549 2930
-59 -547 2920
-52 -553 2952
-42 -546 2914
-34 -546 2913
-25 -545 2909
-17 -549 2930
-9 -549 2928
0 -552 2945
7 -547 2916
16 -547 2916
25 -549 2924
33 -547 2913
41 -546 2910
50 -545 2903
59 -552 2938
67 -546 2909
75 -547 2914
84 -546 2906
93 -551 2931
101 -548 2915
109 -545 2902
118 -548 2914
127 -549 2922
135 -547 2910
144 -550 2923
151 -545 2899
160 -546 2901
169 -548 2914
178 -551 2927
184 -542 2879
192 -543 2882
204 -552 2929
211 -549 2910
218 -544 2886
228 -549 2913
234 -543 2880
245 -549 2911
253 -548 2904
262 -548 2903
268 -544 2883
279 -550 2910
286 -546 2890
291 -540 2858
305 -550 2908
313 -549 2904
321 -548 2897
327 -545 2879
333 -541 2857
345 -546 2881
352 -544 2873
361 -546 2879
372 -549 2895
377 -544 2866
385 -543 2861
394 -545 2870
402 -543 2860
416 -552 2902
421 -546 2873
427 -544 2862
430 -537 2823
445 -545 2865
452 -544 2855
463 -547 2873
471 -546 2866
480 -547 2870
488 -547 2868
493 -543 2843
504 -545 2856
509 -542 2836
524 -550 2874
528 -545 2850
539 -548 2862
544 -544 2840
552 -543 2836
561 -544 2838
569 -544 2838
577 -544 2834
581 -540 2813
589 -539 2807
604 -545 2836
610 -544 2826
614 -540 2805
627 -544 2822
631 -540 2804
639 -540 2801
655 -546 2831
655 -540 2796
663 -539 2791
677 -544 2815
687 -545 2817
691 -542 2798
702 -544 2810
711 -545 2809
721 -546 2814
725 -543 2796
734 -543 2794
743 -544 2798
750 -543 2789
755 -540 2774
768 -544 2790
766 -537 2750
776 -538 2756
771 -529 2706
764 -518 2651
765 -514 2628
761 -506 2585
758 -499 2546
762 -496 2530
755 -487 2483
764 -488 2483
761 -482 2449
764 -479 2434
761 -472 2397
766 -471 2389
765 -466 2361
771 -466 2357
771 -461 2331
773 -458 2315
779 -458 2310
779 -454 2287
793 -458 2306
803 -460 2313
815 -462 2325
879 -495 2484
922 -515 2582
947 -524 2627
975 -535 2681
986 -537 2684
1010 -545 2724
999 -535 2669
1025 -545 2715
1031 -543 2705
1034 -540 2688
1052 -546 2711
1049 -540 2680
1057 -540 2677
1067 -541 2677
1069 -538 2658
1083 -541 2670
1102 -546 2694
1104 -543 2676
1110 -542 2668
1117 -541 2661
1122 -540 2650
1136 -543 2661
1145 -543 2659
1154 -543 2657
1154 -540 2635
1168 -542 2644
1173 -541 2634
1181 -541 2632
1194 -543 2639
1193 -539 2614
1212 -544 2633
1224 -545 2639
1229 -544 2628
1223 -538 2595
1248 -545 2626
1259 -546 2628
1249 -539 2588
1272 -545 2615
1275 -543 2599
1292 -547 2614
1294 -544 2597
1297 -542 2582
1310 -544 2589
1313 -542 2574
1320 -541 2568
1326 -540 2560
1343 -544 2572
1339 -539 2545
1355 -542 2556
1355 -539 2537
1376 -544 2557
1382 -543 2548
1392 -544 2548
1397 -543 2537
1402 -542 2528
1403 -539 2510
1414 -540 2512
1430 -543 2521
-1524 -534 2602
-1496 -527 2573
-1494 -529 2588
-1476 -525 2575
-1466 -525 2577
-1457 -525 2580
-1444 -523 2577
-1431 -522 2572
-1433 -526 2595
-1428 -527 2606
-1431 -531 2630
-1433 -535 2654
-1410 -530 2632
-1387 -524 2608
-1384 -527 2623
-1390 -532 2654
-1357 -523 2611
-1362 -528 2640
-1347 -526 2632
-1353 -531 2663
-1348 -533 2675
-1344 -534 2687
-1311 -525 2642
-1315 -530 2670
-1321 -536 2704
-1286 -525 2652
-1285 -528 2671
-1302 -539 2728
-1256 -523 2654
-1274 -534 2713
-1249 -528 2682
-1245 -529 2694
-1242 -532 2709
-1238 -534 2723
-1220 -530 2705
-1217 -532 2721
-1215 -535 2739
-1198 -531 2723
-1185 -530 2717
-1185 -533 2740
-1174 -532 2737
-1177 -538 2767
-1165 -536 2761
-1168 -542 2793
-1148 -536 2767
-1118 -526 2720
-1138 -539 2790
-1129 -539 2792
-1111 -535 2772
-1108 -538 2789
-1086 -532 2760
-1089 -537 2791
-1078 -536 2787
-1066 -534 2780
-1060 -536 2790
-1061 -541 2819
-1051 -540 2818
-1038 -538 2809
-1020 -533 2784
-1025 -540 2824
-1014 -539 2821
-1010 -541 2837
-992 -536 2812
-993 -542 2842
-977 -538 2825
-961 -533 2804
-964 -540 2841
-952 -538 2832
-946 -540 2844
-937 -539 2843
-930 -540 2851
-918 -538 2842
-901 -534 2819
-897 -536 2835
-892 -539 2849
-880 -536 2838
-885 -545 2887
-870 -541 2867
-861 -541 2869
-852 -540 2868
-846 -542 2880
-833 -540 2867
-830 -543 2889
-814 -538 2864
-815 -545 2900
-802 -542 2886
-783 -535 2852
-776 -536 2857
-775 -541 2887
-762 -538 2872
-758 -542 2892
-751 -543 2900
-743 -543 2903
-722 -534 2857
-731 -547 2928
-715 -542 2903
-704 -541 2894
-695 -540 2894
-685 -539 2890
-679 -541 2902
-672 -542 2909
-663 -542 2909
-662 -549 2946
-650 -546 2932
-638 -543 2917
-632 -545 2929
-616 -539 2898
-616 -546 2939
-609 -548 2949
-596 -545 2931
-585 -542 2919
-576 -542 2919
-569 -544 2929
-563 -546 2944
-553 -545 2935
-550 -550 2968
-531 -540 2914
-528 -546 2947
-519 -546 2945
-509 -544 2938
-504 -548 2961
-497 -550 2971
-483 -545 2943
-476 -546 2951
-468 -546 2953
-454 -541 2924
-449 -545 2948
-442 -548 2962
-431 -544 2942
-420 -542 2930
-414 -545 2947
-405 -545 2948
-400 -549 2972
-387 -544 2944
-380 -546 2955
-372 -546 2958
-361 -544 2945
-355 -547 2962
-341 -538 2917
-335 -543 2944
-329 -547 2963
-315 -538 2917
-307 -540 2924
-301 -545 2952
-292 -543 2943
-283 -542 2939
-278 -549 2978
-269 -549 2976
-259 -546 2962
-250 -545 2956
-242 -546 2963
-231 -542 2941
-222 -541 2936
-215 -546 2960
-207 -547 2968
-200 -550 2984
-189 -545 2955
-180 -542 2941
-171 -541 2936
-147 -491 2664
-129 -457 2481
-120 -448 2430
-113 -449 2436
-107 -454 2463
-100 -455 2466
-91 -446 2422
-86 -455 2469
-79 -461 2501
-83 -526 2853
-78 -547 2968
-69 -547 2967
-61 -549 2976
-52 -545 2956
-44 -555 3006
-35 -551 2984
-26 -549 2977
-17 -546 2961
-9 -547 2964
0 -547 2963
8 -551 2984
16 -549 2972
25 -557 3017
34 -551 2986
43 -555 3005
51 -555 3005
60 -550 2977
68 -549 2974
76 -547 2958
85 -545 2950
94 -547 2959
103 -552 2986
111 -547 2958
119 -545 2944
128 -548 2963
137 -549 2969
146 -551 2978
154 -549 2966
165 -556 3002
172 -551 2972
181 -551 2972
189 -551 2971
197 -548 2954
206 -550 2966
216 -551 2972
223 -547 2950
230 -544 2934
240 -548 2954
248 -546 2940
257 -547 2946
265 -546 2940
274 -547 2946
280 -542 2916
291 -547 2943
298 -544 2927
307 -545 2928
314 -542 2911
323 -543 2914
333 -545 2928
340 -543 2915
351 -546 2931
360 -549 2942
366 -543 2913
375 -544 2917
387 -549 2942
392 -545 2919
403 -548 2932
409 -545 2916
423 -553 2955
423 -541 2889
437 -548 2925
446 -549 2933
458 -552 2949
461 -546 2911
471 -548 2920
478 -546 2909
488 -548 2917
495 -546 2909
504 -546 2907
511 -545 2898
517 -543 2885
529 -546 2903
538 -546 2901
545 -545 2894
553 -545 2892
561 -544 2886
572 -546 2895
581 -547 2898
585 -543 2876
600 -549 2902
608 -548 2900
615 -547 2890
618 -542 2865
627 -543 2866
638 -545 2873
643 -542 2859
652 -542 2857
663 -545 2870
676 -548 2886
684 -548 2883
688 -544 2860
699 -546 2868
705 -545 2857
713 -545 2855
725 -547 2865
731 -545 2853
741 -546 2857
752 -548 2864
757 -546 2850
765 -545 2846
762 -537 2802
765 -534 2782
767 -529 2756
761 -519 2702
762 -514 2675
759 -507 2635
762 -504 2617
760 -498 2582
763 -495 2564
758 -486 2518
758 -482 2493
759 -478 2470
766 -477 2466
768 -474 2448
763 -467 2406
766 -464 2391
768 -461 2371
773 -459 2362
774 -456 2343
778 -454 2331
787 -455 2334
797 -457 2341
823 -468 2393
856 -482 2467
908 -508 2593
954 -529 2698
968 -532 2712
997 -543 2766
999 -540 2747
1017 -545 2770
1018 -542 2749
1035 -546 2769
1035 -542 2743
1045 -542 2743
1055 -543 2745
1052 -537 2712
1073 -544 2742
1080 -543 2737
1088 -543 2731
1090 -540 2712
1102 -542 2718
1108 -540 2709
1129 -547 2737
1125 -541 2704
1134 -541 2704
1142 -541 2699
1158 -545 2714
1156 -540 2687
1180 -547 2720
1176 -541 2686
1175 -537 2663
1198 -544 2692
1214 -547 2705
1206 -540 2667
1228 -546 2692
1237 -546 2690
1233 -541 2659
1243 -542 2660
1262 -547 2679
1268 -545 2670
1271 -543 2656
1271 -540 2634
1281 -540 2634
1287 -539 2625
1307 -545 2646
1285 -532 2579
1321 -543 2632
1338 -547 2645
1341 -545 2630
1361 -549 2649
1364 -547 2634
1366 -545 2619
1362 -540 2591
1382 -545 2610
1385 -542 2594
1400 -545 2604
1410 -546 2602
1407 -541 2577
1421 -544 2583
1437 -546 2592
1442 -545 2582
1448 -544 2573
1446 -541 2550
-1534 -528 2620
-1510 -523 2599
-1507 -525 2613
-1501 -526 2620
-1504 -530 2646
-1484 -526 2630
-1489 -531 2658
-1481 -531 2663
-1448 -523 2625
-1444 -524 2636
-1455 -531 2677
-1435 -527 2659
-1439 -532 2687
-1436 -534 2702
-1419 -531 2690
-1415 -533 2704
-1383 -524 2662
-1395 -532 2706
-1383 -531 2704
-1359 -525 2677
-1366 -531 2711
-1358 -531 2717
-1333 -525 2688
-1333 -528 2708
-1320 -527 2704
-1313 -528 2711
-1314 -531 2733
-1311 -534 2749
-1301 -533 2750
-1278 -527 2723
-1277 -531 2744
-1270 -531 2749
-1273 -536 2779
-1243 -527 2736
-1256 -537 2788
-1237 -532 2766
-1236 -536 2787
-1230 -537 2798
-1204 -529 2761
-1206 -534 2790
-1202 -536 2802
-1190 -535 2799
-1191 -539 2825
-1172 -535 2804
-1166 -536 2813
-1154 -534 2807
-1135 -529 2784
-1149 -540 2844
-1118 -530 2792
-1115 -532 2808
-1123 -541 2854
-1113 -540 2854
-1097 -537 2838
-1091 -538 2847
-1086 -540 2861
-1087 -545 2890
-1065 -538 2856
-1060 -540 2869
-1050 -540 2869
-1040 -539 2867
-1027 -537 2859
-1032 -544 2900
-1015 -540 2878
-995 -534 2850
-997 -540 2883
-990 -541 2889
-985 -543 2905
-966 -537 2877
-959 -538 2882
-942 -534 2860
-946 -541 2901
-925 -534 2866
-928 -541 2904
-916 -539 2897
-899 -534 2872
-902 -541 2914
-883 -535 2881
-877 -537 2892
-875 -541 2916
-865 -540 2913
-863 -544 2939
-851 -542 2930
-841 -542 2927
-831 -541 2926
-819 -539 2915
-811 -540 2922
-799 -537 2911
-792 -539 2920
-782 -538 2916
-784 -545 2959
-776 -546 2963
-753 -535 2907
-742 -534 2900
-742 -541 2939
-733 -540 2938
-723 -540 2937
-721 -544 2964
-713 -545 2968
-701 -543 2957
-690 -541 2950
-679 -539 2941
-671 -540 2945
-666 -543 2962
-660 -545 2975
-648 -543 2964
-641 -544 2973
-631 -543 2968
-623 -544 2977
-615 -545 2981
-600 -539 2950
-603 -550 3011
-586 -542 2967
-573 -538 2948
-570 -545 2983
-558 -541 2967
-554 -546 2992
-545 -546 2992
-534 -544 2982
-528 -547 2998
-520 -547 3004
-504 -539 2961
-498 -543 2980
-491 -545 2991
-479 -541 2974
-474 -545 2994
-468 -548 3012
-458 -547 3005
-446 -543 2987
-436 -542 2981
-429 -544 2989
-420 -544 2990
-412 -545 3001
-402 -543 2990
-394 -545 2997
-385 -544 2995
-376 -544 2997
-369 -546 3007
-360 -546 3008
-350 -544 2997
-343 -547 3013
-334 -547 3015
-327 -550 3028
-317 -549 3022
-308 -548 3021
-301 -551 3034
-286 -540 2978
-279 -543 2990
-272 -546 3007
-264 -548 3020
-254 -545 3004
-247 -549 3026
-238 -549 3025
-229 -548 3021
-220 -549 3027
-213 -554 3052
-199 -539 2974
-195 -552 3045
-185 -548 3023
-174 -543 2992
-159 -522 2879
-134 -465 2566
-121 -446 2461
-113 -444 2448
-107 -448 2472
-101 -450 2483
-91 -438 2415
-86 -448 2468
-80 -457 2519
-82 -514 2835
-78 -542 2989
-70 -547 3017
-62 -553 3050
-53 -549 3028
-44 -549 3023
-35 -553 3047
-26 -550 3030
-18 -549 3022
-9 -550 3032
0 -549 3023
8 -556 3059
17 -550 3026
26 -556 3063
34 -546 3008
43 -543 2991
52 -549 3020
61 -549 3023
69 -550 3026
78 -550 3022
86 -546 3003
96 -552 3034
105 -553 3038
113 -551 3026
123 -553 3040
131 -549 3015
139 -549 3015
148 -548 3007
157 -551 3026
165 -548 3010
174 -547 3001
184 -552 3027
193 -553 3032
200 -547 3002
210 -551 3018
220 -553 3030
228 -552 3022
234 -546 2990
245 -549 3008
253 -548 3002
260 -546 2986
272 -551 3017
280 -551 3012
286 -546 2983
298 -552 3019
306 -550 3002
312 -545 2975
320 -545 2974
