VERSION 0.7
FIELDS x y z
SIZE 4 4 4
TYPE I I I
COUNT 1 1 1
WIDTH 3268
HEIGHT 1
VIEWPOINT 0.0 0.0 0.0 1.0 0.0 0.0 0.0
POINTS 3268
DATA ascii
94 -550 2487
100 -545 2466
108 -550 2486
115 -549 2482
123 -552 2496
129 -547 2472
137 -549 2482
144 -550 2483
151 -548 2475
158 -548 2475
164 -544 2455
174 -552 2490
179 -545 2460
187 -547 2466
195 -550 2482
202 -550 2479
209 -547 2465
215 -544 2453
224 -550 2477
230 -546 2456
239 -550 2476
245 -548 2465
252 -548 2466
258 -545 2452
266 -547 2460
273 -547 2457
281 -548 2461
289 -548 2463
295 -548 2458
302 -546 2449
310 -548 2458
316 -545 2445
323 -545 2442
334 -552 2474
338 -546 2447
343 -544 2434
353 -547 2448
363 -552 2467
370 -551 2464
375 -548 2448
380 -545 2435
389 -548 2445
394 -545 2430
400 -543 2424
410 -547 2441
418 -547 2439
424 -546 2434
430 -545 2427
439 -547 2435
444 -545 2424
452 -545 2424
458 -544 2418
469 -548 2435
473 -545 2420
480 -545 2417
488 -546 2420
495 -545 2416
501 -545 2413
509 -546 2414
515 -545 2408
525 -547 2418
534 -550 2428
538 -546 2412
543 -544 2401
550 -544 2397
561 -547 2411
569 -548 2414
572 -544 2395
580 -545 2396
584 -542 2383
595 -546 2399
602 -546 2395
605 -542 2378
614 -544 2385
625 -547 2395
628 -544 2378
636 -545 2381
645 -546 2384
653 -546 2386
659 -546 2381
666 -546 2379
669 -542 2362
678 -544 2367
689 -547 2379
695 -546 2374
694 -540 2343
711 -548 2377
717 -547 2370
721 -544 2357
729 -545 2357
736 -545 2355
743 -545 2354
752 -546 2356
758 -545 2350
766 -546 2352
770 -544 2341
769 -538 2314
780 -541 2324
770 -529 2270
769 -524 2245
764 -516 2209
765 -512 2190
766 -508 2172
767 -505 2154
762 -497 2120
766 -496 2112
766 -491 2091
767 -488 2075
759 -478 2032
760 -476 2018
767 -476 2018
763 -470 1988
767 -468 1979
768 -465 1965
774 -465 1962
774 -461 1944
774 -458 1928
778 -457 1922
782 -456 1914
784 -453 1902
783 -449 1882
795 -453 1896
825 -467 1951
847 -476 1986
888 -495 2064
932 -516 2149
956 -526 2187
987 -539 2239
990 -537 2227
996 -537 2222
1014 -542 2242
1013 -538 2223
1022 -539 2223
1024 -537 2210
1032 -537 2210
1048 -542 2226
1048 -538 2207
1062 -542 2219
1060 -537 2196
1081 -544 2223
1083 -542 2210
1088 -541 2203
1094 -541 2197
1101 -540 2193
1108 -541 2190
1105 -536 2168
1123 -541 2185
1127 -540 2177
1137 -541 2179
1144 -541 2175
1133 -532 2137
1144 -535 2142
1163 -540 2161
1168 -539 2153
1172 -538 2146
1192 -544 2165
1186 -538 2137
1202 -542 2151
1207 -541 2143
1212 -540 2136
1216 -539 2127
-1280 -527 2167
-1272 -527 2170
-1264 -527 2172
-1253 -525 2170
-1241 -523 2164
-1238 -525 2176
-1246 -531 2206
-1227 -526 2188
-1218 -526 2189
-1211 -526 2193
-1208 -527 2203
-1205 -529 2214
-1193 -527 2209
-1179 -524 2200
-1176 -526 2212
-1171 -527 2218
-1163 -527 2221
-1158 -528 2228
-1158 -531 2245
-1150 -531 2246
-1138 -529 2241
-1125 -526 2233
-1122 -528 2245
-1120 -531 2259
-1098 -524 2232
-1098 -527 2248
-1098 -531 2267
-1086 -529 2260
-1084 -531 2275
-1071 -528 2265
-1072 -533 2286
-1061 -530 2279
-1071 -539 2321
-1037 -526 2264
-1040 -531 2290
-1032 -530 2290
-1021 -529 2284
-1019 -531 2299
-1009 -530 2297
-1001 -530 2298
-997 -532 2308
-989 -531 2307
-983 -532 2313
-979 -534 2325
-971 -533 2326
-961 -532 2320
-957 -534 2331
-946 -532 2325
-939 -532 2329
-939 -536 2348
-929 -534 2343
-919 -533 2339
-910 -532 2338
-914 -539 2369
-897 -533 2347
-890 -533 2348
-889 -537 2367
-881 -537 2369
-866 -532 2349
-862 -534 2360
-854 -533 2361
-851 -536 2376
-845 -537 2379
-835 -535 2374
-824 -533 2367
-824 -538 2389
-815 -537 2387
-811 -539 2399
-801 -537 2393
-793 -537 2392
-783 -535 2386
-788 -543 2425
-773 -538 2403
-764 -537 2399
-761 -540 2414
-748 -536 2399
-743 -538 2409
-735 -537 2407
-725 -535 2401
-721 -537 2412
-712 -536 2408
-707 -538 2418
-701 -539 2425
-693 -539 2425
-683 -536 2415
-680 -540 2432
-674 -541 2440
-665 -540 2434
-659 -541 2443
-653 -542 2446
-639 -536 2423
-638 -542 2451
-629 -541 2446
-623 -541 2450
-615 -541 2449
-604 -538 2436
-596 -537 2434
-590 -539 2441
-588 -543 2463
-583 -546 2476
-574 -544 2469
-564 -542 2462
-555 -540 2454
-549 -542 2464
-544 -544 2472
-538 -545 2481
-527 -542 2465
-520 -542 2469
-513 -542 2468
-510 -547 2493
-498 -542 2471
-491 -543 2475
-484 -543 2476
-479 -545 2487
-469 -542 2476
-464 -546 2493
-454 -543 2478
-451 -548 2504
-442 -545 2492
-435 -546 2497
-426 -544 2486
-419 -544 2490
-409 -542 2479
-405 -545 2496
-396 -544 2489
-391 -546 2500
-382 -544 2492
-374 -543 2488
-364 -539 2471
-358 -542 2483
-352 -544 2495
-344 -542 2487
-336 -542 2484
-330 -544 2496
-319 -539 2471
-315 -543 2493
-309 -547 2508
-302 -547 2509
-291 -540 2481
-286 -545 2500
-280 -547 2511
-272 -546 2507
-264 -545 2503
-258 -547 2513
-250 -545 2505
-241 -543 2496
-236 -548 2518
-229 -548 2516
-222 -549 2521
-213 -545 2506
-205 -544 2501
-198 -546 2509
-190 -544 2501
-184 -548 2519
-174 -540 2484
-157 -507 2333
-138 -468 2153
-127 -450 2069
-121 -452 2081
-115 -453 2083
-108 -448 2060
-104 -457 2104
-97 -455 2092
-92 -456 2099
-87 -463 2128
-82 -473 2175
-82 -511 2349
-79 -533 2453
-73 -545 2506
-67 -551 2531
-59 -550 2531
-52 -549 2525
-44 -549 2523
-37 -553 2543
-29 -548 2519
-22 -548 2521
-15 -549 2522
-7 -550 2529
0 -553 2540
6 -548 2517
14 -549 2522
21 -550 2525
28 -548 2518
36 -547 2511
43 -547 2511
51 -550 2524
58 -549 2521
65 -550 2524
73 -552 2531
80 -550 2521
88 -552 2533
95 -548 2514
102 -547 2508
109 -548 2512
117 -549 2516
124 -550 2518
131 -547 2508
139 -548 2510
146 -549 2514
153 -546 2499
160 -546 2499
169 -552 2527
173 -543 2482
182 -547 2503
190 -549 2510
198 -550 2514
204 -547 2498
211 -546 2493
219 -548 2504
226 -548 2501
234 -550 2509
242 -551 2514
250 -551 2514
257 -551 2513
264 -551 2513
269 -545 2482
279 -550 2507
286 -549 2501
293 -549 2499
298 -544 2478
307 -548 2491
316 -552 2508
319 -545 2476
328 -546 2482
334 -544 2472
344 -549 2493
350 -547 2482
357 -546 2477
363 -544 2468
369 -543 2463
377 -545 2467
385 -545 2468
394 -548 2479
399 -544 2461
407 -546 2469
414 -544 2461
422 -546 2468
429 -545 2463
436 -545 2461
444 -547 2466
452 -547 2467
460 -548 2472
467 -548 2468
472 -545 2453
482 -548 2464
486 -544 2447
496 -548 2463
500 -544 2443
510 -547 2458
517 -546 2452
525 -547 2455
530 -546 2445
538 -546 2443
545 -546 2444
553 -547 2446
556 -542 2423
568 -547 2443
576 -547 2444
581 -546 2434
588 -546 2434
591 -541 2411
602 -545 2426
612 -548 2438
622 -550 2445
623 -545 2421
629 -543 2412
637 -544 2414
647 -547 2423
651 -544 2408
658 -544 2406
668 -546 2414
676 -547 2418
685 -548 2419
688 -545 2405
698 -547 2411
702 -545 2400
709 -544 2394
715 -543 2390
721 -542 2383
733 -546 2399
744 -549 2409
745 -545 2387
755 -546 2392
758 -544 2378
767 -544 2380
774 -545 2378
776 -541 2359
775 -536 2334
773 -529 2304
767 -520 2262
766 -515 2239
770 -513 2229
768 -507 2200
767 -502 2176
766 -497 2151
765 -492 2129
760 -485 2095
763 -483 2084
768 -482 2076
767 -477 2055
767 -474 2038
770 -471 2025
771 -468 2009
772 -465 1994
771 -461 1974
772 -458 1959
774 -456 1947
783 -457 1952
784 -454 1938
788 -453 1930
800 -457 1942
817 -463 1967
839 -472 2002
883 -493 2090
920 -510 2158
951 -524 2214
971 -531 2241
994 -540 2275
994 -536 2257
1017 -545 2290
1017 -541 2271
1031 -545 2283
1025 -537 2249
1030 -536 2242
1047 -541 2261
1048 -538 2244
1065 -543 2262
1067 -541 2249
1072 -540 2241
1086 -543 2253
1082 -538 2227
1096 -541 2238
1103 -541 2235
1104 -538 2219
1113 -539 2219
1120 -539 2216
1122 -537 2202
1130 -537 2201
1136 -537 2195
1145 -538 2195
1152 -538 2193
1162 -539 2195
1174 -541 2199
1175 -539 2185
1179 -537 2176
1190 -539 2180
1201 -541 2182
1215 -544 2192
1213 -540 2172
1217 -539 2163
1228 -541 2167
1226 -536 2146
-1298 -527 2200
-1280 -523 2185
-1285 -528 2210
-1274 -527 2208
-1262 -524 2202
-1254 -524 2206
-1245 -523 2205
-1233 -522 2201
-1229 -523 2211
-1236 -529 2240
-1227 -528 2240
-1223 -530 2249
-1209 -527 2240
-1205 -529 2251
-1187 -524 2234
-1180 -524 2238
-1172 -524 2240
-1173 -528 2259
-1173 -531 2276
-1165 -531 2279
-1156 -530 2278
-1142 -527 2268
-1147 -533 2296
-1130 -528 2281
-1129 -531 2295
-1118 -530 2291
-1106 -527 2284
-1098 -527 2286
-1095 -529 2298
-1097 -534 2322
-1085 -532 2315
-1085 -535 2333
-1078 -536 2337
-1058 -529 2313
-1051 -529 2316
-1032 -524 2293
-1037 -530 2323
-1030 -530 2327
-1020 -529 2324
-1016 -530 2333
-1010 -531 2339
-1000 -530 2336
-1003 -535 2361
-993 -534 2360
-981 -532 2352
-972 -531 2349
-966 -531 2354
-966 -535 2374
-954 -533 2367
-942 -530 2358
-942 -535 2378
-924 -529 2354
-925 -534 2379
-921 -535 2389
-902 -529 2362
-900 -532 2377
-899 -535 2396
-891 -535 2397
-882 -534 2394
-880 -538 2413
-871 -537 2409
-866 -538 2419
-855 -536 2411
-853 -539 2427
-839 -535 2410
-830 -534 2409
-829 -538 2428
-825 -541 2440
-809 -535 2418
-804 -537 2427
-796 -536 2427
-786 -535 2420
-779 -535 2424
-778 -539 2445
-765 -536 2431
-762 -539 2447
-755 -539 2448
-747 -538 2447
-740 -539 2453
-733 -539 2455
-722 -537 2445
-721 -541 2467
-709 -538 2454
-697 -534 2439
-693 -537 2451
-687 -538 2459
-677 -536 2452
-669 -536 2452
-665 -539 2466
-658 -539 2468
-656 -543 2489
-640 -536 2457
-641 -543 2492
-628 -539 2474
-621 -539 2477
-613 -539 2474
-612 -544 2502
-603 -543 2497
-600 -547 2518
-586 -542 2492
-580 -543 2498
-569 -540 2486
-566 -544 2506
-556 -541 2494
-548 -540 2491
-542 -542 2499
-540 -547 2525
-530 -545 2517
-523 -546 2521
-512 -542 2503
-504 -541 2500
-499 -544 2517
-494 -547 2528
-482 -541 2505
-475 -542 2510
-471 -546 2529
-462 -545 2524
-452 -542 2509
-445 -542 2514
-439 -543 2519
-430 -542 2515
-421 -539 2502
-413 -540 2504
-411 -546 2533
-405 -548 2546
-395 -546 2534
-385 -542 2518
-378 -542 2520
-371 -543 2524
-363 -541 2517
-357 -544 2527
-350 -545 2532
-342 -544 2529
-335 -545 2534
-326 -542 2524
-320 -545 2537
-312 -544 2530
-304 -543 2528
-298 -546 2541
-290 -545 2539
-284 -547 2549
-276 -547 2546
-268 -545 2539
-259 -542 2525
-254 -548 2552
-246 -546 2544
-237 -542 2526
-231 -545 2541
-224 -547 2551
-216 -546 2545
-209 -546 2544
-200 -544 2537
-195 -548 2557
-187 -547 2553
-179 -547 2553
-166 -528 2464
-143 -478 2230
-130 -455 2122
-122 -450 2097
-115 -446 2081
-110 -450 2099
-104 -450 2098
-98 -451 2103
-93 -455 2125
-88 -466 2173
-84 -478 2229
-81 -500 2330
-80 -533 2486
-74 -541 2521
-67 -544 2536
-60 -550 2566
-52 -550 2562
-45 -549 2561
-37 -548 2556
-30 -553 2579
-22 -548 2552
-15 -551 2566
-8 -551 2569
0 -549 2556
6 -551 2568
14 -555 2585
21 -552 2570
29 -550 2563
36 -550 2560
44 -550 2559
51 -550 2561
59 -550 2559
67 -555 2584
74 -549 2553
81 -550 2558
89 -552 2566
96 -549 2554
103 -549 2554
111 -549 2553
118 -549 2552
125 -546 2539
133 -550 2555
141 -550 2556
148 -548 2546
156 -550 2555
163 -550 2553
170 -547 2540
178 -550 2554
186 -551 2554
192 -545 2529
200 -548 2542
210 -555 2570
215 -550 2546
223 -551 2551
230 -549 2543
236 -546 2527
244 -548 2536
252 -548 2536
258 -546 2527
267 -549 2539
277 -554 2560
282 -549 2538
287 -545 2517
295 -545 2517
302 -544 2512
311 -548 2526
319 -549 2532
323 -543 2504
332 -546 2517
338 -545 2508
348 -548 2522
353 -545 2508
362 -547 2519
368 -544 2502
379 -550 2530
383 -545 2504
394 -550 2526
398 -545 2502
405 -545 2500
413 -545 2501
423 -550 2521
427 -545 2496
433 -543 2489
446 -550 2519
453 -550 2515
457 -546 2496
467 -549 2510
470 -544 2486
479 -546 2492
488 -547 2498
492 -544 2480
500 -545 2483
514 -552 2515
517 -547 2491
524 -546 2486
530 -545 2479
537 -545 2477
549 -549 2495
553 -546 2479
559 -545 2471
565 -544 2465
574 -545 2471
581 -545 2468
584 -541 2446
596 -546 2467
604 -546 2468
611 -546 2463
619 -546 2464
624 -544 2454
633 -546 2459
642 -548 2466
649 -547 2460
654 -545 2451
659 -544 2442
669 -545 2447
674 -544 2438
686 -547 2453
690 -545 2441
700 -547 2447
705 -545 2437
717 -548 2450
723 -547 2443
726 -544 2428
735 -546 2431
742 -546 2429
748 -545 2424
758 -546 2428
768 -548 2435
763 -540 2396
768 -538 2385
775 -538 2383
772 -531 2350
767 -523 2310
771 -521 2299
764 -511 2254
766 -508 2238
766 -503 2216
762 -497 2185
765 -494 2171
765 -490 2151
761 -483 2118
766 -482 2114
764 -477 2086
767 -475 2077
766 -470 2054
770 -469 2045
769 -464 2024
772 -462 2013
773 -460 1999
781 -461 2001
780 -456 1980
778 -452 1958
785 -452 1957
794 -454 1963
812 -461 1991
831 -468 2019
874 -489 2105
917 -509 2192
947 -522 2242
968 -530 2273
993 -540 2314
995 -537 2297
1006 -539 2305
1017 -541 2310
1026 -542 2311
1038 -545 2320
1041 -542 2305
1047 -542 2301
1049 -539 2287
1049 -536 2268
1065 -540 2283
1074 -541 2285
1081 -541 2281
1081 -537 2262
1091 -538 2264
1101 -540 2267
1105 -538 2257
1112 -538 2253
1125 -541 2262
1132 -541 2258
1135 -539 2246
1138 -537 2235
1156 -543 2254
1161 -541 2246
1166 -540 2237
1174 -541 2235
1178 -539 2226
1178 -536 2209
1199 -542 2231
1197 -538 2211
1210 -541 2219
1221 -542 2220
1219 -539 2202
1229 -540 2202
1236 -540 2198
1253 -544 2212
1249 -539 2188
-1307 -524 2217
-1319 -531 2254
-1289 -522 2219
-1297 -529 2250
-1280 -525 2235
-1265 -521 2226
-1265 -525 2243
-1262 -527 2255
-1253 -526 2255
-1258 -531 2281
-1244 -529 2274
-1222 -522 2250
-1233 -530 2287
-1218 -527 2277
-1194 -520 2249
-1208 -529 2292
-1202 -530 2299
-1177 -522 2267
-1183 -528 2297
-1169 -525 2288
-1170 -529 2307
-1163 -529 2312
-1152 -528 2308
-1141 -526 2304
-1140 -529 2320
-1140 -532 2338
-1113 -523 2300
-1131 -535 2356
-1121 -534 2354
-1104 -530 2337
-1098 -531 2344
-1091 -531 2347
-1081 -530 2346
-1068 -527 2337
-1061 -527 2339
-1062 -531 2361
-1060 -534 2376
-1053 -534 2380
-1037 -530 2364
-1035 -533 2379
-1026 -532 2379
-1015 -531 2373
-1016 -535 2394
-1001 -531 2380
-1001 -535 2399
-990 -533 2393
-990 -537 2415
-979 -535 2410
-975 -537 2420
-960 -533 2405
-952 -533 2405
-951 -537 2425
-939 -534 2414
-931 -533 2415
-929 -537 2432
-916 -534 2421
-915 -537 2439
-910 -539 2449
-899 -537 2441
-894 -539 2452
-887 -539 2456
-877 -537 2449
-877 -542 2473
-859 -536 2445
-852 -536 2450
-850 -540 2468
-838 -537 2457
-837 -541 2478
-829 -541 2479
-816 -537 2463
-808 -537 2464
-802 -538 2470
-792 -536 2465
-793 -542 2493
-782 -540 2485
-771 -538 2477
-763 -537 2477
-762 -542 2499
-746 -536 2472
-743 -539 2488
-734 -538 2486
-721 -534 2470
-720 -539 2492
-716 -542 2508
-707 -541 2505
-700 -541 2506
-693 -541 2511
-684 -540 2507
-675 -539 2504
-667 -539 2503
-665 -543 2526
-653 -539 2509
-645 -540 2511
-633 -536 2494
-629 -538 2508
-622 -539 2511
-612 -537 2504
-605 -537 2505
-598 -538 2510
-587 -535 2497
-585 -539 2519
-578 -540 2523
-574 -544 2542
-565 -542 2534
-555 -540 2525
-551 -544 2545
-544 -544 2548
-535 -543 2542
-526 -541 2537
-522 -545 2553
-515 -546 2559
-504 -542 2541
-495 -540 2533
-492 -545 2557
-485 -546 2562
-474 -542 2545
-468 -544 2554
-464 -548 2575
-456 -548 2577
-445 -543 2555
-440 -547 2575
-429 -542 2551
-421 -542 2553
-416 -546 2570
-409 -547 2575
-398 -541 2550
-391 -543 2557
-385 -545 2568
-375 -541 2550
-369 -543 2559
-364 -547 2577
-354 -544 2566
-348 -546 2574
-340 -546 2575
-333 -546 2578
-325 -546 2576
-316 -543 2562
-309 -545 2571
-302 -546 2578
-297 -549 2593
-287 -546 2577
-278 -543 2567
-271 -544 2572
-263 -543 2566
-257 -546 2581
-250 -547 2585
-242 -546 2581
-234 -546 2581
-226 -544 2570
-219 -547 2586
-213 -551 2604
-203 -543 2566
-196 -545 2579
-188 -544 2575
-181 -544 2572
-171 -536 2537
-151 -497 2352
-134 -462 2184
-124 -452 2137
-117 -448 2119
-112 -451 2136
-106 -452 2140
-101 -459 2171
-94 -457 2164
-89 -461 2183
-86 -478 2263
-83 -501 2371
-80 -530 2505
-76 -547 2588
-68 -547 2586
-61 -549 2595
-53 -545 2578
-46 -552 2610
-38 -551 2607
-30 -549 2598
-23 -551 2604
-15 -554 2621
-8 -551 2603
0 -549 2596
7 -547 2587
14 -550 2599
22 -550 2598
29 -549 2595
37 -544 2571
44 -548 2587
52 -545 2576
60 -550 2598
67 -550 2597
75 -550 2595
82 -549 2589
90 -550 2594
98 -551 2597
104 -547 2579
112 -548 2586
120 -548 2584
128 -549 2589
135 -548 2584
142 -548 2581
151 -552 2598
157 -548 2580
165 -549 2585
173 -549 2583
181 -550 2590
188 -550 2586
196 -551 2590
203 -550 2585
210 -548 2576
216 -544 2559
224 -546 2566
233 -550 2582
241 -549 2577
248 -549 2576
255 -547 2567
261 -544 2552
270 -548 2570
279 -551 2582
283 -544 2551
292 -546 2560
300 -547 2561
307 -547 2559
312 -543 2540
322 -547 2560
331 -550 2570
336 -545 2547
344 -546 2552
351 -546 2549
358 -544 2540
367 -546 2549
373 -545 2543
379 -543 2530
389 -546 2543
397 -547 2546
403 -545 2536
411 -546 2542
416 -543 2524
429 -549 2555
436 -550 2554
442 -547 2540
452 -550 2554
456 -547 2536
463 -545 2527
472 -547 2536
480 -548 2540
488 -548 2538
495 -548 2537
500 -545 2520
508 -546 2522
517 -547 2529
521 -544 2512
531 -546 2521
535 -543 2504
546 -547 2521
553 -546 2515
561 -547 2519
566 -545 2506
575 -546 2511
585 -548 2519
588 -544 2499
596 -545 2502
604 -546 2502
611 -545 2499
618 -544 2493
623 -542 2481
635 -546 2497
642 -546 2496
648 -545 2490
655 -544 2484
663 -545 2487
672 -546 2489
679 -546 2486
687 -547 2486
686 -540 2456
698 -543 2468
708 -546 2477
721 -550 2494
728 -550 2490
732 -547 2478
735 -544 2459
742 -544 2458
751 -545 2459
759 -545 2458
765 -544 2453
770 -542 2442
772 -539 2424
771 -533 2394
767 -525 2358
767 -520 2334
765 -514 2306
763 -508 2275
763 -504 2254
766 -501 2239
766 -497 2220
764 -491 2192
761 -485 2162
765 -483 2152
761 -476 2119
765 -475 2111
769 -474 2103
770 -470 2084
773 -468 2075
770 -462 2046
776 -462 2044
775 -458 2022
776 -455 2007
780 -454 1999
787 -454 1998
793 -454 1996
804 -457 2007
826 -466 2043
865 -484 2121
919 -511 2236
942 -520 2271
968 -530 2313
991 -539 2350
996 -538 2342
1000 -536 2330
1011 -538 2336
1023 -541 2345
1027 -539 2333
1040 -542 2344
1040 -538 2325
1053 -541 2334
1060 -541 2331
1075 -545 2345
1068 -538 2310
1077 -539 2311
1092 -542 2324
1097 -541 2315
1102 -540 2307
1116 -544 2319
1118 -541 2304
1120 -538 2290
1130 -540 2293
1137 -540 2289
1147 -541 2290
1153 -540 2284
1160 -540 2280
1171 -542 2284
1169 -538 2262
1183 -541 2273
1189 -540 2266
1202 -543 2274
1196 -537 2245
1209 -539 2251
1214 -538 2243
1229 -542 2254
1228 -539 2236
1241 -541 2243
1233 -534 2210
1253 -540 2230
1262 -540 2228
1258 -536 2205
-1324 -523 2247
-1318 -524 2254
-1316 -526 2267
-1310 -526 2273
-1296 -524 2265
-1293 -526 2277
-1291 -528 2291
-1274 -524 2278
-1261 -522 2271
-1256 -523 2280
-1259 -527 2302
-1237 -521 2278
-1241 -526 2303
-1237 -528 2314
-1233 -529 2324
-1233 -532 2341
-1217 -529 2329
-1207 -528 2328
-1199 -528 2329
-1202 -532 2353
-1189 -530 2346
-1178 -529 2344
-1165 -526 2336
-1163 -528 2349
-1154 -528 2351
-1160 -534 2382
-1141 -529 2361
-1124 -525 2345
-1125 -529 2365
-1126 -533 2386
-1112 -529 2374
-1106 -531 2382
-1093 -528 2373
-1103 -537 2414
-1079 -528 2380
-1083 -534 2408
-1064 -528 2386
-1069 -535 2417
-1058 -533 2412
-1042 -529 2396
-1044 -534 2421
-1029 -530 2407
-1025 -532 2417
-1017 -532 2420
-1012 -533 2429
-1007 -534 2436
-999 -534 2437
-988 -532 2432
-987 -536 2452
-977 -535 2447
-976 -538 2466
-960 -534 2449
-958 -537 2465
-951 -537 2469
-937 -534 2456
-924 -531 2444
-917 -531 2448
-920 -537 2476
-913 -538 2481
-899 -534 2466
-896 -537 2481
-889 -537 2486
-873 -532 2465
-870 -535 2478
-872 -541 2507
-856 -536 2486
-852 -538 2499
-839 -535 2486
-841 -541 2515
-830 -539 2507
-818 -536 2496
-817 -540 2518
-813 -543 2532
-792 -534 2493
-793 -540 2521
-786 -540 2526
-777 -539 2523
-771 -540 2529
-765 -541 2536
-750 -537 2516
-747 -540 2533
-734 -536 2515
-728 -537 2523
-722 -539 2531
-721 -543 2554
-707 -539 2535
-695 -536 2521
-695 -541 2547
-693 -546 2571
-679 -541 2551
-674 -543 2563
-664 -541 2552
-653 -538 2540
-651 -543 2566
-641 -541 2558
-635 -542 2565
-630 -545 2576
-617 -541 2558
-613 -544 2575
-606 -544 2578
-598 -544 2578
-588 -542 2567
-579 -541 2565
-576 -545 2587
-564 -541 2570
-555 -540 2566
-547 -539 2560
-543 -544 2583
-533 -540 2569
-532 -547 2604
-521 -544 2590
-512 -543 2583
-502 -541 2574
-499 -545 2596
-493 -548 2610
-484 -546 2601
-476 -545 2599
-468 -546 2602
-458 -543 2589
-451 -544 2593
-444 -544 2598
-438 -546 2609
-431 -547 2613
-420 -543 2592
-417 -549 2625
-406 -545 2603
-399 -546 2608
-390 -544 2603
-382 -544 2601
-376 -545 2608
-364 -540 2585
-358 -542 2592
-351 -543 2597
-345 -546 2612
-338 -546 2617
-331 -548 2626
-321 -544 2606
-313 -543 2601
-304 -542 2595
-300 -548 2624
-291 -545 2610
-282 -542 2598
-275 -544 2610
-267 -544 2606
-260 -546 2616
-253 -545 2615
-246 -547 2623
-238 -546 2621
-228 -542 2602
-222 -545 2614
-215 -546 2621
-206 -544 2611
-200 -547 2626
-190 -542 2601
-184 -548 2628
-175 -544 2609
-160 -519 2489
-136 -463 2223
-127 -454 2178
-119 -448 2150
-113 -449 2157
-107 -452 2168
-101 -452 2172
-95 -456 2188
-90 -459 2205
-86 -473 2271
-81 -486 2335
-81 -526 2525
-77 -547 2623
-69 -546 2620
-61 -549 2632
-54 -550 2640
-46 -553 2651
-38 -548 2628
-31 -550 2639
-23 -551 2644
-15 -549 2632
-8 -546 2617
0 -550 2638
7 -549 2630
14 -550 2636
22 -549 2631
30 -550 2637
37 -551 2641
45 -550 2637
53 -549 2630
60 -545 2609
68 -549 2629
76 -549 2629
84 -553 2648
91 -551 2637
99 -552 2640
106 -548 2624
114 -549 2625
122 -552 2638
129 -548 2622
136 -546 2609
145 -552 2639
151 -546 2607
160 -549 2623
168 -550 2625
175 -549 2620
183 -551 2628
192 -554 2642
198 -549 2619
205 -547 2608
213 -548 2612
221 -548 2610
228 -547 2605
236 -548 2609
244 -549 2614
252 -550 2617
259 -548 2611
266 -548 2607
275 -550 2618
283 -550 2617
289 -547 2601
296 -546 2595
306 -550 2614
313 -550 2611
319 -547 2596
327 -548 2600
334 -547 2595
344 -550 2609
351 -550 2607
357 -547 2590
367 -551 2607
373 -548 2594
378 -544 2576
387 -546 2583
394 -546 2580
401 -545 2576
409 -546 2578
416 -544 2568
427 -549 2592
433 -547 2578
442 -549 2586
448 -547 2578
455 -546 2571
459 -543 2554
468 -543 2557
479 -548 2577
485 -546 2567
497 -551 2589
500 -545 2560
506 -545 2555
515 -545 2557
520 -543 2545
530 -545 2555
538 -546 2555
544 -544 2547
554 -547 2557
559 -544 2544
565 -543 2537
576 -546 2548
583 -546 2547
592 -547 2551
595 -543 2530
602 -543 2525
613 -546 2539
621 -546 2540
629 -547 2540
633 -544 2523
641 -544 2526
649 -544 2524
659 -547 2533
667 -547 2530
671 -544 2517
680 -546 2521
689 -546 2524
700 -549 2533
704 -546 2519
711 -546 2515
718 -546 2513
727 -547 2515
736 -548 2519
740 -545 2504
755 -551 2526
759 -549 2515
761 -544 2493
770 -545 2495
770 -540 2470
773 -537 2454
771 -531 2423
769 -524 2390
766 -517 2356
762 -509 2320
764 -506 2304
765 -502 2282
764 -497 2259
765 -493 2237
764 -488 2214
764 -484 2192
765 -480 2173
768 -478 2161
766 -473 2134
770 -471 2125
769 -467 2102
771 -465 2091
775 -463 2082
774 -459 2060
776 -456 2045
782 -456 2042
783 -453 2027
790 -453 2026
805 -458 2046
821 -464 2069
853 -478 2131
915 -510 2267
940 -519 2307
968 -531 2357
987 -537 2381
998 -539 2387
1007 -541 2390
1009 -537 2372
1024 -542 2389
1031 -542 2385
1035 -540 2373
1049 -543 2385
1053 -542 2376
1056 -539 2362
1072 -544 2378
1076 -542 2368
1090 -545 2379
1091 -542 2362
1096 -541 2353
1107 -542 2356
1113 -542 2351
1115 -539 2336
1123 -539 2334
1142 -545 2356
1130 -536 2311
1150 -542 2335
1151 -539 2319
1155 -537 2307
1172 -542 2323
1167 -536 2295
1188 -543 2319
1186 -538 2297
1185 -534 2277
1201 -539 2291
1218 -542 2304
1216 -538 2283
1223 -539 2280
1240 -543 2294
1241 -540 2278
1251 -541 2278
1263 -543 2284
1263 -540 2267
1280 -544 2280
1275 -539 2254
1291 -542 2265
-1333 -519 2264
-1347 -527 2305
-1338 -527 2306
-1323 -524 2298
-1317 -525 2303
-1315 -527 2318
-1305 -526 2318
-1297 -526 2320
-1297 -529 2338
-1289 -529 2340
-1276 -527 2335
-1274 -529 2348
-1262 -527 2343
-1249 -525 2338
-1242 -526 2342
-1240 -528 2356
-1231 -527 2357
-1221 -527 2357
-1226 -532 2385
-1219 -532 2388
-1199 -527 2369
-1201 -531 2390
-1191 -530 2390
-1186 -532 2398
-1172 -529 2388
-1175 -534 2414
-1162 -531 2406
-1144 -526 2387
-1135 -526 2388
-1139 -531 2414
-1130 -530 2414
-1123 -531 2421
-1110 -528 2411
-1108 -531 2428
-1104 -533 2438
-1092 -531 2431
-1085 -531 2436
-1077 -531 2437
-1076 -535 2456
-1063 -532 2447
-1051 -530 2439
-1048 -532 2452
-1042 -533 2459
-1034 -533 2461
-1027 -534 2467
-1012 -530 2451
-1010 -532 2466
-1004 -533 2473
-997 -534 2477
-989 -534 2481
-971 -528 2457
-976 -535 2492
-965 -534 2486
-960 -535 2493
-956 -537 2508
-944 -535 2498
-936 -534 2499
-930 -535 2506
-926 -538 2520
-912 -534 2504
-913 -540 2531
-893 -532 2497
-886 -532 2502
-881 -534 2512
-888 -543 2555
-873 -539 2537
-865 -539 2540
-854 -537 2532
-851 -539 2546
-843 -539 2548
-834 -539 2546
-827 -539 2551
-814 -536 2537
-807 -536 2540
-800 -537 2544
-788 -534 2532
-782 -535 2540
-776 -536 2547
-775 -541 2571
-761 -537 2554
-763 -544 2589
-749 -539 2569
-740 -538 2565
-734 -539 2572
-717 -533 2542
-717 -539 2573
-717 -544 2600
-705 -541 2587
-694 -539 2577
-687 -539 2581
-681 -540 2587
-673 -541 2591
-667 -542 2597
-658 -541 2596
-649 -540 2592
-643 -542 2599
-633 -540 2592
-626 -541 2598
-618 -541 2598
-612 -542 2604
-608 -545 2622
-594 -539 2596
-596 -549 2642
-585 -545 2627
-576 -545 2626
-566 -542 2614
-558 -542 2615
-551 -543 2618
-541 -541 2613
-534 -542 2615
-528 -544 2627
-522 -545 2635
-514 -546 2636
-504 -543 2623
-493 -539 2608
-490 -545 2635
-483 -546 2643
-473 -543 2629
-462 -540 2612
-458 -544 2635
-450 -544 2637
-445 -547 2651
-435 -544 2638
-429 -547 2652
-419 -544 2637
-411 -544 2639
-402 -542 2630
-395 -543 2635
-391 -548 2658
-380 -544 2641
-374 -547 2656
-363 -542 2634
-356 -544 2640
-349 -545 2647
-343 -548 2661
-333 -544 2644
-328 -549 2668
-318 -545 2649
-311 -546 2654
-302 -544 2646
-294 -544 2646
-287 -545 2652
-280 -546 2654
-270 -543 2639
-264 -545 2650
-255 -542 2638
-249 -546 2658
-240 -545 2652
-234 -548 2665
-226 -547 2662
-218 -546 2659
-209 -543 2643
-203 -550 2676
-195 -548 2667
-185 -543 2645
-177 -543 2642
-165 -528 2570
-142 -476 2318
-130 -460 2242
-120 -448 2181
-114 -449 2187
-109 -454 2211
-103 -453 2209
-96 -454 2214
-91 -458 2229
-87 -471 2292
-83 -490 2388
-81 -519 2528
-76 -537 2614
-70 -547 2663
-62 -549 2674
-55 -551 2683
-47 -551 2681
-39 -545 2653
-31 -553 2690
-24 -551 2681
-16 -550 2676
-8 -553 2688
0 -548 2668
7 -555 2699
15 -549 2671
22 -548 2667
30 -547 2658
38 -545 2651
46 -552 2681
54 -551 2677
61 -548 2661
69 -549 2668
77 -548 2662
85 -551 2676
92 -546 2652
100 -548 2661
108 -547 2657
115 -548 2658
123 -546 2650
131 -549 2664
140 -552 2677
148 -553 2680
154 -549 2660
162 -548 2657
170 -548 2657
178 -549 2660
186 -550 2664
192 -546 2643
200 -547 2648
210 -553 2675
217 -550 2661
222 -543 2629
231 -547 2645
241 -552 2666
248 -549 2653
254 -547 2642
260 -544 2626
269 -546 2637
277 -547 2638
285 -546 2633
295 -550 2654
302 -550 2652
307 -545 2628
313 -542 2612
322 -544 2622
333 -550 2647
341 -551 2651
344 -543 2610
354 -546 2625
363 -548 2632
368 -543 2611
379 -549 2637
386 -548 2630
395 -549 2636
401 -548 2627
407 -546 2616
416 -547 2622
426 -550 2635
431 -546 2614
438 -546 2611
447 -547 2616
457 -550 2628
464 -549 2624
470 -547 2612
483 -553 2641
484 -546 2605
493 -547 2609
499 -545 2600
511 -550 2620
512 -543 2586
521 -545 2591
532 -548 2606
542 -550 2616
547 -548 2603
554 -546 2594
564 -549 2606
570 -548 2597
576 -546 2588
579 -542 2567
592 -547 2587
599 -546 2581
605 -545 2574
613 -545 2575
623 -547 2580
631 -548 2583
638 -547 2579
642 -544 2560
653 -547 2572
655 -542 2550
667 -546 2565
678 -549 2577
682 -546 2561
692 -548 2568
700 -547 2565
707 -547 2561
712 -545 2552
724 -548 2562
731 -548 2561
738 -548 2556
745 -547 2551
747 -543 2528
760 -546 2544
767 -546 2541
772 -545 2531
770 -538 2497
771 -533 2474
773 -529 2454
768 -521 2414
765 -514 2378
764 -509 2352
768 -507 2340
768 -502 2318
763 -494 2277
764 -490 2258
763 -485 2232
760 -479 2203
762 -476 2187
767 -475 2180
767 -471 2159
772 -470 2152
769 -464 2124
772 -462 2112
772 -459 2093
772 -455 2075
776 -453 2065
780 -452 2057
785 -451 2052
798 -455 2067
821 -465 2107
851 -478 2165
904 -504 2279
934 -517 2335
960 -527 2380
993 -541 2440
997 -539 2428
1000 -537 2415
1015 -541 2429
1019 -539 2419
1027 -539 2417
1023 -533 2387
1047 -542 2424
1046 -538 2401
1060 -541 2411
1061 -538 2394
1073 -540 2400
1093 -546 2426
1097 -545 2415
1096 -541 2393
1107 -542 2398
1106 -538 2375
1124 -543 2396
1129 -542 2386
1133 -540 2376
1141 -541 2374
1147 -540 2366
1159 -542 2374
1166 -542 2368
1176 -543 2370
1178 -541 2355
1178 -537 2336
1194 -541 2351
1205 -543 2354
1199 -536 2323
1211 -539 2329
1234 -546 2356
1225 -538 2319
1244 -543 2337
1242 -539 2317
1249 -539 2312
1254 -538 2303
1273 -543 2321
1273 -540 2303
1289 -543 2315
1289 -540 2297
1295 -540 2290
1309 -542 2298
-1357 -521 2307
-1359 -524 2326
-1349 -524 2326
-1353 -528 2350
-1341 -527 2348
-1328 -525 2343
-1331 -529 2366
-1324 -529 2370
-1317 -530 2376
-1301 -526 2365
-1301 -529 2381
-1271 -520 2344
-1272 -524 2364
-1285 -533 2407
-1278 -533 2411
-1260 -529 2396
-1245 -526 2387
-1248 -530 2410
-1240 -530 2413
-1233 -531 2418
-1217 -527 2406
-1212 -528 2413
-1209 -530 2426
-1185 -523 2397
-1200 -534 2448
-1190 -532 2445
-1180 -531 2444
-1164 -528 2431
-1155 -527 2430
-1152 -530 2444
-1152 -533 2464
-1138 -530 2453
-1133 -531 2462
-1124 -531 2464
-1124 -535 2484
-1118 -536 2490
-1101 -531 2472
-1093 -531 2475
-1097 -537 2506
-1074 -530 2474
-1076 -535 2499
-1068 -534 2500
-1056 -532 2493
-1058 -537 2520
-1051 -538 2524
-1038 -535 2514
-1028 -534 2513
-1018 -533 2510
-1014 -535 2523
-1006 -535 2524
-1003 -538 2538
-989 -535 2526
-988 -538 2546
-977 -537 2540
-971 -538 2548
-957 -534 2533
-950 -535 2537
-944 -536 2546
-942 -539 2563
-932 -538 2561
-926 -539 2567
-914 -537 2559
-904 -535 2554
-901 -538 2569
-889 -536 2560
-885 -539 2575
-878 -539 2580
-872 -540 2587
-865 -541 2591
-851 -537 2574
-847 -539 2588
-835 -537 2578
-833 -540 2598
-821 -538 2586
-819 -542 2607
-805 -537 2588
-797 -537 2589
-795 -541 2610
-778 -535 2583
-775 -539 2600
-768 -540 2608
-762 -541 2614
-751 -538 2604
-745 -540 2613
-737 -540 2616
-732 -542 2627
-716 -536 2598
-713 -540 2618
-707 -541 2626
-700 -542 2632
-690 -540 2625
-685 -543 2639
-673 -539 2621
-669 -543 2641
-657 -539 2626
-649 -539 2623
-643 -541 2635
-632 -538 2621
-628 -541 2639
-625 -546 2662
-612 -541 2643
-604 -541 2641
-596 -541 2644
-597 -549 2683
-580 -541 2646
-573 -541 2648
-568 -545 2666
-556 -541 2648
-552 -544 2665
-545 -545 2670
-532 -540 2647
-525 -540 2650
-518 -542 2657
-513 -545 2675
-505 -545 2674
-498 -545 2677
-485 -540 2651
-481 -544 2674
-476 -548 2694
-463 -542 2663
-456 -543 2670
-450 -546 2685
-442 -546 2684
-432 -543 2670
-425 -544 2677
-418 -545 2685
-410 -545 2684
-401 -544 2680
-391 -541 2662
-384 -542 2668
-379 -546 2689
-370 -544 2683
-362 -544 2684
-355 -546 2693
-348 -546 2695
-340 -547 2697
-331 -546 2691
-324 -547 2700
-314 -543 2680
-306 -544 2684
-297 -541 2671
-291 -545 2689
-285 -547 2702
-274 -541 2673
-268 -547 2699
-261 -547 2700
-253 -547 2702
-244 -544 2689
-236 -545 2694
-228 -545 2694
-221 -546 2698
-214 -548 2709
-206 -549 2712
-196 -544 2690
-188 -543 2682
-180 -544 2686
-168 -529 2616
-149 -492 2430
-132 -458 2263
-123 -452 2234
-116 -449 2220
-111 -453 2241
-104 -453 2240
-98 -454 2245
-92 -459 2270
-87 -466 2302
-84 -486 2404
-82 -521 2575
-78 -540 2667
-70 -542 2676
-63 -547 2703
-55 -550 2715
-47 -549 2712
-40 -548 2708
-32 -547 2701
-24 -550 2718
-16 -553 2728
-8 -550 2714
0 -550 2718
7 -546 2698
15 -546 2697
23 -545 2691
31 -550 2713
38 -549 2708
46 -544 2686
54 -548 2701
62 -548 2704
69 -544 2685
78 -549 2707
86 -551 2715
93 -544 2683
102 -551 2714
109 -545 2684
116 -544 2678
124 -546 2687
133 -549 2705
141 -548 2696
149 -549 2700
157 -550 2706
164 -548 2695
171 -545 2680
180 -549 2698
187 -545 2679
196 -548 2695
204 -550 2700
211 -546 2681
219 -546 2682
228 -550 2700
234 -547 2683
242 -546 2680
251 -548 2688
257 -546 2675
268 -551 2702
276 -551 2702
282 -547 2682
289 -546 2672
294 -542 2653
305 -548 2680
313 -548 2681
318 -542 2649
329 -548 2681
335 -544 2660
344 -548 2675
350 -544 2655
358 -544 2654
369 -549 2679
375 -547 2669
382 -546 2659
391 -547 2665
400 -549 2672
406 -546 2660
415 -548 2665
422 -547 2661
429 -546 2653
436 -545 2649
445 -546 2654
454 -548 2658
462 -548 2660
472 -551 2672
479 -550 2668
481 -543 2631
489 -544 2632
501 -549 2655
508 -547 2648
516 -548 2647
523 -547 2641
529 -545 2634
533 -541 2613
547 -547 2640
551 -544 2623
564 -549 2646
565 -543 2613
573 -543 2612
582 -544 2614
591 -545 2621
599 -545 2617
611 -549 2634
615 -546 2617
622 -545 2612
628 -544 2604
642 -549 2630
648 -548 2619
659 -550 2631
667 -551 2630
673 -549 2619
680 -549 2616
684 -545 2597
694 -547 2606
706 -550 2619
707 -546 2594
714 -545 2589
725 -547 2599
733 -547 2596
739 -546 2590
746 -546 2585
758 -548 2595
761 -546 2580
768 -545 2576
772 -542 2558
771 -536 2529
778 -535 2523
768 -524 2466
765 -516 2430
767 -513 2411
762 -505 2370
769 -504 2367
762 -496 2324
765 -493 2310
759 -485 2268
761 -481 2251
766 -481 2245
766 -476 2223
768 -473 2204
772 -472 2196
767 -465 2162
771 -463 2151
781 -465 2158
777 -459 2128
780 -456 2115
777 -451 2087
796 -459 2120
800 -457 2110
821 -466 2147
846 -476 2194
900 -503 2313
939 -520 2391
962 -529 2428
981 -535 2454
992 -537 2460
1013 -544 2490
1010 -539 2461
1025 -543 2477
1023 -537 2450
1040 -543 2470
1042 -540 2453
1046 -538 2443
1053 -537 2437
1078 -546 2474
1067 -537 2430
1085 -543 2451
1089 -540 2438
1101 -543 2446
1100 -538 2422
1118 -544 2443
1128 -545 2445
1126 -540 2420
1134 -541 2419
1140 -540 2411
1152 -542 2417
1162 -543 2419
1167 -542 2411
1173 -541 2403
1184 -542 2405
1183 -539 2385
1205 -545 2410
1211 -544 2403
1206 -539 2376
1210 -537 2365
1234 -545 2394
1248 -547 2401
1235 -538 2359
1250 -542 2369
1249 -538 2349
1265 -541 2360
1260 -536 2334
1276 -540 2345
1291 -543 2355
1290 -539 2336
1299 -540 2335
1308 -541 2333
1309 -538 2316
1331 -544 2338
-1398 -528 2377
-1389 -528 2380
-1376 -526 2375
-1364 -525 2372
-1353 -523 2370
-1345 -523 2374
-1354 -530 2407
-1332 -525 2387
-1327 -526 2395
-1318 -525 2396
-1321 -530 2420
-1291 -521 2384
-1302 -528 2421
-1291 -527 2420
-1281 -526 2419
-1275 -527 2426
-1271 -529 2437
-1269 -531 2452
-1255 -529 2445
-1251 -531 2455
-1243 -531 2459
-1231 -529 2453
-1220 -528 2452
-1224 -533 2479
-1217 -533 2484
-1207 -532 2481
-1190 -528 2466
-1185 -530 2476
-1176 -529 2477
-1169 -530 2482
-1171 -534 2506
-1155 -530 2491
-1151 -532 2504
-1143 -532 2506
-1136 -533 2512
-1130 -533 2518
-1123 -534 2524
-1106 -530 2507
-1110 -536 2536
-1095 -532 2523
-1091 -534 2535
-1085 -535 2542
-1083 -538 2560
-1059 -530 2524
-1055 -532 2536
-1046 -532 2536
-1033 -529 2527
-1038 -535 2559
-1032 -537 2568
-1023 -536 2567
-1012 -535 2563
-1010 -538 2580
-990 -532 2554
-994 -538 2586
-987 -539 2591
-977 -537 2587
-965 -535 2580
-957 -535 2583
-951 -537 2590
-943 -536 2592
-933 -535 2589
-924 -535 2588
-918 -536 2596
-911 -536 2600
-905 -538 2608
-893 -535 2598
-888 -537 2609
-879 -537 2610
-877 -540 2628
-861 -535 2607
-865 -543 2646
-846 -536 2613
-840 -537 2620
-839 -542 2644
-829 -540 2641
-814 -535 2618
-813 -541 2645
-808 -542 2655
-794 -538 2637
-786 -538 2639
-776 -537 2635
-772 -540 2650
-762 -539 2645
-755 -539 2648
-744 -537 2640
-743 -542 2666
-730 -538 2650
-726 -541 2667
-721 -544 2681
-705 -537 2650
-696 -537 2648
-692 -540 2666
-678 -535 2644
-679 -543 2682
-669 -541 2674
-665 -545 2693
-659 -546 2701
-640 -537 2657
-637 -541 2680
-629 -541 2679
-622 -542 2685
-615 -543 2691
-610 -546 2706
-601 -545 2704
-592 -544 2700
-582 -542 2694
-573 -541 2688
-566 -542 2694
-558 -542 2695
-548 -540 2687
-545 -545 2711
-537 -546 2716
-525 -541 2693
-525 -549 2737
-515 -548 2728
-505 -545 2718
-495 -544 2712
-487 -544 2711
-478 -542 2704
-471 -544 2713
-465 -545 2722
-457 -546 2724
-444 -540 2699
-442 -547 2731
-429 -541 2705
-423 -543 2714
-416 -545 2726
-411 -549 2743
-399 -544 2718
-390 -542 2713
-382 -543 2715
-377 -547 2737
-365 -541 2708
-358 -543 2718
-356 -552 2761
-341 -541 2706
-337 -548 2743
-327 -545 2727
-322 -549 2750
-311 -543 2722
-304 -546 2735
-294 -543 2720
-287 -545 2731
-278 -542 2715
-272 -546 2735
-267 -551 2763
-256 -546 2736
-247 -544 2726
-238 -542 2720
-232 -546 2739
-224 -547 2743
-215 -545 2733
-208 -546 2739
-200 -547 2742
-191 -544 2729
-183 -545 2733
-172 -534 2681
-157 -511 2564
-137 -469 2351
-126 -453 2275
-119 -453 2274
-112 -453 2271
-106 -453 2274
-99 -453 2275
-92 -453 2274
-88 -464 2329
-83 -475 2384
-82 -509 2555
-79 -539 2701
-73 -552 2769
-64 -549 2754
-56 -547 2741
-48 -547 2742
-40 -550 2757
-32 -549 2751
-24 -547 2742
-16 -552 2767
-8 -551 2760
0 -547 2744
7 -549 2750
15 -548 2746
23 -553 2770
31 -545 2731
39 -552 2763
47 -543 2721
55 -551 2759
63 -548 2743
71 -547 2738
79 -551 2758
87 -546 2731
95 -548 2739
103 -546 2732
111 -550 2752
119 -546 2732
128 -553 2765
135 -547 2735
142 -547 2731
150 -547 2732
158 -546 2725
167 -548 2735
174 -547 2729
181 -544 2716
189 -544 2716
197 -543 2707
205 -543 2706
214 -548 2731
223 -549 2734
230 -548 2731
239 -549 2736
247 -549 2735
253 -544 2710
263 -550 2735
269 -546 2719
278 -547 2722
284 -544 2704
295 -549 2729
299 -543 2699
308 -545 2705
315 -544 2699
326 -548 2720
331 -543 2695
339 -544 2696
347 -545 2699
355 -544 2696
366 -549 2718
372 -545 2699
379 -545 2699
392 -552 2732
393 -542 2680
403 -545 2691
411 -546 2697
421 -548 2708
424 -542 2676
436 -546 2696
442 -544 2683
447 -541 2669
460 -547 2697
466 -545 2686
477 -549 2700
484 -548 2696
489 -545 2678
497 -544 2674
506 -546 2682
512 -544 2672
522 -546 2678
528 -544 2669
539 -548 2685
544 -545 2668
554 -547 2677
564 -549 2685
568 -545 2662
580 -549 2681
583 -544 2658
592 -546 2664
597 -542 2646
608 -546 2661
613 -543 2647
621 -543 2646
634 -548 2667
636 -543 2639
645 -544 2643
653 -544 2642
663 -546 2649
678 -551 2673
681 -547 2651
692 -550 2664
693 -545 2636
704 -547 2644
717 -551 2661
718 -546 2634
727 -547 2637
737 -548 2641
746 -549 2643
750 -546 2627
760 -548 2634
766 -546 2625
769 -543 2607
779 -545 2614
773 -535 2563
767 -526 2518
769 -522 2496
768 -516 2468
763 -508 2425
765 -504 2406
763 -498 2376
764 -494 2355
762 -488 2324
759 -482 2293
762 -480 2278
765 -477 2264
763 -472 2237
770 -472 2235
768 -467 2208
772 -465 2198
774 -462 2183
780 -461 2177
785 -461 2170
781 -454 2139
791 -456 2147
800 -458 2151
812 -461 2164
839 -473 2215
888 -497 2325
932 -517 2419
954 -525 2453
980 -536 2499
992 -538 2506
996 -536 2494
1018 -544 2527
1030 -546 2535
1031 -542 2515
1044 -545 2524
1041 -540 2496
1048 -539 2491
1061 -542 2501
1069 -542 2498
1084 -546 2511
1089 -544 2501
1090 -541 2483
1101 -543 2489
1110 -543 2487
1122 -545 2494
1132 -547 2496
1129 -541 2468
1136 -541 2462
1138 -538 2448
1155 -543 2464
1159 -541 2453
1167 -541 2450
1176 -541 2449
1185 -542 2448
1188 -540 2435
1203 -544 2447
1206 -541 2433
1219 -544 2441
1220 -541 2423
1231 -542 2427
1238 -542 2420
1249 -543 2424
1246 -539 2399
1259 -541 2405
1274 -544 2416
1270 -539 2389
1283 -541 2396
1288 -540 2387
1294 -540 2380
1297 -538 2368
1315 -542 2382
1323 -542 2378
1331 -542 2376
1338 -542 2369
1349 -543 2372
-1409 -525 2399
-1389 -520 2381
-1390 -524 2401
-1381 -523 2404
-1388 -529 2434
-1374 -527 2426
-1362 -525 2424
-1356 -526 2430
-1348 -526 2436
-1358 -533 2471
-1333 -527 2444
-1334 -530 2464
-1316 -526 2450
-1316 -530 2468
-1298 -525 2453
-1295 -527 2466
-1288 -528 2472
-1286 -531 2488
-1279 -531 2493
-1275 -533 2503
-1260 -530 2494
-1258 -532 2510
-1253 -534 2519
-1230 -527 2491
-1230 -531 2511
-1215 -528 2501
-1218 -533 2527
-1194 -526 2497
-1201 -532 2531
-1184 -528 2515
-1173 -527 2511
-1171 -530 2528
-1169 -533 2545
-1150 -528 2524
-1150 -531 2545
-1142 -531 2548
-1138 -533 2559
-1129 -533 2560
-1127 -536 2576
-1120 -536 2583
-1122 -541 2609
-1105 -537 2592
-1085 -531 2566
-1081 -533 2577
-1076 -535 2588
-1072 -537 2601
-1057 -533 2587
-1041 -529 2569
-1041 -533 2592
-1030 -532 2587
-1032 -537 2615
-1018 -534 2602
-1020 -539 2631
-1018 -543 2650
-991 -533 2604
-984 -533 2608
-975 -533 2607
-974 -536 2628
-968 -538 2637
-957 -536 2630
-952 -538 2642
-946 -539 2651
-940 -541 2659
-924 -536 2638
-914 -535 2635
-905 -534 2634
-908 -541 2669
-895 -538 2657
-892 -541 2673
-881 -539 2667
-870 -538 2662
-864 -539 2669
-851 -536 2658
-845 -537 2665
-840 -539 2677
-828 -537 2667
-824 -540 2681
-814 -538 2676
-804 -537 2674
-793 -535 2665
-794 -541 2697
-774 -533 2658
-774 -539 2688
-778 -547 2730
-760 -540 2698
-749 -538 2690
-753 -547 2736
-729 -536 2680
-725 -538 2694
-716 -538 2693
-710 -539 2702
-705 -542 2716
-693 -539 2703
-692 -545 2732
-677 -539 2705
-669 -539 2708
-665 -543 2729
-658 -544 2734
-643 -538 2705
-639 -542 2725
-631 -542 2727
-623 -542 2728
-613 -540 2722
-611 -546 2751
-600 -543 2739
-589 -540 2725
-584 -544 2743
-578 -546 2754
-568 -544 2746
-560 -544 2747
-554 -546 2760
-541 -541 2734
-536 -544 2751
-525 -541 2736
-523 -548 2771
-512 -545 2758
-502 -543 2750
-496 -546 2764
-488 -546 2764
-479 -544 2756
-469 -542 2747
-460 -542 2745
-456 -547 2771
-445 -543 2753
-435 -541 2743
-431 -545 2767
-419 -541 2745
-414 -545 2764
-404 -542 2754
-396 -543 2757
-387 -541 2748
-381 -544 2766
-372 -542 2757
-365 -545 2771
-353 -540 2742
-349 -545 2769
-340 -545 2769
-334 -547 2782
-323 -544 2764
-317 -546 2778
-309 -547 2785
-301 -547 2781
-294 -549 2794
-283 -543 2765
-275 -544 2770
-267 -545 2772
-260 -546 2778
-253 -550 2800
-243 -544 2770
-234 -543 2764
-226 -543 2765
-219 -545 2777
-211 -547 2787
-203 -547 2787
-196 -550 2801
-187 -549 2794
-179 -548 2793
-163 -524 2667
-141 -477 2430
-128 -455 2320
-118 -445 2269
-114 -452 2304
-107 -451 2299
-102 -458 2336
-94 -454 2313
-87 -455 2318
-84 -476 2423
-82 -505 2574
-80 -541 2753
-73 -545 2777
-65 -544 2771
-57 -546 2779
-49 -550 2803
-40 -546 2778
-33 -548 2789
-25 -554 2818
-16 -548 2788
-8 -550 2798
0 -546 2780
7 -550 2796
15 -548 2790
23 -547 2784
32 -551 2801
39 -545 2771
47 -544 2767
56 -547 2782
64 -551 2800
73 -553 2812
80 -548 2784
88 -546 2776
96 -548 2783
104 -547 2780
113 -548 2782
121 -548 2781
128 -543 2755
137 -549 2786
144 -545 2764
153 -549 2785
160 -546 2768
168 -545 2765
177 -548 2776
186 -549 2782
193 -547 2770
203 -552 2797
209 -546 2762
220 -554 2802
225 -547 2769
232 -544 2754
244 -552 2793
248 -543 2747
258 -547 2766
267 -549 2773
273 -545 2755
281 -546 2759
289 -546 2758
299 -548 2767
307 -548 2766
313 -545 2751
322 -547 2756
331 -548 2763
338 -546 2751
347 -548 2760
354 -546 2749
363 -548 2757
368 -544 2737
379 -548 2755
389 -551 2767
391 -543 2725
404 -549 2757
411 -548 2749
420 -549 2752
426 -547 2743
433 -545 2731
440 -544 2725
451 -548 2743
457 -545 2726
464 -544 2721
477 -550 2751
484 -548 2741
487 -543 2712
496 -544 2715
503 -543 2711
513 -545 2720
520 -544 2713
530 -547 2724
538 -546 2719
542 -543 2700
551 -543 2702
561 -546 2712
565 -541 2689
576 -544 2702
584 -545 2703
591 -544 2698
599 -544 2693
607 -543 2691
615 -544 2692
625 -546 2699
633 -546 2698
645 -549 2714
643 -541 2670
660 -548 2703
662 -543 2678
670 -543 2676
685 -549 2702
691 -548 2695
700 -548 2694
705 -546 2682
703 -538 2642
719 -545 2672
726 -544 2665
738 -547 2679
749 -549 2687
753 -546 2671
760 -546 2665
767 -545 2660
769 -541 2637
776 -540 2632
776 -535 2603
770 -525 2555
763 -515 2506
763 -510 2479
764 -506 2456
765 -502 2433
763 -496 2400
763 -491 2375
761 -485 2346
763 -482 2327
762 -477 2303
766 -475 2290
764 -470 2263
769 -469 2255
771 -465 2238
772 -462 2220
779 -462 2218
777 -457 2192
783 -457 2187
786 -455 2176
796 -456 2181
816 -464 2215
835 -471 2248
885 -496 2361
938 -521 2480
955 -527 2502
981 -537 2547
1004 -545 2584
1003 -540 2558
1017 -543 2571
1019 -540 2553
1035 -545 2570
1030 -538 2535
1043 -541 2546
1048 -539 2536
1055 -538 2529
1066 -540 2535
1082 -544 2550
1076 -538 2516
1090 -541 2527
1088 -536 2501
1111 -543 2532
1111 -540 2512
1135 -547 2544
1133 -543 2519
1141 -543 2517
1143 -540 2501
1155 -542 2506
1161 -541 2500
1170 -541 2497
1173 -540 2485
1184 -541 2488
1192 -541 2483
1203 -543 2488
1206 -540 2473
1206 -537 2454
1218 -539 2459
1229 -540 2462
1241 -542 2466
1241 -539 2447
1259 -543 2464
1256 -538 2438
1264 -538 2435
1279 -542 2446
1292 -544 2452
1303 -545 2454
1305 -543 2439
1316 -544 2441
1317 -541 2424
1330 -544 2430
1328 -539 2407
1336 -539 2403
1354 -544 2417
1360 -543 2411
1370 -544 2411
-1422 -522 2422
-1419 -524 2435
-1417 -526 2450
-1421 -530 2474
-1410 -529 2474
-1398 -528 2471
-1386 -526 2467
-1379 -527 2473
-1358 -522 2455
-1377 -533 2508
-1347 -524 2472
-1322 -518 2444
-1339 -527 2493
-1325 -525 2487
-1320 -526 2496
-1311 -526 2499
-1317 -532 2529
-1302 -529 2520
-1297 -530 2529
-1294 -532 2543
-1274 -528 2523
-1271 -530 2537
-1260 -529 2534
-1254 -529 2542
-1248 -531 2550
-1234 -528 2542
-1250 -538 2594
-1216 -527 2544
-1215 -530 2561
-1211 -532 2574
-1204 -533 2581
-1199 -534 2590
-1181 -530 2571
-1169 -528 2568
-1172 -533 2594
-1160 -532 2589
-1153 -532 2595
-1144 -532 2596
-1138 -533 2604
-1133 -535 2615
-1116 -530 2596
-1120 -536 2627
-1102 -531 2607
-1095 -532 2613
-1100 -538 2648
-1081 -533 2623
-1068 -531 2616
-1069 -535 2641
-1061 -535 2643
-1053 -536 2646
-1042 -534 2642
-1031 -533 2639
-1017 -530 2624
-1009 -530 2628
-1002 -531 2633
-1007 -537 2669
-998 -537 2670
-988 -536 2668
-983 -538 2680
-967 -534 2661
-970 -540 2694
-958 -538 2687
-945 -535 2675
-938 -536 2680
-930 -536 2684
-921 -536 2682
-911 -535 2679
-909 -538 2700
-906 -542 2718
-892 -538 2704
-881 -536 2697
-875 -538 2705
-868 -539 2712
-859 -538 2710
-849 -537 2707
-838 -535 2700
-831 -536 2707
-829 -540 2727
-822 -541 2733
-808 -537 2716
-808 -542 2745
-792 -537 2721
-780 -535 2710
-784 -544 2755
-767 -537 2724
-765 -542 2749
-752 -538 2734
-743 -538 2734
-741 -542 2756
-723 -535 2720
-720 -539 2743
-715 -542 2757
-705 -540 2750
-693 -537 2737
-695 -545 2779
-684 -543 2770
-667 -537 2739
-666 -542 2767
-659 -544 2776
-648 -541 2762
-644 -544 2782
-636 -545 2785
-627 -544 2783
-614 -540 2764
-608 -542 2775
-598 -541 2769
-589 -540 2768
-583 -542 2777
-575 -542 2781
-566 -542 2779
-559 -543 2785
-548 -540 2773
-545 -545 2799
-535 -543 2791
-524 -541 2778
-523 -548 2816
-512 -546 2805
-509 -552 2836
-494 -544 2797
-484 -542 2791
-476 -542 2789
-465 -540 2778
-459 -541 2787
-451 -543 2795
-440 -539 2775
-436 -544 2806
-428 -544 2806
-419 -543 2802
-411 -543 2801
-405 -546 2818
-391 -538 2777
-386 -543 2803
-377 -542 2797
-375 -551 2843
-363 -547 2822
-356 -547 2826
-347 -547 2826
-340 -548 2832
-326 -540 2789
-322 -546 2823
-312 -543 2805
-305 -546 2823
-298 -548 2831
-287 -544 2811
-281 -548 2830
-271 -544 2813
-263 -545 2819
-255 -545 2819
-247 -545 2819
-238 -544 2811
-231 -547 2827
-223 -547 2828
-213 -544 2811
-206 -547 2827
-198 -548 2834
-189 -545 2817
-179 -541 2799
-167 -528 2733
-147 -489 2532
-131 -459 2375
-121 -449 2324
-114 -448 2317
-109 -455 2354
-101 -449 2324
-96 -457 2364
-89 -455 2352
-84 -465 2408
-82 -498 2574
-82 -548 2832
-74 -549 2839
-66 -546 2822
-58 -549 2840
-50 -549 2840
-41 -551 2848
-33 -551 2849
-25 -551 2846
-16 -546 2822
-8 -550 2842
0 -554 2860
7 -551 2848
15 -547 2824
24 -545 2816
32 -546 2821
40 -553 2853
48 -546 2821
56 -546 2818
65 -550 2840
73 -544 2808
82 -551 2844
89 -543 2802
97 -543 2800
105 -543 2802
114 -546 2816
123 -548 2827
131 -550 2836
139 -549 2829
147 -548 2821
155 -547 2816
163 -547 2815
171 -545 2804
180 -548 2820
188 -548 2820
195 -545 2804
204 -546 2806
212 -546 2808
221 -547 2812
227 -543 2790
235 -543 2789
246 -548 2817
253 -547 2809
262 -549 2818
270 -548 2813
278 -547 2804
285 -544 2791
291 -542 2777
304 -550 2817
309 -544 2784
316 -543 2781
327 -547 2802
336 -548 2806
345 -549 2810
350 -545 2789
362 -551 2816
368 -547 2796
375 -545 2784
382 -544 2775
392 -547 2788
399 -545 2780
407 -545 2776
415 -545 2775
425 -547 2788
432 -546 2778
442 -548 2787
447 -544 2768
454 -543 2761
467 -549 2788
469 -541 2749
485 -550 2794
491 -549 2783
495 -544 2758
502 -542 2750
515 -548 2777
518 -543 2749
532 -549 2776
536 -545 2756
540 -540 2730
552 -545 2752
558 -542 2739
572 -548 2765
579 -547 2759
582 -543 2735
587 -540 2718
604 -547 2755
608 -544 2736
622 -549 2759
626 -545 2739
632 -544 2732
643 -546 2741
645 -541 2715
660 -547 2739
666 -545 2730
671 -543 2716
688 -550 2748
694 -548 2738
697 -544 2719
706 -545 2720
718 -548 2734
719 -543 2705
735 -548 2731
740 -546 2719
747 -546 2713
754 -545 2705
759 -542 2692
763 -539 2676
778 -545 2700
775 -537 2659
769 -528 2611
768 -521 2577
759 -510 2521
767 -510 2518
762 -502 2476
767 -500 2466
763 -493 2427
763 -488 2401
761 -483 2373
764 -480 2357
766 -477 2339
765 -472 2313
770 -470 2303
773 -468 2290
769 -461 2255
