VERSION 0.7
FIELDS x y z
SIZE 4 4 4
TYPE I I I
COUNT 1 1 1
WIDTH 3789
HEIGHT 1
VIEWPOINT 0.0 0.0 0.0 1.0 0.0 0.0 0.0
POINTS 3789
DATA ascii
-488 -561 4815
-479 -567 4868
-464 -566 4861
-447 -563 4834
-438 -569 4888
-421 -565 4853
-405 -563 4835
-392 -564 4842
-383 -572 4913
-370 -574 4931
-352 -567 4872
-339 -570 4897
-324 -567 4871
-310 -568 4879
-298 -573 4920
-280 -564 4842
-265 -563 4834
-253 -568 4879
-241 -572 4912
-223 -563 4835
-211 -569 4880
-196 -566 4860
-180 -560 4805
-165 -557 4779
0 0 0
0 0 0
0 0 0
0 0 0
0 0 0
-83 -561 4808
-69 -559 4795
-56 -563 4825
-42 -572 4897
-28 -570 4885
-14 -570 4880
0 -575 4925
13 -565 4839
27 -570 4882
42 -573 4903
55 -568 4856
70 -573 4901
84 -573 4903
97 -566 4836
112 -570 4875
126 -571 4876
140 -572 4884
154 -570 4872
168 -569 4862
182 -572 4884
196 -572 4881
209 -567 4839
224 -570 4862
241 -577 4924
253 -574 4892
267 -572 4873
280 -571 4869
292 -567 4833
306 -567 4826
322 -570 4851
336 -570 4849
349 -569 4846
366 -573 4878
380 -573 4872
392 -571 4854
407 -572 4857
422 -574 4876
432 -568 4821
448 -571 4848
463 -573 4860
473 -567 4810
488 -568 4817
496 -562 4764
513 -566 4796
534 -573 4853
535 -560 4742
553 -564 4776
573 -571 4827
583 -566 4788
600 -569 4813
618 -574 4845
626 -568 4793
642 -570 4807
659 -573 4833
669 -570 4803
682 -569 4795
695 -568 4783
711 -570 4797
733 -577 4852
741 -572 4810
753 -570 4791
759 -565 4745
778 -568 4769
789 -566 4752
776 -547 4593
786 -545 4571
777 -530 4442
776 -520 4357
786 -519 4345
790 -513 4296
809 -517 4324
803 -506 4228
795 -493 4121
786 -480 4008
788 -474 3959
833 -494 4121
847 -496 4131
926 -535 4452
979 -557 4637
1013 -569 4732
1017 -563 4682
1034 -565 4695
1062 -573 4759
1065 -567 4706
1080 -568 4708
1093 -568 4704
1110 -570 4715
1119 -567 4690
1129 -565 4672
1141 -565 4663
1167 -571 4711
1169 -565 4661
1195 -571 4706
1199 -566 4665
1211 -565 4653
1226 -566 4655
1247 -570 4682
1251 -565 4642
1281 -573 4698
1266 -560 4588
1286 -563 4608
1310 -567 4641
1341 -575 4699
1324 -562 4590
1347 -566 4618
1354 -563 4593
1383 -570 4641
1386 -565 4602
1407 -568 4622
1411 -564 4586
1418 -562 4562
1444 -567 4597
1440 -560 4539
1473 -568 4596
1490 -569 4600
1496 -566 4574
1519 -570 4598
1508 -560 4519
1529 -563 4538
1561 -570 4589
1569 -568 4566
1577 -566 4546
1578 -562 4505
1599 -564 4524
1599 -559 4479
1632 -567 4532
1640 -564 4510
1645 -562 4482
1662 -563 4488
1680 -565 4495
1706 -569 4525
1717 -568 4511
1721 -565 4483
1706 -556 4403
1740 -562 4452
1780 -571 4514
1776 -565 4466
1794 -567 4471
1788 -561 4417
1817 -566 4451
1831 -566 4446
1848 -567 4450
1833 -558 4376
1851 -560 4382
1864 -560 4377
1889 -563 4398
1924 -570 4442
1921 -565 4399
1932 -564 4387
1937 -562 4364
1979 -570 4422
1965 -562 4354
1980 -563 4352
2011 -568 4386
2040 -572 4412
2037 -568 4372
2055 -569 4376
2046 -563 4322
2104 -575 4409
2072 -563 4308
2089 -563 4308
2151 -577 4402
2148 -572 4362
2148 -569 4329
2127 -560 4253
2157 -564 4280
2184 -568 4301
2201 -569 4301
2273 -584 4408
2244 -573 4317
2214 -562 4228
2245 -566 4254
2295 -575 4317
2295 -572 4284
2302 -571 4266
2316 -571 4260
2386 -585 4356
2371 -578 4296
2374 -575 4270
2403 -579 4290
-14 -2 25
2 1 -4
-16 -2 29
-15 -2 26
-2447 -539 4357
-34 -6 61
-23 -4 42
-49 -10 89
-39 -7 71
-56 -11 104
-51 -10 96
-58 -12 109
-4 0 9
-8 -1 16
-2330 -545 4469
-7 0 14
-21 -4 42
-26 -5 53
0 1 -1
-27 -5 55
-22 -4 44
-12 -2 25
-29 -6 61
-22 -4 46
-2177 -543 4510
-2173 -546 4536
-9 -1 20
-11 -2 24
-2134 -547 4561
-10 -1 22
-5 0 13
-3 0 8
-11 -2 26
-9 -1 21
-2046 -547 4589
-11 -2 27
-2023 -549 4611
-30 -7 71
-6 0 15
-1980 -549 4628
1 1 -2
-1935 -545 4599
-1934 -548 4635
-1911 -546 4618
-1912 -551 4661
1 1 -2
-1877 -549 4655
-4 0 13
-2 0 7
-8 -2 24
-7 -1 22
-13 -3 37
-1784 -547 4663
-9 -2 26
0 0 0
1 1 -1
-1743 -552 4721
-8 -2 25
-16 -4 47
-4 0 15
-1689 -554 4748
-1668 -552 4734
0 0 2
-1643 -553 4751
-1634 -555 4770
-1619 -555 4774
-8 -2 28
-4 -1 16
-1570 -553 4765
-1555 -553 4768
-1547 -555 4791
-1518 -550 4749
-1513 -553 4780
-1504 -555 4802
1 0 0
-1476 -556 4810
-1453 -553 4785
-1441 -554 4796
-10 -3 39
0 0 3
-1403 -556 4821
-1395 -558 4847
-1380 -558 4849
-1355 -554 4815
-1347 -557 4840
-1326 -554 4819
-1310 -554 4817
-1301 -556 4837
-1291 -558 4856
-1276 -557 4855
-1258 -556 4847
0 0 9
-1235 -559 4875
-1220 -558 4871
-1203 -557 4863
2 1 -3
-1168 -555 4845
-1166 -561 4899
-1152 -561 4901
-1124 -554 4844
-1099 -549 4803
-1094 -553 4843
0 0 5
-1069 -556 4865
-1058 -557 4882
-1050 -561 4915
-1036 -561 4918
-1012 -556 4874
-1006 -561 4916
-985 -557 4887
-982 -563 4942
-962 -560 4918
-948 -561 4921
-929 -558 4896
-912 -556 4885
-904 -561 4923
-887 -559 4907
-879 -563 4943
-857 -558 4903
-835 -553 4861
-833 -561 4936
-4 -3 41
-806 -563 4950
-788 -560 4926
-780 -565 4967
-760 -561 4937
-750 -564 4964
-738 -567 4986
-717 -561 4940
-704 -562 4950
-688 -561 4940
-679 -566 4983
-659 -561 4942
-645 -562 4946
-632 -563 4959
-620 -566 4980
-601 -561 4944
-590 -565 4972
-569 -558 4914
-560 -563 4962
-544 -562 4950
-533 -565 4978
-517 -564 4964
2 0 2
-493 -569 5015
-474 -563 4963
-462 -568 4999
-446 -565 4975
-431 -564 4971
-416 -564 4969
-404 -567 4998
1 0 7
0 -1 24
-362 -570 5018
-344 -563 4961
2 1 -1
-318 -569 5011
-301 -563 4961
-286 -563 4960
-272 -564 4969
1 0 12
-243 -564 4962
-231 -570 5015
-215 -565 4977
2 0 3
-186 -565 4974
-169 -554 4877
0 0 0
0 0 0
0 0 0
0 0 0
0 0 0
1 -5 53
-72 -567 4985
-57 -568 4990
-43 -571 5014
-29 -567 4980
-14 -569 4996
0 -569 5001
14 -571 5014
28 -566 4973
43 -572 5016
56 -565 4954
71 -571 5014
86 -572 5017
101 -573 5027
114 -566 4965
130 -573 5023
144 -574 5031
158 -571 5001
3 0 5
187 -572 5012
200 -567 4965
216 -573 5016
231 -573 5011
3 0 12
257 -567 4957
275 -576 5035
286 -569 4969
298 -564 4932
4 -1 19
329 -569 4969
343 -568 4961
3 0 5
376 -575 5014
386 -569 4961
402 -571 4976
417 -572 4984
431 -571 4974
447 -574 4997
459 -570 4962
475 -572 4977
486 -568 4944
500 -569 4944
514 -568 4939
529 -569 4946
541 -567 4922
554 -566 4911
575 -572 4967
591 -574 4981
597 -566 4908
5 0 14
626 -567 4911
647 -572 4956
656 -569 4920
672 -570 4928
690 -573 4951
706 -575 4965
718 -573 4945
734 -574 4956
741 -568 4903
751 -565 4877
773 -571 4923
781 -567 4884
781 -557 4793
791 -554 4766
786 -540 4650
805 -544 4680
779 -518 4455
801 -524 4503
801 -515 4424
818 -518 4447
824 -514 4408
784 -482 4128
819 -496 4246
799 -476 4077
858 -504 4310
904 -523 4475
945 -540 4610
1005 -566 4831
1013 -563 4802
1032 -566 4824
1061 -574 4888
1064 -568 4836
1080 -569 4841
1107 -576 4896
1112 -571 4851
1120 -567 4819
1136 -568 4824
1151 -569 4827
1171 -572 4847
1171 -565 4788
1189 -567 4800
1195 -563 4763
1216 -567 4787
1222 -563 4754
1246 -568 4791
1256 -566 4770
1269 -566 4765
1280 -564 4750
1300 -567 4770
1309 -565 4745
1330 -568 4770
1348 -570 4778
1346 -563 4717
1374 -569 4764
1384 -567 4747
1381 -560 4685
1416 -569 4753
1413 -562 4690
1428 -563 4691
1430 -558 4649
1472 -569 4735
1475 -565 4696
1505 -571 4743
1507 -567 4703
1518 -565 4687
1526 -563 4665
1545 -565 4677
1555 -564 4663
1553 -558 4609
1585 -565 4660
1610 -569 4689
1607 -563 4636
1626 -565 4645
1640 -565 4641
1666 -569 4669
1669 -565 4635
1685 -566 4636
1687 -562 4598
1704 -563 4603
1738 -570 4652
1719 -559 4559
1757 -567 4620
1764 -565 4595
1766 -561 4559
1777 -560 4548
1812 -567 4598
1836 -570 4618
1854 -572 4623
1822 -558 4504
1861 -565 4561
1872 -564 4548
1895 -567 4565
1922 -571 4590
1914 -565 4532
1938 -568 4551
1961 -570 4566
1939 -560 4480
1976 -567 4526
1995 -569 4533
1997 -565 4501
2024 -569 4524
2021 -564 4481
2030 -563 4464
2081 -573 4539
2075 -568 4490
2085 -567 4476
2089 -564 4449
2113 -567 4465
2119 -565 4441
2151 -570 4474
2157 -568 4450
2185 -572 4473
2220 -577 4511
2209 -571 4452
2212 -568 4425
2260 -577 4486
2253 -571 4437
2265 -571 4428
5 0 0
2286 -569 4400
2331 -577 4453
2326 -573 4409
2354 -576 4430
2361 -574 4409
2376 -575 4404
2384 -574 4387
13 0 13
2432 -578 4408
2439 -577 4388
2440 -574 4358
-62 -12 107
-69 -13 121
-78 -15 136
-72 -14 128
-47 -9 85
-54 -10 97
-51 -10 93
-67 -13 122
-79 -16 146
-81 -17 150
-96 -20 180
-95 -20 178
-67 -14 127
-136 -29 259
-143 -31 275
-80 -17 156
-77 -17 151
-77 -17 151
-104 -23 207
-76 -17 153
-50 -11 102
-91 -21 186
-65 -14 134
-82 -19 171
-83 -19 173
-67 -15 140
-74 -17 156
-59 -13 126
-64 -15 139
-52 -12 114
-60 -14 131
-49 -11 110
-52 -12 118
-65 -16 147
-68 -16 153
-39 -9 91
-75 -19 172
-64 -16 149
-17 -3 42
-42 -10 101
-41 -10 99
-52 -13 127
-41 -10 101
-73 -19 180
-43 -11 108
-55 -14 137
-63 -17 158
-32 -8 84
-34 -9 89
-65 -18 168
-60 -16 156
-73 -21 193
-63 -18 168
-50 -14 135
-39 -11 108
-72 -21 198
-43 -12 121
-45 -13 126
-57 -17 161
-50 -15 142
-45 -14 131
-50 -15 146
-29 -8 86
-44 -13 130
-71 -23 212
-36 -11 111
-50 -16 153
-15 -4 50
-47 -15 146
-48 -16 152
-59 -20 188
-18 -6 62
-46 -16 150
-19 -6 66
-39 -13 130
-38 -13 131
-56 -20 189
-26 -9 91
-35 -12 122
-24 -9 89
-2 0 12
-24 -9 91
-44 -17 160
-26 -10 98
-27 -10 104
-16 -6 64
-15 -6 63
-22 -8 88
-20 -8 81
-35 -14 139
-36 -15 147
-23 -9 96
-34 -15 143
-17 -7 74
-17 -7 79
-36 -16 155
-24 -11 109
-31 -14 137
-42 -20 189
-20 -9 97
-20 -9 97
-45 -22 209
-25 -12 121
-23 -11 114
-26 -13 128
-27 -14 134
-3 -2 27
-31 -16 159
-21 -11 114
-30 -16 159
-14 -8 83
-21 -12 121
-23 -13 130
-27 -15 152
-26 -15 149
-16 -10 99
-8 -5 57
-26 -17 162
-21 -13 131
-9 -6 68
-15 -10 103
-16 -11 111
-15 -10 106
-21 -15 148
-10 -7 77
-6 -5 58
-6 -5 59
-11 -9 90
-8 -7 76
-14 -11 114
-7 -6 70
-7 -6 71
-13 -11 115
-12 -11 112
-20 -18 176
-7 -7 80
-12 -12 123
-10 -10 103
-9 -10 100
-7 -8 85
-9 -10 104
-7 -9 94
-9 -11 116
-4 -6 64
-11 -14 141
-8 -11 115
-3 -6 63
-7 -11 108
-10 -15 152
-9 -14 142
-6 -11 114
-1 -5 55
-8 -15 149
-7 -13 131
-4 -10 100
-4 -11 109
0 -4 47
-2 -7 78
-2 -9 90
0 -5 57
-5 -15 147
-3 -12 124
-1 -7 78
-3 -13 129
-2 -12 117
1 -2 33
-1 -13 125
0 0 0
0 0 0
0 0 0
0 0 0
-15 -94 862
0 -20 189
1 -7 74
2 -4 51
1 -13 132
2 -8 80
2 -10 99
2 -3 41
3 -7 75
3 -12 117
3 -9 97
3 -9 97
3 -6 66
5 -14 138
4 -9 94
4 -8 87
6 -13 132
6 -14 136
7 -13 131
4 -5 56
8 -14 142
8 -14 135
9 -16 158
6 -8 81
8 -11 107
10 -15 147
8 -10 104
7 -8 84
9 -11 111
6 -4 53
7 -5 57
12 -13 132
15 -17 164
8 -7 76
12 -12 121
7 -4 49
14 -13 132
11 -10 98
11 -8 88
10 -7 78
14 -11 113
5 0 17
16 -14 134
9 -6 63
9 -5 54
7 -2 33
10 -6 65
8 -3 41
18 -12 123
17 -11 114
11 -6 63
9 -4 46
11 -6 64
14 -8 80
16 -9 94
8 -3 37
13 -6 70
15 -8 84
14 -7 73
10 -4 44
13 -6 63
776 -558 4939
786 -555 4910
790 -548 4845
792 -540 4773
768 -515 4548
795 -524 4622
807 -523 4614
795 -507 4469
812 -509 4488
821 -507 4466
833 -507 4458
843 -505 4442
861 -508 4462
917 -533 4683
954 -546 4795
991 -560 4909
1002 -558 4892
35 -16 151
8 -1 19
13 -4 45
12 -3 39
20 -7 76
11 -3 35
11 -2 34
13 -3 41
6 0 9
25 -9 90
3 1 -2
1180 -562 4886
6 0 7
9 -1 22
11 -2 30
1234 -561 4861
7 0 12
17 -5 51
3 1 -3
17 -5 51
24 -7 74
1327 -564 4867
9 -1 20
1347 -561 4832
9 -1 17
4 0 0
18 -4 50
1382 -552 4742
12 -2 26
3 1 -2
1450 -563 4817
17 -4 42
12 -2 27
17 -3 40
6 0 6
12 -2 26
9 0 14
1545 -561 4772
1563 -562 4779
18 -4 42
1588 -562 4763
1592 -558 4729
40 -11 107
1637 -564 4768
12 -1 23
10 -1 18
19 -3 40
7 0 7
9 0 13
27 -6 63
22 -4 48
30 -7 70
1757 -562 4705
1767 -560 4687
1778 -560 4675
17 -3 33
27 -5 57
7 0 7
6 0 2
30 -6 65
1874 -563 4672
36 -8 77
4 1 -1
1916 -563 4655
31 -6 63
12 -1 17
11 -1 15
45 -10 96
5 0 1
36 -8 73
43 -9 87
46 -10 95
46 -10 92
52 -12 106
31 -6 57
13 -1 18
70 -16 143
68 -16 137
45 -9 86
51 -11 99
34 -6 62
46 -9 86
39 -8 72
15 -1 21
36 -7 63
44 -9 80
35 -6 59
66 -14 121
32 -5 53
53 -11 94
6 0 2
48 -9 83
19 -2 26
56 -11 98
79 -16 139
58 -11 99
39 -7 63
76 -16 132
38 -6 61
19 -2 24
85 -17 145
72 -14 120
58 -11 95
-94 -18 163
-113 -22 197
-125 -24 219
-105 -21 187
-86 -17 154
-74 -14 133
-61 -12 110
-79 -16 145
-92 -18 169
-93 -19 173
-141 -29 262
-173 -36 325
-177 -38 336
-185 -40 353
-212 -46 407
-148 -32 286
-188 -41 367
-170 -37 334
-173 -38 343
-162 -36 323
-156 -35 315
-164 -37 333
-101 -22 208
-168 -38 348
-150 -34 311
-114 -26 240
-154 -36 326
-130 -30 277
-124 -29 267
-123 -29 266
-145 -35 316
-116 -28 257
-134 -32 298
-122 -30 273
-125 -31 283
-107 -26 245
-136 -34 312
-141 -36 327
-103 -26 242
-109 -28 257
-93 -23 221
-101 -26 243
-122 -32 295
-99 -26 243
-109 -29 269
-111 -29 275
-76 -20 191
-91 -24 230
-105 -28 267
-104 -28 267
-104 -29 269
-130 -36 340
-100 -28 263
-109 -31 292
-89 -25 241
-127 -37 345
-123 -36 338
-102 -30 283
-94 -28 262
-92 -27 260
-128 -39 363
-82 -25 236
-128 -40 370
-101 -31 297
-107 -34 317
-107 -34 320
-78 -25 236
-100 -32 306
-96 -31 296
-71 -23 224
-81 -27 256
-76 -25 242
-82 -28 265
-74 -25 242
-81 -28 265
-90 -31 298
-69 -24 234
-65 -23 223
-85 -31 292
-72 -26 251
-73 -27 256
-68 -25 242
-79 -30 285
-61 -23 222
-59 -23 219
-58 -22 218
-87 -34 327
-62 -25 238
-78 -31 298
-57 -23 225
-60 -25 239
-70 -29 281
-60 -25 243
-63 -27 258
-68 -29 282
-57 -25 242
-65 -29 278
-60 -27 262
-78 -35 339
-51 -23 228
-52 -24 236
-62 -29 283
-64 -31 297
-58 -28 274
-46 -23 223
-40 -20 197
-67 -34 328
-74 -38 366
-46 -24 234
-69 -37 355
-56 -30 291
-49 -27 262
-59 -33 319
-50 -28 276
-54 -31 302
-53 -31 302
-48 -28 276
-39 -24 234
-59 -37 353
-53 -33 319
-49 -31 301
-42 -28 269
-32 -21 210
-47 -32 309
-40 -28 272
-24 -17 174
-28 -21 204
-42 -31 300
-31 -23 229
-31 -24 239
-25 -20 198
-36 -29 282
-31 -25 249
-27 -23 223
-27 -23 230
-32 -28 277
-28 -26 252
-26 -25 244
-31 -30 289
-29 -28 277
-27 -27 265
-22 -24 231
-24 -26 257
-23 -26 252
-12 -15 152
-23 -27 265
-18 -23 228
-17 -23 223
-16 -22 214
-21 -29 279
-19 -27 266
-12 -20 196
-17 -26 258
-11 -19 194
-15 -26 257
-15 -27 267
-15 -28 274
-13 -26 257
-11 -25 248
-13 -29 281
-14 -34 325
-10 -26 254
-8 -25 242
-8 -26 253
-6 -23 225
-6 -24 238
-5 -22 219
-2 -17 169
0 0 0
0 0 0
-18 -96 905
-14 -88 827
-6 -52 492
-1 -30 294
0 -29 279
0 -27 266
1 -28 267
2 -19 188
2 -25 244
3 -32 310
4 -25 241
4 -23 227
6 -29 282
6 -30 292
7 -29 278
8 -31 301
9 -31 296
10 -29 282
12 -34 322
11 -28 275
13 -31 298
11 -25 241
16 -35 335
17 -35 333
15 -27 264
13 -23 224
14 -23 228
18 -29 284
19 -30 288
16 -23 222
23 -33 317
22 -31 293
18 -22 215
14 -16 162
21 -25 242
27 -33 316
23 -26 247
26 -28 274
25 -27 262
20 -19 189
21 -20 200
24 -23 223
25 -23 225
26 -23 227
24 -21 203
24 -20 194
31 -27 256
18 -13 134
28 -22 214
28 -22 215
31 -24 228
29 -21 208
31 -23 223
37 -28 264
38 -28 265
28 -19 183
37 -25 243
31 -21 199
34 -22 214
19 -10 107
32 -20 193
24 -14 137
781 -548 4977
781 -538 4880
788 -533 4839
794 -528 4786
784 -512 4641
821 -527 4774
819 -517 4684
816 -507 4585
814 -498 4502
831 -500 4520
839 -497 4492
895 -522 4713
6 0 15
23 -10 102
33 -15 149
47 -23 218
36 -16 159
32 -14 137
38 -17 166
42 -19 180
64 -30 280
46 -20 192
43 -18 176
43 -18 174
36 -14 140
30 -12 116
26 -9 94
52 -21 203
51 -20 195
43 -17 162
33 -12 119
48 -19 179
35 -12 123
32 -11 111
57 -22 206
42 -15 145
46 -17 158
40 -14 133
31 -10 100
31 -10 97
38 -12 122
38 -12 122
66 -23 217
58 -20 189
61 -21 195
44 -14 138
39 -12 118
41 -12 121
47 -15 141
53 -17 158
55 -17 164
48 -15 140
42 -12 121
70 -22 206
58 -18 168
50 -15 139
56 -17 159
71 -22 201
39 -10 103
44 -12 118
61 -18 164
49 -14 129
46 -12 120
83 -24 223
94 -28 253
72 -21 188
62 -17 158
65 -18 166
56 -15 139
71 -20 179
61 -16 150
87 -24 217
68 -18 166
44 -10 101
49 -12 115
59 -15 139
84 -22 199
100 -27 238
53 -13 121
87 -23 203
84 -22 194
64 -15 142
73 -18 165
71 -17 158
67 -16 147
74 -18 161
106 -27 235
94 -23 205
58 -13 120
93 -22 199
137 -34 296
90 -21 189
75 -17 154
105 -25 218
98 -23 201
103 -24 211
82 -19 165
126 -30 257
90 -20 178
113 -26 225
124 -29 246
128 -29 252
114 -26 223
116 -26 224
112 -25 214
108 -24 205
87 -18 162
114 -25 214
130 -29 243
98 -21 179
146 -32 270
63 -12 111
82 -17 144
88 -18 156
119 -25 211
131 -28 233
85 -17 146
116 -24 200
83 -16 140
158 -33 273
-124 -23 214
-126 -24 220
-127 -24 223
-124 -24 219
-101 -19 180
-56 -10 101
-105 -20 190
-140 -28 255
-149 -30 274
-196 -40 363
-225 -46 421
-240 -50 451
-219 -45 415
-259 -54 494
-251 -53 482
-221 -47 429
-253 -54 494
-231 -50 455
-233 -50 462
-226 -49 453
-232 -51 468
-241 -53 490
-192 -42 393
-263 -59 542
-194 -44 404
-246 -56 516
-187 -42 395
-191 -44 407
-243 -56 521
-181 -42 393
-194 -45 424
-154 -36 340
-175 -41 387
-214 -51 478
-200 -48 450
-183 -44 416
-159 -39 366
-201 -50 465
-153 -38 357
-185 -46 434
-167 -42 396
-176 -45 422
-194 -50 468
-171 -44 415
-153 -40 376
-158 -41 390
-166 -44 415
-158 -42 398
-191 -51 484
-161 -43 413
-144 -39 372
-149 -41 388
-160 -44 421
-170 -48 453
-173 -49 463
-181 -51 488
-179 -51 488
-148 -43 407
-165 -48 460
-145 -43 408
-146 -43 416
-143 -43 409
-136 -41 394
-112 -34 327
-171 -53 502
-163 -51 486
-141 -44 424
-117 -37 356
-133 -42 409
-112 -36 349
-138 -45 432
-149 -49 471
-124 -41 397
-118 -39 381
-118 -40 386
-112 -38 370
-134 -46 447
-108 -38 366
-123 -43 420
-105 -37 362
-107 -38 373
-124 -45 436
-101 -37 360
-107 -40 386
-113 -42 413
-99 -38 367
-109 -42 408
-106 -41 399
-104 -41 399
-98 -39 381
-92 -37 362
-106 -43 420
-115 -48 462
-90 -38 368
-105 -44 430
-93 -40 387
-80 -34 338
-95 -42 408
-98 -44 425
-96 -43 422
-100 -46 445
-91 -42 414
-79 -37 365
-97 -46 450
-107 -52 505
-96 -47 458
-82 -40 397
-89 -45 441
-113 -58 561
-79 -41 405
-80 -42 414
-82 -44 430
-81 -44 433
-77 -43 419
-72 -40 396
-82 -47 456
-92 -54 524
-75 -44 435
-60 -36 358
-65 -40 392
-56 -35 348
-70 -44 437
-71 -46 449
-59 -39 384
-61 -41 402
-58 -40 391
-52 -36 357
-59 -42 418
-52 -38 378
-48 -36 353
-48 -37 364
-58 -45 444
-54 -43 426
-47 -39 382
-60 -50 488
-42 -36 361
-48 -42 414
-52 -46 456
-52 -48 470
-45 -43 420
-46 -45 441
-40 -40 394
-43 -44 436
-38 -40 398
-36 -40 391
-41 -47 461
-40 -47 461
-40 -48 472
-33 -42 413
-35 -46 455
-30 -41 401
-28 -39 388
-35 -51 503
-30 -47 458
-27 -43 427
-23 -40 391
-26 -46 448
-19 -37 364
-21 -41 407
-23 -48 472
-22 -50 487
-17 -41 404
-16 -41 406
-14 -41 399
-9 -30 303
-17 -53 520
-12 -44 435
-9 -40 390
0 0 0
0 0 0
-17 -90 872
-17 -102 987
-8 -66 644
-2 -34 335
-2 -43 426
-1 -45 437
0 -33 331
1 -36 358
2 -46 452
3 -40 396
5 -44 429
6 -51 497
6 -35 347
9 -48 473
9 -41 399
12 -48 464
13 -48 470
12 -39 385
15 -44 428
16 -43 424
19 -49 477
19 -46 446
17 -37 360
22 -46 451
22 -44 431
18 -32 320
24 -43 424
27 -47 455
30 -48 470
27 -42 407
26 -38 369
28 -40 387
28 -37 365
27 -34 335
40 -51 494
32 -39 381
26 -29 290
36 -41 395
40 -44 432
35 -37 362
36 -37 357
32 -31 305
40 -39 383
50 -48 464
46 -43 416
45 -40 391
38 -33 323
41 -35 340
55 -46 448
42 -34 333
50 -40 385
52 -40 391
51 -39 378
54 -40 391
43 -31 300
48 -34 334
50 -35 336
60 -41 400
47 -31 305
51 -33 324
31 -18 183
22 -12 125
4 0 8
770 -516 4814
790 -520 4851
815 -527 4913
811 -516 4802
796 -497 4628
800 -491 4573
835 -505 4693
852 -507 4712
875 -513 4763
8 -1 26
68 -35 341
69 -35 340
57 -28 276
69 -34 330
56 -27 262
53 -25 243
57 -27 258
61 -28 272
71 -33 316
85 -39 376
75 -34 328
83 -37 355
86 -38 364
73 -32 305
57 -24 230
72 -30 291
90 -38 365
84 -35 335
79 -32 308
82 -33 318
77 -31 294
102 -41 387
91 -36 340
72 -28 264
77 -29 277
101 -39 365
75 -28 264
83 -31 290
89 -33 309
94 -34 323
107 -39 366
98 -35 331
83 -29 277
114 -40 378
86 -29 279
93 -32 301
94 -32 301
109 -37 345
105 -35 328
113 -38 351
104 -34 319
111 -36 338
124 -40 375
100 -32 296
96 -30 283
110 -35 322
107 -33 310
83 -25 234
87 -26 244
121 -37 341
93 -27 255
95 -28 260
77 -22 207
113 -33 307
92 -26 244
110 -32 291
128 -37 337
84 -23 216
121 -34 312
124 -35 317
123 -34 313
99 -27 246
136 -38 342
144 -39 357
137 -37 336
149 -40 364
151 -41 366
127 -33 304
173 -46 414
148 -39 350
150 -39 350
173 -45 404
144 -37 331
112 -28 253
173 -44 392
135 -34 301
117 -29 258
128 -31 281
161 -40 352
191 -47 418
179 -44 388
176 -43 377
168 -41 358
139 -33 291
157 -37 328
148 -35 305
215 -51 444
141 -32 286
183 -43 372
205 -48 414
136 -30 268
187 -43 371
157 -35 308
175 -39 340
197 -44 381
171 -38 327
186 -41 355
213 -47 404
170 -37 318
236 -52 443
158 -34 291
159 -34 290
200 -43 364
181 -38 327
212 -45 381
224 -47 400
193 -40 341
191 -39 335
200 -41 348
-182 -34 315
-181 -34 316
-193 -36 339
-159 -30 281
-77 -14 139
-81 -15 147
-178 -34 322
-249 -49 454
-270 -53 496
-284 -57 527
-295 -59 551
-324 -65 609
-316 -64 599
-262 -53 501
-304 -63 586
-311 -64 602
-338 -71 660
-318 -67 626
-282 -60 560
-297 -63 593
-303 -65 611
-321 -69 652
-293 -63 599
-255 -55 525
-288 -63 598
-283 -63 594
-293 -65 619
-289 -65 615
-281 -63 602
-252 -57 545
-283 -65 618
-271 -63 597
-222 -51 492
-278 -65 622
-266 -63 599
-241 -57 547
-253 -60 579
-244 -59 564
-234 -57 546
-243 -59 570
-264 -65 625
-249 -62 596
-227 -57 547
-246 -62 597
-225 -57 552
-238 -61 588
-224 -58 558
-228 -59 574
-236 -62 598
-237 -63 608
-239 -64 617
-229 -62 598
-236 -64 621
-241 -66 638
-198 -54 530
-205 -57 555
-240 -67 655
-205 -58 563
-226 -64 628
-188 -54 529
-183 -53 520
-214 -63 613
-194 -57 560
-175 -52 510
-202 -61 596
-189 -57 561
-187 -57 561
-172 -53 523
-205 -64 628
-185 -58 572
-194 -62 606
-194 -62 612
-173 -56 551
-181 -59 583
-172 -57 561
-173 -58 568
-178 -60 593
-183 -62 613
-167 -57 567
-141 -49 485
-162 -57 563
-151 -54 532
-140 -50 498
-141 -51 507
-143 -52 522
-165 -61 606
-146 -55 544
-157 -60 591
-144 -55 549
-133 -52 515
-137 -54 534
-159 -63 629
-156 -63 624
-150 -61 606
-141 -58 577
-144 -60 599
-141 -60 594
-135 -58 573
-134 -58 577
-150 -66 655
-125 -55 553
-114 -51 515
-143 -65 650
-109 -51 507
-136 -64 638
-128 -61 609
-105 -51 510
-117 -57 575
-122 -61 605
-114 -57 574
-98 -50 504
-108 -56 565
-100 -53 533
-114 -61 611
-131 -72 714
-110 -61 613
-94 -53 532
-98 -56 563
-94 -55 553
-116 -69 688
-95 -57 575
-87 -54 538
-93 -59 586
-88 -56 567
-90 -59 590
-77 -51 514
-82 -56 561
-75 -52 521
-81 -57 572
-83 -60 598
-81 -60 600
-76 -57 573
-65 -50 503
-61 -48 484
-73 -59 595
-66 -54 546
-72 -61 614
-62 -54 547
-58 -52 527
-64 -59 592
-61 -57 577
-55 -53 538
-54 -54 544
-52 -54 543
-56 -60 598
-51 -56 565
-45 -51 517
-44 -52 523
-44 -54 541
-42 -53 535
-40 -53 530
-47 -64 638
-45 -64 637
-40 -59 596
-37 -57 574
-32 -52 521
-39 -65 650
-32 -57 568
-31 -58 577
-28 -56 561
-27 -58 581
-22 -50 501
-26 -61 613
-23 -60 603
-22 -60 604
-19 -59 589
-17 -57 569
-14 -53 530
0 0 0
0 0 0
0 0 0
-17 -98 974
-11 -80 794
-4 -48 486
-3 -55 550
-3 -64 636
-1 -61 613
0 -60 598
2 -55 546
4 -57 567
6 -65 648
7 -61 611
8 -52 519
11 -61 609
12 -56 557
13 -54 536
14 -50 498
17 -57 568
21 -68 671
22 -63 624
24 -63 627
26 -64 634
27 -62 621
26 -55 544
31 -63 625
32 -61 609
30 -54 542
37 -63 628
35 -57 567
37 -58 573
38 -56 559
41 -58 575
42 -58 572
40 -52 522
44 -55 547
45 -55 548
50 -60 593
49 -56 552
46 -50 496
53 -57 569
58 -60 597
56 -57 560
51 -50 496
57 -55 541
57 -53 521
63 -57 560
52 -45 446
55 -47 466
70 -58 577
71 -58 574
67 -53 528
76 -60 590
71 -55 539
69 -51 506
72 -53 520
66 -46 460
63 -43 430
70 -48 472
76 -51 501
66 -43 429
46 -28 287
23 -12 129
778 -516 4954
788 -513 4924
5 0 9
796 -501 4796
807 -499 4781
805 -489 4683
16 -6 71
18 -7 82
61 -32 318
96 -52 504
83 -43 427
105 -55 537
100 -51 501
87 -44 429
104 -52 509
94 -46 448
98 -47 461
94 -44 435
108 -51 498
109 -51 493
109 -50 488
116 -53 512
93 -41 402
110 -49 474
110 -48 464
98 -42 409
101 -43 415
115 -49 470
116 -48 468
135 -56 539
120 -49 473
121 -49 470
104 -41 395
80 -31 299
105 -40 392
133 -51 494
140 -53 512
113 -42 406
117 -43 417
115 -42 404
125 -45 435
125 -45 430
136 -49 466
119 -42 399
123 -43 410
125 -43 413
164 -57 538
114 -38 367
139 -47 446
118 -39 373
132 -43 413
126 -41 390
123 -39 375
141 -45 428
132 -42 397
130 -41 385
133 -41 391
150 -46 438
159 -49 462
121 -36 344
127 -38 360
112 -33 312
155 -46 432
156 -46 431
186 -55 510
161 -47 438
137 -39 367
144 -41 382
179 -51 473
158 -44 411
215 -61 561
172 -47 441
175 -48 445
176 -48 445
177 -48 444
159 -42 392
187 -50 461
160 -42 390
172 -45 416
198 -52 475
205 -53 488
173 -44 407
204 -52 477
220 -56 512
248 -63 574
220 -55 504
221 -55 502
223 -55 502
215 -53 478
188 -46 414
236 -57 517
203 -49 442
247 -59 534
217 -52 464
215 -51 457
233 -55 491
221 -51 462
186 -43 384
235 -54 483
270 -62 552
221 -50 447
268 -61 539
237 -53 473
283 -64 563
234 -52 460
264 -58 515
273 -60 528
259 -57 498
273 -59 521
287 -62 543
308 -66 580
247 -52 459
287 -61 532
293 -62 539
257 -54 469
296 -62 536
271 -56 487
277 -57 494
284 -58 503
221 -45 387
-304 -56 526
-292 -54 510
-332 -61 583
-299 -56 530
-208 -38 371
-245 -46 441
-337 -64 610
-360 -69 657
-353 -68 650
-382 -74 707
-368 -72 687
-362 -71 680
-385 -76 730
-382 -76 728
-353 -71 680
-375 -76 728
-348 -71 680
-356 -73 700
-333 -68 661
-370 -77 739
-328 -68 660
-352 -74 715
-354 -75 724
-350 -74 722
-334 -71 695
-340 -73 711
-332 -72 701
-318 -69 677
-298 -65 640
-372 -83 805
-319 -71 696
-316 -71 695
-313 -71 693
-302 -69 675
-308 -71 694
-331 -76 751
-327 -76 750
-316 -74 730
-283 -67 658
-311 -74 731
-296 -71 701
-321 -78 767
-285 -69 685
-287 -70 696
-283 -70 694
-312 -78 770
-307 -77 766
-270 -68 680
-281 -72 714
-296 -76 756
-306 -79 790
-285 -74 742
-243 -64 640
-256 -68 678
-266 -71 712
-278 -75 752
-251 -68 685
-238 -65 655
-269 -74 746
-262 -73 734
-239 -67 676
-255 -73 728
-260 -75 750
-245 -71 712
-228 -66 670
-234 -69 695
-239 -71 715
-227 -68 686
-216 -66 662
-224 -68 692
-211 -65 660
-235 -73 741
-224 -71 715
-223 -71 717
-222 -71 722
-207 -67 681
-222 -73 736
-211 -70 709
-211 -70 715
-209 -70 715
-190 -65 659
-184 -63 645
-204 -71 722
-201 -71 721
-195 -70 708
-198 -72 728
-192 -70 714
-177 -65 666
-193 -72 733
-185 -70 711
-191 -73 745
-176 -68 693
-185 -72 738
-172 -68 693
-178 -71 726
-176 -71 730
-175 -72 733
-146 -60 620
-160 -67 690
-168 -72 734
-158 -69 701
-155 -68 694
-150 -67 683
-146 -66 672
-159 -73 743
-155 -72 737
-151 -71 727
-145 -69 710
-129 -62 640
-151 -74 758
-131 -65 672
-129 -65 673
-124 -64 656
-136 -71 731
-122 -65 667
-137 -74 758
-135 -74 760
-134 -75 767
-128 -72 743
-120 -69 712
-100 -59 607
-112 -67 692
-109 -66 682
-109 -68 699
-102 -65 668
-105 -68 697
-99 -65 673
-103 -69 713
-118 -81 829
-92 -65 665
-103 -73 753
-98 -72 739
-99 -74 762
-92 -70 722
-92 -72 740
-98 -79 807
-76 -63 645
-83 -70 718
-76 -66 676
-84 -75 767
-74 -68 699
-76 -71 729
-73 -70 721
-67 -67 688
-74 -76 779
-67 -71 733
-61 -67 690
-62 -70 722
-60 -70 720
-54 -66 676
-63 -79 815
-51 -67 688
-51 -70 716
-50 -71 733
-52 -77 790
-48 -74 761
-38 -61 634
-42 -72 742
-37 -66 684
-38 -71 734
-32 -65 669
-34 -72 744
-29 -67 688
-30 -73 754
-27 -72 741
-24 -70 717
-22 -70 715
-21 -72 739
-17 -65 672
0 0 0
-13 -68 698
-18 -100 1020
-13 -92 937
-7 -64 658
-6 -74 760
-3 -71 730
-1 -67 688
0 -72 738
2 -70 721
4 -71 724
6 -72 735
8 -72 739
11 -73 743
12 -69 710
15 -72 742
16 -68 693
19 -71 729
20 -66 676
22 -68 693
26 -74 752
27 -69 705
28 -67 681
32 -72 733
32 -67 685
36 -73 742
37 -69 700
40 -72 733
39 -65 662
46 -74 755
48 -75 761
46 -68 690
48 -68 688
49 -65 668
52 -68 695
56 -70 708
60 -73 739
61 -71 722
58 -65 662
68 -75 758
66 -70 710
66 -67 684
66 -65 662
72 -70 707
66 -62 632
81 -75 755
80 -72 725
81 -71 716
77 -65 655
84 -70 707
80 -64 649
87 -69 697
91 -70 707
89 -67 677
90 -66 672
96 -69 701
100 -71 714
82 -56 571
86 -58 585
79 -52 527
59 -37 379
54 -33 341
28 -15 158
12 -4 57
17 -7 87
806 -501 4946
4 0 6
18 -8 89
37 -19 197
0 0 0
104 -57 569
119 -64 640
131 -70 699
116 -60 604
143 -74 739
123 -62 622
117 -58 583
119 -58 585
122 -59 589
140 -67 667
127 -60 598
163 -76 759
148 -68 680
128 -58 576
125 -56 556
141 -62 616
147 -64 636
133 -57 565
146 -62 615
127 -53 525
147 -61 604
140 -57 565
162 -66 648
162 -65 642
178 -71 696
173 -68 670
165 -64 628
182 -70 687
161 -61 599
156 -58 573
170 -63 618
152 -55 544
162 -58 574
188 -68 661
168 -59 582
198 -70 684
159 -55 540
169 -58 570
181 -62 601
196 -67 648
214 -72 699
183 -61 590
201 -66 641
198 -65 627
191 -62 597
186 -59 575
178 -56 545
171 -53 518
187 -58 561
205 -63 610
193 -59 569
199 -60 580
202 -61 585
193 -57 551
191 -56 541
226 -66 635
193 -56 537
199 -57 546
210 -60 574
201 -57 542
217 -61 582
233 -65 620
226 -63 595
230 -63 602
231 -63 599
198 -53 506
242 -65 614
220 -58 552
277 -74 693
245 -64 606
239 -62 585
230 -59 559
238 -61 574
254 -65 607
244 -62 579
260 -65 613
271 -68 633
235 -58 542
259 -64 594
288 -71 656
288 -70 652
289 -70 647
300 -72 667
272 -65 600
304 -72 665
305 -72 663
305 -71 657
280 -65 598
294 -68 622
314 -72 660
318 -73 664
312 -71 646
294 -66 602
253 -56 513
338 -75 684
286 -63 574
345 -76 687
276 -60 543
330 -72 646
324 -70 630
346 -74 668
344 -73 660
276 -58 524
344 -73 650
320 -67 598
286 -59 531
316 -65 582
339 -70 621
309 -63 561
312 -63 562
346 -70 620
337 -68 598
387 -78 684
-435 -78 754
-394 -71 688
-461 -83 810
-435 -79 771
-374 -68 668
-424 -78 763
-449 -83 814
-438 -82 799
-421 -79 775
-445 -84 825
-427 -81 798
-438 -84 825
-433 -83 820
-427 -83 816
-427 -83 822
-397 -78 771
-429 -85 839
-409 -81 805
-424 -85 842
-403 -81 806
-399 -81 804
-408 -83 829
-397 -81 813
-399 -82 824
-401 -83 834
-384 -80 805
-398 -84 841
-395 -84 842
-392 -84 841
-427 -92 924
-374 -81 816
-370 -81 812
-361 -79 799
-370 -82 827
-390 -87 878
-371 -83 842
-381 -86 872
-366 -83 844
-337 -77 784
-359 -83 843
-365 -85 863
-337 -79 805
-352 -83 848
-350 -83 850
-365 -88 894
-355 -86 876
-363 -89 905
-324 -80 816
-342 -85 868
-343 -86 877
-353 -89 911
-337 -85 876
-324 -83 850
-332 -86 880
-318 -83 851
-314 -82 847
-297 -79 810
-289 -77 795
-308 -83 856
-295 -80 827
-311 -85 879
-283 -78 809
-282 -79 812
-298 -84 867
-271 -77 796
-281 -81 835
-286 -83 855
-267 -78 808
-290 -86 887
-275 -82 847
-287 -86 893
-268 -81 844
-286 -88 910
-261 -81 838
-269 -84 872
-275 -87 903
-241 -77 801
-252 -81 845
-234 -76 794
-236 -77 809
-250 -83 866
-232 -78 812
-227 -77 803
-230 -79 824
-232 -80 839
-241 -84 883
-220 -78 815
-231 -83 866
-223 -81 846
-232 -85 892
-223 -83 868
-222 -83 872
-202 -77 805
-221 -85 892
-200 -78 816
-207 -81 855
-200 -80 836
-207 -84 879
-188 -77 808
-190 -79 830
-201 -84 886
-177 -75 793
-184 -79 836
-173 -75 795
-169 -75 791
-179 -81 850
-170 -77 815
-164 -76 801
-170 -80 844
-172 -82 864
-177 -86 903
-159 -78 823
-160 -80 842
-157 -80 839
-160 -83 872
-153 -80 844
-153 -81 857
-153 -83 872
-155 -85 899
-145 -81 858
-135 -77 815
-140 -81 857
-126 -74 788
-132 -79 838
-142 -87 918
-122 -76 804
-125 -80 845
-124 -81 853
-125 -83 881
-125 -85 896
-126 -87 921
-116 -82 866
-107 -78 823
-105 -78 822
-105 -80 846
-112 -87 916
-109 -86 914
-100 -82 863
-102 -86 904
-102 -87 921
-80 -70 746
-98 -89 938
-82 -76 810
-84 -81 857
-81 -80 850
-78 -79 840
-79 -83 880
-74 -80 849
-77 -87 923
-70 -82 863
-69 -83 879
-67 -84 892
-60 -79 837
-66 -90 950
-60 -85 903
-57 -85 901
-53 -83 878
-55 -90 949
-49 -85 893
-47 -86 908
-41 -80 840
-38 -79 833
-36 -80 845
-34 -79 839
-33 -83 881
-28 -77 815
-26 -80 841
-24 -81 857
-21 -79 829
0 0 0
-17 -80 846
-17 -93 979
-14 -90 944
-10 -84 888
-7 -82 869
-4 -80 840
-2 -77 815
0 -80 842
2 -81 848
4 -83 871
7 -82 862
10 -85 890
12 -80 845
15 -83 876
17 -84 887
19 -80 838
21 -80 844
24 -82 859
28 -85 890
28 -79 830
32 -82 864
35 -83 871
39 -86 907
41 -87 907
39 -76 800
42 -77 812
45 -79 824
52 -87 910
58 -93 972
53 -81 843
55 -80 833
60 -84 876
63 -84 881
67 -86 897
63 -78 812
70 -83 872
71 -82 854
67 -73 769
71 -76 793
76 -79 822
77 -77 805
91 -89 929
89 -85 880
87 -80 834
85 -76 792
92 -80 833
91 -77 804
97 -80 834
105 -85 887
99 -78 812
104 -80 835
114 -87 898
104 -77 799
107 -77 803
116 -82 851
106 -73 757
103 -70 723
83 -54 563
92 -59 618
64 -39 412
58 -34 364
43 -24 260
37 -20 214
14 -5 67
59 -32 343
84 -47 486
97 -53 556
137 -76 781
135 -73 757
148 -79 817
140 -74 761
161 -84 861
149 -76 783
156 -78 805
149 -74 756
159 -78 797
167 -81 825
159 -75 772
163 -76 781
173 -80 817
154 -70 718
168 -76 772
173 -77 783
167 -73 747
167 -72 736
180 -77 784
191 -81 820
183 -76 777
191 -79 800
194 -79 800
176 -70 715
183 -72 734
197 -77 783
194 -75 762
197 -75 763
205 -78 786
220 -83 836
196 -73 733
206 -76 762
215 -78 786
210 -75 757
207 -73 739
235 -83 833
225 -78 785
214 -74 739
231 -79 790
220 -74 745
223 -74 745
217 -72 716
230 -76 755
231 -75 749
207 -66 664
229 -73 725
238 -75 748
233 -73 725
246 -76 759
238 -73 725
238 -72 718
247 -74 737
247 -74 732
262 -78 768
261 -77 757
251 -73 720
257 -74 731
262 -75 740
281 -80 787
283 -80 783
283 -79 777
273 -76 742
281 -77 756
273 -74 727
270 -73 713
279 -75 732
262 -70 680
295 -78 759
292 -77 744
290 -76 733
306 -79 767
292 -75 727
313 -80 771
275 -69 671
308 -78 747
328 -82 789
311 -77 741
319 -78 752
317 -77 742
336 -82 782
338 -81 779
339 -81 776
347 -83 787
357 -84 803
342 -80 763
338 -79 748
325 -75 712
360 -83 784
386 -88 834
367 -83 787
343 -77 727
356 -80 750
401 -90 840
373 -83 775
393 -87 811
369 -81 754
395 -86 800
395 -85 794
373 -80 745
389 -83 770
406 -86 798
364 -77 710
377 -79 730
402 -84 772
443 -92 846
413 -85 781
427 -87 803
380 -77 707
387 -78 716
414 -83 761
412 -82 750
438 -87 792
394 -78 708
439 -86 783
457 -89 809
-528 -92 915
-496 -87 867
-518 -91 912
-499 -88 884
-480 -85 858
-518 -93 931
-484 -87 877
-538 -97 983
-500 -91 920
-492 -90 912
-479 -88 894
-511 -95 961
-508 -95 962
-514 -97 982
-473 -89 911
-480 -91 931
-484 -93 946
-489 -94 963
-477 -92 946
-456 -89 911
-480 -94 968
-459 -91 932
-461 -92 944
-483 -97 997
-453 -91 941
-464 -94 972
-453 -93 957
-471 -97 1003
-455 -94 977
-454 -95 982
-453 -95 988
-426 -90 936
-444 -95 985
-442 -95 988
-459 -99 1033
-463 -101 1051
-437 -96 1002
-445 -99 1028
-427 -95 995
-440 -99 1032
-414 -94 980
-415 -95 991
-404 -93 973
-395 -91 959
-427 -100 1046
-440 -104 1087
-393 -93 979
-387 -92 974
-402 -97 1019
-377 -91 964
-399 -98 1030
-373 -92 972
-364 -90 957
-352 -88 934
-381 -96 1019
-367 -93 990
-331 -85 903
-369 -96 1014
-331 -86 918
-344 -91 964
-333 -89 942
-325 -87 927
-331 -89 953
-336 -92 978
-340 -94 998
-346 -96 1027
-329 -92 984
-318 -90 962
-301 -86 919
-331 -95 1020
-314 -91 977
-317 -93 997
-319 -95 1014
-311 -93 999
-287 -87 931
-310 -95 1018
-318 -98 1053
-296 -92 991
-305 -96 1034
-274 -87 938
-297 -96 1029
-281 -91 983
-275 -90 973
-284 -94 1017
-281 -94 1016
-265 -90 971
-263 -90 975
-270 -94 1010
-279 -98 1058
-269 -96 1033
-256 -92 995
-228 -83 899
-255 -94 1013
-235 -87 946
-233 -88 951
-225 -86 930
-244 -94 1019
-235 -92 997
-242 -96 1039
-252 -101 1095
-221 -90 973
-220 -91 986
-236 -99 1071
-223 -94 1024
-206 -88 959
-220 -96 1039
-215 -95 1033
-206 -92 1002
-212 -97 1048
-182 -84 912
-207 -97 1054
-203 -97 1051
-198 -96 1038
-189 -93 1009
-188 -94 1020
-187 -95 1030
-177 -91 992
-183 -96 1043
-174 -93 1008
-159 -87 942
-164 -91 987
-164 -92 1000
-157 -90 980
-160 -93 1014
-147 -87 953
-144 -87 951
-146 -90 984
-145 -91 992
-153 -99 1073
-148 -97 1057
-150 -100 1091
-124 -85 929
-139 -98 1063
-137 -98 1070
-129 -95 1031
-123 -93 1009
-125 -96 1045
-128 -101 1097
-117 -95 1034
-107 -89 966
-110 -94 1026
-107 -94 1026
-104 -94 1019
-105 -98 1062
-97 -93 1013
-97 -96 1041
-89 -91 988
-89 -94 1026
-93 -102 1104
-83 -94 1022
-85 -99 1080
-75 -91 989
-73 -93 1007
-70 -93 1012
-63 -87 943
-67 -97 1056
-63 -94 1027
-58 -92 1004
-55 -92 1001
-56 -98 1063
-49 -92 1001
-46 -91 987
-45 -96 1044
-44 -100 1087
-41 -101 1092
-37 -97 1052
-32 -92 999
-31 -97 1052
-27 -95 1032
0 0 0
-22 -100 1086
-18 -97 1047
-15 -96 1042
-12 -94 1017
-9 -97 1051
-6 -94 1024
-3 -97 1055
0 -92 992
2 -93 1009
5 -92 995
8 -99 1070
10 -91 982
13 -91 983
17 -97 1052
19 -94 1015
21 -89 963
25 -93 1001
30 -99 1072
32 -98 1055
33 -91 982
37 -93 1002
42 -99 1064
44 -96 1033
44 -91 978
52 -101 1089
54 -98 1053
56 -96 1038
58 -94 1013
62 -96 1037
64 -94 1013
64 -91 977
70 -94 1016
70 -91 977
77 -96 1034
75 -90 967
79 -92 990
87 -98 1054
89 -97 1040
88 -92 993
89 -91 973
94 -93 996
98 -93 1001
99 -92 988
99 -89 957
105 -92 985
113 -96 1029
112 -93 994
114 -92 986
119 -94 1007
120 -93 991
126 -95 1018
127 -94 999
126 -91 971
123 -86 921
117 -80 858
123 -83 886
106 -69 739
104 -67 714
76 -46 502
92 -56 600
55 -31 342
0 0 0
0 0 0
0 0 0
139 -79 835
158 -88 935
172 -95 1002
158 -85 905
177 -94 996
170 -89 939
184 -95 1002
184 -93 986
176 -88 927
195 -96 1016
187 -90 954
179 -85 901
184 -87 914
197 -91 962
192 -88 925
199 -90 944
198 -88 925
199 -87 915
206 -89 939
202 -86 906
216 -91 955
227 -95 990
197 -81 848
211 -86 898
230 -92 964
226 -90 936
230 -90 942
226 -88 913
208 -79 827
231 -87 910
257 -96 1001
229 -85 881
249 -91 946
239 -86 895
228 -81 846
248 -88 908
243 -85 879
274 -95 983
232 -79 820
248 -84 869
256 -86 887
253 -84 869
292 -96 991
271 -89 911
282 -91 936
265 -85 869
280 -89 912
276 -87 887
290 -90 922
262 -81 826
281 -86 877
294 -89 909
289 -87 883
288 -85 872
291 -86 873
311 -91 925
315 -91 926
321 -92 935
322 -92 929
298 -84 850
310 -87 878
323 -90 907
327 -90 908
317 -86 871
339 -92 924
304 -82 821
311 -83 832
330 -87 876
358 -94 940
333 -86 866
364 -94 939
362 -93 927
370 -94 940
346 -87 870
339 -85 845
365 -91 901
392 -97 962
416 -102 1013
395 -96 952
400 -97 956
398 -96 943
399 -95 939
401 -95 934
405 -95 936
431 -101 989
411 -95 934
406 -93 915
446 -102 997
444 -101 986
429 -97 945
420 -94 916
407 -91 881
450 -100 967
454 -100 967
427 -93 902
483 -105 1014
446 -96 929
457 -98 943
454 -97 931
469 -99 954
472 -99 952
462 -97 925
450 -93 893
453 -94 893
454 -93 888
457 -93 886
489 -99 943
488 -99 934
493 -99 935
502 -100 945
505 -100 945
498 -98 925
461 -90 848
497 -97 909
503 -97 912
486 -94 875
516 -99 922
544 -104 965
-579 -97 1005
-584 -99 1020
-556 -94 978
-582 -100 1033
-554 -95 990
-602 -104 1082
-562 -98 1019
-582 -102 1063
-578 -102 1063
-584 -104 1083
-549 -98 1025
-552 -99 1038
-563 -102 1067
-571 -104 1091
-562 -103 1081
-528 -97 1025
-552 -102 1079
-557 -104 1098
-535 -101 1062
-551 -104 1103
-515 -98 1038
-570 -109 1158
-536 -103 1097
-552 -107 1138
-558 -109 1159
-519 -102 1088
-560 -111 1184
-530 -106 1128
-533 -107 1143
-516 -104 1117
-516 -105 1125
-506 -104 1112
-512 -106 1133
-499 -104 1115
-502 -105 1132
-518 -109 1175
-517 -110 1183
-502 -108 1160
-530 -115 1234
-483 -105 1133
-489 -107 1157
-474 -105 1132
-481 -107 1159
-477 -107 1158
-460 -104 1126
-465 -106 1149
-465 -107 1159
-442 -102 1110
-440 -103 1115
-429 -101 1096
-434 -103 1120
-433 -103 1127
-419 -101 1100
-428 -104 1133
-427 -105 1142
-419 -103 1131
-419 -104 1141
-433 -109 1189
-405 -103 1124
-399 -102 1118
-422 -109 1191
-401 -104 1145
-397 -104 1142
-397 -105 1156
-391 -104 1148
-389 -105 1153
-380 -103 1138
-364 -100 1099
-375 -104 1146
-374 -105 1152
-378 -107 1178
-366 -104 1151
-362 -104 1150
-356 -104 1144
-342 -100 1110
-344 -102 1129
-330 -99 1095
-344 -104 1152
-335 -102 1135
-331 -102 1133
-314 -98 1085
-310 -98 1086
-332 -106 1175
-338 -109 1208
-324 -106 1174
-315 -104 1152
-305 -102 1129
-300 -101 1123
-312 -106 1181
-310 -107 1190
-319 -111 1237
-299 -106 1176
-286 -102 1138
-300 -109 1208
-298 -109 1215
-283 -105 1169
-284 -106 1187
-273 -104 1156
-279 -107 1195
-273 -106 1188
-261 -103 1151
-264 -105 1178
-269 -109 1217
-265 -109 1214
-251 -104 1167
-247 -104 1165
-266 -114 1273
-255 -111 1238
-247 -109 1219
-234 -105 1170
-237 -108 1205
-232 -107 1199
-233 -109 1223
-221 -105 1176
-215 -104 1166
-198 -97 1088
-217 -109 1216
-206 -105 1175
-212 -110 1227
-206 -108 1214
-204 -109 1224
-193 -105 1179
-195 -108 1214
-177 -100 1123
-197 -114 1271
-180 -106 1186
-180 -108 1209
-177 -108 1208
-170 -106 1189
-174 -111 1242
-167 -109 1216
-165 -110 1232
-168 -114 1277
-146 -101 1135
-150 -107 1199
-146 -107 1195
-147 -110 1230
-136 -104 1170
-135 -106 1190
-136 -109 1223
-125 -103 1159
-122 -103 1160
-119 -104 1165
-118 -106 1193
-117 -109 1217
-114 -109 1221
-108 -107 1196
-99 -101 1131
-102 -108 1207
-103 -113 1262
-92 -105 1173
-90 -106 1192
-88 -107 1201
-89 -113 1264
-83 -111 1238
-71 -98 1102
-75 -109 1216
-69 -106 1190
-65 -104 1167
-61 -104 1169
-56 -100 1125
-57 -108 1206
-52 -106 1187
-48 -105 1173
-47 -110 1229
-40 -102 1146
-39 -107 1202
-35 -107 1194
-34 -114 1276
-28 -105 1170
0 0 0
-16 -81 911
-13 -84 941
-13 -98 1101
-10 -103 1150
-7 -100 1120
-4 -104 1159
-1 -108 1209
2 -103 1148
5 -103 1154
9 -109 1218
12 -106 1184
15 -104 1156
19 -105 1171
22 -103 1145
25 -103 1148
28 -102 1140
34 -112 1247
36 -105 1170
43 -118 1309
42 -105 1170
49 -114 1266
50 -107 1192
53 -107 1190
58 -109 1207
62 -110 1222
65 -109 1211
64 -102 1136
73 -110 1222
72 -105 1162
78 -108 1197
80 -106 1178
85 -108 1198
89 -108 1198
92 -108 1201
92 -104 1151
96 -105 1160
96 -102 1124
103 -105 1166
109 -108 1191
111 -106 1175
115 -107 1179
118 -106 1174
119 -105 1159
119 -101 1120
128 -106 1172
132 -107 1181
131 -103 1136
136 -105 1156
144 -108 1194
145 -106 1170
143 -102 1127
141 -99 1090
144 -99 1086
128 -86 943
109 -71 782
104 -66 725
82 -50 556
80 -48 534
0 0 0
92 -53 590
114 -65 722
0 0 0
183 -103 1129
180 -100 1089
189 -103 1123
181 -97 1056
175 -92 1003
200 -103 1127
195 -99 1083
196 -98 1071
216 -107 1161
205 -100 1086
222 -106 1154
220 -104 1127
218 -101 1098
213 -97 1057
228 -103 1118
239 -107 1155
225 -99 1071
229 -99 1071
241 -103 1115
254 -108 1161
254 -106 1141
233 -95 1031
236 -96 1032
270 -108 1166
255 -101 1087
243 -95 1021
275 -107 1144
265 -101 1086
247 -93 1001
268 -100 1070
295 -109 1165
283 -103 1106
279 -101 1076
276 -98 1051
283 -100 1067
298 -104 1109
270 -93 992
292 -99 1060
294 -99 1058
281 -94 999
309 -102 1087
296 -97 1030
302 -98 1039
288 -92 977
308 -98 1037
349 -110 1163
342 -107 1129
327 -101 1065
328 -100 1057
365 -111 1166
327 -98 1032
353 -105 1104
348 -103 1077
352 -103 1078
365 -106 1108
368 -106 1105
367 -105 1093
374 -106 1103
355 -99 1035
366 -101 1058
409 -113 1172
396 -108 1125
373 -101 1048
387 -104 1077
385 -102 1062
391 -103 1068
400 -105 1084
407 -106 1091
419 -108 1114
382 -97 1005
411 -104 1074
415 -104 1075
458 -115 1176
431 -107 1096
423 -104 1066
419 -102 1048
449 -109 1112
442 -106 1085
455 -109 1109
434 -103 1047
444 -105 1064
443 -103 1050
467 -108 1099
443 -102 1035
484 -111 1121
488 -111 1120
479 -108 1092
472 -106 1065
506 -113 1134
482 -107 1071
526 -116 1160
501 -109 1097
479 -104 1038
486 -105 1046
490 -105 1046
482 -102 1021
525 -111 1104
522 -110 1089
510 -106 1054
562 -117 1154
569 -118 1160
585 -120 1183
518 -105 1038
527 -107 1048
553 -111 1092
600 -120 1177
566 -112 1100
544 -107 1049
549 -108 1051
560 -109 1065
583 -113 1100
545 -105 1021
579 -111 1076
555 -106 1024
558 -106 1022
590 -111 1072
548 -103 988
606 -113 1086
657 -122 1169
-636 -103 1103
-615 -101 1076
-632 -104 1114
-642 -106 1139
-623 -104 1113
-598 -100 1077
-621 -105 1126
-631 -107 1152
-657 -112 1210
-604 -104 1121
-637 -110 1191
-640 -111 1205
-647 -113 1228
-634 -112 1212
-647 -115 1247
-612 -109 1188
-620 -111 1211
-606 -109 1194
-613 -112 1217
-614 -112 1228
-627 -116 1265
-586 -109 1191
-612 -114 1252
-613 -115 1265
-600 -114 1247
-599 -114 1255
-601 -115 1270
-606 -117 1290
-611 -119 1312
-591 -116 1280
-601 -119 1312
-560 -111 1232
-594 -119 1317
-568 -115 1270
-630 -128 1418
-549 -112 1247
-569 -117 1303
-549 -114 1268
-573 -120 1335
-554 -117 1299
-550 -117 1302
-518 -111 1236
-576 -124 1386
-546 -119 1325
-521 -114 1276
-548 -121 1354
-529 -118 1317
-521 -117 1308
-480 -108 1216
-514 -117 1315
-499 -115 1288
-523 -121 1362
-503 -117 1320
-512 -121 1357
-463 -110 1239
-478 -114 1290
-464 -112 1262
-471 -115 1295
-462 -113 1282
-448 -111 1254
-453 -113 1280
-454 -114 1295
-433 -110 1247
-444 -114 1292
-448 -116 1316
-466 -122 1382
-447 -118 1336
-422 -112 1276
-428 -115 1306
-422 -114 1300
-435 -119 1356
-412 -114 1297
-405 -113 1287
-400 -113 1286
-386 -110 1251
-421 -121 1381
-405 -117 1341
-400 -117 1339
-391 -116 1323
-388 -116 1329
-395 -119 1365
-379 -116 1325
-398 -123 1407
-371 -116 1325
-386 -122 1396
-350 -112 1279
-352 -114 1304
-358 -117 1339
-342 -113 1294
-356 -119 1363
-347 -117 1346
-338 -115 1327
-341 -118 1355
-325 -114 1306
-317 -112 1293
-336 -120 1385
-324 -118 1356
-304 -112 1287
-307 -114 1316
-315 -119 1369
-276 -105 1215
-299 -116 1334
-298 -117 1349
-306 -122 1402
-289 -116 1344
-288 -118 1359
-270 -112 1294
-274 -115 1332
-294 -126 1449
-255 -110 1276
-258 -113 1310
-268 -120 1380
-256 -116 1343
-248 -114 1320
-270 -127 1461
-235 -112 1295
-248 -120 1385
-229 -113 1303
-229 -115 1326
-259 -132 1520
-245 -127 1464
-221 -117 1350
-233 -125 1443
-218 -119 1379
-218 -121 1402
-216 -123 1418
-213 -124 1429
-204 -120 1393
-189 -114 1319
-194 -119 1382
-198 -125 1441
-194 -125 1443
-185 -121 1404
-175 -117 1359
-161 -111 1283
-171 -120 1391
-164 -118 1368
-160 -118 1365
-154 -117 1352
-155 -120 1392
-146 -117 1351
-139 -114 1324
-134 -113 1313
-143 -125 1441
-134 -120 1386
-121 -111 1291
-132 -126 1457
-125 -123 1425
-112 -114 1316
-115 -121 1397
-109 -119 1381
-104 -118 1368
-100 -119 1371
-95 -116 1346
-88 -114 1314
-95 -127 1464
-82 -115 1331
-79 -116 1342
-77 -119 1374
-65 -107 1233
-66 -115 1327
-69 -126 1454
-63 -123 1416
-52 -110 1272
-53 -120 1384
-49 -119 1378
-46 -121 1391
-41 -119 1378
-38 -123 1416
-27 -99 1151
0 0 0
-15 -78 905
0 0 0
-13 -96 1106
-11 -106 1220
-8 -111 1280
-5 -115 1326
-1 -112 1286
2 -116 1332
5 -111 1284
10 -119 1369
13 -118 1357
17 -117 1349
22 -122 1403
26 -120 1377
28 -113 1294
33 -116 1332
38 -123 1411
44 -126 1448
44 -114 1315
48 -117 1341
55 -124 1418
60 -125 1434
61 -119 1368
69 -127 1456
70 -121 1381
77 -127 1449
74 -115 1322
80 -118 1357
87 -123 1403
92 -124 1412
96 -124 1413
99 -123 1407
97 -115 1316
106 -121 1387
106 -117 1335
107 -114 1302
117 -120 1374
114 -113 1287
115 -111 1264
126 -118 1344
129 -116 1325
135 -119 1350
142 -122 1387
146 -122 1383
143 -116 1317
157 -124 1412
151 -116 1321
157 -118 1335
167 -122 1384
162 -116 1311
157 -109 1242
152 -103 1174
161 -107 1216
125 -81 919
126 -80 905
99 -60 689
0 0 0
87 -51 583
0 0 0
0 0 0
176 -100 1126
194 -108 1218
197 -108 1216
204 -110 1238
216 -114 1288
206 -107 1206
216 -110 1242
224 -113 1269
220 -109 1223
222 -108 1215
230 -110 1237
233 -110 1233
241 -112 1257
238 -109 1224
239 -108 1210
253 -113 1263
244 -107 1196
257 -111 1243
259 -111 1235
258 -109 1212
264 -110 1223
271 -111 1238
271 -109 1219
289 -116 1286
280 -110 1229
279 -109 1207
273 -105 1166
311 -118 1314
303 -114 1261
287 -106 1179
290 -106 1176
304 -110 1216
291 -104 1149
310 -110 1210
301 -105 1162
328 -114 1254
326 -111 1228
355 -121 1325
323 -108 1190
319 -106 1162
335 -110 1206
339 -110 1205
338 -109 1191
345 -110 1203
344 -108 1185
348 -108 1185
355 -109 1196
374 -114 1247
362 -110 1194
373 -112 1219
381 -113 1231
370 -109 1183
385 -112 1218
399 -115 1250
389 -111 1205
389 -110 1194
400 -112 1214
409 -114 1232
427 -118 1274
428 -117 1264
427 -116 1248
438 -118 1269
427 -114 1223
453 -120 1288
444 -117 1250
461 -120 1285
445 -115 1228
470 -120 1285
443 -113 1202
497 -126 1337
485 -121 1291
467 -116 1232
470 -116 1230
479 -117 1241
474 -115 1217
482 -116 1228
493 -118 1244
512 -122 1282
526 -124 1306
519 -121 1277
539 -125 1315
509 -117 1232
516 -118 1237
511 -116 1215
514 -116 1211
529 -119 1238
545 -121 1263
519 -114 1193
546 -120 1246
570 -124 1290
527 -114 1181
558 -120 1242
526 -112 1161
526 -111 1151
533 -112 1158
573 -120 1235
578 -120 1236
546 -113 1157
607 -125 1278
572 -117 1193
549 -111 1136
664 -134 1365
609 -122 1241
631 -126 1278
632 -125 1269
634 -125 1264
622 -122 1231
636 -124 1249
682 -132 1329
623 -120 1204
668 -128 1282
683 -130 1300
614 -116 1159
648 -122 1215
662 -123 1232
683 -127 1261
637 -117 1167
664 -122 1209
697 -127 1260
675 -122 1211
636 -114 1131
-659 -104 1144
-641 -101 1120
-609 -97 1072
-654 -105 1161
-647 -104 1157
-696 -113 1254
-673 -110 1221
-691 -113 1262
-694 -114 1277
-671 -111 1246
-664 -111 1242
-657 -110 1237
-671 -114 1273
-699 -119 1336
-689 -118 1327
-761 -131 1477
-693 -120 1354
-674 -118 1329
-719 -126 1427
-648 -115 1297
-671 -120 1353
-691 -124 1404
-662 -120 1356
-661 -120 1363
-688 -126 1430
-708 -131 1484
-679 -126 1435
-690 -129 1470
-694 -131 1490
-624 -118 1350
-656 -125 1432
-636 -122 1398
-653 -126 1447
-646 -126 1443
-634 -124 1427
-655 -130 1488
-669 -133 1531
-633 -127 1462
-624 -126 1452
-640 -130 1502
-629 -129 1489
-625 -129 1492
-625 -130 1505
-616 -129 1496
-601 -127 1472
-614 -131 1517
-586 -126 1459
-579 -125 1454
-585 -128 1483
-594 -131 1518
-571 -127 1472
-554 -124 1441
-589 -133 1545
-574 -130 1520
-540 -124 1445
-561 -130 1512
-526 -123 1431
-497 -117 1365
-544 -129 1508
-549 -131 1536
