VERSION 0.7
FIELDS x y z
SIZE 4 4 4
TYPE I I I
COUNT 1 1 1
WIDTH 3219
HEIGHT 1
VIEWPOINT 0.0 0.0 0.0 1.0 0.0 0.0 0.0
POINTS 3219
DATA ascii
-646 -550 3281
-632 -546 3258
-626 -550 3281
-614 -548 3270
-601 -544 3249
-592 -545 3255
-587 -549 3282
-574 -546 3263
-567 -548 3280
-556 -547 3274
-547 -548 3278
-536 -546 3269
-526 -547 3272
-520 -550 3290
-511 -551 3297
-499 -549 3285
-490 -549 3288
-479 -547 3279
-470 -548 3282
-458 -545 3268
-453 -551 3301
-442 -549 3292
-431 -548 3286
-422 -549 3290
-414 -550 3300
-402 -548 3286
-394 -550 3300
-382 -546 3275
-377 -553 3320
-364 -548 3289
-351 -543 3259
-345 -549 3295
-339 -554 3327
-327 -551 3308
-319 -554 3325
-307 -549 3295
-298 -551 3310
-289 -551 3308
-277 -548 3291
-267 -546 3281
-258 -548 3293
-249 -549 3299
-238 -545 3271
-231 -552 3317
-222 -553 3320
-210 -548 3294
-202 -550 3306
-191 -548 3291
-183 -552 3313
-170 -541 3249
-147 -497 2986
-125 -449 2696
-114 -439 2639
-111 -457 2748
-102 -451 2709
-85 -412 2478
-67 -355 2136
-73 -425 2552
-84 -534 3203
-76 -549 3295
-67 -553 3318
-58 -553 3317
-48 -556 3336
-38 -548 3291
-29 -557 3342
-19 -556 3335
-10 -556 3333
0 -553 3319
9 -556 3336
18 -550 3298
28 -557 3337
37 -549 3292
47 -554 3323
57 -552 3307
67 -559 3348
75 -549 3287
85 -550 3291
94 -548 3282
105 -553 3312
115 -555 3324
124 -552 3306
133 -549 3284
143 -552 3300
152 -552 3302
161 -550 3287
171 -552 3298
181 -553 3302
192 -555 3317
200 -551 3292
210 -553 3301
221 -556 3319
230 -554 3306
240 -555 3313
248 -552 3292
258 -553 3295
266 -550 3281
278 -554 3301
287 -554 3299
295 -550 3276
309 -559 3327
317 -556 3307
326 -555 3304
334 -553 3290
346 -556 3309
352 -551 3274
362 -551 3274
370 -550 3265
382 -553 3285
389 -549 3257
402 -554 3289
411 -553 3279
419 -552 3272
432 -555 3292
439 -553 3277
447 -550 3258
458 -552 3268
468 -554 3275
473 -548 3242
482 -548 3237
493 -550 3247
504 -551 3255
511 -548 3238
520 -548 3233
535 -553 3262
540 -550 3239
554 -554 3264
558 -548 3227
570 -550 3240
582 -553 3252
584 -546 3209
601 -554 3254
608 -551 3237
613 -546 3208
627 -551 3234
635 -550 3222
649 -553 3243
657 -552 3235
665 -551 3225
672 -549 3215
679 -547 3200
689 -548 3201
695 -545 3185
708 -548 3196
717 -548 3193
725 -546 3185
736 -548 3194
744 -547 3182
757 -550 3198
759 -544 3164
765 -542 3150
770 -539 3130
767 -531 3078
765 -523 3030
753 -508 2946
762 -509 2945
760 -502 2903
758 -495 2862
755 -487 2815
751 -479 2766
754 -476 2747
763 -477 2748
766 -473 2726
761 -466 2679
766 -464 2665
764 -458 2629
767 -455 2612
769 -452 2590
780 -453 2598
803 -462 2648
840 -479 2740
881 -498 2844
942 -527 3010
974 -540 3080
983 -540 3077
1001 -545 3101
1014 -547 3111
1030 -551 3129
1031 -546 3099
1032 -542 3072
1046 -544 3083
1051 -542 3068
1067 -546 3087
1077 -546 3085
1089 -548 3090
1093 -545 3072
1105 -546 3075
1111 -545 3065
1123 -546 3069
1138 -549 3081
1139 -545 3055
1137 -539 3021
1174 -553 3092
1166 -544 3044
1178 -546 3047
1182 -543 3030
1200 -547 3049
1196 -541 3013
1215 -546 3034
1217 -542 3011
1233 -545 3025
1234 -542 3001
1245 -543 3002
1256 -543 3003
1265 -544 3000
1268 -541 2980
1286 -545 2997
1288 -541 2976
1302 -543 2983
1311 -544 2980
1318 -543 2971
1338 -547 2991
1342 -545 2976
1359 -548 2990
1371 -549 2992
1370 -545 2965
1362 -539 2925
1380 -542 2939
1401 -546 2959
1411 -547 2958
1397 -538 2906
1432 -548 2955
1431 -544 2929
1439 -544 2922
1467 -551 2956
1458 -544 2916
1477 -548 2930
1498 -552 2950
1473 -539 2877
1495 -544 2898
1517 -549 2919
1507 -542 2877
1522 -544 2884
1532 -544 2880
1542 -545 2877
1539 -540 2849
1556 -543 2859
1562 -542 2850
1572 -542 2846
1590 -545 2857
1601 -546 2855
1613 -547 2855
-1714 -532 2938
-1686 -527 2912
-1691 -531 2942
-1682 -532 2948
-1669 -531 2947
-1676 -536 2982
-1636 -526 2932
-1651 -534 2980
-1630 -531 2964
-1623 -532 2974
-1618 -533 2987
-1622 -538 3016
-1600 -534 2998
-1587 -533 2997
-1582 -534 3010
-1573 -535 3016
-1576 -539 3045
-1540 -530 2999
-1548 -536 3036
-1529 -533 3023
-1533 -538 3054
-1513 -534 3038
-1517 -539 3069
-1507 -539 3073
-1480 -533 3043
-1487 -539 3081
-1461 -533 3051
-1471 -540 3096
-1447 -535 3069
-1436 -535 3071
-1448 -543 3120
-1421 -536 3086
-1410 -536 3089
-1404 -538 3100
-1382 -533 3077
-1357 -527 3047
-1340 -524 3032
-1331 -524 3037
-1316 -522 3028
-1309 -523 3037
-1303 -525 3049
-1291 -524 3046
-1290 -527 3069
-1276 -525 3062
-1270 -527 3073
-1269 -531 3098
-1279 -539 3149
-1280 -543 3178
-1282 -549 3213
-1252 -540 3164
-1251 -544 3189
-1238 -542 3183
-1228 -542 3188
-1224 -545 3205
-1196 -537 3160
-1203 -544 3207
-1195 -545 3214
-1178 -542 3197
-1169 -542 3203
-1165 -545 3223
-1147 -541 3201
-1132 -539 3190
-1130 -543 3214
-1114 -540 3201
-1105 -540 3205
-1107 -546 3241
-1091 -543 3226
-1079 -542 3222
-1084 -549 3268
-1066 -545 3247
-1046 -540 3217
-1049 -546 3258
-1046 -550 3284
-1017 -540 3225
-1017 -546 3259
-1011 -548 3275
-997 -546 3263
-979 -541 3237
-973 -543 3252
-972 -548 3283
-947 -539 3235
-953 -549 3291
-946 -550 3303
-927 -545 3274
-922 -548 3293
-909 -546 3281
-896 -544 3273
-889 -546 3285
-884 -549 3306
-868 -545 3285
-856 -543 3275
-848 -545 3285
-837 -544 3283
-824 -542 3270
-820 -546 3294
-813 -548 3309
-795 -542 3276
-789 -545 3292
-781 -546 3301
-771 -546 3304
-762 -547 3310
-761 -553 3351
-746 -549 3327
-728 -543 3291
-726 -549 3328
-714 -547 3319
-706 -549 3330
-693 -547 3317
-691 -553 3357
-674 -548 3325
-662 -545 3312
-650 -544 3303
-647 -549 3336
-634 -546 3321
-625 -547 3326
-615 -547 3329
-606 -548 3335
-603 -554 3372
-591 -553 3364
-571 -543 3307
-568 -550 3347
-558 -549 3347
-547 -548 3342
-538 -549 3345
-524 -545 3320
-518 -549 3346
-511 -551 3361
-495 -545 3326
-496 -557 3397
-478 -548 3342
-473 -554 3379
-463 -554 3378
-450 -550 3356
-446 -556 3397
-428 -546 3336
-415 -543 3314
-410 -549 3355
-401 -550 3359
-389 -547 3342
-381 -549 3353
-373 -551 3368
-363 -552 3375
-350 -547 3344
-340 -547 3344
-330 -545 3333
-323 -550 3365
-315 -553 3381
-303 -551 3366
-297 -557 3403
-284 -551 3371
-276 -554 3389
-263 -548 3352
-253 -548 3354
-243 -548 3353
-234 -549 3358
-224 -548 3352
-216 -552 3376
-205 -550 3365
-197 -555 3391
-186 -551 3367
-174 -544 3328
-151 -501 3062
-129 -455 2786
-116 -440 2689
-108 -439 2684
-103 -449 2749
-90 -426 2604
-70 -365 2236
-71 -406 2482
-85 -532 3249
-80 -561 3426
-69 -556 3395
-59 -552 3375
-49 -555 3388
-39 -551 3364
-30 -556 3395
-20 -552 3370
-10 -553 3378
0 -559 3412
9 -555 3389
19 -556 3396
28 -554 3383
38 -553 3375
48 -553 3376
58 -554 3382
67 -549 3346
77 -550 3352
87 -550 3352
98 -559 3407
107 -554 3378
117 -558 3397
127 -556 3385
135 -550 3352
146 -556 3386
156 -556 3388
165 -552 3362
176 -556 3385
185 -553 3363
195 -554 3367
206 -559 3398
215 -555 3375
222 -549 3337
231 -548 3332
245 -558 3388
252 -550 3341
263 -554 3366
270 -549 3334
281 -551 3342
290 -549 3332
305 -559 3388
310 -551 3342
323 -557 3378
331 -553 3349
340 -552 3342
352 -557 3370
360 -553 3347
370 -554 3352
380 -555 3356
392 -557 3370
394 -547 3303
411 -557 3366
417 -552 3335
425 -549 3315
436 -552 3329
447 -553 3338
456 -552 3329
465 -551 3322
478 -555 3345
487 -555 3341
497 -555 3337
506 -554 3332
516 -554 3330
526 -554 3331
532 -551 3309
544 -553 3319
556 -555 3333
564 -553 3319
570 -551 3301
576 -547 3276
592 -553 3312
602 -553 3312
611 -553 3309
617 -550 3287
628 -551 3293
640 -553 3302
647 -550 3286
657 -551 3288
664 -548 3269
675 -550 3276
687 -552 3286
690 -546 3252
700 -547 3251
714 -550 3270
726 -553 3283
732 -550 3263
739 -548 3251
751 -549 3257
755 -546 3233
769 -548 3248
773 -545 3225
773 -538 3182
768 -528 3121
764 -519 3067
760 -510 3012
759 -504 2972
763 -500 2949
753 -488 2876
763 -489 2880
754 -478 2814
756 -474 2788
756 -469 2754
759 -466 2733
766 -465 2727
764 -459 2691
766 -455 2666
774 -456 2666
778 -453 2649
800 -462 2696
820 -469 2735
876 -496 2890
937 -526 3060
965 -536 3117
991 -546 3170
1010 -550 3196
1010 -546 3165
1025 -548 3178
1022 -542 3138
1044 -548 3172
1047 -545 3151
1057 -545 3148
1069 -547 3153
1084 -550 3167
1092 -549 3158
1099 -547 3148
1110 -548 3149
1131 -554 3179
1132 -550 3152
1141 -549 3147
1139 -544 3113
1145 -543 3102
1156 -543 3102
1177 -549 3130
1175 -543 3095
1191 -546 3109
1200 -546 3105
1205 -544 3092
1210 -542 3076
1232 -548 3105
1240 -548 3098
1243 -545 3078
1244 -541 3054
1255 -542 3054
1277 -547 3082
1279 -544 3059
1293 -546 3067
1299 -545 3056
1325 -552 3091
1325 -547 3063
1332 -547 3054
1335 -544 3035
1347 -545 3038
1355 -545 3031
1356 -541 3008
1365 -541 3005
1392 -548 3039
1392 -545 3015
1402 -545 3013
1395 -538 2971
1418 -544 2997
1447 -551 3035
1439 -545 2994
1449 -545 2991
1454 -544 2978
1470 -546 2987
1498 -553 3021
1480 -543 2960
1500 -547 2978
1505 -545 2965
1500 -540 2932
1542 -552 2991
1550 -551 2982
1548 -547 2957
1556 -547 2950
1573 -549 2959
1570 -545 2932
1568 -541 2905
1587 -544 2917
1607 -548 2934
1606 -545 2910
1617 -545 2908
1629 -546 2907
1659 -553 2940
-1750 -534 3001
-1725 -529 2981
-1738 -536 3025
-1720 -534 3016
-1701 -531 3004
-1703 -535 3031
-1676 -530 3006
-1676 -533 3027
-1687 -539 3069
-1670 -537 3062
-1645 -532 3038
-1640 -534 3052
-1637 -536 3069
-1624 -535 3069
-1615 -535 3074
-1609 -537 3086
-1608 -540 3108
-1582 -535 3081
-1580 -537 3101
-1566 -536 3098
-1560 -537 3109
-1553 -538 3119
-1544 -539 3125
-1546 -543 3154
-1524 -539 3133
-1520 -541 3151
-1502 -538 3137
-1504 -543 3167
-1487 -540 3156
-1476 -540 3158
-1457 -536 3142
-1445 -536 3141
-1439 -537 3153
-1429 -537 3157
-1392 -527 3100
-1385 -528 3111
-1358 -522 3075
-1334 -516 3045
-1316 -513 3029
-1333 -523 3093
-1316 -520 3081
-1315 -524 3104
-1309 -525 3115
-1299 -525 3118
-1293 -526 3129
-1305 -536 3187
-1302 -538 3207
-1291 -538 3209
-1276 -536 3199
-1280 -542 3236
-1256 -536 3202
-1270 -546 3268
-1259 -546 3268
-1248 -546 3271
-1231 -543 3255
-1225 -544 3268
-1209 -542 3256
-1204 -544 3271
-1197 -546 3282
-1184 -544 3277
-1170 -542 3267
-1159 -542 3267
-1150 -542 3273
-1142 -544 3283
-1134 -545 3291
-1123 -544 3291
-1113 -544 3292
-1113 -549 3324
-1093 -544 3297
-1080 -542 3289
-1073 -544 3301
-1069 -547 3325
-1060 -548 3330
-1043 -544 3310
-1041 -548 3337
-1029 -547 3332
-1020 -548 3338
-1004 -545 3321
-990 -543 3312
-981 -543 3316
-977 -547 3338
-967 -547 3342
-961 -549 3358
-947 -547 3346
-935 -546 3340
-928 -547 3352
-914 -545 3341
-910 -549 3363
-900 -549 3368
-881 -543 3333
-883 -551 3380
-874 -552 3388
-857 -547 3361
-838 -541 3328
-837 -547 3364
-826 -546 3361
-815 -546 3360
-803 -544 3353
-803 -551 3397
-787 -548 3374
-777 -548 3377
-770 -550 3391
-758 -548 3382
-746 -547 3376
-738 -549 3387
-727 -547 3381
-723 -552 3411
-709 -549 3395
-701 -551 3404
-690 -550 3402
-677 -547 3387
-669 -549 3399
-661 -552 3415
-649 -550 3404
-642 -552 3420
-630 -551 3411
-622 -553 3426
-610 -550 3412
-599 -550 3408
-588 -549 3407
-581 -552 3426
-569 -550 3414
-561 -552 3428
-551 -553 3430
-540 -551 3421
-530 -552 3425
-520 -551 3424
-510 -551 3423
-498 -549 3414
-487 -549 3409
-481 -552 3432
-469 -550 3421
-461 -553 3438
-450 -552 3433
-437 -548 3410
-429 -551 3428
-421 -554 3444
-410 -552 3432
-396 -547 3405
-385 -545 3389
-377 -548 3409
-371 -553 3445
-355 -545 3393
-350 -552 3438
-342 -556 3463
-328 -550 3423
-319 -550 3427
-306 -546 3397
-296 -545 3393
-289 -550 3428
-279 -551 3429
-269 -551 3433
-260 -554 3449
-248 -549 3416
-239 -550 3428
-229 -552 3438
-220 -553 3443
-210 -552 3441
-199 -551 3430
-187 -545 3393
-178 -547 3407
-162 -528 3290
-137 -477 2971
-121 -450 2806
-113 -450 2804
-107 -460 2866
-95 -441 2749
-80 -405 2525
0 0 0
-84 -516 3211
-79 -550 3423
-70 -555 3455
-60 -553 3444
-50 -552 3437
-40 -558 3470
-30 -555 3454
-20 -556 3461
-10 -556 3457
0 -553 3442
9 -560 3483
19 -554 3447
29 -555 3451
39 -552 3429
49 -555 3452
59 -558 3466
69 -558 3466
79 -556 3455
89 -554 3437
100 -559 3471
109 -558 3463
118 -552 3428
129 -555 3446
138 -552 3424
149 -557 3456
159 -556 3445
168 -551 3418
178 -553 3429
188 -553 3426
198 -553 3423
208 -553 3427
219 -555 3437
229 -555 3438
239 -557 3445
249 -556 3442
256 -550 3400
269 -556 3437
278 -555 3430
288 -554 3424
299 -557 3440
307 -552 3411
317 -553 3415
324 -549 3389
338 -556 3430
345 -551 3399
354 -549 3383
368 -555 3422
375 -551 3393
387 -555 3416
398 -556 3422
409 -557 3426
418 -556 3421
424 -551 3385
435 -552 3394
448 -556 3418
454 -552 3389
464 -552 3386
474 -552 3387
486 -554 3399
495 -553 3392
504 -553 3386
514 -553 3387
522 -551 3374
532 -551 3370
540 -549 3360
553 -552 3375
563 -553 3378
577 -556 3398
584 -554 3383
597 -557 3397
602 -552 3369
613 -553 3372
626 -556 3389
632 -553 3365
636 -548 3334
652 -553 3365
655 -547 3326
670 -552 3353
684 -555 3372
689 -552 3348
696 -549 3330
707 -550 3335
718 -551 3339
729 -552 3343
733 -548 3313
744 -549 3318
756 -550 3325
770 -554 3344
772 -548 3306
774 -542 3270
773 -535 3226
776 -531 3196
765 -517 3109
770 -514 3092
763 -503 3024
760 -496 2977
756 -487 2925
758 -483 2895
758 -478 2863
763 -476 2848
759 -468 2799
752 -458 2740
762 -460 2746
775 -462 2761
777 -459 2738
773 -452 2693
802 -464 2764
813 -465 2770
863 -489 2909
933 -524 3112
969 -539 3198
988 -544 3228
1003 -547 3243
1016 -549 3249
1024 -548 3241
1041 -552 3261
1044 -549 3237
1057 -551 3246
1062 -548 3228
1068 -546 3214
1074 -544 3199
1101 -553 3250
1100 -548 3215
1109 -547 3208
1113 -545 3191
1131 -549 3211
1137 -547 3199
1153 -550 3212
1161 -550 3205
1173 -551 3207
1177 -548 3190
1184 -547 3179
1203 -551 3201
1199 -545 3159
1210 -546 3162
1219 -545 3156
1237 -549 3174
1256 -553 3195
1260 -551 3177
1260 -547 3149
1275 -549 3159
1281 -547 3146
1294 -549 3150
1308 -551 3158
1297 -542 3105
1319 -547 3129
1311 -540 3085
1340 -548 3126
1351 -548 3125
1364 -550 3130
1374 -550 3127
1365 -543 3081
1383 -546 3095
1398 -548 3104
1417 -552 3121
1424 -551 3109
1427 -549 3092
1445 -552 3105
1438 -545 3065
1452 -547 3070
1455 -545 3052
1479 -550 3078
1484 -548 3064
1492 -548 3058
1491 -544 3031
1511 -548 3047
1514 -545 3029
1527 -547 3032
1530 -544 3015
1561 -552 3052
1540 -541 2989
1543 -539 2970
1578 -548 3016
1576 -544 2989
1610 -553 3031
1618 -552 3021
1614 -547 2993
1601 -540 2945
1629 -546 2976
1644 -548 2980
1645 -545 2959
1669 -550 2979
1679 -550 2977
-1771 -530 3040
-1782 -537 3081
-1769 -536 3081
-1750 -533 3070
-1738 -533 3072
-1735 -535 3090
-1716 -532 3078
-1719 -536 3107
-1692 -531 3081
-1709 -540 3136
-1695 -538 3132
-1675 -535 3119
-1658 -533 3111
-1657 -536 3133
-1642 -534 3127
-1648 -540 3163
-1635 -539 3163
-1623 -538 3162
-1622 -542 3186
-1596 -536 3158
-1603 -542 3197
-1580 -538 3176
-1579 -541 3199
-1566 -540 3197
-1560 -541 3209
-1553 -543 3221
-1536 -540 3209
-1521 -539 3204
-1508 -538 3202
-1496 -537 3203
-1487 -537 3208
-1477 -538 3213
-1477 -541 3238
-1466 -541 3240
-1442 -536 3214
-1430 -535 3214
-1417 -534 3210
-1414 -537 3231
-1407 -538 3241
-1391 -536 3231
-1376 -534 3222
-1376 -538 3250
-1366 -538 3254
-1365 -542 3278
-1348 -539 3264
-1331 -536 3253
-1321 -536 3256
-1316 -539 3272
-1314 -542 3295
-1298 -539 3282
-1292 -541 3297
-1277 -539 3288
-1269 -540 3297
-1269 -545 3327
-1262 -546 3337
-1237 -540 3301
-1235 -543 3327
-1218 -540 3310
-1219 -545 3345
-1213 -547 3358
-1201 -547 3357
-1182 -542 3334
-1178 -545 3353
-1165 -544 3350
-1161 -547 3369
-1140 -542 3340
-1141 -547 3377
-1132 -548 3383
-1119 -547 3378
-1105 -545 3370
-1106 -551 3405
-1080 -543 3361
-1086 -551 3413
-1065 -545 3380
-1062 -549 3407
-1049 -548 3399
-1030 -543 3373
-1037 -553 3433
-1021 -549 3414
-1001 -544 3384
-998 -548 3412
-984 -546 3399
-976 -547 3411
-967 -548 3415
-956 -547 3415
-950 -550 3432
-933 -547 3412
-921 -545 3405
-918 -549 3433
-898 -544 3399
-894 -548 3425
-889 -551 3446
-870 -545 3414
-865 -549 3437
-861 -553 3464
-847 -550 3451
-832 -547 3431
-825 -549 3447
-812 -548 3437
-803 -548 3445
-800 -554 3478
-789 -553 3473
-778 -553 3474
-758 -546 3431
-753 -549 3455
-745 -551 3466
-730 -547 3446
-721 -548 3454
-712 -550 3463
-704 -551 3471
-701 -557 3510
-685 -552 3482
-673 -551 3475
-664 -552 3481
-653 -551 3479
-643 -552 3483
-633 -552 3485
-620 -549 3470
-616 -555 3508
-601 -551 3482
-588 -548 3465
-580 -551 3482
-569 -549 3474
-563 -554 3504
-547 -548 3467
-539 -550 3483
-528 -550 3478
-518 -550 3483
-510 -552 3496
-496 -548 3471
-492 -555 3515
-478 -551 3490
-466 -548 3474
-454 -547 3464
-447 -551 3490
-434 -548 3470
-425 -549 3479
-420 -555 3517
-407 -552 3500
-397 -552 3500
-388 -554 3515
-374 -549 3481
-366 -552 3500
-356 -551 3496
-346 -553 3506
-336 -552 3504
-325 -551 3498
-315 -551 3494
-307 -555 3522
-296 -553 3512
-286 -554 3517
-277 -557 3532
-262 -548 3477
-255 -553 3510
-242 -547 3471
-234 -552 3503
-222 -548 3478
-215 -557 3532
-203 -551 3497
-192 -550 3489
-183 -552 3499
-169 -540 3424
-146 -496 3145
-125 -454 2881
-114 -446 2833
-107 -449 2847
-99 -452 2866
-79 -395 2505
0 0 0
-83 -502 3185
-81 -550 3486
-71 -553 3505
-61 -556 3526
-51 -558 3540
-41 -556 3525
-31 -556 3524
-20 -557 3531
-10 -555 3513
0 -558 3532
9 -557 3528
19 -557 3530
30 -563 3565
39 -551 3486
50 -555 3516
60 -556 3518
71 -558 3534
81 -556 3517
91 -556 3519
101 -557 3523
110 -552 3489
120 -552 3488
131 -555 3508
141 -554 3502
152 -555 3509
163 -558 3526
172 -556 3508
183 -558 3522
190 -548 3461
200 -548 3455
214 -559 3525
222 -554 3493
233 -555 3498
242 -552 3479
252 -553 3487
264 -557 3507
275 -559 3523
283 -555 3495
293 -555 3493
305 -557 3507
317 -561 3527
324 -555 3492
334 -555 3492
342 -552 3470
354 -555 3485
363 -553 3474
374 -554 3479
385 -556 3491
393 -552 3464
407 -558 3498
411 -550 3450
425 -556 3482
432 -551 3451
447 -558 3490
453 -553 3459
461 -551 3445
475 -555 3468
482 -551 3446
493 -553 3452
504 -553 3456
513 -553 3450
524 -553 3451
531 -550 3432
546 -555 3462
553 -553 3444
563 -552 3438
571 -550 3424
586 -556 3456
595 -554 3445
603 -553 3435
614 -554 3438
623 -553 3432
629 -549 3404
648 -557 3453
653 -552 3421
659 -549 3403
672 -552 3418
684 -554 3425
690 -550 3401
705 -554 3426
713 -552 3412
722 -552 3408
739 -558 3439
745 -554 3416
756 -555 3421
761 -552 3396
764 -546 3362
779 -550 3383
773 -539 3310
780 -537 3299
766 -521 3197
764 -513 3149
767 -509 3120
769 -504 3086
758 -491 3007
756 -484 2962
765 -484 2959
764 -478 2919
753 -466 2843
762 -467 2846
761 -461 2808
762 -456 2778
778 -461 2804
769 -451 2740
798 -463 2813
818 -470 2851
865 -492 2982
938 -528 3201
971 -541 3276
993 -548 3316
1000 -546 3302
1012 -548 3308
1031 -553 3335
1032 -548 3304
1051 -553 3328
1063 -554 3332
1071 -553 3324
1073 -549 3295
1089 -552 3312
1094 -550 3295
1100 -547 3279
1113 -549 3286
1134 -555 3316
1128 -547 3266
1133 -545 3250
1152 -549 3272
1161 -549 3266
1168 -547 3256
1181 -549 3262
1188 -548 3251
1195 -546 3238
1205 -546 3236
1217 -548 3239
1231 -550 3247
1244 -551 3252
1248 -548 3233
1254 -547 3220
1265 -547 3218
1279 -549 3226
1282 -546 3206
1301 -550 3224
1310 -550 3219
1318 -549 3210
1328 -549 3208
1346 -553 3223
1336 -544 3171
1356 -549 3191
1357 -545 3168
1364 -544 3156
1395 -553 3203
1402 -551 3192
1395 -545 3151
1425 -553 3190
1430 -551 3176
1449 -555 3192
1437 -546 3139
1456 -550 3156
1453 -545 3125
1485 -553 3167
1481 -548 3133
1495 -550 3138
1510 -552 3144
1508 -547 3116
1521 -549 3118
1533 -550 3119
1553 -553 3135
1547 -548 3099
1583 -557 3146
1561 -546 3077
1576 -548 3084
1593 -550 3092
1580 -542 3044
1621 -553 3100
1617 -548 3067
1618 -546 3048
1641 -550 3068
1655 -551 3070
1664 -551 3063
1672 -550 3054
1684 -551 3053
1690 -550 3042
1693 -548 3025
1725 -555 3060
-1830 -538 3143
-1820 -538 3148
-1809 -538 3152
-1799 -538 3159
-1787 -537 3160
-1769 -535 3151
-1753 -533 3146
-1758 -538 3179
-1743 -537 3176
-1710 -530 3138
-1723 -537 3186
-1698 -532 3163
-1705 -538 3201
-1698 -539 3211
-1688 -539 3217
-1679 -540 3225
-1670 -540 3231
-1650 -537 3217
-1638 -537 3218
-1628 -537 3223
-1629 -540 3250
-1612 -538 3242
-1604 -539 3252
-1602 -542 3273
-1596 -544 3286
-1583 -543 3283
-1551 -535 3243
-1545 -537 3257
-1540 -539 3273
-1526 -538 3268
-1527 -542 3296
-1498 -535 3260
-1486 -535 3261
-1490 -540 3295
-1470 -536 3278
-1479 -543 3324
-1459 -540 3307
-1443 -538 3297
-1441 -541 3320
-1420 -537 3299
-1420 -541 3327
-1411 -541 3334
-1401 -542 3338
-1392 -542 3346
-1373 -539 3328
-1366 -540 3339
-1355 -540 3341
-1356 -544 3371
-1338 -542 3357
-1346 -549 3407
-1316 -541 3361
-1313 -544 3382
-1295 -541 3364
-1294 -545 3393
-1267 -538 3352
-1268 -543 3384
-1252 -540 3373
-1248 -543 3394
-1242 -545 3409
-1230 -545 3407
-1218 -544 3406
-1205 -543 3399
-1199 -545 3415
-1193 -547 3433
-1189 -550 3452
-1171 -546 3433
-1155 -544 3419
-1153 -548 3449
-1129 -541 3409
-1131 -547 3450
-1121 -548 3453
-1110 -547 3453
-1087 -541 3416
-1083 -544 3439
-1077 -547 3457
-1062 -544 3443
-1060 -549 3474
-1033 -540 3420
-1032 -545 3453
-1027 -548 3474
-1020 -550 3487
-998 -544 3451
-997 -549 3485
-990 -551 3501
-977 -549 3492
-966 -549 3493
-955 -549 3494
-941 -546 3480
-941 -553 3523
-916 -544 3469
-907 -545 3476
-903 -549 3505
-893 -549 3507
-875 -545 3480
-874 -551 3517
-856 -546 3489
-842 -543 3475
-842 -550 3518
-834 -552 3530
-821 -550 3521
-814 -553 3540
-794 -546 3499
-791 -551 3531
-789 -557 3571
-771 -552 3541
-755 -548 3515
-746 -549 3522
-738 -551 3535
-724 -548 3518
-716 -550 3532
-707 -552 3545
-701 -555 3567
-686 -551 3545
-672 -548 3526
-660 -547 3522
-658 -554 3565
-648 -555 3571
-629 -548 3526
-627 -555 3571
-613 -552 3553
-604 -553 3564
-588 -548 3530
-578 -548 3533
-568 -549 3538
-564 -555 3576
-548 -550 3544
-538 -550 3549
-528 -550 3550
-516 -549 3542
-513 -556 3591
-499 -552 3566
-489 -553 3571
-478 -552 3566
-467 -551 3560
-451 -545 3520
-447 -552 3568
-437 -553 3572
-421 -547 3532
-414 -551 3560
-408 -557 3599
-396 -554 3582
-379 -545 3521
-373 -552 3569
-366 -557 3598
-353 -552 3571
-341 -551 3562
-331 -551 3561
-322 -553 3575
-313 -555 3591
-301 -553 3577
-290 -551 3564
-279 -550 3557
-268 -549 3550
-257 -549 3549
-250 -556 3598
-238 -552 3570
-227 -550 3560
-218 -554 3582
-207 -551 3563
-197 -554 3585
-186 -552 3572
-175 -550 3554
-156 -522 3373
-132 -470 3039
-118 -451 2920
-108 -445 2877
-99 -442 2860
-84 -412 2663
0 0 0
-80 -478 3087
-82 -546 3525
-72 -552 3566
-62 -556 3593
-52 -556 3593
-41 -554 3576
-31 -553 3570
-21 -557 3596
-10 -557 3593
0 -556 3587
9 -554 3573
20 -556 3586
30 -556 3589
40 -555 3578
51 -556 3588
61 -555 3582
71 -554 3572
82 -554 3571
92 -556 3581
103 -556 3586
113 -553 3566
123 -554 3567
134 -555 3574
144 -554 3569
155 -558 3594
165 -554 3569
174 -552 3555
185 -553 3557
195 -554 3562
206 -556 3575
216 -554 3564
226 -553 3551
235 -550 3535
247 -553 3553
257 -554 3557
269 -556 3571
280 -559 3587
288 -554 3553
301 -558 3579
308 -553 3544
320 -556 3566
328 -553 3541
340 -554 3549
347 -549 3517
359 -553 3537
374 -560 3583
383 -558 3567
391 -554 3544
402 -556 3552
412 -554 3541
422 -554 3540
432 -554 3538
440 -552 3522
448 -549 3503
464 -555 3541
470 -550 3507
482 -553 3522
494 -555 3532
502 -553 3518
517 -557 3546
523 -553 3519
539 -559 3555
544 -554 3518
555 -554 3519
568 -557 3534
579 -558 3538
589 -558 3537
593 -551 3496
606 -554 3512
616 -554 3509
627 -555 3512
636 -553 3501
648 -555 3509
657 -554 3500
667 -554 3500
675 -552 3485
692 -558 3519
693 -550 3469
711 -557 3509
717 -553 3484
733 -558 3512
734 -551 3465
745 -551 3466
762 -556 3494
764 -550 3454
770 -548 3437
775 -544 3413
769 -533 3338
761 -520 3259
768 -519 3246
764 -509 3187
766 -505 3156
758 -494 3085
755 -486 3032
764 -486 3029
759 -477 2973
755 -469 2921
759 -466 2901
766 -465 2894
764 -459 2851
770 -457 2840
784 -461 2858
781 -454 2818
806 -464 2875
851 -485 3001
909 -513 3171
958 -535 3307
992 -548 3386
1001 -548 3379
1017 -551 3398
1027 -551 3394
1042 -554 3406
1050 -552 3396
1062 -554 3401
1068 -551 3383
1073 -549 3365
1088 -552 3379
1102 -554 3387
1108 -552 3373
1117 -551 3366
1129 -552 3368
1135 -550 3352
1150 -553 3365
1157 -551 3351
1166 -551 3346
1176 -550 3341
1185 -550 3335
1191 -548 3321
1193 -545 3297
1220 -552 3338
1224 -550 3319
1228 -547 3301
1247 -551 3319
1251 -548 3301
1261 -549 3298
1277 -551 3310
1276 -546 3277
1281 -544 3261
1295 -546 3269
1306 -546 3267
1331 -553 3301
1328 -547 3264
1342 -549 3270
1375 -558 3322
1356 -547 3248
1373 -549 3260
1381 -549 3254
1387 -547 3240
1402 -549 3248
1409 -548 3236
1420 -548 3233
1437 -551 3246
1450 -552 3248
1451 -549 3225
1457 -547 3211
1475 -550 3224
1476 -547 3200
1498 -552 3224
1497 -548 3195
1507 -548 3190
1530 -553 3214
1522 -546 3171
1540 -549 3184
1546 -548 3171
1577 -555 3208
1568 -549 3167
1574 -547 3153
1592 -550 3164
1607 -552 3170
1614 -551 3160
1621 -550 3149
1628 -549 3139
1631 -546 3120
1651 -550 3135
1643 -544 3095
1661 -547 3105
1690 -553 3137
1698 -552 3128
1715 -555 3136
1731 -556 3140
1728 -552 3112
1742 -554 3113
1724 -545 3059
-1855 -535 3188
-1855 -538 3211
-1841 -537 3210
-1823 -535 3203
-1830 -540 3238
-1801 -534 3210
-1797 -536 3227
-1795 -539 3247
-1787 -540 3258
-1758 -534 3229
-1748 -534 3235
-1761 -542 3282
-1732 -536 3253
-1729 -538 3272
-1708 -535 3257
-1704 -537 3273
-1698 -539 3288
-1689 -539 3295
-1686 -542 3313
-1678 -543 3325
-1644 -535 3282
-1630 -534 3279
-1634 -539 3314
-1623 -539 3316
-1625 -543 3347
-1612 -542 3345
-1599 -541 3344
-1574 -536 3318
-1572 -539 3340
-1560 -539 3342
-1549 -539 3346
-1551 -543 3378
-1521 -537 3339
-1514 -538 3350
-1508 -540 3364
-1506 -543 3386
-1497 -543 3396
-1467 -536 3354
-1463 -539 3373
-1450 -538 3370
-1444 -539 3384
-1433 -539 3387
-1438 -545 3427
-1416 -541 3403
-1400 -539 3394
-1383 -536 3381
-1381 -540 3406
-1382 -544 3438
-1369 -543 3435
-1351 -541 3422
-1342 -541 3428
-1320 -537 3403
-1317 -540 3423
-1307 -540 3429
-1298 -541 3435
-1302 -547 3478
-1282 -543 3456
-1267 -541 3445
-1250 -538 3433
-1254 -545 3476
-1238 -542 3462
-1232 -544 3478
-1213 -541 3457
-1221 -549 3514
-1195 -542 3471
-1192 -546 3498
-1183 -546 3503
-1161 -541 3473
-1163 -547 3514
-1145 -543 3492
-1137 -545 3503
-1125 -544 3501
-1121 -548 3526
-1106 -546 3515
-1100 -548 3530
-1084 -545 3517
-1075 -546 3525
-1067 -547 3533
-1059 -549 3546
-1053 -551 3563
-1039 -549 3553
-1021 -546 3533
-1011 -546 3536
-1001 -546 3540
-993 -548 3551
-981 -547 3549
-976 -550 3569
-962 -549 3562
-947 -546 3547
-939 -547 3557
-923 -544 3541
-916 -546 3553
-916 -553 3598
-898 -548 3570
-889 -550 3580
-876 -548 3572
-867 -549 3580
-855 -548 3576
-849 -551 3597
-836 -550 3588
-819 -545 3561
-812 -548 3580
-811 -555 3623
-794 -550 3595
-779 -547 3579
-773 -550 3601
-762 -550 3601
-757 -554 3628
-742 -552 3611
-726 -548 3586
-723 -553 3622
-713 -553 3626
-698 -550 3607
-687 -550 3604
-677 -551 3612
-667 -551 3616
-654 -550 3606
-643 -549 3604
-638 -554 3636
-621 -548 3601
-610 -548 3601
-600 -548 3603
-591 -550 3614
-581 -551 3620
-572 -552 3626
-560 -550 3619
-549 -551 3622
-541 -553 3637
-527 -550 3617
-515 -549 3609
-508 -552 3631
-496 -551 3626
-484 -549 3615
-474 -549 3616
-464 -550 3625
-453 -550 3624
-444 -552 3636
-435 -554 3649
-421 -550 3622
-411 -551 3629
-403 -554 3648
-390 -550 3623
-381 -553 3643
-367 -548 3610
-359 -552 3639
-351 -555 3659
-338 -552 3640
-327 -552 3638
-317 -553 3647
-307 -553 3647
-296 -554 3649
-287 -556 3663
-274 -551 3631
-264 -553 3642
-253 -552 3639
-244 -556 3666
-232 -552 3641
-222 -552 3641
-211 -552 3637
-201 -554 3652
-188 -548 3611
-179 -551 3632
-163 -534 3519
-135 -473 3121
-119 -446 2939
-110 -447 2947
-105 -459 3026
-90 -434 2861
0 0 0
0 0 0
-81 -531 3495
-74 -552 3635
-64 -558 3674
-53 -558 3674
-42 -553 3643
-32 -555 3656
-21 -557 3667
-11 -555 3656
0 -557 3664
10 -558 3672
20 -553 3638
31 -559 3674
41 -556 3658
52 -557 3666
63 -560 3681
73 -554 3641
83 -555 3644
94 -557 3657
104 -552 3629
115 -552 3623
127 -559 3668
136 -553 3630
146 -552 3624
158 -556 3652
169 -558 3661
179 -556 3646
189 -555 3639
200 -556 3645
208 -550 3608
222 -559 3666
234 -561 3676
241 -553 3623
252 -555 3637
260 -550 3603
271 -551 3606
284 -556 3638
297 -560 3659
307 -560 3658
316 -557 3639
327 -557 3638
335 -553 3612
346 -555 3623
359 -557 3637
366 -552 3602
378 -555 3620
390 -557 3632
405 -563 3668
410 -555 3618
421 -556 3624
434 -559 3640
438 -552 3591
451 -554 3605
466 -561 3646
468 -550 3576
480 -552 3585
492 -554 3599
502 -554 3593
517 -558 3623
525 -555 3601
538 -558 3615
543 -553 3582
551 -550 3565
564 -552 3576
573 -552 3570
588 -556 3594
599 -556 3595
608 -555 3586
612 -550 3550
634 -559 3609
638 -554 3574
648 -554 3569
658 -553 3566
668 -553 3560
682 -556 3581
696 -559 3597
700 -553 3558
713 -556 3572
721 -553 3555
735 -556 3571
741 -553 3548
759 -559 3582
762 -553 3545
768 -550 3524
779 -551 3524
774 -540 3454
768 -529 3381
760 -517 3300
760 -510 3258
771 -511 3262
754 -494 3150
763 -493 3144
760 -486 3094
762 -481 3062
752 -469 2984
763 -471 2990
768 -468 2973
756 -456 2893
768 -458 2901
781 -460 2915
795 -464 2936
834 -481 3043
855 -488 3084
900 -509 3213
959 -536 3384
993 -550 3467
1008 -553 3481
1019 -553 3478
1029 -553 3474
1036 -551 3461
1052 -554 3479
1057 -551 3457
1071 -553 3465
1079 -552 3458
1087 -551 3446
1098 -551 3444
1110 -552 3448
1124 -554 3456
1128 -551 3433
1144 -554 3448
1143 -549 3412
1166 -555 3445
1174 -553 3435
1178 -551 3415
1191 -552 3419
1201 -552 3415
1202 -547 3384
1218 -550 3398
1231 -551 3401
1243 -552 3403
1246 -549 3381
1240 -542 3334
1261 -547 3358
1282 -552 3384
1294 -552 3386
1290 -546 3345
1313 -552 3373
1323 -552 3370
1339 -554 3380
1338 -549 3348
1345 -548 3336
1364 -552 3354
1359 -546 3313
1381 -551 3339
1395 -552 3344
1404 -552 3337
1410 -550 3321
1424 -552 3328
1432 -551 3319
1440 -550 3309
1452 -551 3309
1466 -552 3314
1472 -551 3300
1479 -549 3289
1478 -545 3258
1506 -552 3294
1510 -550 3276
1540 -557 3315
1537 -552 3281
1560 -556 3303
1555 -551 3267
1564 -551 3260
1585 -555 3279
1575 -548 3232
1573 -543 3203
1609 -552 3250
1600 -546 3207
1637 -555 3256
1635 -551 3227
1645 -551 3221
1652 -550 3211
1669 -552 3219
1677 -552 3210
1699 -555 3227
1700 -553 3205
1706 -551 3191
1716 -551 3186
1743 -557 3213
1749 -555 3199
1739 -549 3157
1769 -555 3188
1760 -549 3148
1781 -553 3162
-1870 -528 3215
-1912 -543 3312
-1892 -541 3300
-1844 -530 3240
-1860 -538 3293
-1845 -537 3291
-1841 -539 3307
-1817 -535 3289
-1810 -536 3301
-1826 -544 3355
-1794 -538 3322
-1795 -541 3347
-1787 -542 3358
-1772 -541 3355
-1751 -538 3341
-1743 -539 3351
-1743 -542 3376
-1709 -535 3336
-1703 -536 3349
-1701 -539 3371
-1683 -537 3363
-1676 -538 3374
-1660 -537 3367
-1661 -541 3397
-1631 -534 3361
-1644 -542 3414
-1624 -539 3400
-1609 -538 3394
-1600 -538 3402
-1582 -536 3390
-1584 -541 3423
-1575 -541 3430
-1575 -545 3458
-1547 -539 3426
-1542 -541 3442
-1525 -539 3432
-1517 -540 3440
-1511 -542 3457
-1501 -542 3462
-1482 -539 3446
-1493 -547 3501
-1480 -546 3499
-1459 -542 3479
-1443 -541 3470
-1422 -537 3448
-1419 -540 3473
-1414 -542 3490
-1390 -537 3459
-1390 -541 3490
-1372 -539 3477
-1358 -537 3470
-1362 -543 3511
-1346 -541 3502
-1327 -537 3481
-1323 -540 3503
-1320 -544 3528
-1304 -542 3517
-1294 -542 3522
-1287 -543 3534
-1277 -544 3541
-1261 -542 3530
-1244 -539 3513
-1241 -542 3539
-1236 -545 3557
-1220 -543 3546
-1201 -539 3525
-1209 -547 3581
-1192 -545 3568
-1179 -544 3562
-1187 -552 3622
-1159 -545 3574
-1144 -543 3564
-1144 -548 3598
-1132 -547 3598
-1116 -545 3584
-1104 -545 3583
-1105 -550 3622
-1087 -547 3603
-1068 -543 3577
-1072 -550 3631
-1061 -550 3631
-1036 -543 3586
-1032 -546 3609
-1017 -544 3597
-1005 -544 3596
-1002 -548 3626
-996 -551 3645
-982 -549 3638
-975 -551 3652
-963 -551 3651
-943 -545 3617
-939 -549 3645
-926 -548 3640
-917 -549 3649
-911 -552 3669
-890 -546 3631
-877 -545 3623
-881 -554 3684
-852 -543 3612
-849 -547 3645
-840 -549 3657
-839 -555 3699
-818 -549 3659
-810 -551 3672
-803 -553 3690
-789 -551 3677
-773 -547 3653
-773 -555 3706
-761 -554 3702
-749 -554 3701
-732 -549 3671
-717 -546 3649
-714 -552 3690
-698 -548 3668
-686 -548 3663
-678 -549 3674
-667 -550 3678
-661 -553 3706
-646 -550 3685
-640 -554 3711
-624 -550 3683
-612 -549 3679
-602 -549 3682
-594 -552 3700
-583 -552 3699
-573 -553 3707
-559 -549 3686
-546 -547 3673
-536 -548 3680
-526 -549 3683
-511 -544 3653
-506 -551 3696
-497 -552 3708
-483 -549 3689
-471 -548 3679
-465 -553 3715
-451 -549 3689
-442 -552 3706
-432 -553 3718
-417 -548 3683
-406 -548 3681
-398 -551 3703
-388 -552 3709
-376 -550 3699
-365 -550 3694
-353 -548 3684
-345 -552 3712
-330 -547 3675
-322 -551 3701
-315 -557 3746
-299 -548 3683
-291 -554 3722
-283 -558 3750
-270 -555 3732
-257 -550 3698
-247 -551 3705
-236 -552 3708
-225 -550 3700
-217 -557 3743
-206 -556 3736
-192 -549 3690
-183 -552 3709
-168 -540 3627
-144 -493 3317
-120 -444 2985
-114 -451 3034
-105 -451 3036
-97 -457 3075
0 0 0
0 0 0
-82 -529 3554
-76 -556 3735
-65 -558 3746
-54 -559 3752
-43 -557 3742
-32 -555 3726
-22 -557 3742
-11 -557 3736
0 -561 3767
10 -558 3743
21 -557 3739
31 -555 3722
42 -556 3727
53 -559 3747
63 -552 3699
74 -554 3714
85 -555 3718
95 -551 3695
106 -552 3701
119 -560 3753
129 -557 3727
140 -559 3744
149 -554 3707
161 -557 3725
171 -553 3702
181 -551 3687
193 -555 3709
203 -554 3706
214 -554 3702
227 -560 3741
235 -554 3699
245 -553 3690
255 -551 3678
267 -554 3699
280 -559 3728
289 -555 3699
297 -550 3667
311 -556 3704
321 -554 3692
331 -553 3685
342 -554 3690
355 -557 3707
366 -558 3716
374 -554 3683
384 -553 3679
393 -551 3663
406 -554 3683
418 -555 3690
425 -552 3663
441 -557 3701
450 -555 3685
458 -552 3665
472 -557 3691
478 -551 3651
491 -554 3669
506 -559 3699
514 -555 3675
522 -553 3659
534 -554 3663
546 -556 3677
555 -554 3663
566 -555 3663
572 -550 3632
590 -557 3676
600 -557 3671
609 -555 3659
619 -555 3653
628 -553 3643
642 -556 3657
655 -558 3671
659 -552 3631
672 -554 3643
688 -559 3671
695 -556 3649
707 -557 3652
714 -554 3632
727 -556 3642
741 -558 3657
745 -553 3622
759 -556 3635
767 -554 3622
778 -554 3620
778 -547 3573
776 -538 3512
769 -526 3432
771 -521 3395
775 -517 3366
760 -500 3256
767 -499 3244
755 -485 3153
761 -483 3135
764 -479 3110
765 -474 3074
765 -468 3036
765 -463 2998
776 -464 3006
766 -453 2932
778 -455 2940
804 -465 3006
844 -483 3117
914 -518 3337
956 -536 3452
988 -548 3528
1005 -552 3549
1013 -551 3538
1031 -554 3560
1037 -552 3543
1054 -556 3562
1061 -554 3546
1066 -551 3526
1084 -555 3547
1099 -557 3559
1108 -556 3550
1117 -555 3542
1115 -549 3499
1130 -552 3511
1150 -556 3537
1153 -553 3511
1156 -549 3485
1170 -551 3492
1184 -552 3499
1197 -554 3505
1206 -553 3497
1210 -550 3475
1228 -554 3493
1240 -555 3495
1241 -550 3465
1261 -554 3487
1265 -551 3464
1274 -551 3457
1293 -555 3476
1312 -558 3496
1301 -549 3437
1311 -549 3430
1339 -557 3474
1343 -554 3454
1350 -552 3439
1358 -551 3428
1363 -549 3411
1385 -554 3437
1395 -554 3431
1412 -557 3445
1412 -552 3415
1417 -550 3398
1446 -558 3439
1441 -552 3397
1457 -554 3407
1465 -553 3395
1463 -548 3362
1485 -552 3385
1498 -554 3387
1506 -553 3378
1512 -551 3363
1521 -551 3356
1535 -552 3360
1553 -555 3372
1568 -556 3377
1552 -547 3316
1584 -554 3356
1583 -551 3328
1593 -550 3322
1595 -548 3300
1627 -555 3341
1639 -556 3339
1644 -554 3322
1643 -550 3294
1660 -552 3303
1688 -558 3333
1687 -555 3306
1690 -552 3286
1711 -556 3302
1723 -556 3299
1730 -555 3287
1743 -556 3287
1726 -547 3231
1767 -557 3282
1748 -548 3223
1788 -557 3273
1805 -559 3278
1796 -553 3238
1805 -553 3231
1819 -554 3231
-1930 -534 3320
-1931 -538 3346
-1928 -540 3366
-1930 -544 3394
-1904 -540 3373
-1901 -542 3393
-1886 -541 3390
-1856 -536 3362
-1850 -537 3375
-1860 -543 3418
-1846 -542 3419
-1810 -535 3377
-1827 -543 3435
-1803 -540 3416
-1771 -533 3380
-1795 -544 3451
-1774 -541 3438
-1774 -544 3464
-1761 -544 3466
-1735 -539 3441
-1722 -539 3441
-1709 -538 3442
-1701 -539 3452
-1699 -542 3475
-1688 -542 3480
-1677 -542 3485
-1656 -539 3468
-1647 -540 3477
-1625 -536 3456
-1617 -537 3468
-1627 -544 3516
-1623 -547 3537
-1581 -536 3473
-1598 -546 3539
-1585 -545 3540
-1562 -541 3516
-1556 -543 3531
-1523 -535 3485
-1528 -541 3525
-1524 -543 3545
-1529 -549 3588
-1498 -542 3545
-1488 -542 3550
-1490 -547 3585
-1477 -547 3586
-1464 -546 3584
-1440 -541 3556
-1432 -542 3565
-1429 -545 3591
-1409 -542 3571
-1408 -546 3600
-1394 -545 3596
-1365 -538 3553
-1374 -546 3608
-1359 -544 3601
-1347 -544 3602
-1338 -545 3609
-1328 -545 3617
-1301 -538 3574
-1298 -542 3599
-1285 -541 3596
-1273 -541 3598
-1268 -543 3617
-1251 -541 3603
-1249 -545 3632
-1239 -545 3638
-1225 -544 3633
-1211 -543 3625
-1196 -541 3616
-1187 -542 3624
-1191 -549 3672
-1182 -550 3684
-1163 -546 3660
-1154 -547 3668
-1141 -546 3666
-1130 -546 3669
-1113 -543 3651
-1111 -548 3682
-1099 -547 3682
-1088 -547 3684
-1068 -543 3658
-1064 -547 3683
-1059 -550 3706
-1045 -548 3700
-1040 -552 3723
-1022 -548 3700
-1008 -546 3690
-996 -546 3688
-988 -547 3702
-982 -551 3725
-971 -550 3724
-952 -546 3696
-953 -553 3748
-935 -549 3721
-919 -546 3704
-908 -546 3703
-903 -550 3732
-894 -551 3740
-879 -549 3725
-869 -549 3733
-861 -551 3748
-845 -548 3727
-839 -552 3752
-829 -552 3758
-809 -546 3717
-805 -551 3753
-797 -554 3771
-782 -551 3753
-766 -547 3730
-766 -555 3784
-747 -549 3745
-735 -549 3745
-727 -551 3758
-717 -552 3768
-706 -552 3770
-691 -549 3749
-679 -549 3746
-675 -554 3782
-658 -549 3754
-652 -554 3783
-641 -554 3785
-628 -552 3774
-620 -555 3793
-600 -547 3740
-597 -554 3791
-582 -550 3766
-571 -550 3767
-561 -551 3775
-549 -551 3773
-537 -550 3765
-522 -545 3734
-518 -553 3788
-503 -549 3761
-496 -554 3793
-482 -550 3766
-474 -553 3790
-461 -551 3774
-451 -552 3784
-440 -552 3782
-429 -553 3789
-415 -549 3762
-407 -552 3786
-397 -554 3797
-384 -552 3782
-374 -553 3791
-360 -549 3763
-352 -553 3790
-340 -552 3784
-328 -550 3771
-318 -552 3786
-312 -559 3838
-299 -557 3821
-284 -550 3775
-273 -549 3767
-264 -554 3802
-254 -557 3818
-241 -552 3788
-230 -551 3781
-219 -553 3790
-209 -554 3798
-198 -555 3808
-185 -549 3765
-172 -543 3723
-156 -524 3597
-122 -441 3028
-115 -447 3068
-104 -437 3000
-98 -454 3110
0 0 0
0 0 0
-84 -530 3633
-76 -550 3768
-65 -549 3765
-55 -554 3795
-44 -556 3812
-33 -556 3809
-22 -559 3831
-11 -564 3863
0 -559 3828
10 -554 3790
21 -557 3810
32 -556 3808
43 -557 3810
54 -555 3799
66 -564 3855
76 -559 3822
88 -560 3827
98 -557 3810
109 -555 3794
122 -563 3846
131 -554 3787
141 -552 3773
154 -560 3821
163 -553 3774
175 -555 3788
186 -556 3791
197 -557 3796
206 -550 3751
218 -554 3774
230 -557 3796
238 -551 3753
251 -554 3772
267 -564 3844
274 -557 3791
285 -558 3798
297 -559 3805
306 -556 3781
319 -560 3805
330 -559 3802
338 -554 3765
351 -558 3791
362 -557 3783
373 -558 3786
385 -559 3793
393 -555 3765
404 -555 3763
415 -556 3767
427 -557 3772
436 -554 3754
444 -551 3733
457 -554 3750
470 -556 3761
482 -558 3772
498 -563 3809
504 -557 3765
513 -556 3753
523 -555 3746
537 -558 3767
546 -555 3747
559 -558 3759
566 -554 3736
577 -554 3732
587 -553 3726
597 -553 3722
611 -555 3736
620 -554 3727
627 -551 3702
644 -556 3737
656 -557 3741
663 -554 3718
679 -558 3741
682 -552 3699
699 -557 3729
711 -558 3735
721 -557 3725
735 -560 3742
739 -554 3705
753 -557 3718
762 -555 3705
766 -550 3669
776 -550 3666
777 -543 3620
776 -535 3563
774 -527 3504
758 -509 3385
763 -505 3360
765 -501 3326
766 -494 3282
770 -491 3260
759 -478 3170
745 -464 3072
759 -467 3090
775 -471 3114
772 -464 3065
767 -455 3008
784 -460 3036
787 -457 3013
841 -483 3182
896 -509 3350
943 -530 3485
981 -545 3584
996 -548 3599
1016 -553 3631
1030 -555 3639
1033 -551 3609
1045 -551 3611
1062 -555 3629
1066 -551 3603
1079 -552 3608
1094 -554 3618
1101 -553 3603
1122 -558 3633
1122 -553 3597
1142 -557 3624
1144 -553 3592
1162 -556 3612
1164 -552 3582
1180 -555 3595
1188 -554 3583
1211 -559 3616
1203 -551 3559
1229 -558 3600
1221 -549 3542
1233 -550 3543
1257 -556 3576
1251 -549 3526
1273 -554 3556
1282 -553 3546
1294 -553 3545
1313 -557 3565
1310 -551 3525
1321 -551 3520
1326 -549 3502
1333 -548 3490
1350 -550 3503
1367 -553 3517
1376 -552 3507
1398 -557 3533
1403 -554 3513
1409 -553 3498
1425 -555 3508
1424 -550 3474
1456 -559 3522
1450 -552 3478
1478 -559 3515
1474 -553 3477
1471 -548 3439
1500 -555 3479
1487 -547 3421
1528 -558 3485
1526 -553 3453
1549 -557 3475
1546 -553 3440
1551 -551 3424
1562 -551 3419
1571 -550 3412
1594 -555 3433
1602 -554 3424
1618 -556 3430
1623 -554 3414
1638 -555 3419
1633 -550 3380
1650 -552 3390
1650 -549 3363
1666 -551 3368
1681 -552 3373
1702 -555 3388
1705 -553 3367
1711 -552 3354
1738 -557 3380
1736 -553 3351
1744 -552 3340
1765 -555 3355
1774 -555 3348
1766 -549 3307
1813 -560 3369
1794 -551 3309
1812 -554 3318
1857 -564 3376
1830 -553 3302
1848 -555 3309
1854 -554 3295
-2006 -544 3452
-2003 -547 3472
-1931 -530 3372
-1949 -538 3429
-1948 -541 3452
-1939 -542 3463
-1959 -550 3523
-1916 -542 3472
-1917 -545 3499
-1907 -546 3507
-1870 -538 3465
-1879 -544 3509
-1871 -545 3520
-1838 -539 3484
-1855 -547 3542
-1838 -546 3537
-1822 -544 3534
-1780 -535 3478
-1786 -540 3517
-1765 -537 3501
-1770 -543 3540
-1756 -542 3538
-1748 -543 3549
-1747 -546 3574
-1724 -542 3555
-1714 -543 3563
-1691 -539 3543
-1677 -538 3541
-1695 -548 3607
-1672 -544 3587
-1651 -541 3571
-1637 -540 3569
-1624 -540 3571
-1619 -542 3587
-1601 -539 3576
-1605 -545 3615
-1611 -551 3659
-1574 -542 3604
-1574 -546 3633
-1555 -543 3620
-1536 -540 3606
-1530 -542 3621
-1533 -548 3660
-1523 -548 3667
-1487 -539 3611
-1493 -545 3655
-1480 -545 3657
-1476 -548 3677
-1460 -546 3670
-1441 -543 3653
-1425 -541 3645
-1422 -545 3670
-1439 -555 3745
-1396 -543 3668
-1396 -548 3699
-1374 -543 3674
-1381 -551 3727
-1346 -541 3667
-1349 -547 3709
-1321 -540 3665
-1321 -545 3700
-1311 -546 3707
-1301 -546 3713
-1287 -545 3709
-1278 -546 3717
-1257 -542 3692
-1254 -546 3719
-1237 -543 3705
-1219 -540 3686
-1216 -544 3716
-1205 -544 3719
-1194 -544 3721
-1191 -548 3749
-1172 -545 3729
-1162 -545 3735
-1156 -547 3753
-1139 -545 3739
-1128 -545 3741
-1122 -547 3760
-1103 -544 3739
-1114 -555 3817
-1091 -549 3780
-1079 -549 3777
-1062 -546 3760
-1053 -547 3769
-1039 -546 3762
-1033 -548 3783
-1020 -548 3780
-1012 -549 3792
-1000 -549 3793
-984 -547 3779
-973 -547 3781
-956 -543 3758
-943 -542 3753
-951 -554 3835
-940 -554 3836
-925 -552 3824
-913 -552 3823
-888 -543 3767
-872 -540 3746
-869 -546 3786
-866 -551 3822
-847 -546 3790
-844 -551 3827
-827 -548 3805
-820 -550 3823
-809 -550 3826
-800 -552 3842
-789 -552 3841
-774 -550 3827
-770 -555 3864
-752 -550 3831
-741 -550 3833
-732 -553 3849
-726 -556 3876
-703 -548 3817
-698 -552 3848
-684 -550 3838
-676 -553 3857
-669 -556 3881
-662 -560 3906
-637 -548 3828
-635 -557 3886
-622 -555 3878
-605 -551 3846
-602 -558 3895
-580 -548 3831
-576 -555 3875
-565 -555 3880
-552 -554 3870
-543 -556 3884
-528 -552 3861
-513 -549 3837
-506 -553 3868
-501 -560 3918
-485 -555 3881
-472 -553 3867
-462 -554 3875
-448 -551 3857
-437 -551 3855
-433 -561 3925
-414 -551 3859
-406 -555 3887
-395 -556 3894
-383 -555 3887
-371 -554 3881
-358 -551 3857
-349 -554 3878
-339 -557 3902
-326 -555 3882
-314 -553 3874
-303 -553 3874
-293 -556 3893
-280 -552 3862
-267 -549 3842
-260 -558 3905
-246 -552 3867
-237 -558 3903
-226 -557 3896
-212 -552 3861
-202 -554 3881
-192 -557 3896
-180 -555 3885
-164 -540 3778
-137 -483 3382
-117 -446 3125
-108 -446 3122
-103 -466 3261
0 0 0
0 0 0
-85 -527 3683
-78 -550 3846
-67 -550 3847
-56 -554 3875
-45 -558 3904
-34 -556 3890
-23 -562 3927
-11 -563 3936
0 -559 3907
10 -562 3927
22 -560 3910
33 -557 3892
44 -558 3894
55 -553 3858
66 -556 3884
78 -557 3886
88 -551 3844
100 -555 3868
112 -559 3899
123 -559 3896
134 -558 3889
146 -561 3913
155 -553 3855
168 -558 3885
177 -551 3838
189 -554 3859
201 -556 3869
213 -560 3894
224 -558 3886
235 -556 3870
247 -559 3885
256 -554 3851
269 -558 3876
280 -559 3881
290 -556 3861
298 -550 3821
314 -559 3880
326 -559 3882
334 -554 3844
346 -556 3857
361 -562 3898
369 -556 3857
380 -557 3862
393 -559 3874
406 -563 3895
413 -556 3847
422 -554 3833
433 -553 3826
445 -555 3833
460 -559 3862
471 -559 3862
480 -556 3842
497 -563 3885
502 -557 3840
511 -554 3822
524 -556 3834
530 -551 3795
544 -553 3811
558 -556 3830
575 -563 3872
584 -560 3852
591 -557 3827
595 -550 3776
606 -550 3774
621 -554 3802
638 -559 3832
643 -554 3797
657 -556 3809
664 -553 3786
677 -555 3797
688 -554 3792
700 -555 3794
717 -560 3824
721 -555 3789
731 -554 3779
751 -561 3825
752 -553 3768
761 -552 3760
768 -548 3734
775 -546 3716
778 -540 3675
771 -528 3591
768 -519 3528
769 -512 3480
766 -504 3421
768 -499 3385
753 -483 3272
774 -490 3319
755 -472 3196
765 -472 3196
763 -465 3145
753 -454 3067
762 -454 3066
783 -461 3109
796 -463 3122
838 -482 3250
903 -514 3460
954 -537 3613
990 -551 3706
998 -550 3691
1018 -555 3723
1022 -551 3692
1028 -549 3674
1046 -552 3696
1059 -554 3702
1073 -555 3709
1085 -556 3710
1096 -555 3705
1108 -556 3705
1114 -554 3687
1132 -557 3706
1135 -553 3679
1138 -550 3650
1163 -556 3692
1155 -547 3630
1176 -552 3657
1189 -553 3660
1196 -551 3646
1217 -556 3672
1224 -554 3657
1228 -551 3632
1246 -554 3650
1248 -550 3621
1265 -553 3637
1259 -546 3583
1287 -553 3629
1302 -555 3637
1311 -554 3627
1320 -554 3620
1338 -557 3635
1335 -551 3593
1356 -555 3616
1353 -549 3577
1360 -548 3563
1379 -551 3580
1392 -552 3582
1403 -552 3577
1414 -552 3575
1430 -554 3582
1434 -551 3561
1444 -551 3555
1468 -556 3583
1468 -552 3553
1485 -555 3564
1504 -558 3578
1511 -556 3565
1525 -557 3568
1519 -551 3525
1544 -556 3552
1538 -550 3509
1563 -556 3538
1571 -555 3527
1585 -556 3529
1588 -553 3506
1611 -557 3529
1607 -552 3492
1612 -550 3475
1626 -551 3475
1649 -555 3497
1651 -553 3475
1658 -551 3462
1673 -553 3466
1666 -547 3424
1689 -551 3444
1703 -552 3446
1713 -552 3439
1745 -558 3475
1727 -549 3412
1740 -550 3412
1766 -555 3438
1779 -556 3435
1785 -554 3421
1789 -552 3404
1814 -557 3425
1815 -554 3401
1823 -553 3389
1854 -559 3421
1825 -547 3342
1864 -556 3390
1874 -555 3382
1881 -554 3370
1904 -558 3385
-2023 -537 3483
-2032 -543 3524
-2020 -543 3529
-2034 -550 3580
-1962 -533 3478
-1994 -545 3561
-1987 -547 3575
-1974 -546 3579
-1949 -543 3560
-1946 -545 3581
-1917 -540 3554
-1921 -545 3588
-1886 -538 3550
-1880 -540 3565
-1913 -553 3655
-1863 -542 3586
-1850 -541 3588
-1835 -540 3587
-1820 -539 3584
-1830 -546 3633
-1809 -543 3619
-1770 -535 3567
-1785 -543 3627
-1773 -543 3630
-1764 -544 3641
-1738 -539 3614
-1732 -541 3631
-1742 -548 3681
-1736 -549 3697
-1693 -539 3634
-1689 -542 3654
-1664 -538 3630
-1655 -538 3639
-1671 -547 3703
-1653 -546 3695
-1641 -545 3697
-1619 -542 3678
-1602 -540 3670
-1612 -547 3723
-1577 -539 3672
-1586 -547 3725
-1596 -554 3779
-1546 -541 3691
-1560 -550 3758
-1533 -544 3724
-1519 -544 3722
-1524 -550 3767
-1493 -543 3722
-1497 -548 3764
-1479 -546 3750
-1473 -548 3770
-1449 -543 3741
-1440 -544 3750
-1427 -544 3750
-1431 -550 3794
-1388 -538 3715
-1392 -544 3757
-1380 -544 3761
-1359 -540 3739
-1347 -540 3739
-1350 -546 3782
-1341 -547 3794
-1323 -544 3778
-1306 -542 3763
-1291 -540 3756
-1286 -543 3779
-1274 -543 3780
-1281 -551 3839
-1250 -543 3784
-1249 -547 3817
-1233 -545 3807
-1220 -545 3804
-1213 -546 3819
-1205 -548 3834
-1191 -547 3830
-1183 -549 3843
-1174 -550 3856
-1154 -546 3830
-1152 -551 3864
-1142 -551 3870
-1133 -553 3883
-1112 -549 3854
-1090 -543 3816
-1088 -548 3855
-1082 -551 3874
-1064 -548 3855
-1060 -551 3883
-1047 -551 3880
-1031 -548 3865
-1026 -552 3892
-1019 -555 3914
-1008 -555 3919
-982 -547 3862
-977 -551 3891
-967 -552 3899
-956 -552 3902
-933 -545 3858
-934 -553 3911
-924 -554 3919
-902 -547 3877
-901 -554 3926
-889 -554 3926
-869 -549 3891
-864 -553 3920
-857 -556 3943
-838 -551 3910
-828 -552 3918
-820 -554 3936
-805 -552 3921
-800 -557 3956
-786 -555 3947
-780 -559 3975
-767 -558 3972
-751 -555 3950
-740 -556 3953
-722 -551 3919
-711 -552 3926
-698 -550 3917
-694 -556 3958
-674 -549 3913
-673 -558 3976
-663 -559 3985
-646 -555 3955
-637 -557 3971
-624 -556 3965
-601 -546 3894
-601 -556 3966
-590 -557 3972
-574 -552 3942
-562 -553 3943
-551 -553 3945
-534 -547 3905
-531 -556 3966
-518 -555 3959
-512 -560 4000
-497 -557 3978
-480 -551 3936
-474 -557 3979
-462 -557 3976
-448 -554 3956
-431 -547 3911
-430 -561 4007
-414 -555 3969
-407 -561 4010
-389 -552 3942
-377 -551 3937
-370 -558 3985
-350 -544 3892
-347 -559 3993
-335 -558 3985
-325 -560 4006
-312 -557 3984
-298 -553 3952
-287 -555 3968
-275 -553 3956
-269 -564 4034
-256 -562 4013
-240 -553 3951
-228 -552 3948
-218 -554 3961
-205 -552 3944
-195 -556 3973
