VERSION 0.7
FIELDS x y z
SIZE 4 4 4
TYPE I I I
COUNT 1 1 1
WIDTH 3321
HEIGHT 1
VIEWPOINT 0.0 0.0 0.0 1.0 0.0 0.0 0.0
POINTS 3321
DATA ascii
195 -541 1882
200 -541 1881
206 -542 1884
211 -539 1871
218 -543 1884
223 -541 1878
228 -540 1875
233 -540 1872
239 -540 1872
245 -540 1872
250 -539 1867
256 -541 1875
261 -540 1871
267 -540 1869
272 -540 1868
280 -544 1882
284 -540 1868
289 -541 1868
295 -540 1866
299 -538 1855
306 -540 1862
312 -541 1864
317 -541 1863
323 -542 1867
327 -538 1852
335 -543 1869
340 -541 1861
344 -539 1852
351 -541 1857
357 -541 1859
358 -536 1838
370 -545 1868
372 -540 1851
378 -540 1851
383 -539 1845
388 -539 1843
396 -542 1853
398 -538 1838
407 -542 1851
410 -539 1839
418 -541 1846
422 -539 1839
430 -543 1850
431 -537 1829
438 -539 1835
444 -540 1836
451 -541 1839
456 -540 1834
463 -543 1842
466 -540 1829
471 -539 1827
475 -537 1820
483 -539 1825
490 -541 1829
496 -542 1832
502 -542 1830
507 -542 1829
515 -545 1836
516 -540 1819
524 -542 1825
530 -542 1823
535 -542 1820
539 -541 1815
543 -539 1807
546 -536 1797
557 -542 1815
561 -541 1808
565 -539 1802
574 -543 1812
577 -540 1800
585 -542 1808
592 -543 1809
597 -543 1808
599 -540 1793
608 -543 1802
611 -541 1794
619 -543 1799
622 -540 1788
626 -540 1784
634 -542 1790
643 -545 1797
638 -536 1765
648 -539 1776
662 -547 1798
665 -544 1787
674 -547 1795
677 -545 1788
680 -543 1778
682 -540 1767
686 -539 1761
692 -539 1759
702 -543 1769
706 -542 1765
714 -544 1768
719 -543 1763
722 -542 1757
719 -535 1735
739 -546 1767
741 -543 1756
742 -540 1743
748 -540 1741
754 -541 1741
757 -539 1732
764 -540 1734
770 -541 1734
774 -539 1727
776 -537 1717
780 -536 1711
777 -530 1691
770 -521 1661
770 -518 1646
766 -512 1626
768 -510 1616
764 -503 1594
767 -502 1588
770 -501 1581
762 -492 1552
763 -490 1542
764 -487 1532
766 -485 1523
766 -482 1510
768 -480 1503
768 -477 1491
769 -475 1481
767 -470 1465
768 -468 1455
771 -467 1450
772 -465 1442
772 -462 1430
775 -461 1425
773 -457 1410
780 -458 1410
781 -456 1402
779 -453 1388
780 -450 1380
786 -451 1380
793 -452 1381
798 -453 1379
799 -451 1370
-991 -525 1647
-997 -531 1669
-977 -524 1648
-976 -526 1658
-974 -528 1668
-958 -522 1652
-960 -526 1668
-957 -528 1675
-955 -530 1685
-946 -528 1682
-934 -525 1673
-927 -524 1674
-928 -527 1687
-923 -528 1691
-915 -527 1690
-914 -530 1702
-908 -529 1703
-900 -528 1701
-894 -527 1702
-890 -529 1710
-881 -527 1705
-879 -529 1715
-875 -530 1721
-868 -529 1719
-866 -531 1730
-861 -532 1734
-856 -532 1737
-848 -531 1734
-840 -529 1731
-838 -531 1741
-829 -529 1737
-829 -533 1751
-819 -530 1745
-813 -530 1746
-808 -531 1750
-801 -529 1748
-796 -530 1752
-791 -530 1755
-786 -531 1760
-780 -531 1761
-778 -533 1771
-767 -529 1760
-762 -530 1765
-759 -532 1774
-748 -528 1762
-752 -535 1787
-743 -533 1781
-734 -530 1774
-732 -533 1786
-727 -533 1789
-721 -533 1790
-714 -532 1790
-711 -534 1798
-700 -530 1785
-698 -533 1796
-699 -538 1815
-684 -531 1793
-682 -533 1804
-683 -539 1823
-678 -539 1828
-662 -531 1801
-665 -539 1828
-653 -533 1811
-645 -531 1806
-644 -535 1821
-639 -536 1824
-632 -535 1822
-625 -533 1820
-623 -537 1833
-614 -534 1824
-605 -531 1817
-604 -535 1832
-599 -535 1834
-593 -535 1834
-587 -535 1835
-585 -538 1848
-576 -536 1840
-568 -533 1832
-564 -535 1842
-558 -535 1842
-555 -537 1851
-549 -537 1852
-542 -536 1848
-536 -535 1847
-535 -539 1864
-522 -532 1840
-522 -538 1862
-517 -539 1866
-509 -537 1860
-503 -536 1858
-499 -538 1867
-492 -536 1861
-491 -542 1881
-483 -540 1875
-475 -537 1865
-469 -536 1865
-464 -537 1870
-460 -539 1876
-451 -535 1863
-445 -535 1865
-440 -535 1867
-437 -539 1880
-431 -538 1879
-425 -539 1881
-418 -537 1875
-412 -537 1876
-409 -540 1887
-403 -539 1885
-395 -536 1875
-389 -536 1878
-384 -537 1881
-378 -536 1878
-372 -536 1880
-369 -539 1890
-363 -539 1890
-356 -537 1885
-351 -538 1888
-343 -534 1877
-339 -537 1888
-334 -539 1894
-330 -540 1899
-321 -535 1883
-317 -539 1895
-311 -538 1894
-307 -540 1901
-300 -539 1897
-295 -540 1901
-292 -544 1916
-282 -536 1889
-277 -539 1899
-273 -541 1906
-265 -536 1891
-263 -544 1918
-255 -538 1900
-249 -539 1901
-244 -540 1908
-239 -541 1909
-233 -540 1909
-227 -541 1910
-221 -541 1910
-216 -542 1915
-209 -539 1905
-204 -540 1908
-199 -543 1918
-191 -536 1896
-187 -539 1905
-181 -537 1901
-175 -538 1904
-166 -527 1864
-145 -478 1691
-134 -458 1620
-127 -448 1587
-123 -451 1596
-117 -449 1590
-112 -447 1582
-109 -452 1599
-105 -455 1610
-99 -452 1601
-96 -458 1623
-92 -464 1643
-88 -467 1654
-85 -476 1687
-82 -492 1743
-82 -522 1848
-78 -533 1886
-74 -539 1911
-68 -543 1925
-63 -543 1922
-57 -542 1919
-52 -546 1933
-46 -544 1926
-40 -541 1918
-34 -541 1917
-28 -539 1908
-23 -544 1927
-17 -545 1930
-11 -543 1922
-6 -537 1902
0 -539 1907
5 -541 1915
10 -544 1925
16 -542 1919
22 -545 1929
28 -549 1943
33 -540 1911
39 -543 1920
44 -538 1904
50 -541 1915
56 -544 1924
61 -542 1915
67 -542 1918
72 -539 1905
78 -542 1915
84 -542 1917
89 -539 1906
95 -542 1913
101 -541 1909
107 -542 1914
113 -544 1920
118 -540 1906
123 -541 1908
129 -543 1914
135 -542 1913
139 -536 1889
146 -539 1900
151 -538 1897
157 -540 1904
163 -541 1907
169 -541 1904
174 -539 1899
178 -536 1886
185 -539 1898
191 -542 1905
197 -541 1902
203 -542 1906
208 -542 1904
213 -539 1892
219 -539 1892
224 -539 1891
230 -539 1890
237 -542 1902
242 -541 1898
248 -541 1897
252 -539 1887
257 -538 1883
266 -544 1903
271 -542 1898
274 -537 1880
281 -541 1890
288 -542 1895
295 -546 1906
298 -541 1890
303 -540 1883
309 -541 1886
315 -540 1884
320 -541 1884
325 -538 1875
331 -539 1877
335 -537 1867
341 -537 1869
348 -540 1877
355 -542 1883
360 -542 1880
368 -545 1891
370 -539 1870
376 -540 1872
384 -543 1882
389 -543 1879
394 -542 1875
399 -541 1871
403 -538 1860
409 -540 1863
413 -537 1853
421 -540 1864
425 -538 1854
434 -542 1866
437 -539 1855
444 -541 1862
448 -539 1854
456 -541 1859
462 -542 1862
464 -538 1846
471 -540 1851
477 -540 1850
482 -539 1846
489 -541 1852
494 -540 1845
501 -542 1852
509 -545 1860
512 -541 1846
519 -543 1851
520 -539 1834
528 -541 1841
536 -543 1847
539 -541 1836
546 -542 1838
552 -542 1839
555 -539 1827
563 -542 1835
566 -539 1824
572 -540 1825
577 -540 1822
587 -544 1835
591 -542 1827
597 -542 1826
600 -540 1815
608 -542 1822
616 -544 1827
619 -542 1818
622 -540 1810
632 -544 1820
637 -544 1817
642 -543 1813
649 -544 1815
656 -545 1816
661 -544 1813
670 -548 1822
673 -546 1813
677 -544 1804
681 -542 1798
687 -543 1798
695 -545 1802
702 -546 1803
706 -545 1798
708 -542 1786
716 -544 1790
724 -546 1795
729 -546 1792
733 -544 1784
738 -543 1781
742 -542 1775
745 -540 1765
754 -543 1772
757 -541 1764
765 -543 1767
764 -538 1750
772 -540 1752
770 -534 1733
776 -535 1732
776 -531 1717
769 -523 1689
769 -519 1675
767 -514 1656
767 -511 1643
766 -506 1627
765 -502 1611
767 -500 1601
763 -494 1580
766 -493 1574
772 -493 1574
766 -486 1548
764 -482 1532
766 -480 1524
764 -476 1507
765 -474 1499
770 -473 1495
771 -471 1485
766 -465 1464
774 -467 1469
772 -463 1453
775 -462 1448
773 -458 1433
779 -459 1433
777 -455 1419
785 -457 1422
780 -451 1402
780 -448 1391
782 -447 1384
790 -449 1387
792 -448 1381
805 -452 1393
822 -459 1411
-996 -522 1657
-1001 -528 1677
-994 -527 1678
-987 -526 1678
-979 -525 1677
-975 -526 1684
-972 -527 1690
-959 -523 1680
-958 -526 1692
-952 -526 1694
-951 -528 1704
-937 -524 1693
-941 -529 1712
-928 -525 1702
-929 -529 1717
-926 -531 1725
-909 -524 1707
-911 -529 1724
-906 -529 1728
-897 -527 1724
-896 -530 1735
-889 -529 1735
-889 -533 1749
-879 -530 1743
-874 -531 1747
-864 -528 1741
-866 -533 1759
-862 -534 1765
-853 -532 1760
-847 -531 1761
-841 -531 1763
-831 -529 1758
-826 -529 1761
-817 -527 1755
-816 -530 1769
-809 -529 1767
-806 -531 1775
-794 -527 1763
-796 -532 1784
-790 -532 1784
-772 -523 1758
-785 -536 1804
-775 -533 1797
-769 -533 1796
-762 -532 1797
-754 -531 1793
-754 -534 1808
-743 -531 1799
-742 -534 1812
-737 -535 1815
-728 -533 1810
-725 -535 1818
-720 -536 1823
-704 -528 1799
-708 -535 1823
-701 -534 1822
-694 -533 1822
-688 -533 1822
-685 -535 1830
-679 -535 1833
-676 -537 1842
-667 -534 1834
-663 -536 1841
-656 -535 1840
-650 -534 1840
-642 -532 1833
-639 -535 1844
-635 -536 1851
-633 -540 1863
-622 -535 1848
-614 -533 1843
-609 -534 1848
-608 -538 1863
-598 -535 1854
-591 -533 1849
-585 -533 1850
-579 -532 1850
-578 -537 1867
-569 -534 1857
-569 -539 1878
-561 -537 1872
-556 -538 1875
-549 -536 1872
-540 -533 1863
-536 -536 1871
-534 -539 1884
-527 -537 1880
-518 -534 1870
-511 -533 1868
-510 -538 1888
-502 -536 1879
-498 -537 1886
-492 -537 1886
-487 -538 1891
-480 -537 1887
-471 -534 1877
-470 -538 1895
-465 -540 1900
-457 -537 1892
-449 -534 1882
-447 -539 1900
-440 -536 1893
-433 -535 1890
-426 -534 1886
-422 -536 1895
-416 -536 1894
-412 -537 1901
-408 -540 1910
-402 -539 1909
-396 -540 1912
-390 -539 1908
-383 -537 1903
-376 -536 1900
-370 -535 1898
-368 -541 1919
-359 -536 1903
-357 -541 1922
-349 -539 1913
-344 -539 1917
-339 -540 1920
-333 -540 1920
-328 -542 1926
-321 -539 1919
-315 -539 1917
-309 -538 1916
-301 -535 1905
-298 -539 1921
-293 -541 1928
-287 -540 1924
-281 -539 1923
-275 -539 1921
-269 -539 1922
-263 -538 1920
-257 -538 1919
-252 -539 1924
-247 -540 1930
-240 -538 1920
-234 -538 1923
-230 -542 1938
-222 -537 1919
-218 -540 1931
-211 -538 1923
-206 -539 1928
-200 -539 1927
-194 -538 1922
-189 -540 1932
-183 -538 1926
-175 -533 1909
-169 -531 1899
-155 -503 1801
-137 -463 1656
-131 -458 1641
-125 -454 1624
-118 -446 1595
-114 -451 1617
-110 -452 1620
-105 -452 1619
-100 -452 1618
-96 -457 1636
-93 -462 1655
-89 -466 1671
-85 -473 1695
-83 -489 1753
-83 -525 1882
-79 -533 1909
-74 -539 1929
-69 -544 1949
-64 -547 1960
-58 -544 1947
-52 -544 1947
-46 -544 1947
-40 -544 1948
-35 -547 1957
-29 -541 1937
-23 -543 1945
-17 -539 1930
-12 -542 1941
-6 -543 1943
0 -543 1943
5 -541 1936
10 -544 1946
16 -542 1939
22 -541 1935
28 -547 1957
34 -545 1948
39 -541 1936
45 -546 1953
51 -545 1950
56 -540 1930
62 -544 1944
68 -541 1935
73 -540 1931
79 -540 1929
85 -543 1939
91 -542 1936
96 -538 1922
103 -546 1949
107 -540 1927
114 -543 1940
119 -539 1924
125 -544 1940
130 -541 1930
137 -543 1937
141 -539 1922
148 -544 1940
153 -540 1926
159 -543 1933
166 -544 1937
171 -542 1929
177 -544 1936
182 -542 1928
188 -542 1930
192 -539 1915
199 -541 1924
203 -538 1911
211 -544 1932
217 -544 1931
222 -542 1923
229 -544 1930
234 -543 1927
237 -538 1907
245 -541 1918
251 -543 1925
257 -543 1925
261 -540 1912
266 -539 1908
275 -544 1926
279 -542 1915
283 -539 1904
289 -538 1902
294 -538 1901
301 -541 1910
307 -541 1910
314 -544 1918
319 -542 1909
324 -541 1905
331 -544 1915
333 -538 1893
341 -540 1900
347 -542 1905
351 -538 1891
356 -537 1888
363 -539 1894
374 -548 1923
373 -537 1885
379 -538 1887
386 -540 1891
391 -539 1888
396 -538 1883
404 -542 1894
412 -544 1902
415 -541 1888
421 -542 1890
426 -541 1888
431 -540 1881
438 -541 1886
444 -542 1887
449 -541 1881
456 -542 1886
462 -543 1886
467 -543 1884
472 -541 1878
478 -542 1880
480 -538 1865
488 -540 1871
496 -542 1877
498 -539 1864
505 -541 1867
510 -539 1862
516 -541 1865
525 -543 1872
533 -546 1881
534 -541 1862
539 -541 1858
548 -544 1869
552 -542 1862
558 -542 1860
561 -540 1850
571 -544 1862
572 -539 1845
583 -545 1862
589 -545 1860
593 -544 1854
595 -540 1842
605 -544 1852
613 -546 1857
615 -543 1845
621 -543 1845
623 -540 1832
635 -545 1847
637 -542 1836
639 -539 1823
641 -536 1811
651 -540 1823
657 -540 1821
666 -543 1828
674 -545 1833
675 -541 1818
680 -541 1814
691 -545 1827
694 -543 1819
700 -543 1818
707 -544 1818
711 -543 1813
720 -546 1819
723 -543 1809
723 -539 1794
735 -544 1806
743 -546 1811
744 -542 1797
750 -542 1795
760 -545 1803
760 -542 1789
762 -539 1776
766 -538 1771
773 -539 1773
776 -537 1764
775 -532 1746
772 -527 1726
770 -522 1707
769 -517 1691
766 -512 1669
767 -509 1658
763 -503 1635
767 -502 1631
765 -497 1612
767 -495 1603
771 -494 1598
766 -488 1576
765 -484 1561
770 -484 1558
768 -480 1542
767 -476 1528
770 -475 1521
769 -471 1508
771 -469 1499
771 -466 1487
778 -467 1489
773 -462 1469
774 -459 1458
779 -460 1457
774 -454 1437
783 -456 1442
780 -452 1424
779 -449 1413
783 -448 1408
791 -450 1411
794 -449 1406
810 -455 1424
825 -461 1439
851 -473 1474
889 -492 1529
-1017 -527 1693
-1010 -527 1694
-1002 -526 1693
-996 -525 1695
-991 -526 1699
-985 -526 1703
-981 -527 1709
-976 -527 1713
-968 -526 1711
-964 -527 1717
-954 -525 1713
-953 -527 1723
-946 -527 1724
-948 -531 1740
-935 -527 1731
-936 -531 1745
-922 -526 1732
-926 -532 1754
-914 -528 1745
-913 -531 1755
-904 -529 1752
-900 -530 1758
-887 -526 1748
-888 -530 1762
-884 -531 1768
-874 -528 1763
-873 -531 1774
-867 -531 1777
-861 -531 1778
-851 -528 1772
-844 -527 1771
-840 -529 1778
-834 -529 1780
-833 -531 1791
-823 -529 1785
-816 -528 1785
-813 -530 1793
-804 -528 1788
-797 -527 1788
-795 -529 1797
-792 -531 1806
-788 -532 1812
-783 -533 1817
-775 -532 1814
-770 -532 1818
-763 -532 1817
-756 -531 1816
-753 -533 1825
-744 -530 1818
-739 -531 1822
-738 -534 1835
-731 -533 1834
-724 -532 1832
-719 -533 1838
-714 -533 1840
-706 -532 1836
-703 -534 1847
-694 -532 1840
-691 -533 1848
-679 -529 1833
-677 -532 1847
-673 -533 1852
-672 -537 1866
-664 -535 1863
-660 -537 1869
-649 -532 1856
-643 -533 1858
-641 -536 1871
-638 -538 1879
-627 -534 1867
-622 -534 1870
-616 -534 1869
-614 -538 1885
-606 -535 1877
-599 -535 1877
-591 -532 1870
-592 -539 1894
-582 -535 1882
-576 -535 1884
-570 -534 1881
-568 -538 1898
-562 -538 1898
-555 -536 1893
-549 -537 1897
-544 -537 1900
-540 -539 1906
-534 -539 1909
-530 -540 1914
-521 -538 1905
-514 -536 1901
-507 -535 1899
-503 -537 1908
-496 -536 1904
-491 -537 1909
-485 -537 1908
-479 -537 1910
-477 -541 1925
-466 -534 1904
-463 -538 1917
-460 -541 1928
-452 -539 1923
-445 -537 1916
-439 -537 1918
-434 -539 1924
-430 -540 1931
-423 -538 1925
-419 -541 1936
-412 -539 1929
-405 -538 1926
-400 -540 1933
-391 -535 1917
-389 -540 1935
-381 -537 1927
-377 -540 1937
-371 -540 1938
-366 -540 1940
-359 -539 1936
-352 -537 1928
-347 -538 1935
-342 -540 1940
-335 -538 1936
-329 -537 1933
-320 -532 1913
-319 -540 1944
-314 -541 1947
-308 -541 1950
-301 -539 1941
-297 -542 1953
-287 -535 1930
-284 -540 1946
-277 -538 1941
-271 -537 1937
-265 -537 1937
-261 -540 1951
-255 -540 1949
-248 -537 1938
-243 -539 1946
-236 -536 1936
-230 -535 1934
-226 -539 1948
-220 -539 1947
-215 -540 1954
-207 -537 1943
-202 -539 1951
-196 -537 1942
-191 -541 1957
-185 -539 1949
-179 -538 1947
-172 -535 1937
-161 -517 1873
-143 -477 1727
-133 -459 1663
-127 -456 1650
-120 -449 1627
-115 -448 1622
-111 -450 1631
-106 -451 1634
-101 -451 1635
-97 -456 1653
-92 -456 1654
-88 -460 1668
-86 -474 1716
-84 -491 1780
-82 -513 1858
-80 -534 1936
-75 -539 1952
-70 -543 1967
-64 -539 1954
-58 -543 1966
-52 -544 1972
-47 -543 1967
-41 -543 1968
-35 -543 1969
-29 -545 1974
-23 -545 1974
-17 -541 1961
-12 -542 1961
-6 -542 1961
0 -541 1961
5 -544 1971
11 -544 1968
16 -540 1957
22 -539 1952
28 -543 1965
34 -543 1965
40 -542 1961
46 -546 1975
51 -540 1953
57 -541 1958
63 -543 1963
69 -543 1963
74 -541 1957
80 -540 1951
86 -543 1964
91 -540 1952
98 -545 1968
103 -541 1954
109 -543 1960
114 -538 1943
120 -542 1955
126 -540 1947
132 -543 1958
138 -541 1952
144 -542 1955
149 -540 1946
155 -542 1952
161 -541 1949
168 -545 1962
173 -544 1957
178 -541 1946
183 -539 1938
189 -540 1944
196 -543 1954
200 -538 1935
208 -544 1955
211 -537 1931
220 -544 1956
224 -540 1940
229 -538 1931
235 -539 1933
241 -541 1942
247 -542 1942
253 -542 1942
259 -542 1942
265 -541 1939
269 -539 1931
275 -539 1927
283 -544 1947
288 -543 1941
294 -542 1938
298 -539 1925
303 -538 1920
310 -540 1927
315 -540 1925
322 -541 1929
331 -546 1947
335 -543 1934
337 -538 1914
348 -547 1945
351 -541 1925
355 -538 1914
362 -541 1922
366 -538 1911
372 -539 1914
381 -543 1926
385 -541 1919
392 -542 1922
395 -539 1910
402 -541 1916
408 -541 1914
411 -537 1898
419 -541 1910
425 -541 1908
428 -538 1898
437 -542 1910
443 -542 1909
448 -541 1906
455 -542 1907
461 -543 1910
468 -545 1915
471 -541 1901
476 -540 1896
480 -538 1886
487 -540 1893
496 -543 1902
501 -543 1901
505 -541 1891
514 -544 1902
516 -541 1888
525 -544 1896
533 -546 1903
536 -543 1891
541 -542 1887
545 -541 1879
551 -541 1879
557 -541 1879
565 -543 1884
568 -541 1874
575 -542 1876
583 -544 1882
588 -544 1879
589 -539 1862
594 -539 1858
604 -542 1869
613 -546 1879
618 -545 1875
621 -542 1864
626 -542 1859
633 -543 1863
641 -545 1867
645 -543 1860
649 -542 1852
658 -545 1861
664 -545 1859
668 -543 1853
675 -544 1854
677 -542 1844
688 -546 1855
689 -542 1840
698 -544 1846
702 -544 1841
705 -541 1831
712 -542 1833
722 -546 1842
726 -544 1835
731 -544 1831
731 -540 1816
743 -544 1829
744 -541 1815
752 -542 1818
761 -545 1824
763 -542 1811
763 -538 1797
770 -539 1798
774 -538 1791
773 -533 1773
775 -531 1763
771 -524 1739
772 -521 1727
769 -515 1705
769 -512 1692
766 -506 1671
764 -502 1653
768 -501 1648
766 -496 1629
768 -494 1621
765 -489 1601
767 -486 1592
768 -484 1580
764 -478 1559
769 -478 1558
769 -475 1546
768 -471 1531
767 -468 1516
772 -468 1515
771 -464 1501
771 -461 1489
777 -462 1488
775 -458 1472
776 -456 1463
783 -457 1465
783 -454 1454
780 -450 1437
788 -452 1441
790 -450 1434
796 -451 1433
801 -451 1432
825 -462 1463
850 -473 1497
880 -487 1538
926 -510 1606
964 -527 1659
-1017 -522 1695
-1017 -525 1708
-1008 -523 1706
-1010 -527 1721
-1003 -527 1722
-1004 -530 1736
-991 -526 1727
-984 -526 1729
-983 -528 1740
-976 -528 1740
-971 -528 1745
-963 -527 1743
-954 -525 1739
-951 -527 1749
-945 -527 1750
-945 -530 1763
-936 -528 1761
-933 -530 1768
-925 -528 1766
-915 -526 1761
-916 -530 1777
-905 -527 1769
-905 -531 1784
-895 -528 1779
-893 -530 1788
-890 -532 1795
-877 -528 1783
-878 -532 1800
-867 -529 1792
-868 -533 1809
-855 -529 1797
-851 -530 1802
-847 -531 1808
-834 -526 1795
-834 -530 1811
-830 -531 1816
-829 -535 1831
-814 -529 1812
-818 -535 1835
-803 -529 1818
-803 -533 1833
-794 -531 1828
-791 -533 1837
-782 -531 1831
-782 -535 1847
-767 -528 1828
-769 -534 1849
-759 -531 1840
-756 -533 1849
-747 -531 1843
-748 -536 1863
-740 -534 1859
-731 -531 1851
-726 -533 1857
-721 -533 1861
-715 -533 1862
-711 -534 1868
-703 -532 1864
-700 -535 1874
-690 -532 1864
-685 -532 1869
-679 -532 1871
-673 -532 1872
-671 -535 1884
-664 -534 1882
-659 -535 1886
-655 -536 1892
-646 -534 1886
-642 -536 1893
-638 -537 1900
-630 -535 1895
-625 -536 1900
-617 -534 1895
-611 -534 1895
-606 -535 1901
-605 -540 1918
-599 -539 1917
-591 -537 1911
-582 -534 1902
-579 -537 1913
-573 -537 1916
-568 -538 1919
-562 -538 1922
-550 -532 1901
-547 -534 1910
-543 -537 1920
-536 -535 1917
-531 -536 1922
-525 -536 1922
-521 -538 1929
-517 -540 1937
-507 -536 1924
-501 -536 1926
-495 -536 1926
-493 -539 1940
-483 -535 1927
-480 -538 1939
-473 -537 1934
-468 -538 1941
-461 -537 1936
-455 -536 1936
-451 -539 1946
-447 -541 1955
-441 -541 1957
-432 -537 1940
-429 -541 1955
-421 -537 1945
-415 -538 1947
-409 -537 1947
-404 -539 1953
-400 -541 1961
-391 -538 1950
-387 -540 1957
-382 -540 1961
-376 -540 1961
-370 -540 1961
-365 -542 1968
-358 -540 1963
-353 -541 1968
-346 -540 1965
-341 -541 1967
-332 -536 1951
-327 -538 1957
-320 -535 1949
-314 -536 1954
-308 -536 1954
-304 -539 1965
-297 -537 1959
-293 -540 1970
-286 -538 1961
-278 -535 1951
-277 -543 1980
-271 -544 1985
-264 -541 1977
-259 -543 1983
-250 -536 1958
-245 -537 1962
-240 -540 1972
-231 -534 1950
-228 -539 1969
-223 -541 1977
-217 -541 1979
-211 -540 1976
-205 -539 1972
-198 -538 1969
-193 -541 1978
-187 -538 1971
-181 -538 1969
-174 -535 1957
-167 -531 1944
-145 -480 1756
-134 -460 1686
-129 -458 1677
-122 -454 1662
-117 -451 1651
-112 -453 1658
-107 -450 1650
-103 -454 1662
-97 -451 1653
-93 -455 1667
-91 -467 1711
-85 -466 1707
-83 -483 1770
-83 -512 1875
-81 -532 1950
-76 -541 1981
-71 -543 1991
-65 -542 1987
-59 -546 2000
-53 -546 2001
-47 -542 1985
-41 -544 1993
-35 -541 1984
-29 -542 1986
-23 -540 1978
-18 -541 1982
-12 -541 1982
-6 -543 1988
0 -544 1993
5 -542 1986
11 -543 1989
17 -542 1985
23 -545 1995
28 -543 1988
34 -541 1980
40 -540 1976
46 -543 1988
52 -545 1993
57 -541 1979
63 -541 1977
69 -544 1988
76 -545 1994
81 -542 1981
87 -545 1992
92 -539 1970
98 -540 1972
104 -542 1980
110 -540 1972
117 -545 1990
123 -547 1996
128 -542 1977
132 -536 1957
140 -544 1986
145 -541 1974
151 -543 1980
157 -544 1982
163 -543 1978
168 -541 1970
174 -541 1969
180 -542 1974
185 -538 1957
192 -542 1971
197 -541 1968
203 -539 1962
210 -542 1971
216 -544 1976
221 -541 1966
228 -544 1974
233 -542 1967
239 -544 1974
243 -540 1958
250 -540 1960
257 -544 1970
261 -541 1959
268 -543 1967
272 -539 1953
277 -538 1946
284 -539 1952
290 -540 1952
296 -540 1951
302 -541 1956
310 -545 1967
314 -541 1953
320 -541 1952
327 -543 1959
331 -541 1949
337 -541 1948
343 -541 1948
349 -542 1950
353 -539 1939
360 -541 1947
366 -542 1946
372 -542 1945
376 -539 1934
384 -542 1944
386 -537 1924
397 -544 1948
404 -546 1956
404 -537 1923
412 -541 1936
419 -542 1937
424 -541 1933
431 -543 1939
436 -542 1933
440 -539 1923
450 -545 1941
452 -540 1922
460 -542 1930
461 -537 1908
470 -540 1921
476 -542 1924
481 -540 1917
489 -542 1923
493 -541 1918
498 -540 1913
502 -538 1902
510 -540 1910
519 -543 1920
526 -545 1925
525 -538 1897
537 -544 1919
540 -542 1909
546 -542 1906
550 -540 1900
556 -541 1900
563 -541 1900
567 -540 1893
572 -539 1889
581 -542 1900
589 -544 1905
590 -540 1887
600 -543 1897
603 -541 1889
613 -545 1899
618 -544 1895
623 -543 1890
626 -541 1882
635 -544 1888
637 -540 1875
646 -544 1884
651 -543 1879
652 -539 1865
664 -544 1881
671 -545 1880
675 -544 1874
682 -545 1876
686 -543 1869
689 -541 1858
702 -546 1876
701 -542 1858
712 -545 1868
712 -541 1852
720 -542 1854
725 -542 1852
735 -545 1859
739 -544 1853
740 -540 1837
751 -544 1849
755 -542 1841
759 -541 1835
762 -540 1828
766 -538 1820
774 -540 1825
777 -538 1816
776 -534 1798
772 -527 1773
771 -522 1756
772 -519 1742
768 -513 1719
769 -510 1708
764 -503 1682
763 -499 1665
767 -498 1660
766 -494 1644
765 -490 1629
762 -485 1609
769 -486 1610
768 -482 1596
766 -478 1579
765 -474 1564
769 -473 1558
770 -471 1548
772 -469 1540
770 -464 1523
773 -463 1517
775 -462 1510
774 -458 1495
778 -458 1492
781 -456 1485
775 -450 1463
785 -453 1470
792 -455 1472
787 -449 1451
789 -447 1444
806 -454 1464
819 -459 1476
840 -468 1503
886 -491 1574
908 -500 1602
945 -518 1653
968 -527 1681
981 -531 1691
-1038 -527 1732
-1029 -525 1730
-1025 -526 1736
-1022 -527 1743
-1006 -522 1728
-1006 -525 1742
-1007 -529 1757
-998 -528 1755
-989 -526 1752
-990 -529 1766
-978 -526 1758
-972 -526 1761
-963 -524 1758
-967 -530 1778
-957 -528 1775
-941 -522 1758
-940 -525 1770
-943 -530 1790
-930 -526 1778
-938 -534 1808
-923 -528 1792
-918 -529 1797
-914 -530 1803
-910 -531 1809
-897 -527 1798
-900 -532 1818
-890 -530 1813
-890 -533 1826
-884 -534 1830
-875 -532 1826
-867 -530 1824
-858 -528 1819
-853 -529 1824
-850 -531 1832
-839 -527 1822
-834 -528 1828
-833 -531 1839
-827 -531 1842
-820 -530 1841
-813 -530 1842
-805 -528 1839
-802 -530 1848
-800 -533 1858
-785 -527 1840
-779 -527 1842
-786 -536 1875
-771 -530 1856
-766 -530 1858
-762 -532 1866
-759 -533 1875
-752 -532 1873
-744 -531 1871
-743 -535 1885
-734 -532 1879
-736 -538 1902
-725 -534 1889
-718 -534 1889
-707 -530 1877
-708 -535 1896
-695 -530 1881
-698 -537 1907
-688 -534 1897
-681 -533 1895
-675 -532 1896
-674 -537 1913
-665 -534 1904
-656 -532 1898
-657 -537 1920
-649 -535 1914
-644 -537 1920
-635 -534 1913
-630 -535 1918
-632 -541 1942
-619 -535 1922
-615 -537 1930
-606 -534 1921
-606 -539 1941
-597 -537 1934
-589 -535 1929
-583 -535 1929
-578 -536 1934
-576 -539 1948
-567 -537 1940
-567 -542 1960
-555 -537 1942
-552 -539 1952
-544 -537 1947
-538 -537 1946
-534 -540 1958
-524 -535 1940
-519 -536 1946
-513 -536 1946
-511 -541 1966
-500 -534 1944
-495 -536 1949
-493 -540 1966
-484 -536 1955
-478 -537 1958
-474 -538 1964
-466 -537 1959
-461 -537 1961
-454 -537 1960
-450 -539 1970
-444 -539 1970
-439 -540 1974
-432 -539 1972
-424 -536 1962
-420 -539 1973
-418 -544 1992
-408 -538 1974
-403 -539 1977
-394 -536 1966
-391 -539 1978
-386 -541 1985
-381 -541 1989
-374 -540 1984
-366 -537 1974
-361 -539 1983
-356 -540 1986
-348 -538 1979
-343 -539 1982
-337 -539 1984
-327 -532 1958
-325 -538 1982
-319 -538 1981
-312 -537 1980
-310 -543 2001
-301 -539 1987
-296 -539 1990
-290 -539 1988
-283 -538 1987
-278 -539 1989
-272 -538 1989
-265 -536 1981
-260 -539 1990
-254 -539 1991
-249 -541 2000
-243 -540 1997
-236 -539 1993
-230 -538 1990
-225 -541 2001
-217 -535 1981
-213 -540 1997
-207 -540 1997
-200 -538 1991
-194 -538 1990
-188 -536 1984
-182 -537 1988
-177 -538 1993
-171 -538 1993
-155 -506 1875
-137 -464 1719
-129 -455 1686
-123 -451 1673
-118 -450 1667
-112 -448 1660
-108 -449 1666
-104 -453 1681
-99 -456 1689
-94 -456 1690
-91 -464 1722
-87 -470 1741
-83 -476 1763
-82 -501 1859
-82 -534 1981
-76 -537 1989
-71 -541 2005
-65 -542 2011
-60 -544 2018
-54 -544 2018
-48 -544 2018
-42 -543 2013
-36 -542 2011
-30 -542 2007
-24 -545 2021
-18 -544 2016
-12 -542 2008
-6 -546 2022
0 -544 2016
5 -544 2014
11 -544 2016
17 -544 2015
23 -542 2007
29 -542 2006
35 -542 2008
40 -538 1993
46 -542 2006
52 -541 2001
58 -543 2010
64 -544 2012
70 -544 2011
76 -543 2009
82 -543 2008
88 -544 2011
94 -546 2019
100 -542 2005
106 -542 2005
112 -544 2008
118 -547 2019
124 -544 2010
129 -543 2006
135 -543 2004
141 -542 2000
146 -540 1992
153 -542 1999
158 -540 1993
164 -540 1992
169 -539 1985
177 -543 2000
182 -540 1989
188 -541 1993
194 -542 1994
200 -543 1999
207 -544 2002
212 -542 1995
218 -543 1997
224 -544 1998
228 -538 1977
236 -543 1995
241 -542 1991
247 -542 1990
254 -544 1996
257 -539 1977
264 -540 1980
270 -541 1982
277 -543 1989
282 -542 1985
288 -542 1982
294 -543 1985
299 -540 1976
305 -541 1976
311 -540 1973
318 -543 1982
325 -544 1987
331 -544 1985
336 -544 1982
342 -543 1978
345 -539 1965
354 -543 1979
357 -540 1964
365 -543 1975
369 -540 1964
374 -538 1957
381 -540 1960
387 -541 1962
394 -542 1966
399 -540 1959
406 -542 1964
410 -540 1955
420 -545 1973
423 -541 1958
427 -540 1951
434 -540 1951
439 -540 1948
446 -541 1952
450 -539 1943
458 -542 1952
464 -542 1950
470 -542 1948
476 -542 1949
481 -541 1944
488 -542 1947
496 -544 1954
501 -544 1950
505 -542 1942
512 -542 1942
515 -540 1931
522 -540 1932
528 -541 1933
535 -542 1936
541 -542 1934
547 -543 1935
553 -543 1932
555 -539 1917
566 -544 1934
571 -543 1930
573 -540 1916
580 -541 1918
588 -543 1922
591 -540 1912
600 -543 1921
608 -545 1926
611 -543 1915
618 -543 1915
623 -543 1913
626 -540 1902
630 -539 1895
639 -541 1902
646 -542 1903
659 -549 1924
659 -544 1904
666 -545 1906
672 -544 1903
676 -543 1895
684 -545 1901
687 -542 1890
693 -542 1888
699 -543 1888
703 -542 1881
712 -544 1888
714 -541 1876
722 -542 1877
726 -541 1873
739 -546 1888
740 -543 1873
747 -544 1874
748 -540 1861
756 -542 1864
761 -541 1858
769 -543 1861
773 -542 1856
775 -539 1844
778 -537 1835
772 -529 1806
768 -523 1781
767 -518 1763
765 -513 1743
764 -508 1726
769 -508 1721
766 -503 1702
767 -500 1690
767 -496 1676
769 -494 1665
768 -490 1651
766 -485 1633
762 -479 1610
767 -480 1608
768 -476 1595
768 -474 1584
764 -468 1563
775 -472 1572
774 -468 1558
771 -463 1540
775 -463 1535
780 -463 1534
781 -460 1522
777 -455 1504
779 -453 1495
788 -456 1500
786 -451 1484
790 -451 1482
792 -450 1473
800 -452 1478
819 -460 1501
837 -467 1522
867 -481 1565
917 -506 1644
938 -514 1667
963 -525 1700
975 -529 1708
1004 -541 1746
1005 -538 1734
-1049 -527 1752
-1043 -526 1755
-1035 -525 1754
-1023 -522 1747
-1024 -526 1762
-1016 -525 1761
-1013 -526 1769
-1003 -524 1764
-1003 -527 1779
-994 -526 1775
-989 -526 1779
-978 -524 1774
-976 -526 1784
-975 -528 1796
-966 -527 1792
-967 -531 1809
-957 -528 1804
-951 -528 1806
-944 -528 1807
-945 -532 1824
-941 -533 1830
-926 -528 1814
-927 -531 1830
-918 -530 1827
-906 -526 1817
-909 -532 1839
-894 -526 1822
-894 -530 1837
-896 -534 1855
-878 -528 1834
-882 -533 1855
-872 -531 1850
-868 -532 1856
-859 -530 1853
-855 -532 1860
-850 -532 1863
-845 -533 1867
-842 -535 1877
-836 -535 1880
-828 -533 1877
-821 -533 1877
-812 -531 1873
-804 -530 1870
-806 -535 1890
-793 -530 1877
-786 -530 1876
-778 -528 1873
-782 -535 1898
-779 -537 1909
-764 -531 1888
-761 -533 1897
-753 -531 1894
-748 -532 1900
-749 -537 1918
-735 -532 1900
-730 -532 1905
-716 -526 1884
-719 -533 1910
-714 -533 1914
-710 -535 1923
-702 -534 1918
-688 -528 1899
-690 -533 1921
-683 -533 1921
-678 -533 1924
-675 -536 1935
-671 -538 1943
-664 -537 1941
-656 -535 1936
-650 -535 1939
-643 -535 1939
-639 -536 1944
-629 -533 1934
-630 -539 1958
-624 -539 1958
-616 -537 1955
-606 -534 1943
-607 -540 1966
-601 -539 1967
-591 -537 1958
-587 -538 1964
-579 -536 1958
-577 -540 1974
-567 -536 1963
-561 -536 1964
-555 -536 1963
-552 -539 1975
-546 -539 1978
-538 -537 1971
-532 -537 1972
-528 -539 1981
-521 -539 1980
-517 -540 1987
-506 -536 1971
-500 -535 1971
-497 -538 1983
-493 -541 1994
-485 -539 1988
-475 -534 1972
-475 -540 1995
-467 -539 1991
-457 -534 1974
-456 -540 1996
-447 -537 1985
-442 -537 1989
-437 -538 1993
-433 -541 2003
-424 -538 1993
-420 -540 2002
-413 -539 2000
-408 -540 2003
-401 -539 2001
-396 -540 2004
-388 -537 1996
-383 -539 2004
-376 -537 1997
-370 -537 1999
-364 -537 1999
-361 -543 2019
-353 -539 2008
-346 -538 2002
-342 -540 2013
-336 -541 2014
-330 -540 2014
-322 -537 2002
-317 -539 2009
-311 -539 2009
-307 -542 2022
-301 -543 2029
-295 -543 2027
-288 -540 2018
-281 -540 2015
-276 -541 2023
-269 -538 2012
-261 -536 2003
-257 -540 2017
-251 -538 2013
-244 -537 2010
-240 -541 2023
-233 -539 2018
-228 -542 2028
-220 -537 2011
-215 -539 2018
-210 -542 2031
-202 -537 2012
-197 -539 2019
-191 -538 2016
-185 -538 2016
-179 -538 2017
-173 -540 2023
-161 -519 1946
-141 -474 1775
-129 -451 1690
-124 -451 1691
-118 -444 1665
-113 -447 1677
-110 -452 1695
-106 -456 1712
-101 -456 1710
-96 -457 1715
-92 -462 1732
-88 -469 1758
-85 -481 1805
-82 -497 1865
-82 -529 1983
-77 -537 2016
-72 -540 2024
-66 -543 2035
-60 -543 2037
-54 -542 2034
-48 -545 2044
-42 -544 2041
-36 -542 2031
-30 -542 2032
-24 -544 2038
-18 -543 2035
-12 -546 2047
-6 -543 2036
0 -544 2039
5 -543 2033
11 -545 2043
17 -543 2035
23 -546 2045
29 -544 2038
35 -543 2032
41 -547 2048
47 -546 2043
53 -542 2030
59 -541 2027
65 -545 2041
71 -544 2036
77 -543 2032
83 -542 2029
89 -544 2035
95 -541 2023
101 -543 2030
107 -542 2027
113 -543 2030
118 -539 2016
125 -544 2031
130 -541 2019
137 -543 2029
141 -537 2004
149 -545 2033
155 -543 2024
161 -542 2024
167 -543 2027
172 -541 2018
178 -540 2014
184 -542 2021
190 -541 2017
195 -539 2008
202 -542 2019
207 -539 2007
214 -543 2019
220 -542 2016
227 -544 2022
233 -544 2023
238 -542 2014
244 -541 2010
248 -539 2000
256 -542 2013
261 -541 2008
270 -546 2025
275 -544 2017
279 -540 2001
285 -540 2001
292 -542 2007
297 -541 2002
304 -544 2012
308 -539 1993
317 -545 2014
320 -541 1997
327 -543 2003
333 -541 1997
341 -546 2014
344 -541 1996
350 -541 1992
358 -544 2004
362 -540 1989
368 -541 1990
375 -543 1998
378 -538 1979
385 -540 1982
392 -541 1988
398 -541 1985
403 -540 1979
410 -542 1987
415 -540 1978
420 -539 1972
426 -539 1972
434 -542 1981
439 -541 1977
445 -540 1973
450 -540 1969
458 -542 1978
464 -543 1979
468 -540 1966
473 -539 1962
480 -541 1966
484 -538 1956
495 -544 1975
498 -541 1963
504 -541 1961
510 -541 1962
517 -542 1963
519 -538 1946
528 -541 1958
534 -541 1955
539 -541 1952
548 -543 1960
553 -543 1956
558 -542 1951
563 -541 1948
564 -536 1929
577 -543 1953
581 -541 1943
585 -540 1937
594 -543 1945
600 -542 1941
606 -543 1941
612 -543 1940
618 -542 1936
623 -542 1934
630 -543 1935
632 -539 1921
641 -542 1928
647 -542 1927
653 -543 1927
660 -543 1926
662 -540 1914
673 -544 1925
678 -544 1923
682 -542 1915
687 -541 1910
695 -543 1913
704 -545 1919
706 -542 1909
714 -544 1912
723 -546 1916
726 -544 1908
729 -542 1899
733 -540 1891
737 -539 1885
750 -544 1900
753 -542 1891
760 -543 1890
762 -540 1879
773 -544 1890
770 -538 1867
773 -536 1857
774 -533 1844
768 -524 1811
770 -521 1801
769 -517 1784
769 -514 1769
765 -507 1744
763 -502 1724
769 -503 1724
763 -495 1697
762 -491 1679
767 -491 1677
761 -483 1650
767 -484 1650
769 -482 1639
766 -477 1621
767 -474 1608
765 -470 1592
769 -469 1587
768 -465 1573
775 -466 1573
778 -465 1566
779 -463 1556
778 -459 1542
782 -459 1539
780 -454 1521
785 -455 1521
788 -453 1513
791 -453 1508
793 -451 1500
800 -452 1502
818 -459 1523
836 -467 1545
866 -481 1588
909 -502 1656
940 -516 1698
961 -525 1725
982 -533 1748
997 -538 1761
995 -533 1744
1004 -535 1747
1015 -538 1753
-1050 -521 1755
-1052 -525 1772
-1042 -523 1767
-1036 -523 1770
-1035 -525 1782
-1035 -528 1795
-1023 -525 1788
-1017 -525 1790
-1013 -526 1797
-1009 -527 1803
-1012 -532 1822
-997 -528 1810
-985 -524 1802
-987 -529 1818
-977 -526 1814
-970 -526 1816
-977 -533 1843
-964 -529 1832
-951 -526 1821
-947 -527 1828
-945 -529 1839
-944 -532 1851
-926 -525 1831
-928 -530 1848
-926 -532 1859
-910 -526 1841
-909 -529 1854
-902 -528 1854
-896 -529 1857
-893 -530 1865
-884 -529 1863
-887 -534 1884
-876 -531 1875
-861 -526 1859
-863 -531 1879
-856 -530 1879
-852 -531 1885
-848 -533 1893
-841 -532 1893
-831 -529 1886
-826 -530 1891
-822 -531 1896
-814 -530 1894
-813 -534 1909
-806 -533 1908
-798 -531 1905
-794 -533 1913
-785 -531 1908
-776 -529 1904
-777 -534 1921
-770 -533 1922
-763 -532 1920
-760 -534 1930
-746 -529 1913
-739 -528 1911
-740 -534 1933
-732 -532 1929
-727 -533 1933
-720 -532 1933
-721 -537 1952
-715 -537 1954
-705 -535 1947
-698 -534 1946
-690 -533 1943
-687 -535 1952
-680 -534 1951
-676 -535 1958
-673 -538 1969
-664 -536 1962
-660 -537 1969
-651 -535 1962
-645 -535 1965
-637 -534 1962
-633 -535 1969
-627 -536 1971
-623 -537 1978
-615 -536 1975
-611 -537 1981
-606 -538 1985
-600 -539 1990
-594 -539 1991
-584 -535 1978
-581 -537 1989
-576 -538 1994
-568 -537 1991
-563 -538 1995
-555 -536 1989
-549 -536 1991
-546 -539 2001
-534 -534 1983
-534 -539 2005
-527 -538 2002
-520 -537 2001
-516 -539 2009
-507 -536 2000
-506 -542 2022
-495 -536 2001
-492 -540 2017
-483 -537 2006
-478 -538 2010
-473 -539 2017
-463 -535 2001
-460 -539 2016
-453 -538 2014
-445 -536 2006
-441 -538 2016
-437 -540 2024
-431 -540 2027
-423 -538 2018
-418 -539 2024
-412 -540 2026
-404 -536 2015
-399 -539 2025
-394 -540 2031
-387 -538 2023
-382 -539 2030
-376 -540 2032
-368 -538 2025
-362 -538 2025
-356 -538 2026
-351 -539 2033
-345 -539 2033
-341 -542 2046
-333 -540 2036
-321 -530 2001
-320 -538 2029
-315 -539 2036
-309 -540 2041
-303 -540 2040
-298 -542 2046
-292 -541 2046
-284 -539 2039
-280 -542 2049
-274 -542 2051
-266 -539 2040
-260 -538 2037
-252 -536 2027
-250 -544 2059
-242 -540 2045
-237 -541 2048
-230 -540 2044
-223 -539 2041
-218 -540 2045
-213 -542 2055
-205 -539 2044
-200 -541 2049
-194 -541 2051
-187 -540 2045
-181 -538 2040
-174 -536 2031
-165 -527 1999
-145 -480 1819
-131 -451 1710
-127 -455 1725
-121 -450 1709
-116 -452 1714
-110 -449 1704
-105 -449 1702
-100 -451 1710
-97 -457 1734
-93 -465 1764
-88 -464 1759
-85 -478 1815
-82 -491 1863
-82 -526 1996
-78 -536 2035
-72 -538 2042
-67 -540 2051
-61 -543 2059
-55 -544 2062
-49 -544 2065
-43 -547 2074
-37 -544 2065
-30 -542 2057
-24 -544 2063
-18 -545 2066
-12 -541 2053
-6 -542 2055
0 -546 2069
5 -547 2074
11 -541 2051
17 -545 2064
23 -547 2074
29 -546 2068
35 -540 2046
41 -541 2051
47 -542 2055
54 -547 2071
59 -542 2053
66 -543 2057
72 -542 2053
78 -544 2058
84 -542 2053
90 -543 2056
96 -543 2055
101 -540 2044
108 -543 2053
114 -541 2048
120 -543 2052
126 -541 2044
132 -544 2055
139 -545 2060
144 -542 2048
150 -542 2048
157 -544 2055
162 -543 2049
169 -544 2053
174 -542 2045
180 -542 2044
186 -541 2040
192 -542 2043
198 -540 2035
204 -541 2037
210 -541 2037
216 -540 2033
224 -545 2052
229 -542 2041
234 -540 2031
240 -541 2035
246 -541 2033
254 -544 2044
258 -540 2028
264 -541 2032
271 -542 2033
277 -543 2038
283 -543 2035
289 -542 2031
295 -543 2035
301 -542 2029
307 -543 2032
312 -541 2023
319 -542 2027
327 -545 2038
329 -539 2013
336 -541 2019
345 -545 2033
349 -542 2022
356 -544 2029
360 -541 2014
367 -542 2019
371 -539 2005
378 -541 2014
388 -546 2030
391 -542 2014
397 -542 2014
403 -542 2013
407 -540 2004
416 -543 2014
420 -540 2003
427 -542 2007
433 -542 2005
438 -540 2000
444 -541 2000
449 -540 1997
457 -542 2001
463 -542 2002
465 -538 1984
474 -541 1995
479 -540 1988
486 -541 1992
488 -537 1975
497 -540 1986
506 -543 1996
512 -544 1996
514 -539 1978
524 -543 1991
529 -542 1986
534 -541 1979
544 -546 1995
544 -539 1971
551 -540 1973
558 -542 1976
566 -544 1983
568 -540 1966
574 -540 1965
581 -541 1968
586 -539 1960
598 -545 1979
599 -540 1960
604 -540 1958
610 -540 1956
617 -541 1957
620 -538 1945
632 -543 1962
633 -539 1945
643 -543 1957
649 -543 1954
655 -543 1953
662 -544 1955
665 -541 1942
679 -548 1964
681 -545 1951
684 -542 1939
690 -542 1939
698 -543 1941
702 -542 1934
708 -543 1934
714 -542 1930
722 -544 1935
727 -543 1931
733 -543 1928
735 -541 1916
745 -544 1925
748 -541 1913
760 -545 1927
762 -543 1915
769 -543 1915
769 -539 1899
769 -535 1881
778 -537 1886
770 -528 1852
772 -525 1840
768 -519 1814
764 -512 1789
768 -510 1782
762 -503 1753
763 -500 1741
761 -495 1722
766 -495 1718
766 -491 1703
764 -486 1684
764 -483 1671
765 -481 1660
770 -480 1657
772 -478 1646
766 -472 1622
770 -471 1616
771 -468 1605
772 -466 1595
778 -466 1595
776 -462 1578
776 -459 1565
776 -456 1551
783 -457 1553
782 -454 1540
783 -451 1529
792 -453 1534
796 -453 1530
798 -451 1522
811 -456 1534
831 -465 1561
870 -484 1623
908 -502 1680
941 -517 1729
958 -523 1747
973 -528 1761
993 -536 1782
993 -533 1770
1003 -535 1773
1011 -536 1774
1015 -535 1768
1027 -538 1775
-1078 -529 1804
-1061 -524 1789
-1054 -523 1790
-1049 -524 1795
-1044 -524 1799
-1035 -522 1797
-1032 -524 1806
-1022 -522 1802
-1021 -525 1814
-1023 -529 1830
-1011 -526 1824
-1004 -526 1825
-992 -522 1816
-996 -528 1837
-990 -528 1841
-990 -531 1855
-977 -527 1844
-975 -529 1855
-965 -527 1850
-960 -528 1856
-954 -528 1858
-951 -530 1867
-944 -529 1868
-940 -530 1874
-930 -528 1870
-926 -529 1875
-915 -526 1867
-919 -533 1892
-910 -531 1887
-899 -528 1880
-897 -530 1891
-893 -532 1899
-884 -530 1895
-878 -530 1898
-870 -529 1895
-865 -530 1900
-855 -527 1895
-859 -534 1919
-851 -532 1915
-842 -531 1912
-835 -530 1911
-833 -532 1924
-825 -531 1922
-816 -530 1918
-813 -532 1927
-807 -531 1929
-802 -532 1933
-798 -534 1941
-788 -531 1934
-782 -531 1936
-785 -538 1961
-769 -531 1938
-766 -533 1947
-757 -531 1941
-754 -533 1952
-748 -533 1955
-745 -535 1964
-737 -534 1961
-729 -533 1959
-725 -535 1967
-717 -533 1963
-713 -534 1969
-709 -536 1976
-705 -538 1985
-698 -537 1985
-690 -536 1982
-683 -535 1980
-675 -533 1975
-673 -537 1991
-664 -534 1983
-661 -537 1995
-654 -537 1994
-651 -539 2003
-638 -533 1985
-635 -536 1996
-627 -535 1993
-622 -536 1998
-618 -537 2006
-609 -535 1997
-608 -539 2015
-599 -537 2008
-589 -534 1997
-587 -538 2013
-581 -537 2014
-575 -537 2014
-572 -540 2028
-560 -535 2010
-554 -535 2012
-551 -538 2022
-542 -535 2014
-538 -537 2022
-533 -538 2027
-526 -538 2027
-520 -538 2028
-516 -540 2038
-508 -538 2032
-503 -540 2038
-494 -536 2026
-490 -539 2038
-484 -539 2038
-478 -539 2041
-474 -541 2048
-467 -540 2046
-457 -536 2032
-452 -537 2037
-445 -536 2034
-444 -542 2058
-435 -539 2047
-429 -539 2048
-425 -543 2062
-417 -540 2052
-410 -539 2050
-402 -537 2042
-400 -542 2064
-392 -540 2055
-387 -541 2059
-381 -541 2060
-373 -538 2051
-368 -540 2056
-359 -536 2044
-355 -539 2057
-351 -542 2068
-342 -539 2056
-337 -539 2058
-332 -541 2068
-324 -538 2057
-316 -536 2046
-313 -542 2070
-306 -539 2061
-299 -538 2056
-293 -537 2055
-287 -539 2061
-283 -542 2075
-276 -541 2069
-268 -536 2052
-263 -540 2068
-257 -539 2065
-252 -542 2076
-245 -541 2072
-240 -543 2081
-233 -540 2070
-226 -538 2062
-219 -536 2055
-213 -537 2060
-208 -539 2068
-203 -543 2083
-197 -544 2085
-190 -542 2078
-183 -539 2070
-177 -539 2068
-165 -522 2003
-151 -496 1903
-133 -455 1745
-129 -457 1754
-123 -454 1743
-117 -452 1737
-111 -448 1722
-107 -451 1730
-102 -454 1742
-97 -455 1749
-93 -459 1761
-89 -467 1793
-85 -472 1814
-82 -485 1863
-82 -518 1989
-78 -532 2044
-73 -539 2069
-68 -544 2089
-62 -545 2092
-55 -544 2089
-49 -544 2087
-43 -542 2083
-37 -544 2089
-31 -545 2093
-25 -543 2086
-19 -547 2099
-12 -542 2082
-6 -544 2089
0 -543 2086
5 -543 2084
11 -543 2083
17 -545 2093
24 -546 2094
30 -544 2086
36 -546 2094
42 -544 2088
48 -542 2077
54 -542 2076
61 -546 2094
67 -546 2092
73 -543 2082
78 -541 2074
84 -540 2069
91 -544 2083
97 -543 2080
103 -543 2080
109 -543 2077
116 -545 2084
121 -543 2076
128 -543 2077
134 -543 2077
140 -542 2071
146 -544 2080
152 -543 2074
158 -543 2073
165 -544 2077
170 -542 2069
176 -542 2070
183 -543 2073
188 -541 2063
195 -542 2069
201 -543 2070
207 -542 2066
213 -543 2070
219 -541 2062
226 -543 2069
232 -544 2071
237 -540 2057
244 -543 2065
250 -544 2070
256 -544 2068
260 -539 2050
268 -543 2064
275 -544 2065
282 -547 2075
284 -538 2041
294 -546 2069
297 -540 2048
303 -541 2048
311 -544 2060
316 -542 2050
322 -542 2051
329 -543 2055
336 -544 2055
341 -543 2051
348 -544 2055
351 -540 2038
360 -543 2051
364 -541 2041
371 -542 2043
378 -543 2045
383 -543 2043
390 -543 2043
396 -543 2044
403 -545 2047
409 -544 2046
411 -539 2023
419 -542 2034
425 -541 2031
431 -542 2030
438 -542 2030
442 -540 2021
449 -541 2024
454 -540 2018
461 -541 2021
471 -545 2036
474 -542 2022
479 -541 2017
486 -541 2017
492 -541 2016
501 -545 2027
507 -544 2025
510 -542 2015
514 -539 2003
522 -541 2009
527 -541 2006
535 -543 2011
540 -542 2007
549 -545 2016
555 -545 2014
559 -542 2003
563 -540 1995
571 -542 2000
579 -544 2006
581 -541 1991
588 -541 1990
599 -546 2006
601 -542 1990
606 -541 1985
616 -544 1996
617 -540 1978
623 -540 1978
633 -544 1989
637 -542 1981
642 -541 1976
649 -542 1976
651 -538 1961
663 -543 1978
664 -539 1960
670 -539 1958
679 -542 1965
681 -539 1954
690 -541 1958
702 -546 1974
702 -541 1954
711 -543 1962
715 -541 1953
726 -545 1964
728 -542 1952
734 -542 1949
744 -545 1958
747 -543 1947
755 -544 1950
757 -541 1938
764 -542 1939
767 -540 1929
774 -541 1930
772 -535 1906
774 -533 1895
775 -529 1879
764 -518 1837
771 -519 1839
764 -510 1806
769 -509 1802
767 -504 1781
765 -499 1762
764 -495 1744
767 -494 1737
766 -489 1719
766 -486 1706
765 -482 1690
762 -477 1669
765 -475 1661
772 -476 1663
768 -471 1640
775 -472 1642
772 -466 1621
773 -464 1611
774 -462 1601
776 -460 1591
773 -455 1572
779 -455 1571
782 -454 1565
785 -453 1559
788 -452 1552
786 -448 1535
798 -452 1547
816 -460 1571
832 -466 1589
854 -475 1618
902 -499 1697
944 -519 1763
961 -525 1780
971 -527 1784
983 -531 1795
990 -532 1793
1009 -538 1813
1008 -535 1797
1016 -536 1798
1015 -533 1784
1031 -538 1798
1036 -537 1792
-1089 -528 1823
-1068 -521 1802
-1072 -526 1821
-1061 -523 1816
-1056 -524 1821
-1055 -526 1833
-1047 -526 1833
-1036 -523 1828
-1036 -527 1843
-1032 -527 1848
-1022 -525 1845
-1012 -523 1840
-1002 -522 1837
-1008 -528 1860
-1001 -527 1862
-999 -530 1874
-985 -525 1860
-987 -530 1879
-975 -527 1871
-968 -526 1872
-966 -528 1882
-960 -529 1886
-958 -531 1897
-952 -531 1900
-946 -531 1903
-934 -528 1894
-925 -526 1891
-930 -532 1915
-913 -526 1895
-909 -528 1903
-901 -527 1902
-903 -531 1921
-899 -533 1927
-889 -530 1922
-879 -528 1916
-874 -529 1921
-868 -529 1924
-863 -530 1929
-860 -532 1938
-853 -531 1939
-844 -529 1934
-838 -530 1937
-836 -532 1948
-828 -531 1947
-821 -531 1948
-819 -533 1959
-816 -536 1970
-812 -537 1977
-797 -531 1957
-795 -534 1970
-788 -533 1970
-782 -533 1972
-778 -535 1980
-768 -532 1971
-761 -532 1971
-760 -536 1988
-750 -533 1979
-744 -533 1982
-740 -534 1989
-733 -534 1989
-731 -537 2002
-719 -533 1989
-718 -537 2004
-709 -534 1997
-705 -536 2006
-699 -537 2009
-692 -536 2008
-687 -537 2013
-678 -535 2007
-675 -538 2019
-666 -535 2012
-660 -535 2013
-656 -537 2022
-651 -538 2027
-640 -534 2014
-640 -540 2036
-630 -536 2025
-625 -537 2029
-620 -538 2035
-610 -535 2023
-603 -534 2023
-597 -535 2026
-592 -536 2031
-587 -536 2035
-582 -538 2041
-575 -537 2040
-571 -539 2049
-562 -537 2041
-555 -535 2037
-547 -534 2032
-545 -538 2051
-539 -538 2051
-531 -537 2047
-526 -537 2051
-522 -540 2062
-515 -539 2060
-509 -539 2061
-504 -541 2067
-496 -539 2063
-489 -538 2059
-486 -541 2073
-476 -538 2061
-473 -541 2074
-464 -538 2062
-457 -537 2062
-450 -537 2060
-446 -539 2069
-442 -542 2082
-436 -541 2081
-427 -538 2069
-424 -542 2086
-414 -538 2071
-407 -537 2069
-402 -538 2071
-398 -542 2088
-391 -541 2083
-382 -537 2070
-378 -539 2080
-372 -540 2084
-364 -537 2073
-357 -536 2071
-352 -537 2075
-346 -539 2081
-342 -542 2095
-334 -538 2080
-327 -537 2077
-322 -539 2085
-318 -543 2101
-308 -537 2079
-305 -542 2096
-298 -542 2097
-290 -538 2082
-287 -544 2106
-279 -541 2094
-271 -537 2082
-266 -540 2093
-259 -538 2086
-254 -541 2098
-247 -539 2092
-241 -539 2091
-234 -538 2086
-230 -542 2101
-223 -540 2094
-218 -544 2112
-211 -540 2096
-204 -540 2096
-197 -537 2084
-192 -540 2098
-186 -542 2106
-179 -537 2087
-169 -528 2050
-155 -503 1954
-140 -472 1834
-129 -454 1763
-125 -458 1779
-118 -449 1745
-112 -448 1741
-108 -452 1757
-102 -448 1741
-99 -455 1768
-93 -454 1764
-89 -460 1787
-86 -472 1835
-82 -481 1871
-82 -513 1994
-80 -536 2084
-74 -539 2093
-68 -543 2110
-63 -547 2127
-56 -543 2111
-50 -545 2118
-43 -541 2103
-37 -543 2110
-31 -547 2126
-25 -545 2117
-19 -545 2116
-13 -547 2126
-6 -547 2123
0 -545 2115
5 -546 2120
11 -542 2105
18 -542 2105
24 -540 2097
30 -546 2119
36 -542 2103
43 -545 2115
49 -545 2115
55 -547 2120
61 -542 2101
67 -542 2102
74 -544 2110
80 -547 2122
86 -544 2110
91 -538 2085
98 -544 2110
104 -544 2107
109 -538 2083
117 -543 2102
123 -542 2097
129 -543 2102
136 -545 2111
142 -544 2104
147 -542 2096
155 -546 2113
160 -543 2101
166 -543 2097
173 -543 2100
179 -544 2104
186 -547 2111
191 -542 2093
197 -543 2097
204 -546 2107
211 -546 2107
217 -548 2112
222 -544 2096
228 -543 2094
236 -546 2104
240 -542 2088
247 -545 2098
253 -544 2092
260 -546 2101
265 -543 2087
271 -542 2085
277 -542 2082
284 -543 2086
289 -543 2083
296 -542 2082
302 -543 2085
310 -547 2096
314 -542 2076
321 -543 2081
325 -539 2066
334 -545 2085
339 -543 2079
347 -545 2086
349 -539 2060
356 -541 2065
363 -543 2072
370 -544 2074
376 -543 2071
380 -540 2060
389 -544 2073
394 -542 2065
401 -544 2071
405 -541 2059
411 -541 2058
418 -542 2060
425 -543 2061
431 -543 2061
437 -542 2057
442 -541 2051
449 -542 2054
455 -542 2054
463 -544 2059
467 -542 2050
474 -542 2050
480 -543 2051
485 -541 2042
493 -544 2051
497 -541 2038
503 -541 2038
511 -543 2043
519 -545 2051
523 -543 2041
531 -544 2044
536 -543 2039
539 -540 2025
547 -542 2032
553 -542 2032
558 -541 2025
566 -542 2028
573 -543 2031
578 -543 2026
580 -539 2011
591 -544 2026
592 -539 2006
604 -544 2023
611 -544 2024
618 -545 2025
621 -543 2016
626 -542 2009
635 -544 2017
635 -539 1994
642 -540 1997
650 -541 1999
655 -541 1996
662 -541 1996
668 -542 1996
676 -543 1999
681 -542 1993
684 -539 1982
692 -541 1985
699 -542 1987
704 -541 1982
712 -542 1985
718 -542 1982
725 -543 1983
729 -541 1973
736 -542 1974
743 -543 1975
744 -539 1961
754 -542 1967
754 -538 1950
763 -540 1955
770 -541 1956
775 -540 1951
772 -533 1926
776 -532 1919
774 -527 1897
769 -519 1867
767 -514 1847
767 -510 1830
767 -506 1815
758 -497 1777
765 -497 1778
769 -497 1773
767 -491 1752
769 -489 1743
768 -485 1726
768 -481 1710
769 -479 1699
767 -475 1681
769 -472 1670
770 -470 1660
772 -468 1650
775 -466 1642
770 -460 1618
774 -459 1614
775 -457 1604
779 -457 1599
787 -458 1601
786 -454 1586
786 -452 1575
789 -451 1569
797 -452 1571
805 -454 1575
839 -470 1630
872 -486 1680
909 -503 1738
935 -515 1774
959 -525 1806
973 -529 1819
983 -531 1824
1000 -537 1840
1005 -537 1836
1009 -536 1829
1021 -539 1836
1020 -535 1821
1027 -536 1820
1043 -541 1834
1038 -535 1811
1044 -535 1809
-1101 -528 1846
-1083 -522 1829
-1083 -525 1843
-1080 -527 1852
-1070 -525 1847
-1063 -525 1850
-1058 -525 1855
-1043 -521 1842
-1052 -528 1872
-1044 -528 1872
-1030 -523 1860
-1028 -526 1872
-1022 -525 1874
-1017 -526 1879
