VERSION 0.7
FIELDS x y z
SIZE 4 4 4
TYPE I I I
COUNT 1 1 1
WIDTH 3246
HEIGHT 1
VIEWPOINT 0.0 0.0 0.0 1.0 0.0 0.0 0.0
POINTS 3246
DATA ascii
48 -550 2797
56 -550 2794
64 -545 2772
72 -551 2798
80 -549 2791
88 -550 2792
97 -551 2799
104 -544 2762
113 -551 2797
120 -545 2767
128 -546 2772
138 -552 2803
144 -546 2769
153 -549 2782
160 -544 2757
169 -548 2780
177 -548 2779
184 -544 2755
190 -539 2729
201 -546 2763
208 -543 2751
217 -546 2762
227 -551 2790
233 -547 2767
242 -547 2768
250 -549 2773
258 -547 2766
266 -547 2765
271 -542 2740
282 -547 2760
291 -549 2769
298 -548 2765
304 -543 2738
313 -546 2751
322 -547 2755
332 -549 2768
339 -549 2764
343 -541 2726
357 -552 2777
362 -547 2751
370 -546 2746
377 -545 2742
384 -543 2728
390 -541 2717
402 -547 2745
408 -544 2732
419 -548 2749
422 -542 2715
435 -548 2746
442 -546 2736
451 -548 2741
458 -546 2731
467 -547 2738
471 -543 2716
484 -549 2743
489 -546 2726
493 -541 2701
505 -545 2718
516 -548 2733
523 -547 2726
530 -547 2723
533 -541 2693
543 -543 2703
551 -543 2700
561 -546 2712
568 -544 2704
581 -549 2726
587 -548 2717
590 -543 2693
596 -541 2680
605 -542 2686
616 -545 2695
630 -550 2718
635 -548 2706
639 -544 2689
647 -544 2687
656 -545 2687
668 -548 2703
670 -543 2675
678 -544 2677
686 -544 2674
701 -549 2698
708 -549 2694
715 -547 2686
722 -547 2683
728 -545 2671
738 -547 2676
744 -546 2670
752 -546 2668
756 -543 2651
761 -540 2638
771 -542 2644
766 -533 2598
769 -530 2578
767 -523 2545
765 -516 2510
761 -509 2471
764 -506 2454
765 -502 2432
762 -495 2398
761 -490 2369
763 -487 2353
758 -479 2314
762 -477 2303
763 -473 2281
766 -471 2269
766 -466 2245
773 -466 2243
777 -465 2233
777 -461 2212
778 -457 2193
779 -454 2176
778 -450 2152
796 -457 2182
818 -465 2222
840 -474 2262
883 -494 2355
936 -520 2475
949 -523 2487
983 -538 2552
997 -541 2566
999 -538 2547
1017 -543 2570
1027 -545 2574
1037 -545 2574
1042 -544 2565
1048 -543 2558
1048 -539 2535
1053 -538 2526
1068 -541 2540
1068 -537 2518
1084 -541 2533
1090 -541 2526
1092 -538 2509
1098 -537 2503
1109 -538 2506
1124 -542 2520
1129 -541 2511
1144 -544 2524
1149 -543 2513
1157 -543 2510
1173 -547 2524
1185 -549 2530
1174 -540 2486
1184 -541 2486
1180 -535 2458
1209 -545 2499
1201 -538 2464
1210 -539 2463
1223 -541 2469
1237 -544 2478
1239 -541 2463
1252 -543 2468
1251 -539 2447
1264 -542 2455
1271 -542 2449
1287 -545 2460
1308 -551 2483
1298 -543 2445
1308 -544 2444
1329 -549 2464
1334 -548 2455
1321 -540 2413
1339 -544 2428
1344 -543 2418
1352 -543 2415
1349 -539 2392
1346 -534 2368
-1422 -522 2422
-1416 -522 2429
-1407 -522 2432
-1412 -527 2458
-1390 -522 2438
-1397 -528 2470
-1389 -528 2474
-1384 -529 2482
-1368 -526 2473
-1369 -529 2493
-1359 -529 2494
-1345 -527 2486
-1342 -529 2501
-1341 -531 2516
-1300 -518 2459
-1313 -527 2501
-1312 -530 2519
-1293 -525 2503
-1283 -525 2502
-1276 -525 2508
-1283 -531 2541
-1266 -528 2526
-1277 -536 2569
-1267 -535 2569
-1242 -528 2539
-1234 -528 2540
-1237 -533 2567
-1231 -534 2574
-1217 -531 2566
-1210 -532 2572
-1194 -529 2560
-1200 -535 2593
-1179 -529 2568
-1169 -528 2567
-1168 -531 2585
-1165 -534 2601
-1155 -533 2600
-1159 -539 2630
-1121 -525 2565
-1138 -537 2626
-1126 -535 2620
-1113 -533 2611
-1106 -533 2617
-1092 -530 2605
-1098 -537 2642
-1094 -540 2656
-1081 -537 2646
-1051 -527 2597
-1059 -534 2638
-1052 -535 2645
-1042 -534 2641
-1033 -534 2643
-1022 -533 2639
-1018 -535 2652
-1009 -534 2652
-1010 -539 2677
-994 -535 2661
-988 -536 2669
-976 -534 2660
-968 -534 2663
-963 -536 2676
-952 -534 2668
-952 -540 2696
-938 -536 2680
-934 -539 2696
-916 -533 2668
-917 -538 2697
-918 -544 2728
-900 -538 2702
-892 -538 2703
-883 -538 2703
-873 -537 2699
-866 -537 2705
-852 -534 2689
-857 -542 2733
-843 -538 2715
-839 -541 2732
-819 -533 2694
-821 -540 2731
-813 -540 2733
-804 -540 2731
-793 -538 2726
-785 -538 2728
-774 -536 2718
-771 -540 2738
-767 -543 2755
-754 -540 2742
-744 -539 2736
-740 -542 2753
-737 -546 2775
-725 -543 2762
-709 -537 2733
-705 -540 2751
-698 -541 2757
-688 -540 2753
-676 -537 2740
-669 -538 2745
-661 -538 2748
-658 -542 2770
-648 -541 2763
-643 -544 2781
-635 -544 2782
-626 -543 2780
-620 -546 2793
-602 -537 2750
-601 -543 2783
-600 -550 2816
-589 -548 2807
-577 -544 2791
-567 -543 2785
-559 -542 2783
-551 -543 2788
-540 -540 2772
-532 -541 2778
-524 -541 2780
-522 -548 2815
-505 -538 2768
-499 -541 2780
-490 -540 2777
-486 -544 2799
-479 -546 2808
-468 -542 2793
-464 -547 2817
-450 -541 2788
-442 -541 2785
-435 -543 2796
-427 -543 2801
-420 -544 2807
-414 -547 2822
-406 -548 2824
-395 -545 2811
-388 -546 2817
-377 -542 2796
-372 -548 2827
-360 -541 2795
-351 -541 2792
-350 -552 2850
-337 -544 2812
-326 -539 2784
-317 -539 2783
-311 -542 2801
-304 -545 2814
-297 -546 2820
-287 -543 2809
-279 -544 2814
-271 -543 2809
-264 -547 2830
-256 -547 2827
-247 -546 2824
-238 -544 2814
-231 -546 2822
-222 -546 2822
-214 -547 2826
-204 -542 2801
-197 -544 2814
-189 -545 2819
-179 -540 2791
-170 -536 2772
-147 -490 2532
-133 -467 2419
-121 -449 2322
-115 -450 2327
-108 -449 2325
-101 -448 2317
-94 -450 2330
-88 -453 2343
-83 -464 2401
-82 -495 2563
-81 -541 2796
-74 -549 2838
-66 -545 2816
-58 -548 2833
-49 -548 2831
-42 -553 2857
-33 -547 2829
-25 -547 2828
-17 -548 2834
-8 -546 2823
0 -551 2847
7 -549 2836
16 -552 2852
24 -548 2831
32 -550 2839
40 -548 2827
48 -548 2830
57 -550 2838
65 -549 2834
73 -548 2826
82 -552 2848
89 -543 2801
98 -547 2820
105 -545 2809
114 -549 2832
123 -551 2840
131 -548 2823
139 -547 2816
147 -549 2827
155 -547 2817
164 -549 2825
172 -550 2833
179 -545 2803
187 -545 2803
195 -545 2805
206 -552 2839
211 -543 2793
221 -549 2820
229 -549 2819
237 -548 2813
247 -551 2832
251 -543 2786
260 -545 2796
268 -543 2788
278 -547 2808
286 -546 2801
293 -545 2795
300 -543 2782
309 -544 2788
319 -548 2807
326 -545 2790
334 -546 2792
343 -547 2796
350 -545 2788
358 -545 2787
366 -545 2782
378 -550 2810
382 -544 2776
393 -549 2801
399 -545 2777
410 -549 2797
418 -549 2796
421 -543 2764
436 -551 2803
439 -544 2769
448 -546 2778
456 -545 2772
468 -550 2796
470 -543 2759
482 -547 2779
487 -544 2760
498 -547 2776
504 -545 2763
514 -547 2770
522 -547 2770
528 -545 2756
536 -544 2753
543 -543 2747
548 -540 2730
556 -540 2728
569 -545 2750
580 -548 2765
581 -541 2727
590 -542 2731
602 -546 2749
611 -546 2749
615 -543 2729
627 -546 2745
633 -545 2735
641 -545 2733
651 -546 2738
652 -540 2708
667 -546 2735
679 -549 2749
684 -547 2734
692 -546 2730
691 -540 2695
702 -542 2704
712 -544 2711
726 -548 2728
732 -546 2721
735 -543 2701
744 -543 2702
752 -544 2700
766 -548 2718
763 -540 2678
768 -537 2663
766 -531 2628
767 -526 2603
767 -521 2574
764 -513 2536
767 -510 2517
764 -503 2481
762 -497 2449
763 -493 2429
759 -485 2388
763 -484 2379
764 -480 2357
764 -475 2331
764 -471 2307
765 -467 2289
772 -467 2287
773 -464 2267
772 -459 2241
776 -457 2231
777 -454 2214
782 -453 2206
792 -455 2215
809 -461 2241
826 -467 2267
882 -495 2397
921 -512 2480
956 -528 2552
984 -539 2603
982 -533 2573
1012 -546 2629
1017 -544 2619
1027 -545 2621
1023 -539 2587
1049 -548 2630
1047 -543 2603
1054 -543 2597
1062 -542 2593
1068 -542 2586
1074 -540 2577
1089 -544 2592
1089 -540 2569
1092 -538 2556
1100 -538 2551
1118 -543 2571
1121 -540 2557
1126 -539 2548
1141 -542 2561
1151 -543 2561
1156 -542 2552
1165 -543 2551
1176 -544 2554
1174 -539 2529
1199 -547 2562
1194 -541 2529
1207 -543 2537
1209 -541 2521
1215 -540 2514
1217 -537 2498
1222 -536 2489
1247 -543 2518
1246 -540 2497
1258 -542 2502
1266 -542 2499
1268 -539 2484
1287 -544 2501
1285 -540 2478
1302 -543 2491
1300 -539 2469
1311 -540 2470
1315 -539 2459
1335 -544 2478
1335 -541 2459
1354 -545 2475
1353 -542 2454
1354 -539 2439
1365 -540 2439
1366 -538 2424
1404 -549 2472
-1447 -523 2466
-1439 -523 2470
-1453 -531 2513
-1435 -527 2500
-1443 -533 2533
-1417 -527 2506
-1427 -534 2543
-1399 -526 2512
-1392 -527 2517
-1375 -524 2506
-1379 -528 2531
-1371 -529 2537
-1369 -531 2552
-1345 -525 2526
-1352 -531 2558
-1333 -527 2542
-1334 -531 2564
-1317 -527 2550
-1324 -533 2582
-1299 -526 2553
-1300 -530 2576
-1295 -532 2587
-1289 -532 2593
-1273 -529 2583
-1270 -532 2597
-1273 -536 2624
-1237 -524 2568
-1243 -531 2602
-1231 -529 2597
-1215 -526 2585
-1217 -530 2610
-1202 -528 2599
-1198 -529 2610
-1181 -525 2595
-1176 -527 2604
-1180 -532 2634
-1168 -531 2631
-1153 -528 2618
-1154 -532 2643
-1149 -534 2652
-1146 -536 2669
-1130 -532 2652
-1123 -533 2659
-1110 -531 2650
-1114 -537 2682
-1105 -537 2685
-1087 -532 2664
-1085 -535 2680
-1072 -533 2672
-1071 -536 2692
-1066 -538 2706
-1045 -532 2674
-1047 -537 2704
-1033 -534 2691
-1024 -534 2694
-1015 -534 2693
-1013 -537 2714
-998 -533 2697
-989 -533 2698
-988 -537 2719
-980 -537 2723
-962 -532 2698
-971 -541 2749
-954 -537 2728
-950 -540 2744
-937 -537 2731
-933 -539 2747
-924 -539 2748
-914 -538 2744
-910 -540 2758
-902 -541 2763
-897 -543 2774
-873 -533 2727
-882 -544 2783
-863 -538 2754
-851 -535 2743
-844 -536 2749
-843 -541 2775
-835 -541 2777
-825 -540 2774
-818 -541 2782
-799 -534 2749
-798 -539 2775
-784 -535 2757
-784 -541 2787
-768 -535 2761
-769 -542 2798
-767 -547 2821
-750 -541 2793
-739 -539 2785
-724 -534 2761
-729 -544 2812
-714 -539 2789
-703 -537 2779
-694 -536 2779
-691 -540 2799
-691 -547 2837
-678 -544 2820
-666 -541 2806
-658 -541 2810
-653 -544 2826
-647 -546 2838
-637 -545 2831
-625 -541 2813
-619 -544 2828
-608 -541 2815
-603 -545 2835
-594 -544 2831
-586 -544 2833
-577 -544 2835
-564 -539 2809
-558 -542 2826
-555 -547 2854
-545 -545 2843
-537 -546 2848
-528 -546 2848
-520 -545 2848
-512 -546 2853
-503 -546 2852
-497 -548 2863
-485 -544 2846
-478 -546 2854
-465 -541 2830
-466 -551 2885
-456 -549 2875
-440 -540 2827
-433 -542 2837
-425 -543 2843
-418 -545 2852
-408 -542 2841
-398 -541 2834
-393 -545 2856
-380 -538 2822
-379 -548 2875
-368 -545 2860
-360 -546 2862
-349 -542 2845
-341 -542 2846
-333 -543 2850
-328 -549 2880
-317 -545 2858
-311 -548 2877
-303 -549 2881
-291 -542 2843
-283 -543 2851
-277 -548 2877
-266 -543 2851
-259 -544 2859
-248 -539 2829
-243 -547 2872
-235 -548 2877
-226 -547 2874
-217 -544 2858
-209 -546 2870
-202 -548 2881
-191 -542 2847
-184 -546 2867
-174 -541 2841
-157 -513 2698
-135 -465 2446
-123 -447 2351
-116 -448 2354
-110 -451 2369
-104 -453 2383
-97 -453 2382
-89 -451 2371
-82 -450 2366
-79 -474 2492
-81 -531 2790
-75 -546 2868
-67 -545 2860
-58 -545 2864
-50 -548 2877
-42 -550 2887
-33 -546 2867
-25 -553 2901
-17 -551 2892
-8 -551 2892
0 -552 2899
7 -548 2874
16 -545 2862
24 -546 2863
32 -548 2876
41 -547 2869
49 -548 2875
58 -550 2884
65 -544 2851
75 -550 2884
82 -545 2854
91 -550 2883
100 -551 2887
108 -548 2869
117 -553 2898
124 -547 2866
133 -548 2871
141 -546 2859
149 -546 2859
159 -552 2885
165 -545 2853
172 -540 2823
183 -548 2865
192 -551 2877
200 -550 2873
207 -546 2854
214 -544 2839
224 -547 2856
231 -544 2838
241 -549 2865
250 -550 2867
261 -554 2890
266 -548 2855
273 -545 2842
281 -545 2841
291 -548 2856
298 -547 2846
306 -546 2839
313 -543 2825
324 -548 2852
333 -548 2851
338 -544 2824
349 -548 2844
356 -546 2837
366 -548 2846
374 -548 2843
383 -549 2846
392 -550 2851
393 -540 2799
410 -552 2861
417 -551 2851
424 -549 2841
431 -547 2831
440 -548 2832
446 -545 2818
459 -551 2846
462 -544 2811
471 -545 2815
476 -542 2795
486 -544 2803
497 -546 2815
505 -547 2815
514 -547 2815
521 -545 2807
530 -546 2810
537 -545 2803
543 -544 2793
551 -543 2786
562 -546 2802
567 -543 2784
576 -544 2786
590 -549 2810
587 -539 2759
601 -544 2783
615 -549 2808
617 -543 2777
626 -545 2781
633 -544 2775
646 -548 2794
651 -545 2777
658 -543 2768
669 -546 2778
674 -543 2763
679 -541 2751
697 -549 2787
698 -543 2755
709 -545 2766
723 -550 2787
728 -547 2772
735 -546 2764
738 -543 2744
756 -550 2777
758 -545 2752
763 -543 2738
771 -543 2736
772 -538 2709
766 -528 2657
765 -522 2626
768 -519 2607
763 -510 2561
764 -506 2538
762 -499 2504
765 -496 2485
762 -490 2450
761 -484 2421
763 -481 2402
766 -478 2388
767 -474 2366
769 -472 2350
772 -469 2335
766 -461 2292
773 -461 2292
778 -460 2282
776 -455 2256
786 -456 2261
786 -453 2241
794 -454 2243
821 -465 2296
868 -488 2405
930 -518 2554
965 -534 2627
970 -532 2616
996 -542 2660
1011 -545 2675
1005 -538 2636
1016 -540 2642
1032 -544 2658
1035 -541 2643
1042 -540 2636
1058 -545 2655
1058 -540 2630
1058 -536 2606
1078 -542 2633
1086 -542 2630
1093 -542 2625
1098 -540 2615
1111 -543 2623
1109 -538 2595
1128 -543 2619
1136 -543 2616
1147 -545 2618
1161 -547 2627
1165 -546 2616
1167 -543 2598
1168 -539 2579
1182 -542 2589
1190 -542 2585
1191 -539 2565
1203 -541 2571
1225 -547 2597
1238 -549 2603
1218 -537 2542
1245 -545 2576
1254 -545 2575
1254 -542 2554
1273 -547 2573
1260 -538 2527
1278 -542 2544
1271 -536 2510
1300 -545 2548
1298 -540 2524
1296 -536 2501
1321 -543 2529
1334 -545 2535
1345 -546 2536
1337 -540 2502
1351 -542 2509
1366 -545 2517
1361 -540 2489
1371 -541 2489
1393 -546 2510
1389 -542 2485
1402 -543 2488
1417 -546 2496
-1481 -527 2526
-1463 -523 2514
-1461 -526 2530
-1454 -526 2535
-1438 -523 2527
-1447 -530 2561
-1420 -523 2533
-1418 -525 2547
-1407 -524 2547
-1408 -528 2567
-1389 -524 2552
-1404 -533 2598
-1370 -523 2555
-1377 -529 2587
-1366 -528 2586
-1356 -527 2587
-1351 -529 2597
-1329 -524 2576
-1341 -532 2618
-1321 -527 2599
-1318 -529 2613
-1316 -532 2630
-1298 -528 2614
-1299 -532 2636
-1292 -532 2642
-1275 -529 2628
-1280 -535 2660
-1261 -530 2642
-1263 -535 2668
-1247 -531 2654
-1237 -531 2655
-1237 -534 2675
-1213 -528 2645
-1207 -529 2652
-1208 -533 2677
-1187 -527 2652
-1190 -533 2682
-1185 -534 2692
-1163 -528 2665
-1159 -530 2678
-1156 -532 2692
-1153 -535 2709
-1152 -539 2729
-1140 -537 2723
-1117 -530 2691
-1119 -535 2720
-1111 -535 2723
-1115 -541 2756
-1101 -539 2746
-1095 -540 2756
-1071 -532 2719
-1069 -536 2738
-1059 -535 2736
-1052 -536 2744
-1043 -536 2745
-1040 -539 2762
-1027 -536 2751
-1013 -533 2739
-1011 -536 2759
-1002 -536 2761
-993 -536 2761
-983 -535 2760
-974 -535 2759
-970 -537 2774
-959 -536 2769
-963 -543 2808
-949 -540 2794
-938 -539 2790
-922 -534 2769
-927 -542 2813
-920 -543 2818
-898 -535 2778
-894 -538 2794
-875 -531 2763
-876 -537 2795
-870 -539 2807
-859 -537 2800
-856 -541 2821
-845 -539 2813
-838 -540 2820
-830 -540 2822
-820 -540 2821
-813 -540 2826
-803 -539 2823
-795 -540 2828
-788 -541 2836
-780 -541 2837
-768 -539 2827
-757 -538 2821
-756 -543 2850
-739 -537 2818
-740 -544 2856
-726 -539 2836
-722 -543 2854
-711 -541 2848
-699 -538 2835
-691 -538 2836
-686 -542 2855
-676 -540 2849
-667 -540 2848
-663 -543 2867
-654 -544 2870
-640 -539 2846
-635 -541 2861
-624 -540 2853
-618 -542 2866
-609 -541 2862
-601 -541 2865
-599 -548 2898
-587 -545 2884
-581 -547 2897
-568 -543 2877
-558 -541 2869
-553 -545 2889
-548 -548 2906
-537 -546 2897
-530 -548 2906
-515 -541 2872
-508 -543 2883
-498 -541 2875
-492 -543 2887
-488 -549 2915
-478 -548 2910
-463 -539 2867
-460 -547 2907
-451 -546 2904
-438 -541 2875
-434 -546 2906
-421 -541 2877
-414 -542 2886
-405 -542 2885
-399 -545 2900
-388 -542 2884
-383 -547 2913
-375 -547 2913
-365 -545 2902
-355 -542 2889
-349 -546 2913
-336 -540 2878
-329 -541 2885
-322 -544 2902
-314 -545 2905
-306 -546 2912
-298 -547 2920
-288 -543 2899
-280 -545 2909
-270 -541 2888
-263 -546 2912
-255 -546 2913
-247 -548 2922
-238 -545 2911
-228 -543 2899
-219 -543 2896
-213 -548 2926
-204 -547 2920
-194 -543 2898
-186 -544 2906
-176 -540 2883
-165 -530 2829
-137 -465 2483
-123 -442 2359
-117 -446 2379
-112 -451 2407
-105 -451 2410
-96 -445 2374
-89 -442 2360
-80 -432 2305
-79 -467 2491
-82 -531 2836
-76 -543 2899
-68 -545 2910
-60 -550 2933
-51 -548 2922
-43 -550 2936
-34 -550 2933
-25 -548 2920
-17 -551 2938
-8 -547 2916
0 -553 2951
8 -551 2935
16 -550 2932
24 -547 2917
33 -553 2948
42 -549 2923
50 -549 2923
58 -547 2915
67 -551 2933
75 -545 2903
84 -550 2929
92 -547 2912
100 -545 2901
108 -542 2883
117 -545 2901
126 -546 2906
134 -546 2906
143 -549 2917
152 -548 2914
161 -551 2927
168 -547 2909
178 -551 2927
185 -546 2901
194 -547 2901
204 -552 2929
212 -551 2923
220 -550 2916
228 -548 2905
234 -541 2871
244 -546 2893
253 -548 2902
260 -544 2883
271 -549 2909
278 -547 2897
284 -542 2867
296 -548 2900
301 -543 2872
311 -545 2880
321 -549 2899
329 -548 2898
337 -547 2889
345 -546 2884
351 -543 2866
362 -546 2882
369 -545 2875
378 -545 2872
384 -542 2857
394 -545 2870
407 -551 2902
409 -542 2851
419 -545 2865
427 -544 2862
432 -539 2834
445 -545 2863
456 -548 2878
464 -549 2880
466 -541 2839
475 -542 2840
485 -544 2850
499 -550 2881
503 -545 2851
513 -547 2860
525 -551 2879
529 -546 2853
533 -542 2830
543 -543 2838
555 -546 2852
566 -549 2865
569 -544 2838
577 -544 2834
582 -541 2815
598 -548 2852
606 -547 2847
612 -545 2835
621 -546 2835
621 -539 2799
635 -544 2821
648 -548 2840
652 -544 2817
657 -542 2805
668 -544 2813
678 -545 2819
684 -543 2805
696 -546 2820
703 -545 2814
709 -544 2803
719 -545 2808
720 -539 2775
734 -543 2796
743 -544 2795
760 -551 2828
755 -541 2776
767 -544 2788
772 -541 2772
773 -536 2746
768 -527 2696
767 -521 2664
763 -512 2619
762 -507 2588
762 -502 2559
763 -497 2534
758 -489 2491
761 -486 2473
760 -481 2447
762 -478 2426
759 -471 2390
761 -468 2374
769 -469 2375
768 -463 2346
771 -461 2332
777 -461 2328
774 -455 2295
780 -454 2291
789 -455 2293
808 -462 2327
824 -467 2350
861 -484 2433
924 -516 2586
960 -532 2664
980 -538 2694
996 -542 2712
1010 -546 2725
1009 -541 2697
1012 -538 2680
1020 -537 2676
1033 -540 2686
1032 -535 2659
1048 -540 2678
1065 -544 2695
1071 -543 2688
1068 -537 2656
1087 -543 2680
1084 -537 2650
1108 -545 2686
1124 -549 2700
1111 -539 2648
1129 -543 2666
1133 -541 2655
1146 -544 2662
1160 -546 2671
1168 -546 2667
1183 -550 2680
1179 -544 2648
1185 -542 2639
1193 -543 2637
1204 -544 2638
1219 -547 2651
1210 -539 2609
1215 -538 2598
1225 -539 2599
1247 -545 2624
1243 -540 2595
1261 -544 2612
1261 -540 2592
1282 -546 2613
1278 -541 2586
1286 -541 2581
1294 -540 2577
1297 -538 2563
1313 -542 2575
1320 -541 2568
1318 -537 2544
1347 -545 2580
1345 -541 2557
1361 -544 2567
1353 -538 2533
1379 -545 2563
1362 -535 2511
1390 -543 2544
1404 -545 2550
1401 -541 2526
1405 -540 2514
1424 -544 2528
1437 -546 2534
-1500 -525 2560
-1489 -524 2560
-1488 -527 2577
-1472 -524 2569
-1487 -532 2613
-1460 -526 2586
-1435 -520 2561
-1444 -527 2596
-1431 -525 2592
-1442 -532 2631
-1423 -528 2616
-1432 -535 2652
-1416 -532 2642
-1384 -523 2602
-1400 -533 2653
-1392 -533 2658
-1382 -532 2658
-1367 -530 2650
-1351 -527 2639
-1345 -528 2648
-1335 -527 2648
-1329 -528 2657
-1325 -531 2671
-1295 -522 2630
-1316 -534 2695
-1297 -530 2676
-1292 -531 2686
-1277 -529 2678
-1277 -532 2698
-1263 -530 2690
-1271 -537 2729
-1230 -523 2661
-1242 -532 2711
-1217 -525 2677
-1230 -534 2728
-1216 -532 2720
-1208 -532 2724
-1203 -534 2735
-1190 -532 2729
-1183 -532 2734
-1180 -535 2750
-1165 -532 2738
-1154 -531 2736
-1158 -537 2768
-1154 -539 2782
-1141 -537 2775
-1124 -533 2757
-1118 -534 2766
-1110 -535 2771
-1106 -537 2786
-1094 -535 2779
-1079 -532 2765
-1076 -535 2782
-1074 -538 2803
-1070 -540 2816
-1045 -532 2775
-1032 -530 2768
-1035 -536 2802
-1029 -537 2809
-1025 -540 2826
-1013 -538 2818
-1011 -542 2840
-986 -533 2796
-989 -539 2830
-973 -536 2813
-975 -541 2846
-964 -540 2842
-951 -538 2831
-941 -537 2828
-938 -540 2848
-930 -540 2851
-912 -535 2825
-907 -537 2839
-912 -545 2883
-891 -538 2845
-882 -537 2845
-873 -538 2847
-868 -539 2859
-868 -545 2892
-852 -540 2867
-840 -539 2860
-835 -541 2875
-829 -543 2886
-809 -535 2846
-805 -539 2866
-799 -540 2875
-785 -537 2859
-774 -535 2852
-773 -540 2880
-773 -546 2913
-756 -540 2885
-746 -539 2881
-748 -547 2923
-727 -538 2876
-724 -542 2900
-718 -545 2914
-711 -546 2922
-692 -538 2882
-691 -544 2914
-681 -542 2908
-676 -546 2928
-665 -544 2919
-654 -542 2907
-649 -545 2926
-637 -542 2913
-623 -537 2888
-625 -546 2937
-606 -538 2894
-604 -544 2924
-594 -543 2921
-588 -545 2931
-573 -539 2901
-576 -550 2965
-558 -542 2918
-549 -540 2913
-536 -537 2895
-536 -545 2938
-526 -544 2933
-515 -541 2921
-510 -546 2945
-498 -542 2924
-491 -544 2936
-479 -540 2916
-475 -545 2945
-468 -547 2956
-453 -540 2918
-451 -548 2961
-439 -544 2940
-432 -545 2950
-421 -543 2936
-412 -542 2932
-404 -543 2939
-397 -545 2950
-390 -548 2966
-384 -551 2984
-373 -548 2967
-360 -542 2933
-355 -547 2960
-343 -542 2938
-334 -542 2935
-329 -547 2963
-319 -546 2959
-312 -548 2968
-304 -549 2977
-295 -548 2972
-286 -547 2968
-276 -547 2963
-267 -544 2952
-259 -546 2963
-249 -544 2948
-238 -539 2921
-233 -545 2957
-225 -548 2970
-217 -549 2975
-206 -544 2951
-198 -544 2952
-188 -540 2929
-180 -543 2945
-168 -531 2880
-149 -499 2705
-129 -457 2481
-119 -446 2420
-114 -452 2454
-106 -448 2431
-99 -451 2447
-89 -437 2374
-82 -437 2372
-79 -459 2489
-83 -528 2862
-76 -539 2920
-69 -545 2956
-61 -552 2992
-52 -551 2985
-43 -551 2986
-35 -553 2996
-26 -552 2994
-17 -548 2967
-9 -552 2991
0 -557 3019
8 -550 2981
16 -551 2982
25 -547 2962
34 -549 2971
42 -551 2985
51 -548 2969
59 -547 2961
68 -548 2964
77 -550 2974
85 -547 2958
94 -550 2974
102 -546 2951
111 -548 2963
120 -550 2975
128 -548 2964
137 -547 2955
145 -548 2958
153 -544 2939
163 -550 2968
172 -551 2976
181 -552 2981
189 -550 2966
196 -544 2935
206 -548 2958
214 -547 2949
222 -547 2947
231 -546 2942
241 -550 2966
249 -549 2958
256 -545 2935
266 -547 2947
275 -550 2960
285 -551 2966
290 -545 2933
299 -546 2935
306 -544 2923
318 -549 2949
324 -546 2931
336 -551 2959
342 -547 2937
351 -547 2932
359 -546 2930
366 -545 2919
373 -541 2901
383 -545 2918
391 -544 2911
403 -548 2935
409 -545 2918
417 -544 2908
426 -545 2914
437 -549 2931
441 -542 2894
451 -545 2907
458 -542 2892
469 -546 2910
474 -541 2885
488 -548 2918
491 -542 2885
502 -545 2899
512 -546 2903
521 -547 2908
529 -546 2900
539 -548 2908
544 -544 2889
559 -550 2919
561 -544 2886
565 -540 2860
582 -548 2902
592 -549 2908
599 -548 2898
605 -546 2887
603 -536 2834
623 -547 2889
637 -551 2911
638 -545 2874
645 -544 2866
654 -544 2867
664 -546 2873
675 -548 2883
679 -544 2859
680 -538 2828
699 -547 2870
708 -547 2869
710 -542 2840
720 -543 2846
733 -546 2860
741 -546 2856
751 -547 2861
755 -544 2842
761 -543 2832
769 -542 2830
773 -539 2810
765 -528 2748
759 -518 2697
766 -517 2691
764 -510 2652
760 -503 2612
769 -503 2611
763 -494 2563
757 -485 2514
761 -483 2501
761 -479 2476
764 -476 2460
767 -473 2443
765 -468 2413
770 -466 2402
770 -462 2378
771 -458 2357
772 -454 2336
783 -457 2347
782 -452 2319
795 -456 2334
821 -467 2389
849 -479 2447
907 -507 2590
955 -530 2702
970 -533 2718
984 -536 2731
1000 -540 2748
1008 -540 2745
1017 -541 2744
1016 -536 2717
1042 -545 2761
1043 -541 2738
1056 -544 2747
1065 -544 2747
1075 -545 2747
1078 -542 2732
1090 -544 2737
1099 -544 2734
1104 -543 2725
1102 -538 2696
1118 -542 2712
1137 -547 2733
1137 -543 2710
1146 -543 2709
1154 -543 2705
1155 -539 2683
1167 -541 2688
1168 -538 2668
1201 -549 2723
1182 -537 2656
1204 -543 2685
1214 -544 2684
1221 -543 2677
1217 -538 2647
1235 -542 2664
1250 -545 2674
1243 -538 2638
1252 -539 2637
1263 -540 2639
1273 -541 2639
1282 -541 2637
1286 -539 2623
1310 -546 2652
1304 -540 2619
1317 -542 2624
1335 -546 2640
1335 -542 2619
1329 -537 2588
1357 -545 2622
1351 -539 2590
1375 -545 2616
1377 -543 2600
1389 -544 2602
1394 -543 2592
1412 -546 2605
1418 -546 2597
1404 -537 2552
1420 -540 2562
1426 -539 2553
1448 -544 2573
1464 -547 2583
-1533 -528 2618
-1501 -520 2583
-1517 -529 2630
-1515 -531 2645
-1494 -526 2628
-1499 -531 2656
-1477 -527 2637
-1478 -530 2659
-1459 -527 2644
-1454 -528 2654
-1456 -532 2678
-1438 -528 2665
-1423 -526 2658
-1425 -530 2682
-1408 -527 2670
-1393 -525 2661
-1399 -530 2693
-1387 -529 2691
-1368 -525 2674
-1373 -530 2705
-1355 -527 2690
-1351 -529 2702
-1347 -530 2715
-1330 -527 2703
-1339 -534 2742
-1317 -529 2719
-1305 -528 2715
-1308 -532 2743
-1279 -524 2704
-1290 -532 2749
-1290 -536 2771
-1267 -530 2744
-1265 -533 2761
-1266 -537 2787
-1254 -536 2782
-1236 -532 2766
-1237 -536 2790
-1228 -536 2794
-1215 -534 2787
-1206 -534 2790
-1198 -534 2793
-1182 -531 2779
-1189 -538 2820
-1174 -536 2808
-1165 -535 2810
-1153 -534 2805
-1156 -540 2838
-1137 -535 2814
-1130 -536 2822
-1117 -533 2813
-1118 -538 2841
-1099 -533 2818
-1095 -536 2833
-1074 -530 2804
-1079 -536 2842
-1076 -539 2860
-1055 -533 2829
-1059 -540 2866
-1050 -540 2870
-1037 -538 2859
-1039 -543 2893
-1026 -541 2882
-1014 -540 2877
-1000 -537 2864
-1001 -542 2894
-990 -541 2890
-978 -539 2884
-964 -536 2869
-970 -545 2918
-959 -543 2913
-936 -536 2872
-928 -536 2876
-924 -538 2891
-917 -540 2901
-903 -537 2886
-896 -537 2892
-897 -544 2928
-877 -536 2891
-871 -538 2903
-863 -539 2907
-854 -539 2910
-837 -534 2883
-842 -543 2933
-830 -540 2922
-829 -545 2950
-820 -545 2953
-807 -543 2941
-793 -540 2924
-783 -538 2918
-779 -542 2938
-772 -543 2948
-755 -537 2915
-754 -543 2949
-741 -540 2933
-740 -546 2968
-721 -538 2925
-725 -548 2981
-708 -541 2947
-704 -545 2970
-687 -539 2936
-682 -542 2955
-673 -541 2953
-669 -546 2977
-659 -544 2971
-652 -546 2982
-641 -544 2973
-631 -544 2972
-618 -540 2953
-618 -548 2996
-603 -542 2967
-593 -541 2958
-582 -539 2948
-577 -542 2969
-568 -543 2972
-558 -541 2963
-556 -548 3003
-546 -547 2997
-537 -547 2998
-524 -542 2976
-518 -545 2990
-511 -547 3003
-499 -544 2986
-491 -544 2987
-480 -542 2979
-471 -542 2979
-461 -541 2971
-457 -546 3000
-446 -544 2989
-437 -544 2989
-430 -545 2999
-422 -547 3007
-408 -539 2966
-403 -545 2999
-396 -547 3011
-382 -539 2969
-377 -545 3003
-370 -548 3020
-362 -549 3023
-350 -545 3002
-341 -545 3000
-331 -543 2989
-324 -545 3001
-314 -543 2991
-309 -549 3027
-299 -548 3018
-290 -547 3014
-279 -543 2992
-272 -547 3014
-264 -548 3019
-256 -551 3035
-245 -545 3005
-237 -546 3010
-229 -549 3026
-221 -550 3035
-211 -548 3020
-202 -547 3014
-191 -542 2988
-185 -548 3022
-174 -541 2984
-156 -513 2830
-130 -452 2494
-121 -445 2454
-114 -446 2461
-109 -454 2505
-101 -451 2489
-92 -443 2446
-80 -422 2326
-76 -437 2409
-81 -508 2802
-78 -541 2981
-70 -547 3015
-61 -548 3021
-53 -548 3022
-44 -550 3029
-35 -547 3016
-27 -556 3065
-18 -552 3042
-9 -549 3022
0 -552 3042
8 -550 3031
17 -547 3011
25 -551 3032
34 -547 3013
43 -554 3048
52 -550 3024
61 -552 3036
70 -553 3043
78 -547 3011
87 -553 3040
96 -549 3017
105 -552 3032
114 -553 3039
122 -548 3010
129 -543 2984
138 -545 2995
149 -554 3040
158 -552 3031
167 -553 3036
176 -553 3033
182 -545 2988
191 -547 3000
202 -551 3024
209 -548 3005
216 -544 2981
227 -550 3013
236 -551 3018
245 -550 3009
252 -546 2988
261 -548 2996
269 -546 2987
282 -555 3033
287 -548 2993
296 -547 2989
305 -548 2997
315 -550 3006
321 -546 2980
329 -545 2972
335 -541 2952
348 -547 2983
355 -545 2969
363 -544 2963
372 -545 2968
383 -548 2984
394 -551 2998
399 -546 2971
405 -543 2951
414 -543 2954
427 -549 2982
436 -549 2982
443 -547 2969
448 -543 2946
464 -552 2992
467 -545 2953
478 -547 2964
483 -543 2942
491 -543 2938
498 -540 2924
505 -539 2918
519 -545 2945
532 -549 2966
540 -549 2963
547 -547 2954
560 -551 2973
567 -550 2966
569 -544 2930
584 -550 2962
585 -542 2920
600 -548 2951
605 -545 2931
612 -543 2920
630 -552 2964
626 -541 2902
635 -541 2903
646 -544 2914
659 -547 2928
663 -543 2908
673 -544 2911
680 -543 2905
693 -546 2919
701 -546 2915
709 -546 2912
718 -546 2912
724 -544 2899
731 -543 2890
746 -548 2914
753 -546 2905
758 -544 2888
767 -544 2890
770 -540 2865
769 -534 2830
767 -526 2789
764 -519 2748
758 -509 2695
756 -503 2657
760 -500 2641
760 -495 2613
760 -489 2581
758 -483 2547
759 -479 2523
760 -475 2500
759 -470 2471
761 -467 2451
767 -466 2444
775 -466 2444
769 -458 2401
772 -456 2384
784 -459 2398
787 -456 2383
797 -458 2388
819 -466 2430
836 -472 2456
914 -512 2663
947 -526 2732
961 -529 2746
997 -544 2821
1007 -545 2822
1002 -538 2783
1018 -542 2800
1040 -549 2833
1037 -543 2799
1042 -541 2788
1053 -542 2791
1058 -541 2780
1069 -542 2784
1075 -540 2773
1084 -541 2771
1104 -547 2798
1089 -535 2736
1124 -548 2800
1120 -542 2765
1116 -536 2731
1144 -546 2776
1146 -542 2756
1155 -543 2755
1172 -547 2772
1169 -541 2741
1168 -537 2714
1183 -540 2727
1195 -542 2731
1207 -543 2738
1212 -542 2726
1219 -541 2718
1220 -538 2697
1234 -540 2707
1243 -541 2704
1246 -538 2690
1280 -549 2740
1264 -539 2685
1267 -537 2670
1286 -541 2688
1291 -540 2677
1302 -541 2679
1313 -542 2680
1329 -545 2692
1326 -540 2664
1344 -544 2680
1342 -540 2655
1359 -544 2668
1366 -543 2662
1382 -546 2670
1395 -548 2677
1393 -544 2652
1409 -547 2662
1407 -542 2637
1402 -538 2609
1428 -544 2637
1448 -549 2653
1452 -547 2641
1455 -545 2627
1448 -539 2594
1475 -546 2622
1479 -545 2611
-1546 -524 2642
-1552 -529 2672
-1553 -532 2693
-1540 -531 2691
-1522 -528 2679
-1494 -521 2649
-1499 -526 2678
-1493 -527 2688
-1492 -530 2706
-1489 -532 2720
-1485 -534 2734
-1473 -533 2732
-1462 -532 2732
-1448 -530 2726
-1450 -534 2751
-1444 -535 2761
-1409 -525 2713
-1409 -529 2734
-1408 -532 2754
-1386 -527 2733
-1381 -528 2744
-1375 -529 2753
-1376 -533 2777
-1361 -531 2768
-1360 -534 2787
-1350 -534 2789
-1347 -536 2804
-1339 -536 2811
-1322 -533 2797
-1312 -532 2796
-1309 -535 2814
-1301 -535 2818
-1287 -533 2811
-1274 -532 2806
-1278 -537 2838
-1264 -535 2829
-1255 -535 2832
-1242 -533 2826
-1229 -531 2819
-1238 -539 2865
-1216 -534 2837
-1215 -537 2858
-1208 -538 2866
-1192 -535 2853
-1181 -534 2850
-1181 -538 2875
-1174 -539 2883
-1159 -536 2870
-1155 -539 2887
-1138 -535 2869
-1135 -537 2886
-1117 -533 2867
-1117 -538 2892
-1107 -537 2892
-1096 -536 2888
-1093 -539 2907
-1079 -536 2895
-1073 -538 2906
-1068 -540 2919
-1054 -537 2907
-1040 -535 2896
-1033 -536 2903
-1027 -537 2914
-1019 -538 2921
-1012 -539 2928
-1008 -542 2944
-997 -541 2941
-965 -528 2876
-973 -537 2927
-967 -539 2938
-963 -542 2954
-954 -542 2956
-942 -540 2951
-929 -538 2939
-925 -541 2957
-912 -539 2947
-905 -539 2953
-901 -542 2972
-893 -543 2978
-881 -541 2968
-866 -538 2951
-861 -540 2967
-846 -536 2945
-839 -537 2955
-847 -548 3015
-829 -543 2987
-818 -541 2979
-808 -540 2977
-797 -539 2973
-795 -544 2999
-781 -540 2983
-779 -545 3011
-760 -538 2972
-758 -543 3002
-752 -545 3016
-739 -542 3000
-731 -543 3006
-725 -545 3018
-711 -542 3000
-703 -543 3007
-698 -546 3025
-686 -543 3013
-676 -542 3009
-670 -545 3025
-661 -545 3026
-650 -543 3017
-645 -547 3038
-632 -543 3018
-624 -544 3023
-614 -543 3019
-610 -548 3048
-596 -542 3020
-584 -540 3009
-580 -544 3033
-575 -548 3055
-564 -547 3048
-556 -547 3052
-547 -548 3054
-532 -542 3023
-529 -548 3057
-520 -548 3056
-509 -545 3044
-501 -547 3054
-492 -547 3054
-482 -545 3045
-474 -547 3055
-462 -543 3033
-459 -550 3072
-444 -543 3037
-434 -542 3029
-425 -542 3031
-421 -548 3063
-412 -548 3065
-402 -546 3054
-391 -544 3043
-385 -548 3065
-376 -548 3068
-366 -546 3058
-355 -543 3041
-348 -547 3061
-340 -547 3065
-333 -550 3082
-319 -542 3039
-310 -542 3039
-302 -544 3046
-294 -545 3055
-284 -543 3045
-274 -541 3035
-267 -546 3059
-259 -547 3066
-251 -550 3081
-241 -548 3070
-232 -546 3063
-224 -549 3080
-214 -548 3070
-206 -549 3079
-196 -547 3067
-187 -545 3058
-178 -545 3057
-163 -527 2957
-140 -479 2686
-122 -442 2481
-118 -454 2546
-109 -447 2504
-103 -455 2551
-93 -444 2490
-81 -419 2350
-75 -422 2368
-81 -497 2787
-79 -537 3010
-71 -546 3059
-63 -552 3091
-54 -553 3100
-45 -552 3093
-36 -555 3111
-27 -550 3081
-18 -551 3084
-9 -551 3088
0 -554 3104
8 -551 3083
17 -552 3091
26 -551 3081
35 -556 3109
44 -554 3099
53 -552 3089
62 -551 3079
70 -546 3054
79 -545 3050
88 -550 3075
98 -551 3082
106 -549 3070
116 -555 3102
125 -554 3093
134 -553 3090
143 -553 3085
151 -550 3068
159 -548 3056
169 -553 3084
178 -552 3079
187 -550 3069
195 -550 3065
204 -550 3065
215 -554 3088
221 -548 3051
232 -551 3071
239 -547 3046
248 -549 3053
256 -547 3044
267 -551 3067
275 -549 3056
283 -548 3048
293 -549 3054
303 -552 3067
307 -543 3018
320 -551 3057
328 -549 3049
335 -546 3032
342 -544 3015
352 -545 3024
362 -547 3029
373 -549 3043
378 -544 3013
386 -544 3010
399 -550 3042
405 -545 3017
418 -551 3049
427 -551 3046
431 -545 3010
444 -550 3036
450 -547 3018
459 -547 3018
467 -546 3013
478 -548 3020
487 -549 3025
493 -545 3004
503 -547 3011
510 -545 2996
522 -549 3018
531 -548 3014
532 -540 2969
549 -549 3013
556 -547 3001
559 -542 2971
575 -548 3005
583 -548 3002
591 -547 2995
596 -544 2976
603 -542 2964
618 -547 2993
625 -546 2981
632 -544 2972
645 -548 2990
652 -547 2983
659 -545 2972
669 -547 2978
679 -547 2979
689 -548 2983
696 -547 2975
708 -549 2984
714 -547 2970
714 -541 2934
729 -545 2956
734 -543 2940
746 -545 2950
753 -544 2941
761 -543 2936
766 -541 2920
763 -533 2876
765 -528 2849
764 -522 2812
760 -514 2766
764 -510 2747
757 -500 2690
762 -498 2678
764 -494 2654
757 -485 2602
760 -482 2583
757 -475 2545
759 -472 2526
759 -467 2498
769 -469 2505
772 -466 2488
771 -461 2456
771 -457 2434
780 -457 2435
775 -450 2396
791 -456 2421
821 -468 2487
850 -481 2549
897 -503 2666
940 -522 2765
967 -533 2818
982 -537 2835
996 -540 2847
1007 -541 2852
1017 -541 2851
1030 -544 2861
1032 -540 2840
1046 -543 2853
1066 -549 2880
1055 -539 2824
1077 -546 2856
1079 -542 2835
1072 -535 2793
1091 -540 2817
1106 -543 2830
1116 -544 2829
1127 -545 2832
1123 -539 2799
1132 -539 2796
1136 -537 2781
1156 -543 2807
1168 -544 2810
1170 -541 2792
1186 -544 2806
1188 -542 2788
1197 -542 2785
1189 -534 2743
1224 -546 2801
1218 -539 2762
1239 -545 2788
1234 -539 2753
1255 -545 2777
1261 -543 2768
1268 -543 2760
1269 -539 2739
1289 -544 2761
1290 -541 2742
1308 -545 2758
1299 -538 2717
1318 -542 2735
1309 -535 2694
1332 -541 2721
1329 -536 2692
1380 -553 2774
1362 -543 2718
1367 -542 2707
1383 -545 2717
1382 -541 2694
1411 -549 2729
1403 -542 2692
1413 -543 2692
1420 -542 2684
1422 -540 2668
1432 -540 2665
1446 -542 2672
1456 -543 2669
1469 -544 2673
1464 -540 2645
1472 -539 2638
1481 -540 2635
1492 -541 2635
-1593 -531 2724
-1579 -529 2720
-1590 -536 2759
-1557 -528 2723
-1546 -527 2723
-1530 -525 2715
-1506 -520 2693
-1516 -526 2730
-1500 -524 2722
-1514 -532 2767
-1494 -528 2751
-1504 -535 2791
-1473 -527 2754
-1476 -531 2782
-1472 -533 2794
-1471 -536 2814
-1447 -531 2790
-1437 -530 2792
-1409 -523 2759
-1428 -534 2817
-1424 -536 2830
-1405 -532 2814
-1384 -527 2794
-1373 -527 2793
-1377 -532 2824
-1364 -530 2819
-1364 -534 2842
-1356 -534 2847
-1335 -529 2826
-1329 -530 2834
-1327 -533 2853
-1315 -532 2852
-1300 -530 2842
-1287 -528 2835
-1295 -535 2877
-1280 -533 2868
-1275 -534 2878
-1271 -537 2894
-1257 -535 2885
-1250 -536 2895
-1244 -537 2904
-1232 -536 2901
-1224 -536 2907
-1222 -539 2925
-1205 -536 2910
-1199 -537 2920
-1181 -533 2902
-1177 -535 2916
-1172 -537 2929
-1164 -538 2936
-1155 -538 2939
-1139 -535 2923
-1136 -538 2942
-1121 -535 2930
-1118 -538 2949
-1110 -538 2953
-1096 -536 2944
-1092 -538 2958
-1081 -538 2957
-1068 -536 2949
-1071 -542 2983
-1051 -536 2955
-1050 -541 2982
-1038 -539 2975
-1028 -539 2977
-1026 -543 3000
-1010 -539 2981
-1004 -541 2993
-998 -542 3003
-1001 -549 3042
-976 -540 2995
-964 -539 2991
-954 -538 2989
-948 -540 3000
-950 -546 3040
-936 -544 3026
-923 -541 3016
-906 -536 2989
-905 -541 3020
-889 -537 2998
-887 -542 3025
-882 -544 3039
-872 -543 3038
-856 -539 3016
-849 -541 3026
-847 -545 3051
-830 -540 3025
-822 -541 3031
-813 -541 3033
-801 -539 3024
-796 -542 3040
-782 -538 3023
-779 -543 3049
-767 -540 3038
-757 -540 3038
-751 -542 3051
-747 -546 3072
-730 -540 3043
-726 -544 3067
-710 -539 3037
-712 -547 3085
-692 -539 3041
-681 -537 3032
-685 -547 3091
-674 -547 3088
-658 -541 3055
-658 -549 3101
-641 -541 3061
-639 -548 3099
-623 -542 3066
-621 -548 3100
-606 -543 3073
-590 -537 3040
-592 -547 3097
-582 -546 3094
-572 -546 3093
-567 -550 3116
-550 -541 3071
-539 -539 3060
-530 -540 3064
-524 -543 3081
-517 -545 3094
-510 -547 3106
-498 -544 3092
-492 -548 3113
-483 -548 3113
-470 -544 3090
-461 -544 3093
-455 -547 3109
-449 -551 3135
-436 -546 3106
-427 -546 3108
-414 -542 3082
-408 -545 3102
-400 -548 3118
-393 -550 3130
-378 -541 3082
-372 -546 3111
-366 -550 3133
-353 -544 3101
-346 -549 3126
-337 -549 3127
-325 -545 3102
-317 -546 3109
-308 -546 3111
-296 -541 3083
-290 -546 3110
-280 -544 3101
-269 -540 3076
-262 -545 3107
-256 -551 3139
-245 -546 3113
-237 -549 3131
-227 -547 3116
-218 -547 3117
-209 -547 3118
-197 -541 3083
-191 -549 3131
-181 -545 3108
-173 -550 3133
-154 -517 2950
-124 -441 2515
-119 -451 2575
-111 -447 2549
-104 -449 2562
-94 -438 2496
-83 -421 2402
-74 -411 2344
-80 -485 2767
-81 -542 3089
-73 -549 3128
-64 -550 3133
-54 -549 3126
-46 -551 3140
-37 -552 3146
-28 -557 3171
-18 -555 3159
-9 -554 3152
0 -545 3102
8 -549 3124
17 -553 3149
26 -549 3122
35 -547 3115
45 -551 3133
54 -550 3131
63 -549 3123
71 -547 3109
81 -549 3124
90 -550 3125
99 -549 3119
108 -551 3132
116 -547 3107
127 -555 3150
135 -549 3118
144 -550 3125
154 -553 3138
163 -554 3142
170 -544 3089
181 -552 3134
189 -549 3114
198 -549 3110
209 -554 3140
216 -549 3111
224 -546 3094
235 -550 3116
242 -546 3092
251 -546 3090
264 -553 3132
273 -554 3135
279 -548 3101
288 -548 3096
294 -543 3069
305 -547 3090
317 -551 3112
325 -550 3105
334 -549 3101
344 -552 3112
353 -551 3110
360 -549 3095
366 -544 3067
375 -545 3068
386 -546 3076
394 -546 3071
404 -548 3081
413 -547 3077
421 -546 3068
436 -554 3113
439 -546 3068
449 -547 3073
458 -548 3074
468 -548 3075
475 -546 3061
484 -547 3065
499 -553 3101
505 -549 3077
511 -547 3062
522 -549 3069
531 -548 3067
538 -547 3058
547 -547 3055
556 -547 3052
563 -545 3042
572 -545 3040
583 -547 3051
591 -547 3045
600 -546 3043
613 -550 3059
612 -541 3010
627 -546 3037
631 -543 3016
649 -550 3055
650 -544 3017
664 -548 3040
673 -548 3037
680 -546 3024
689 -547 3026
695 -544 3009
708 -547 3026
714 -545 3012
714 -539 2974
734 -547 3018
745 -548 3022
752 -547 3014
763 -548 3019
767 -545 2999
771 -542 2978
764 -531 2915
758 -520 2857
760 -516 2829
761 -511 2803
760 -505 2765
759 -499 2729
764 -497 2717
758 -487 2664
754 -480 2622
757 -477 2604
760 -474 2584
770 -475 2590
760 -465 2529
766 -464 2523
772 -463 2514
773 -459 2492
780 -459 2489
780 -454 2461
788 -455 2461
805 -460 2489
835 -473 2557
902 -507 2735
936 -521 2809
966 -533 2871
988 -540 2908
1009 -547 2942
1018 -547 2939
1015 -541 2902
1025 -542 2904
1035 -542 2904
1047 -544 2911
1058 -545 2912
1065 -544 2906
1075 -545 2905
1081 -544 2896
1085 -541 2879
1102 -545 2898
1106 -543 2884
1119 -545 2891
1123 -543 2875
1128 -541 2863
1148 -546 2887
1142 -539 2846
1153 -540 2850
1157 -538 2835
1169 -540 2840
1180 -541 2840
1194 -543 2851
1199 -541 2837
1210 -543 2841
1217 -542 2833
1227 -542 2831
1233 -541 2823
1239 -540 2811
1258 -545 2833
1260 -542 2814
1264 -540 2798
1280 -543 2810
1275 -537 2778
1290 -540 2788
1302 -541 2790
1330 -549 2827
1313 -539 2770
1335 -544 2793
1342 -543 2787
1334 -537 2748
1360 -544 2779
1373 -545 2784
1375 -543 2765
1387 -544 2768
1408 -549 2789
1407 -545 2765
1395 -537 2720
1419 -543 2745
1430 -544 2745
1436 -543 2736
1448 -544 2738
1448 -541 2718
1456 -541 2712
1468 -542 2714
1476 -542 2708
1474 -538 2685
1499 -544 2708
1496 -539 2684
1522 -546 2710
1524 -543 2694
-1627 -533 2785
-1633 -538 2815
-1589 -526 2759
-1579 -526 2761
-1598 -536 2817
-1586 -535 2815
-1571 -533 2810
-1557 -531 2805
-1576 -541 2861
-1548 -534 2831
-1510 -525 2784
-1514 -529 2811
-1511 -531 2827
-1495 -529 2819
-1486 -529 2822
-1479 -530 2832
-1492 -538 2878
-1463 -531 2843
-1462 -534 2863
-1458 -536 2878
-1446 -535 2876
-1429 -532 2864
-1423 -533 2874
-1417 -534 2885
-1415 -537 2904
-1398 -534 2890
-1389 -534 2894
-1358 -526 2853
-1375 -536 2912
-1359 -534 2902
-1363 -539 2932
-1347 -536 2922
-1336 -535 2921
-1331 -537 2934
-1318 -536 2930
-1303 -533 2920
-1304 -537 2945
-1287 -535 2933
-1288 -539 2959
-1293 -545 2994
-1265 -537 2954
-1265 -541 2980
-1259 -542 2990
-1246 -541 2985
-1227 -536 2964
-1208 -532 2944
-1205 -535 2963
-1208 -541 2996
-1196 -539 2991
-1192 -542 3007
-1178 -540 2998
-1173 -542 3013
-1164 -542 3015
-1153 -541 3015
-1136 -537 2996
-1128 -538 3002
-1115 -536 2995
-1113 -540 3018
-1101 -538 3012
-1091 -538 3012
-1093 -544 3047
-1075 -540 3027
-1077 -545 3059
-1054 -538 3023
-1051 -541 3044
-1050 -546 3070
-1034 -542 3052
-1010 -534 3011
-1020 -545 3071
-1008 -543 3066
-993 -540 3050
-978 -537 3034
-975 -540 3056
-967 -541 3062
-962 -544 3077
-955 -545 3087
-937 -540 3063
-932 -542 3076
-923 -543 3080
-905 -538 3053
-903 -542 3080
-890 -540 3069
-883 -541 3080
-874 -542 3083
-854 -535 3046
-858 -543 3093
-841 -538 3067
-837 -541 3088
-825 -539 3079
-819 -542 3094
-815 -546 3116
-801 -542 3100
-796 -545 3117
-786 -545 3116
-779 -546 3125
-765 -543 3111
-756 -543 3111
-749 -545 3125
-737 -543 3113
-727 -543 3112
-725 -548 3145
-710 -544 3122
-704 -546 3135
-693 -545 3130
-685 -546 3140
-673 -544 3128
-663 -543 3122
-652 -542 3118
-645 -544 3128
-637 -544 3134
-628 -545 3139
-617 -544 3134
-612 -548 3155
-601 -546 3147
-590 -544 3136
-584 -548 3158
-570 -543 3130
-562 -544 3139
-551 -543 3133
-545 -546 3150
-537 -547 3157
-523 -542 3130
-520 -549 3170
-511 -549 3174
-499 -546 3158
-490 -546 3159
-479 -544 3146
-473 -548 3170
-458 -542 3137
-453 -547 3164
-445 -548 3173
-435 -547 3168
-426 -549 3175
-417 -549 3177
-409 -550 3185
-398 -547 3170
-389 -548 3173
-379 -547 3170
-370 -548 3172
-357 -543 3144
-349 -544 3154
-342 -548 3176
-332 -546 3162
-323 -547 3169
-316 -551 3194
-301 -540 3131
-295 -546 3165
-287 -549 3182
-277 -548 3177
-268 -547 3172
-259 -549 3181
-252 -554 3213
-239 -544 3158
-231 -548 3176
-223 -550 3191
-213 -548 3181
-201 -542 3145
-193 -546 3169
-184 -547 3173
-173 -541 3137
-156 -514 2981
-130 -454 2636
-121 -450 2613
-112 -447 2592
-107 -455 2639
-97 -444 2578
-83 -413 2395
-73 -401 2325
-80 -476 2761
-82 -540 3132
-74 -549 3179
-65 -549 3183
-56 -553 3202
-46 -547 3171
-37 -556 3221
-28 -555 3218
-18 -549 3181
-9 -556 3219
0 -549 3178
8 -550 3183
18 -551 3190
27 -551 3188
36 -550 3185
46 -554 3206
54 -549 3176
64 -549 3177
72 -547 3162
83 -553 3199
92 -555 3210
100 -549 3175
110 -552 3192
119 -549 3176
129 -552 3187
138 -551 3185
147 -551 3180
157 -552 3189
166 -552 3187
175 -551 3181
184 -550 3176
192 -549 3166
201 -549 3164
212 -551 3178
219 -546 3149
231 -554 3191
238 -548 3155
248 -549 3162
258 -552 3179
266 -548 3156
277 -553 3182
286 -552 3177
293 -548 3151
305 -554 3184
310 -546 3137
323 -552 3171
332 -553 3173
342 -553 3174
352 -555 3186
356 -547 3140
362 -543 3112
377 -551 3161
382 -545 3124
396 -552 3164
404 -550 3149
412 -549 3143
421 -549 3140
431 -549 3141
446 -557 3181
448 -548 3131
456 -546 3119
465 -546 3117
477 -550 3141
482 -546 3112
494 -548 3127
503 -548 3123
516 -552 3147
521 -548 3120
531 -549 3123
535 -543 3091
551 -551 3131
559 -549 3122
565 -547 3105
576 -548 3113
585 -548 3110
599 -553 3136
602 -548 3104
607 -544 3080
618 -546 3090
630 -548 3099
639 -548 3098
645 -545 3082
652 -544 3071
665 -547 3085
670 -544 3067
681 -546 3075
701 -554 3119
699 -545 3069
713 -549 3090
722 -549 3085
727 -546 3068
736 -546 3064
743 -545 3057
754 -546 3063
762 -545 3054
765 -541 3029
770 -538 3011
764 -528 2950
771 -526 2941
759 -513 2863
762 -509 2839
760 -502 2798
756 -494 2751
748 -483 2691
752 -481 2676
758 -479 2665
756 -474 2630
761 -472 2619
766 -470 2607
768 -466 2584
768 -462 2558
770 -459 2537
775 -457 2524
782 -457 2522
786 -454 2507
811 -465 2562
846 -480 2645
892 -502 2760
952 -531 2919
974 -539 2957
981 -537 2947
1003 -545 2985
1006 -542 2964
1028 -548 2999
1028 -544 2971
1035 -543 2963
1046 -544 2964
1055 -544 2961
1058 -541 2943
1073 -544 2957
1080 -543 2948
1079 -538 2918
1098 -543 2941
1104 -542 2931
1112 -541 2925
1128 -545 2941
1134 -543 2931
1140 -542 2919
1147 -541 2911
1174 -550 2954
1172 -545 2924
1173 -541 2901
1181 -541 2895
1206 -548 2930
1203 -542 2899
1217 -545 2908
1218 -541 2886
1237 -546 2904
1245 -545 2900
1257 -547 2903
1261 -545 2888
1274 -546 2893
1271 -541 2862
1291 -546 2883
1297 -545 2874
1293 -539 2841
1313 -544 2863
1320 -543 2853
1326 -542 2843
1346 -547 2863
1351 -545 2850
1376 -552 2881
1375 -548 2857
1374 -544 2831
1389 -546 2839
1387 -542 2814
1390 -539 2797
1411 -545 2819
1420 -545 2815
1422 -542 2796
1439 -545 2808
1446 -544 2799
1460 -546 2806
1469 -546 2801
1481 -547 2802
1499 -551 2814
1488 -543 2773
1480 -537 2737
1494 -539 2743
1520 -545 2769
1527 -545 2762
1524 -541 2735
1545 -545 2752
1562 -548 2761
-1647 -530 2819
-1648 -534 2843
-1634 -532 2839
-1637 -536 2866
-1603 -528 2827
-1606 -532 2853
-1577 -526 2822
-1589 -533 2866
-1584 -534 2877
-1567 -532 2867
-1544 -527 2848
-1544 -530 2868
-1535 -531 2874
-1540 -536 2905
-1514 -530 2877
-1512 -532 2895
-1509 -535 2912
-1507 -537 2931
-1499 -538 2937
-1484 -536 2930
-1472 -535 2929
-1452 -531 2911
-1451 -534 2933
-1443 -535 2940
-1432 -534 2940
-1436 -539 2971
-1405 -531 2929
-1395 -531 2933
-1402 -537 2970
-1388 -535 2964
-1372 -533 2954
-1367 -535 2968
-1372 -540 3002
-1350 -536 2979
-1344 -537 2989
-1351 -543 3028
-1330 -539 3008
-1326 -541 3023
-1310 -538 3011
-1299 -538 3009
-1292 -539 3020
-1281 -538 3018
-1285 -544 3054
-1266 -540 3035
-1260 -541 3046
-1250 -541 3048
-1233 -538 3033
-1231 -541 3054
-1221 -541 3056
-1197 -535 3021
-1185 -533 3017
-1191 -540 3059
-1192 -545 3089
-1174 -541 3071
-1163 -541 3070
-1154 -541 3073
-1144 -541 3075
-1134 -541 3076
-1121 -539 3069
-1100 -533 3039
-1109 -542 3095
-1091 -538 3071
-1083 -539 3078
-1072 -538 3076
-1069 -541 3096
-1063 -543 3110
-1042 -537 3077
-1039 -540 3099
-1017 -534 3064
-1020 -541 3104
-1007 -539 3096
-997 -538 3096
-997 -544 3128
-985 -542 3120
-986 -548 3158
-974 -546 3150
-964 -546 3151
-947 -542 3130
-933 -539 3116
-932 -544 3144
-925 -546 3158
-906 -540 3126
-898 -541 3132
-891 -543 3143
-887 -546 3165
-871 -542 3143
-872 -548 3181
-855 -544 3157
-846 -544 3161
-836 -543 3158
-839 -552 3209
-818 -544 3166
-802 -540 3141
-797 -543 3163
-787 -543 3160
-783 -546 3184
-775 -548 3192
-760 -544 3171
-756 -547 3193
-741 -544 3172
-734 -545 3184
-728 -548 3203
-718 -548 3201
-705 -545 3188
-698 -547 3199
-692 -549 3214
-679 -547 3199
-666 -544 3186
-662 -549 3213
-647 -544 3186
-640 -546 3198
-627 -543 3184
-626 -550 3225
-616 -550 3228
-605 -548 3218
-591 -545 3196
-588 -551 3232
-573 -545 3203
-563 -545 3199
-555 -546 3207
-543 -544 3196
-534 -545 3202
-524 -544 3199
-516 -545 3207
-509 -548 3222
-498 -546 3212
-487 -545 3206
-483 -551 3240
-472 -549 3234
-464 -550 3241
-452 -548 3225
-442 -546 3218
-431 -545 3211
-420 -543 3198
-413 -546 3215
-406 -550 3238
-394 -546 3218
-383 -544 3208
-373 -543 3203
-367 -548 3232
-357 -547 3223
-346 -544 3208
-341 -551 3251
-327 -544 3208
-319 -546 3219
-310 -547 3224
-302 -550 3245
-291 -546 3222
-281 -546 3219
-274 -551 3252
-264 -549 3242
-254 -548 3234
-244 -546 3223
-233 -544 3208
-225 -547 3227
-217 -550 3247
-208 -552 3256
-198 -551 3250
-188 -548 3236
-178 -545 3219
-162 -526 3102
-141 -484 2858
-121 -442 2611
-114 -444 2624
-105 -442 2611
-96 -435 2569
-84 -414 2442
-70 -378 2231
-75 -443 2617
-81 -524 3093
-75 -548 3234
-66 -548 3229
-56 -549 3237
-47 -553 3258
-38 -553 3262
-28 -552 3254
-19 -552 3256
-9 -554 3268
0 -551 3247
8 -546 3216
18 -553 3259
27 -549 3236
37 -551 3245
46 -555 3269
56 -554 3260
65 -552 3248
75 -555 3268
83 -547 3222
93 -549 3229
103 -552 3246
113 -555 3267
122 -552 3248
131 -554 3255
140 -549 3227
149 -548 3221
159 -551 3236
168 -549 3224
180 -557 3271
187 -552 3239
197 -552 3241
207 -555 3254
216 -553 3246
227 -558 3273
237 -557 3267
243 -551 3227
256 -558 3268
262 -551 3231
272 -551 3229
279 -548 3211
290 -551 3225
302 -556 3256
309 -551 3224
319 -553 3233
329 -554 3236
336 -550 3216
344 -548 3199
353 -548 3198
364 -550 3208
375 -552 3219
383 -550 3209
389 -545 3178
402 -550 3208
407 -545 3175
420 -550 3204
432 -554 3222
438 -549 3197
445 -546 3175
453 -545 3169
465 -548 3187
474 -548 3181
481 -545 3165
490 -545 3164
503 -549 3183
513 -550 3191
523 -550 3190
528 -547 3166
538 -546 3164
552 -552 3193
556 -546 3158
568 -549 3174
575 -547 3163
584 -547 3159
588 -542 3127
601 -546 3147
618 -552 3183
621 -547 3151
631 -548 3156
640 -547 3151
647 -546 3139
660 -548 3153
669 -548 3150
673 -544 3124
684 -546 3132
699 -550 3156
702 -546 3126
714 -548 3137
722 -547 3130
727 -544 3112
745 -550 3144
745 -544 3105
759 -547 3122
760 -541 3085
