VERSION 0.7
FIELDS x y z
SIZE 4 4 4
TYPE I I I
COUNT 1 1 1
WIDTH 4632
HEIGHT 1
VIEWPOINT 0.0 0.0 0.0 1.0 0.0 0.0 0.0
POINTS 4632
DATA ascii
65518 50 342
65518 51 351
65519 52 357
65521 51 346
65522 51 346
65523 50 339
65524 49 335
65524 52 354
65526 50 339
65526 52 358
65527 54 368
65529 51 349
65530 49 338
65530 53 365
65531 52 357
65533 50 343
65534 49 336
65535 53 361
0 52 358
0 50 342
1 51 346
2 50 340
3 51 352
4 50 346
5 51 350
6 52 358
7 49 338
8 52 360
9 54 368
10 49 339
11 51 349
12 52 357
13 53 363
14 52 354
16 54 370
17 54 368
18 52 360
18 50 345
20 54 373
21 53 365
21 51 353
22 50 342
24 54 369
25 52 355
26 53 364
28 53 365
29 54 374
29 52 357
31 54 374
32 53 366
34 56 384
35 55 379
36 54 372
38 56 388
38 54 372
39 54 371
39 52 359
42 56 383
46 60 411
45 56 384
42 52 354
46 55 377
51 60 411
51 58 400
50 56 383
49 53 364
49 52 358
51 53 364
55 56 386
59 58 402
55 53 365
57 54 373
60 56 388
60 55 379
69 62 428
59 52 358
62 54 368
67 57 391
73 62 426
78 64 444
70 57 392
75 60 412
78 61 422
75 58 401
83 63 434
92 69 475
79 59 403
102 74 515
96 69 474
100 71 489
102 71 490
112 77 532
114 77 533
105 70 484
128 85 587
109 71 491
125 81 556
117 74 510
125 78 540
120 74 511
127 77 533
122 74 507
125 75 513
135 79 546
132 77 529
135 78 533
131 74 509
124 69 475
127 70 482
134 74 503
142 77 527
130 70 475
114 60 409
118 62 420
127 66 447
134 68 467
123 63 425
133 67 456
126 63 425
140 69 468
133 65 439
127 61 414
139 66 449
153 72 492
156 73 495
149 69 468
155 71 482
145 66 445
138 62 418
151 67 456
162 72 484
150 66 443
156 68 457
151 65 438
156 66 447
147 62 418
177 74 501
153 63 425
173 71 479
154 63 422
144 58 388
169 68 453
157 63 418
173 68 457
194 76 509
196 76 510
162 62 415
171 65 434
177 67 448
197 74 494
188 70 467
171 63 420
181 67 441
177 64 427
191 69 459
181 65 430
196 70 463
195 69 455
190 67 440
190 66 435
214 74 489
173 60 390
151 52 336
141 48 310
99 33 213
76 26 160
92 31 193
91 30 190
76 25 155
78 25 158
73 24 147
76 25 152
94 30 188
38 12 70
75 24 145
54 17 101
0 0 0
0 0 0
0 0 0
0 0 0
89 27 166
0 0 0
110 33 206
60 18 107
48 14 82
53 16 91
76 22 135
73 21 127
38 11 62
98 28 172
64 19 109
99 28 171
92 26 158
25 7 35
115 32 195
98 27 164
0 0 0
0 0 0
0 0 0
0 0 0
0 0 0
0 0 0
0 0 0
0 0 0
0 0 0
0 0 0
0 0 0
0 0 0
0 0 0
0 0 0
0 0 0
0 0 0
0 0 0
0 0 0
0 0 0
0 0 0
0 0 0
0 0 0
0 0 0
0 0 0
0 0 0
0 0 0
0 0 0
0 0 0
0 0 0
0 0 0
0 0 0
0 0 0
0 0 0
0 0 0
0 0 0
0 0 0
0 0 0
0 0 0
0 0 0
0 0 0
0 0 0
0 0 0
0 0 0
0 0 0
0 0 0
0 0 0
0 0 0
0 0 0
0 0 0
0 0 0
0 0 0
0 0 0
0 0 0
0 0 0
0 0 0
0 0 0
0 0 0
0 0 0
0 0 0
0 0 0
0 0 0
0 0 0
0 0 0
0 0 0
0 0 0
0 0 0
0 0 0
65310 106 684
65378 76 486
65367 81 525
65373 79 510
65380 76 493
65368 83 537
65371 83 535
65381 78 506
65368 85 554
65371 85 550
65378 82 531
65383 80 523
65393 76 494
65373 87 567
65401 73 477
65396 77 499
65386 83 540
65394 79 517
65401 76 497
65401 77 505
65404 76 499
65410 74 483
65394 84 551
65405 78 513
65419 71 466
65411 76 501
65409 79 517
65415 76 500
65416 76 500
65414 78 515
65421 75 494
65407 85 560
65427 73 481
65417 80 530
65409 86 572
65429 74 492
65428 76 505
65426 78 519
65422 82 544
65426 81 536
65435 75 499
65430 80 531
65431 80 534
65430 82 549
65445 72 479
65435 81 537
65435 82 546
65434 84 559
65435 85 564
65449 75 499
65448 77 513
65470 59 393
65442 85 566
65460 70 469
65470 63 416
65473 61 405
65484 52 346
65480 57 376
65481 57 376
65485 54 360
65484 56 369
65489 52 343
65488 54 360
65491 52 347
65490 54 360
65492 53 349
65492 55 364
65491 57 377
65495 53 355
65495 55 364
65493 58 386
65498 53 355
65499 54 357
65501 52 347
65500 55 365
65501 55 364
65503 53 356
65503 55 367
65506 53 353
65505 56 375
65508 52 347
65508 53 355
65509 53 356
65511 52 349
65511 53 358
65514 51 337
65513 54 360
65515 52 350
65515 55 367
65517 53 355
65519 51 342
65519 54 359
65519 55 368
65521 52 349
65522 52 348
65523 54 366
65525 51 343
65526 52 347
65526 54 364
65527 53 354
65529 52 348
65530 52 349
65530 54 361
65532 53 354
65532 53 357
65534 52 351
65535 53 357
0 49 330
0 52 348
1 52 352
2 53 353
3 54 365
4 53 356
5 54 367
6 52 350
7 54 362
8 51 346
9 53 360
10 53 356
11 55 368
12 52 352
14 55 372
15 54 362
15 53 358
16 53 358
18 53 360
18 52 352
20 54 365
21 54 367
22 54 363
23 53 358
24 55 368
25 54 360
27 56 379
27 53 359
29 55 368
30 55 372
31 55 371
33 57 382
34 57 382
34 54 364
37 57 384
38 57 386
38 56 378
39 55 370
43 59 399
42 56 379
43 56 380
43 55 370
47 59 395
47 57 387
49 59 395
49 57 382
51 57 385
53 58 394
49 53 356
56 59 399
56 58 392
57 58 393
59 58 394
57 56 376
68 65 441
64 60 405
55 51 341
60 55 367
60 53 355
72 63 428
67 57 386
59 50 333
76 63 423
72 58 393
75 60 405
72 57 383
89 69 467
88 68 458
98 74 503
87 64 434
95 70 472
91 65 440
116 83 561
102 71 482
100 69 468
113 77 521
107 72 486
122 81 548
113 74 501
112 73 489
117 75 502
113 71 481
108 67 451
127 78 526
121 74 495
120 72 483
119 71 475
114 67 446
110 64 426
125 72 481
123 70 466
120 67 447
119 66 439
125 68 458
121 65 435
106 56 375
136 72 482
135 71 471
115 60 395
129 66 441
124 63 419
128 64 428
139 69 460
132 65 431
137 67 443
141 68 453
137 65 433
149 70 468
139 65 430
149 69 460
157 72 479
168 76 507
157 71 469
147 66 435
152 67 444
158 69 458
163 71 467
157 68 447
168 72 472
170 72 474
154 65 426
179 75 492
160 66 433
157 64 421
158 64 420
189 76 501
166 66 434
185 73 480
179 70 460
191 74 486
173 67 436
161 62 402
169 64 418
174 66 427
204 76 498
175 65 423
188 69 451
201 74 478
190 69 447
203 73 475
195 70 451
214 76 492
203 72 463
167 59 376
154 54 342
126 44 276
126 43 274
93 32 197
72 24 148
87 29 181
71 24 145
82 27 168
80 26 160
74 24 147
72 24 142
79 26 155
78 25 152
36 12 63
0 0 0
84 26 160
0 0 0
50 16 89
0 0 0
115 35 217
31 10 50
0 0 0
90 27 163
77 23 137
37 11 61
56 17 96
51 15 85
136 40 242
117 34 206
108 31 188
14 4 15
25 7 35
122 35 208
116 33 195
0 0 0
0 0 0
0 0 0
0 0 0
0 0 0
0 0 0
0 0 0
0 0 0
0 0 0
0 0 0
0 0 0
0 0 0
0 0 0
0 0 0
0 0 0
0 0 0
0 0 0
0 0 0
0 0 0
0 0 0
0 0 0
0 0 0
0 0 0
0 0 0
0 0 0
0 0 0
0 0 0
0 0 0
0 0 0
0 0 0
0 0 0
0 0 0
0 0 0
0 0 0
0 0 0
0 0 0
0 0 0
0 0 0
0 0 0
0 0 0
0 0 0
0 0 0
0 0 0
0 0 0
0 0 0
0 0 0
0 0 0
0 0 0
0 0 0
0 0 0
0 0 0
0 0 0
0 0 0
0 0 0
0 0 0
0 0 0
0 0 0
0 0 0
0 0 0
0 0 0
0 0 0
0 0 0
0 0 0
0 0 0
0 0 0
0 0 0
0 0 0
65366 82 518
65371 80 506
65395 70 438
65366 84 532
65378 79 498
65369 84 533
65367 86 545
65382 79 502
65389 76 485
65370 87 553
65381 82 522
65382 82 523
65367 91 583
65390 80 510
65397 77 489
65392 80 512
65387 84 536
65395 80 515
65384 87 559
65389 85 547
65402 79 505
65400 81 520
65386 90 580
65407 79 506
65416 74 478
65406 81 521
65408 81 520
65406 83 537
65406 84 544
65402 87 565
65421 77 494
65418 79 512
65412 84 545
65425 77 496
65418 82 532
65424 79 513
65423 81 525
65420 84 547
65429 79 514
65429 80 518
65439 74 479
65423 87 567
65435 79 514
65434 81 526
65434 82 535
65429 87 568
65435 84 548
65445 77 504
65444 79 514
65441 83 542
65451 75 493
65441 86 562
65448 81 529
65472 61 395
65469 64 418
65469 66 430
65478 58 380
65478 59 385
65485 54 349
65479 61 395
65487 54 353
65484 58 379
65489 54 352
65486 59 384
65493 52 338
65489 57 373
65490 58 379
65491 58 377
65493 56 368
65493 58 377
65500 51 331
65496 58 376
65498 56 366
65501 53 346
65501 54 353
65504 52 342
65503 55 357
65504 55 361
65502 60 391
65506 55 362
65507 55 359
65508 55 357
65508 57 375
65511 54 353
65511 55 362
65512 55 360
65513 55 360
65514 55 361
65515 57 373
65516 56 371
65518 54 351
65519 54 356
65519 57 373
65521 54 352
65521 57 375
65522 57 375
65524 55 360
65525 53 350
65527 53 347
65527 55 365
65529 53 351
65529 54 356
65530 56 368
65532 51 338
65532 56 367
65533 56 372
65535 54 356
65535 56 372
0 56 371
1 54 357
2 54 357
3 54 358
4 53 349
5 56 367
6 56 368
7 54 354
8 52 342
9 54 355
10 55 364
11 55 363
13 57 375
14 56 373
15 58 381
15 54 354
17 58 380
18 55 364
19 55 360
20 56 372
22 58 383
23 57 377
24 56 373
24 54 356
26 57 376
27 56 373
28 57 378
29 56 368
30 57 375
32 58 385
34 59 392
33 55 365
37 60 395
36 56 371
38 57 380
39 58 382
41 59 388
40 57 376
43 58 386
45 61 402
44 57 374
41 51 339
47 58 380
48 58 385
48 56 371
51 59 391
50 56 370
54 60 397
52 56 369
56 59 391
59 61 406
59 60 393
58 57 378
58 56 372
68 65 431
70 66 434
67 62 409
62 56 370
71 64 421
70 62 406
69 59 392
72 61 404
70 59 386
71 58 381
81 66 434
79 63 415
83 65 428
76 58 383
76 58 379
91 68 447
85 63 413
90 66 433
89 64 418
101 72 474
113 79 522
116 79 526
112 76 502
100 67 442
121 80 530
109 71 468
115 74 489
113 72 475
128 80 530
113 70 459
117 72 470
112 67 443
112 67 438
105 62 403
115 67 438
122 70 461
120 68 448
118 66 435
107 60 389
108 59 387
107 59 381
109 59 383
129 69 451
113 60 389
132 69 452
133 69 450
116 59 386
136 69 449
129 65 420
135 67 438
139 68 444
145 71 459
156 75 491
139 66 431
143 68 439
145 68 440
144 67 432
157 72 470
161 74 478
147 67 430
172 77 498
161 72 463
151 66 427
141 61 394
156 67 435
147 63 405
154 65 420
155 65 419
161 67 431
160 66 425
154 63 406
154 63 400
159 64 410
178 71 457
174 69 443
162 64 407
182 71 455
170 66 421
179 69 441
192 73 468
170 65 410
194 73 465
177 66 420
202 75 476
208 77 487
200 73 463
192 70 442
187 67 426
198 71 447
173 61 386
130 46 286
147 52 321
99 34 211
87 30 181
89 31 185
68 23 139
89 30 182
65 22 129
80 27 160
64 21 125
76 25 150
85 28 167
78 26 152
0 0 0
60 19 111
0 0 0
117 37 224
85 27 158
0 0 0
35 11 59
99 31 182
0 0 0
81 25 145
69 21 121
89 27 158
84 25 146
88 26 153
72 21 122
80 24 136
37 11 58
60 18 97
54 16 86
82 24 135
0 0 0
0 0 0
0 0 0
0 0 0
0 0 0
0 0 0
0 0 0
0 0 0
0 0 0
0 0 0
0 0 0
0 0 0
0 0 0
0 0 0
0 0 0
0 0 0
0 0 0
0 0 0
0 0 0
0 0 0
0 0 0
0 0 0
0 0 0
0 0 0
0 0 0
0 0 0
0 0 0
0 0 0
0 0 0
0 0 0
0 0 0
0 0 0
0 0 0
0 0 0
0 0 0
0 0 0
0 0 0
0 0 0
0 0 0
0 0 0
0 0 0
0 0 0
0 0 0
0 0 0
0 0 0
0 0 0
0 0 0
0 0 0
0 0 0
0 0 0
0 0 0
0 0 0
0 0 0
0 0 0
0 0 0
0 0 0
0 0 0
0 0 0
0 0 0
0 0 0
0 0 0
0 0 0
0 0 0
0 0 0
0 0 0
0 0 0
0 0 0
65368 83 511
65362 86 533
65380 78 484
65366 86 531
65363 88 548
65373 84 519
65373 85 527
65370 87 541
65379 83 518
65378 84 526
65385 81 508
65372 89 557
65370 91 573
65386 84 524
65389 83 517
65378 90 564
65384 87 546
65385 88 551
65411 74 462
65381 92 579
65388 89 560
65416 73 461
65421 71 447
65409 79 499
65406 82 517
65409 81 510
65398 89 561
65418 77 486
65403 87 554
65399 91 579
65414 82 521
65410 86 547
65422 79 503
65418 83 527
65426 78 496
65421 83 526
65415 88 562
65423 84 534
65429 81 515
65425 85 541
65425 86 548
65424 88 561
65435 81 516
65434 82 526
65440 79 506
65414 101 647
65422 96 616
65456 69 443
65444 81 518
65431 93 599
65435 91 587
65456 74 475
65444 86 554
65456 76 489
65464 70 450
65466 70 449
65479 59 375
65475 64 408
65480 60 382
65485 56 357
65484 58 368
65487 56 358
65487 57 366
65492 53 337
65487 60 385
65487 61 388
65491 57 364
65493 57 361
65490 61 394
65494 58 374
65492 61 394
65495 60 385
65497 59 377
65500 56 358
65500 57 366
65502 56 359
65502 57 369
65501 60 386
65504 57 369
65506 56 361
65508 55 351
65507 58 376
65509 57 365
65510 57 367
65512 54 347
65512 56 361
65513 56 361
65516 53 343
65515 57 365
65516 58 374
65517 56 363
65518 58 371
65520 54 350
65520 57 366
65521 58 373
65523 57 367
65524 55 352
65525 58 374
65526 55 354
65527 57 371
65528 59 379
65530 54 349
65530 56 360
65531 56 358
65532 61 398
65533 57 367
65534 59 382
0 55 357
0 57 369
1 57 368
2 58 375
3 57 372
4 58 373
5 58 377
6 59 380
7 57 369
8 53 342
10 61 398
11 58 375
11 54 348
13 57 369
14 60 388
15 59 381
16 58 375
17 57 368
19 61 399
20 60 386
21 60 388
22 59 386
23 58 375
22 54 352
25 58 379
25 57 366
28 59 384
29 60 391
29 57 368
32 61 396
30 56 360
34 60 388
33 57 370
36 60 390
36 58 374
37 58 377
40 61 396
41 60 390
40 58 374
46 65 420
44 60 391
45 60 387
43 55 354
48 60 391
47 58 376
47 57 368
52 62 401
53 61 397
50 56 360
53 59 380
59 63 412
57 60 389
57 58 378
61 62 400
58 58 375
56 54 351
61 59 381
67 63 406
67 62 398
70 64 415
73 65 422
71 63 405
64 55 355
71 60 389
76 64 411
69 56 363
64 52 333
87 70 451
74 58 376
77 60 386
95 72 469
98 74 477
91 68 438
95 69 446
88 63 407
97 69 443
102 72 464
100 69 444
97 66 425
108 73 470
87 58 372
105 69 443
101 65 422
104 67 428
98 62 398
100 62 399
99 61 393
102 62 397
96 58 369
107 64 408
111 65 418
113 65 420
112 65 413
108 62 394
98 55 349
109 60 386
104 57 365
112 61 388
114 61 391
137 73 469
132 70 444
134 70 448
123 63 404
124 64 405
131 66 424
125 63 399
142 71 450
137 67 427
145 70 449
147 71 451
157 75 479
149 71 449
162 76 482
143 66 421
153 70 446
161 73 465
150 68 429
149 67 423
160 71 450
156 69 433
148 65 408
155 67 422
164 70 444
151 64 405
156 66 414
166 69 436
170 70 443
176 73 456
170 69 435
171 69 435
193 78 488
191 76 477
180 71 447
177 69 433
185 72 449
173 67 417
195 75 466
187 71 444
178 67 418
202 76 471
187 70 433
196 73 450
220 81 502
200 73 452
187 68 418
153 55 337
127 45 275
109 39 233
81 29 170
95 33 199
87 30 179
77 27 156
72 25 144
81 28 163
78 26 154
84 28 167
35 12 63
116 39 229
56 18 103
69 23 129
87 28 165
44 14 78
51 17 91
71 23 130
68 22 122
114 36 211
0 0 0
63 20 109
78 24 138
81 25 143
53 17 90
103 31 180
65 20 109
0 0 0
45 14 71
63 19 104
123 36 211
38 11 58
0 0 0
0 0 0
0 0 0
0 0 0
0 0 0
0 0 0
0 0 0
0 0 0
0 0 0
0 0 0
0 0 0
0 0 0
0 0 0
0 0 0
0 0 0
0 0 0
0 0 0
0 0 0
0 0 0
0 0 0
0 0 0
0 0 0
0 0 0
0 0 0
0 0 0
0 0 0
0 0 0
0 0 0
0 0 0
0 0 0
0 0 0
0 0 0
0 0 0
0 0 0
0 0 0
0 0 0
0 0 0
0 0 0
0 0 0
0 0 0
0 0 0
0 0 0
0 0 0
0 0 0
0 0 0
0 0 0
0 0 0
0 0 0
0 0 0
0 0 0
0 0 0
0 0 0
0 0 0
0 0 0
0 0 0
0 0 0
0 0 0
0 0 0
0 0 0
0 0 0
0 0 0
0 0 0
0 0 0
0 0 0
0 0 0
0 0 0
0 0 0
65359 88 537
65389 75 452
65370 85 514
65352 94 575
65359 92 561
65381 81 496
65375 85 518
65371 88 537
65372 88 540
65370 90 552
65375 88 542
65369 93 569
65396 79 482
65388 84 517
65387 86 526
65393 83 510
65398 81 499
65382 91 560
65404 79 486
65394 86 529
65400 83 514
65403 82 507
65379 98 608
65403 84 522
65405 84 518
65401 87 540
65402 87 543
65402 89 552
65405 88 548
65406 88 548
65412 85 529
65407 89 557
65411 88 548
65408 91 571
65418 85 533
65412 91 569
65415 90 563
65420 87 546
65420 89 557
65424 87 545
65440 76 475
65439 78 487
65421 93 585
65421 94 591
65417 99 624
65434 86 541
65432 89 562
65432 91 572
65439 87 545
65442 85 535
65420 106 669
65454 77 486
65444 88 553
65459 75 472
65470 66 412
65475 63 392
65473 66 414
65478 61 385
65481 60 377
65477 65 409
65486 57 358
65487 57 357
65487 59 367
65483 64 404
65486 61 385
65486 64 401
65489 61 382
65491 59 373
65492 60 380
65495 58 363
65495 59 368
65495 61 383
65499 57 359
65497 61 384
65499 59 371
65499 61 384
65500 61 384
65500 63 400
65504 58 367
65505 59 373
65506 59 369
65508 56 356
65508 60 378
65510 58 366
65510 59 371
65511 60 376
65513 59 372
65514 58 369
65515 58 365
65516 58 363
65517 58 369
65517 60 383
65519 60 377
65520 59 374
65521 58 369
65522 60 381
65524 58 367
65524 61 390
65525 60 383
65527 60 377
65527 62 392
65528 62 391
65530 58 368
65531 58 369
65532 61 390
65533 61 389
65534 59 377
65535 59 376
0 56 358
1 59 374
2 60 383
3 59 377
4 57 365
5 57 359
6 61 390
7 55 352
9 62 393
9 56 354
11 61 386
11 58 366
13 60 381
14 59 376
15 59 378
16 58 370
16 55 351
18 58 370
19 59 372
22 63 398
21 58 366
23 58 371
23 58 368
26 61 390
27 61 391
30 66 423
29 61 389
30 61 386
33 64 405
31 57 362
33 60 379
35 61 385
35 59 378
36 59 378
38 60 380
39 61 386
38 57 364
43 62 397
43 62 393
46 63 403
48 65 414
47 61 390
47 60 383
51 64 408
52 64 407
53 63 401
52 60 384
54 62 393
54 61 387
53 59 371
53 57 362
56 59 373
67 69 441
65 66 423
63 63 398
57 56 354
68 65 413
63 59 376
70 64 410
67 61 384
64 57 359
65 57 363
76 66 419
76 65 410
76 64 403
86 71 454
76 62 392
81 65 411
88 69 441
87 68 428
81 62 390
83 62 395
86 64 405
92 68 429
80 58 366
104 74 471
98 69 435
97 67 426
100 68 433
97 66 414
93 62 391
95 62 394
107 70 439
96 61 386
97 62 388
101 63 399
94 58 365
100 61 386
101 61 383
106 63 398
113 67 419
108 63 397
107 62 390
106 61 379
101 57 357
109 61 383
118 66 411
110 60 378
123 67 417
116 62 390
116 62 384
132 70 437
125 65 408
131 68 424
126 64 401
135 69 428
140 70 439
141 70 437
139 68 426
154 75 470
152 73 456
136 65 405
146 69 431
154 72 450
154 72 447
140 64 399
148 68 418
138 63 387
164 74 457
138 61 379
162 72 443
176 77 476
176 76 472
154 66 408
162 69 426
162 69 423
159 67 411
140 58 358
172 71 437
177 73 447
157 64 392
171 69 424
180 72 441
163 65 396
178 70 429
177 69 423
185 72 438
185 71 434
183 70 427
165 63 381
213 80 490
204 77 465
158 59 355
172 63 382
165 61 365
135 49 294
108 39 230
124 44 264
98 35 204
83 30 171
81 29 165
59 21 116
116 40 237
58 20 112
84 29 166
40 14 72
95 32 185
91 31 177
95 32 183
121 40 233
0 0 0
101 33 191
70 23 127
116 37 216
77 25 139
35 11 58
83 27 149
0 0 0
64 20 109
132 41 236
60 19 101
0 0 0
118 36 206
74 23 125
74 23 124
52 16 82
116 35 196
0 0 0
0 0 0
0 0 0
0 0 0
0 0 0
0 0 0
0 0 0
0 0 0
0 0 0
0 0 0
0 0 0
0 0 0
0 0 0
0 0 0
0 0 0
0 0 0
0 0 0
0 0 0
0 0 0
0 0 0
0 0 0
0 0 0
0 0 0
0 0 0
0 0 0
0 0 0
0 0 0
0 0 0
0 0 0
0 0 0
0 0 0
0 0 0
0 0 0
0 0 0
0 0 0
0 0 0
0 0 0
0 0 0
0 0 0
0 0 0
0 0 0
0 0 0
0 0 0
0 0 0
0 0 0
0 0 0
0 0 0
0 0 0
0 0 0
0 0 0
0 0 0
0 0 0
0 0 0
0 0 0
0 0 0
0 0 0
0 0 0
0 0 0
0 0 0
0 0 0
0 0 0
0 0 0
0 0 0
0 0 0
0 0 0
0 0 0
0 0 0
65370 85 505
65381 80 474
65373 85 504
65362 91 543
65364 91 543
65367 90 540
65367 91 545
65379 85 513
65367 92 556
65381 86 518
65380 87 525
65370 94 566
65390 84 504
65383 88 531
65404 77 465
65366 100 603
65394 85 513
65390 88 533
65389 90 543
65419 73 438
65400 85 513
65412 78 474
65390 93 564
65409 82 499
65403 87 527
65396 92 562
65406 87 530
65420 78 477
65405 90 548
65411 86 526
65415 85 517
65412 88 536
65412 89 546
65425 81 496
65423 83 511
65419 88 537
65417 90 551
65420 89 549
65422 89 545
65418 93 573
65425 89 547
65419 95 586
65436 83 510
65426 92 567
65433 88 541
65431 91 558
65447 78 482
65439 87 536
65428 97 602
65425 102 631
65435 94 584
65459 74 458
65456 78 483
65475 62 379
65468 69 425
65462 76 472
65467 73 452
65477 64 391
65484 58 355
65479 64 393
65485 59 362
65482 64 394
65487 59 363
65484 64 392
65487 62 382
65488 62 381
65488 63 392
65493 59 365
65493 60 373
65496 57 354
65496 59 367
65492 65 404
65496 62 384
65498 61 378
65498 62 381
65501 59 368
65501 61 378
65499 66 410
65504 60 370
65505 60 370
65506 60 373
65507 61 378
65507 62 386
65508 62 384
65511 59 368
65512 60 369
65513 59 368
65514 59 367
65514 61 382
65516 60 370
65517 59 364
65516 65 405
65519 59 367
65520 59 366
65521 61 378
65522 60 373
65524 59 368
65525 59 365
65525 63 392
65526 65 405
65528 58 361
65528 65 405
65529 64 398
65531 60 375
65532 63 391
65534 58 359
65534 61 380
65535 60 374
0 61 379
1 62 385
2 60 376
3 59 366
4 63 395
5 62 390
6 59 367
7 63 392
8 59 367
10 60 377
11 60 376
12 63 395
13 63 394
15 66 412
15 62 386
17 64 399
18 64 400
18 59 371
20 62 385
21 62 388
21 58 363
24 63 392
24 60 373
26 63 392
26 61 382
28 63 394
30 64 398
31 64 401
32 63 395
32 61 381
33 61 381
35 62 386
38 65 406
36 61 380
39 64 398
39 62 388
39 60 372
43 64 400
44 64 399
42 59 370
44 61 380
50 67 419
49 64 403
49 62 387
49 61 383
49 60 374
52 63 390
55 64 402
53 61 377
56 63 390
60 66 411
61 65 406
64 68 423
60 62 383
59 60 373
67 67 418
64 62 387
66 64 396
67 63 390
68 63 390
65 59 368
70 63 391
72 64 396
73 63 394
72 61 382
75 63 392
83 68 425
85 69 431
83 67 416
78 62 383
81 63 392
78 60 373
83 63 389
91 68 423
92 68 422
93 67 418
85 61 376
98 69 429
96 67 416
94 64 399
96 65 405
92 62 381
91 61 374
89 58 360
97 63 389
94 60 368
104 65 404
95 59 363
102 63 388
106 65 398
96 58 355
108 65 398
116 68 420
99 58 355
116 67 412
101 58 353
113 64 392
113 63 389
120 66 407
119 65 401
110 60 364
119 64 392
127 68 415
128 68 414
130 68 416
132 68 416
124 63 387
129 65 397
128 64 392
141 70 426
149 73 449
140 68 416
151 73 446
146 70 425
141 67 407
136 64 387
141 66 398
154 71 433
141 64 390
148 67 408
166 75 455
150 67 405
141 62 377
142 62 376
147 64 384
145 63 377
158 68 407
158 67 404
160 67 406
164 68 411
180 75 449
166 68 410
163 66 398
166 67 404
179 72 431
168 67 400
172 68 406
175 69 411
181 71 421
193 75 445
198 76 455
190 72 432
208 79 469
177 67 396
177 66 391
144 53 313
115 43 247
115 42 245
88 32 183
80 29 163
54 20 106
94 34 191
51 18 98
66 23 130
42 15 78
102 35 202
86 30 166
106 36 206
45 15 80
92 31 175
36 12 62
0 0 0
116 38 218
106 35 197
111 36 206
99 32 179
98 32 178
10 3 9
79 25 138
84 27 146
85 27 148
64 20 108
100 31 173
57 18 93
23 7 31
109 34 185
50 15 78
0 0 0
0 0 0
0 0 0
0 0 0
0 0 0
0 0 0
0 0 0
0 0 0
0 0 0
0 0 0
0 0 0
0 0 0
0 0 0
0 0 0
0 0 0
0 0 0
0 0 0
0 0 0
0 0 0
0 0 0
0 0 0
0 0 0
0 0 0
0 0 0
0 0 0
0 0 0
0 0 0
0 0 0
0 0 0
0 0 0
0 0 0
0 0 0
0 0 0
0 0 0
0 0 0
0 0 0
0 0 0
0 0 0
0 0 0
0 0 0
0 0 0
0 0 0
0 0 0
0 0 0
0 0 0
0 0 0
0 0 0
0 0 0
0 0 0
0 0 0
0 0 0
0 0 0
0 0 0
0 0 0
0 0 0
0 0 0
0 0 0
0 0 0
0 0 0
0 0 0
0 0 0
0 0 0
0 0 0
0 0 0
0 0 0
0 0 0
65391 75 437
65352 95 558
65350 97 569
65366 90 527
65358 95 557
65371 89 521
65360 95 562
65370 91 536
65372 90 533
65380 87 514
65379 89 522
65367 96 568
65387 86 508
65380 91 538
65390 86 508
65384 90 535
65395 85 501
65390 89 526
65367 103 616
65388 91 544
65413 78 461
65391 92 548
65389 94 562
65407 84 497
65395 92 552
65423 75 447
65386 100 599
65411 85 508
65411 86 514
65425 78 465
65409 89 535
65395 100 602
65423 82 489
65414 89 534
65411 93 557
65412 93 558
65412 94 566
65425 86 515
65428 84 508
65417 94 568
65430 86 517
65422 93 560
65431 87 527
65407 107 651
65446 77 466
65445 80 479
65444 82 493
65446 81 486
65439 89 536
65440 89 538
65437 93 566
65447 85 515
65447 87 525
65442 93 565
65486 52 312
65484 55 330
65472 68 407
65478 63 380
65471 71 429
65485 58 350
65472 73 443
65481 65 392
65486 60 362
65483 65 394
65480 69 421
65485 65 393
65488 64 385
65488 64 388
65487 67 407
65490 65 391
65491 65 397
65495 62 373
65494 64 391
65494 65 397
65498 62 376
65498 63 381
65499 64 388
65502 60 363
65499 67 407
65502 65 394
65501 68 412
65503 66 400
65506 63 382
65507 63 384
65509 61 371
65510 63 382
65511 62 376
65512 62 376
65514 60 362
65514 62 380
65514 65 397
65515 67 410
65518 62 378
65519 62 378
65519 65 394
65520 64 390
65521 64 393
65522 65 397
65523 66 402
65525 62 382
65527 62 377
65528 60 369
65529 59 363
65529 65 395
65531 64 391
65532 61 372
65533 61 375
65534 61 373
65535 62 379
0 62 380
1 64 390
2 65 397
3 61 373
4 61 371
5 66 406
6 63 383
8 64 392
9 63 385
10 67 413
11 64 393
12 61 374
13 61 373
14 63 385
16 65 396
16 62 380
18 64 393
19 62 380
20 64 394
21 62 378
23 65 396
24 64 390
25 64 395
25 62 378
28 65 401
28 63 386
30 66 403
31 65 396
31 61 375
34 66 403
35 66 406
34 62 381
36 64 391
37 63 385
37 62 378
41 65 399
41 63 389
42 64 392
45 66 406
44 63 385
46 64 393
47 64 393
46 62 378
47 61 373
51 65 398
49 61 375
50 61 373
52 62 380
54 63 386
58 66 407
55 61 376
59 65 398
58 62 381
62 65 396
64 66 403
63 64 388
66 66 403
68 67 408
67 64 390
65 61 374
73 67 413
72 66 404
68 61 370
75 66 406
73 63 384
76 65 394
74 62 380
77 64 391
80 65 399
83 67 409
79 63 384
77 60 364
86 66 404
83 63 381
84 63 384
90 67 405
84 61 371
93 67 408
85 60 365
90 63 383
102 71 429
89 61 371
87 59 354
96 64 390
92 61 368
90 58 352
87 56 337
86 55 330
97 61 367
98 61 368
94 58 349
103 62 376
98 59 355
95 56 338
103 61 365
109 63 382
112 64 388
109 62 373
110 62 373
110 61 368
109 60 360
116 63 380
121 66 394
125 67 401
135 72 430
130 68 411
125 65 389
131 68 405
131 67 401
133 67 403
141 71 422
142 70 421
151 74 443
135 66 391
145 70 419
145 69 414
138 65 389
137 65 384
140 65 387
147 68 405
128 59 346
150 68 405
142 64 379
154 69 408
143 64 375
144 63 374
144 63 370
158 68 403
150 65 380
163 70 410
160 68 398
154 65 379
178 74 436
161 66 389
174 71 420
152 62 362
165 66 389
182 73 428
189 75 441
169 67 389
183 72 418
164 64 371
182 70 410
166 64 369
157 60 347
137 52 299
136 51 292
113 42 240
92 34 191
127 47 265
103 38 213
76 28 153
68 25 134
75 27 148
60 22 116
83 29 161
36 13 64
91 32 175
104 36 202
76 26 143
75 26 140
65 22 118
14 5 18
103 35 191
86 29 157
97 32 176
78 26 139
30 10 46
0 0 0
83 27 145
131 42 233
104 33 182
87 28 149
77 24 130
0 0 0
51 16 81
53 17 84
0 0 0
0 0 0
0 0 0
0 0 0
0 0 0
0 0 0
0 0 0
0 0 0
0 0 0
0 0 0
0 0 0
0 0 0
0 0 0
0 0 0
0 0 0
0 0 0
0 0 0
0 0 0
0 0 0
0 0 0
0 0 0
0 0 0
0 0 0
0 0 0
0 0 0
0 0 0
0 0 0
0 0 0
0 0 0
0 0 0
0 0 0
0 0 0
0 0 0
0 0 0
0 0 0
0 0 0
0 0 0
0 0 0
0 0 0
0 0 0
0 0 0
0 0 0
0 0 0
0 0 0
0 0 0
0 0 0
0 0 0
0 0 0
0 0 0
0 0 0
0 0 0
0 0 0
0 0 0
0 0 0
0 0 0
0 0 0
0 0 0
0 0 0
0 0 0
0 0 0
0 0 0
0 0 0
0 0 0
0 0 0
0 0 0
0 0 0
65390 77 438
65360 93 533
65369 89 513
65367 91 523
65357 97 559
65368 92 529
65381 86 494
65364 96 553
65380 88 510
65368 96 554
65357 102 595
65387 86 501
65365 100 581
65384 90 523
65386 90 522
65394 86 501
65401 83 480
65385 93 542
65382 96 560
65382 97 566
65382 98 575
65398 89 521
65415 79 462
65392 95 555
65403 89 522
65406 88 515
65395 96 564
65404 92 538
65395 99 581
65406 92 541
65416 86 505
65415 88 518
65408 94 553
65413 92 542
65399 103 608
65410 96 567
65422 89 524
65420 91 540
65423 90 532
65422 92 546
65423 93 550
65421 96 568
65427 92 545
65430 91 538
65435 88 519
65448 78 462
65447 80 474
65416 109 649
65444 86 509
65429 100 598
65464 70 414
65446 88 523
65423 110 661
65467 71 419
65451 88 522
65466 74 438
65467 75 443
65474 68 403
65476 68 401
65469 76 452
65479 67 398
65484 63 371
65484 64 377
65483 66 395
65485 65 386
65487 65 385
65486 67 398
65488 65 388
65488 67 402
65492 63 378
65493 64 382
65492 67 401
65495 64 378
65497 63 377
65496 66 396
65501 61 360
65497 67 402
65502 62 369
65500 67 397
65502 65 386
65506 60 359
65506 63 374
65504 68 409
65506 66 396
65508 64 382
65510 64 381
65511 62 372
65512 64 385
65510 70 419
65514 65 389
65515 64 383
65516 63 379
65517 65 387
65518 66 395
65519 67 400
65521 62 370
65522 64 381
65523 63 381
65524 63 377
65525 66 398
65526 65 392
65527 67 401
65528 66 399
65529 68 406
65531 66 396
65532 65 389
65533 63 378
65534 62 375
65535 63 380
0 61 366
1 62 375
2 64 385
3 68 407
4 63 378
5 62 375
6 66 396
7 64 384
9 68 408
10 63 380
11 66 396
12 66 397
14 67 401
14 65 392
15 62 373
17 67 405
18 65 391
19 64 383
20 64 388
21 64 384
23 65 393
23 64 385
24 63 377
25 62 374
28 68 412
28 64 385
28 62 375
30 64 382
31 64 388
34 67 401
34 66 395
36 67 401
36 63 382
37 65 389
38 63 379
41 67 401
41 65 391
43 67 404
42 62 376
46 68 407
49 69 418
42 58 345
48 65 390
49 65 393
50 64 387
50 63 376
52 64 386
52 63 377
53 63 378
59 69 413
62 71 427
62 69 414
61 67 402
61 66 394
60 64 381
65 67 402
61 62 371
59 58 348
64 62 372
71 68 408
71 68 406
65 61 363
68 62 373
69 62 369
74 66 392
75 65 392
74 63 379
77 65 389
80 67 399
81 67 400
80 64 385
84 67 399
79 62 368
85 65 391
81 62 368
91 69 410
91 68 404
82 60 356
85 62 367
82 59 349
86 61 360
90 62 371
83 57 338
93 63 375
96 65 384
95 63 375
95 63 371
92 59 351
104 67 395
89 56 332
103 64 381
106 66 390
103 63 373
98 60 351
98 58 345
113 67 395
115 68 400
111 64 379
112 64 379
113 64 379
122 69 407
113 63 371
115 64 374
132 72 425
124 67 396
126 67 397
136 72 424
143 75 441
132 69 403
147 76 446
139 71 415
140 71 415
133 67 390
141 70 411
135 66 387
149 73 426
131 63 369
149 71 418
155 74 432
146 69 400
134 62 362
128 59 344
138 63 368
133 61 352
153 69 401
157 70 408
143 63 367
149 66 380
167 73 424
149 64 372
137 59 339
138 59 338
167 71 408
156 66 377
161 67 385
156 64 370
160 66 378
178 73 418
167 67 387
166 67 382
172 69 394
175 69 395
176 69 394
157 61 349
154 60 339
163 63 355
134 51 289
125 47 265
69 26 140
134 50 281
81 30 164
32 12 58
85 31 170
95 35 191
109 39 217
104 38 206
51 18 94
62 22 116
29 10 49
54 19 99
108 38 205
87 30 162
58 20 103
72 25 129
26 9 41
105 36 192
59 20 102
59 20 102
99 33 175
16 6 21
0 0 0
0 0 0
0 0 0
103 33 176
78 25 130
45 15 71
134 42 228
0 0 0
0 0 0
0 0 0
0 0 0
0 0 0
0 0 0
0 0 0
0 0 0
0 0 0
0 0 0
0 0 0
0 0 0
0 0 0
0 0 0
0 0 0
0 0 0
0 0 0
0 0 0
0 0 0
0 0 0
0 0 0
0 0 0
0 0 0
0 0 0
0 0 0
0 0 0
0 0 0
0 0 0
0 0 0
0 0 0
0 0 0
0 0 0
0 0 0
0 0 0
0 0 0
0 0 0
0 0 0
0 0 0
0 0 0
0 0 0
0 0 0
0 0 0
0 0 0
0 0 0
0 0 0
0 0 0
0 0 0
0 0 0
0 0 0
0 0 0
0 0 0
0 0 0
0 0 0
0 0 0
0 0 0
0 0 0
0 0 0
0 0 0
0 0 0
0 0 0
0 0 0
0 0 0
0 0 0
0 0 0
0 0 0
65349 99 556
65377 85 476
65361 94 531
65362 94 533
65375 88 498
65359 97 552
65362 97 549
65372 92 524
65369 95 539
65374 93 526
65384 88 500
65378 93 527
65366 100 570
65368 100 570
65372 98 562
65378 96 549
65374 99 569
65394 88 504
65392 91 519
65370 105 603
65383 98 564
65391 94 539
65402 88 507
65387 99 568
65407 87 500
65395 96 552
65394 98 563
65399 95 548
65403 94 541
65413 88 508
65407 93 539
65409 93 538
65415 90 518
65407 97 561
65410 95 552
65408 98 570
65419 91 528
65407 101 588
65413 98 572
65419 95 551
65413 101 588
65427 91 529
65436 85 492
65428 93 542
65434 89 519
65442 83 485
65425 99 579
65441 87 505
65447 83 484
65436 94 549
65426 105 614
65444 90 523
65434 101 589
65449 88 515
65473 66 385
65489 51 291
65456 85 500
65462 80 470
65467 77 450
65471 74 431
65474 72 422
65477 70 407
65477 72 418
65478 72 421
65484 66 385
65487 64 371
65485 68 396
65488 65 381
65486 69 404
65488 68 400
65489 68 398
65488 72 424
65492 68 397
65495 65 378
65493 70 412
65497 66 385
65499 65 378
65501 63 370
65498 69 406
65501 67 391
65503 64 375
65501 71 417
65504 67 391
65504 68 402
65506 68 399
65507 67 394
65507 70 414
65510 66 385
65511 67 396
65512 66 390
65513 67 393
65514 68 399
65515 68 401
65517 65 385
65519 63 372
65519 69 405
65521 64 376
65521 69 404
65523 66 387
65524 65 381
65525 64 377
65526 68 402
65527 70 411
65528 67 393
65530 64 379
65531 67 398
65532 68 402
65533 69 405
65534 67 394
65535 66 387
0 66 390
1 65 381
2 69 410
3 64 376
4 63 371
5 67 395
6 68 403
8 68 400
9 66 389
10 65 386
10 63 369
12 67 394
13 66 393
14 66 389
15 64 378
17 67 394
18 65 385
19 67 399
19 62 367
21 65 381
22 66 389
24 67 397
24 65 382
25 63 374
27 66 387
29 67 395
30 68 404
30 64 377
30 62 368
33 66 387
33 65 384
37 69 411
36 65 386
39 68 404
39 67 397
38 62 367
39 62 366
41 65 384
43 66 388
45 67 398
43 63 370
45 64 378
46 64 375
49 66 392
49 64 379
48 61 360
49 61 361
53 65 384
56 68 400
56 66 391
56 65 383
57 64 379
58 65 381
57 62 368
62 67 394
64 67 395
59 60 354
65 66 390
65 64 377
71 70 413
65 62 365
67 63 371
66 61 358
71 65 383
80 72 423
74 66 387
78 68 399
71 61 357
77 66 385
78 65 383
80 66 387
76 62 361
83 66 390
82 65 380
84 65 382
84 65 379
85 64 374
89 66 387
75 55 322
92 67 392
85 61 354
87 62 361
84 59 343
82 57 330
88 60 350
95 64 374
88 59 341
84 55 318
98 64 371
95 61 356
96 61 355
93 59 340
103 64 371
100 62 359
102 62 362
109 66 383
97 58 333
110 65 376
110 64 371
112 65 374
113 65 375
116 66 381
108 61 349
126 70 405
126 69 401
121 66 380
129 70 402
128 68 393
119 63 364
131 69 395
129 67 387
138 71 408
128 65 374
133 67 387
126 63 363
111 55 313
131 64 368
127 62 353
149 72 414
133 64 363
132 62 356
147 69 397
151 71 404
164 76 435
150 69 394
126 57 324
154 70 397
145 65 369
152 68 383
153 68 384
164 72 409
152 66 373
157 68 383
168 72 407
156 66 374
162 68 386
166 70 392
163 68 382
148 61 342
156 64 358
157 64 356
189 76 428
175 70 392
202 80 451
179 71 395
149 58 324
149 58 322
95 37 200
163 63 348
102 39 211
92 35 188
65 24 128
89 33 179
55 20 105
62 23 118
45 17 83
84 30 162
59 21 109
89 32 171
58 21 107
81 29 152
41 15 71
56 20 100
106 37 197
69 24 123
101 35 184
74 25 131
38 13 62
33 11 53
0 0 0
25 9 37
35 12 55
54 18 89
113 37 194
58 19 95
41 13 63
81 26 133
0 0 0
0 0 0
0 0 0
0 0 0
0 0 0
0 0 0
0 0 0
0 0 0
0 0 0
0 0 0
0 0 0
0 0 0
0 0 0
0 0 0
0 0 0
0 0 0
0 0 0
0 0 0
0 0 0
0 0 0
0 0 0
0 0 0
0 0 0
0 0 0
0 0 0
0 0 0
0 0 0
0 0 0
0 0 0
0 0 0
0 0 0
0 0 0
0 0 0
0 0 0
0 0 0
0 0 0
0 0 0
0 0 0
0 0 0
0 0 0
0 0 0
0 0 0
0 0 0
0 0 0
0 0 0
0 0 0
0 0 0
0 0 0
0 0 0
0 0 0
0 0 0
0 0 0
0 0 0
0 0 0
0 0 0
0 0 0
0 0 0
0 0 0
0 0 0
0 0 0
0 0 0
0 0 0
0 0 0
0 0 0
0 0 0
65347 101 562
65356 97 540
65348 102 569
65373 90 500
65368 93 518
65377 90 497
65359 100 558
65376 92 511
65365 99 552
65364 100 559
65358 104 585
65369 99 557
65365 103 576
65387 90 506
65391 89 500
65375 100 560
65393 90 504
65387 94 530
65385 96 542
65399 89 501
65386 98 553
65374 107 603
65382 102 578
65394 96 540
65409 87 491
65390 101 570
65395 99 558
65393 101 574
65409 91 517
65399 99 563
65404 97 548
65403 99 561
65408 96 546
65417 90 514
65417 92 525
65404 103 586
65420 92 525
65414 98 558
65413 100 571
65431 87 497
65417 99 567
65424 95 543
65423 97 557
65428 95 542
65448 79 450
65441 86 491
65442 86 492
65436 93 532
65434 96 550
65443 90 514
65437 96 551
65441 94 540
65441 96 550
65458 80 460
65479 61 348
65468 73 417
65467 76 435
65474 69 396
65479 66 375
65481 64 366
65476 71 406
65483 64 368
65478 72 413
65477 74 425
65483 69 394
65481 72 416
65486 67 386
65484 71 409
65488 68 388
65489 69 395
65490 68 392
65491 69 395
65492 69 394
65494 67 388
65493 70 405
65498 65 371
65497 68 393
65495 74 425
65499 68 394
65501 68 392
65502 68 394
65506 63 361
65505 66 381
65506 67 388
65508 64 369
65507 68 394
65507 71 411
65510 68 392
65511 68 391
65513 65 378
65513 69 401
65514 70 404
65517 65 378
65516 71 409
65519 64 368
65519 69 397
65521 67 386
65521 70 404
65523 67 387
65523 71 414
65525 69 399
65526 70 407
65527 67 387
65528 71 415
65529 70 409
65531 66 383
65531 72 417
65533 64 368
65534 67 388
65535 67 389
0 70 407
1 68 392
2 65 375
3 69 403
4 69 400
5 63 365
6 64 370
8 71 413
9 66 384
9 61 352
11 66 385
12 68 398
13 68 395
15 70 409
16 68 397
16 66 383
18 66 381
20 70 405
21 69 400
21 68 394
21 64 370
23 66 383
26 70 408
26 69 398
28 70 408
28 67 388
28 64 371
30 65 380
30 64 372
33 67 391
33 64 373
34 65 380
35 65 380
38 68 397
38 66 380
41 69 399
39 65 374
42 67 388
42 65 379
43 65 378
47 69 402
47 68 397
46 65 375
49 67 386
51 68 396
52 69 398
47 60 348
55 69 403
56 69 400
54 65 377
54 64 371
51 58 335
55 62 359
61 67 390
59 64 372
62 67 385
64 67 388
67 69 398
68 69 397
67 67 387
72 70 405
74 72 415
67 63 365
74 69 397
70 64 369
69 62 358
69 61 354
76 66 382
81 70 403
77 66 379
76 63 365
80 66 380
85 69 397
78 63 359
85 67 386
81 63 361
80 61 352
77 59 335
86 65 371
87 64 368
88 64 369
88 63 362
84 60 342
89 62 357
85 59 335
93 64 367
84 57 325
89 60 341
88 58 333
93 61 346
89 57 327
95 61 348
95 60 341
100 63 356
87 54 307
99 60 344
103 63 357
115 69 393
108 64 365
112 66 376
111 65 367
121 70 396
114 65 368
122 69 393
123 69 390
126 70 397
116 64 360
114 62 349
129 70 395
122 65 367
133 70 397
124 65 367
128 66 375
130 67 377
136 69 392
132 67 375
110 55 308
135 67 377
139 68 383
127 62 348
132 64 358
134 64 359
140 67 374
136 64 357
149 70 389
130 60 336
137 63 350
154 70 392
141 64 355
154 69 384
161 72 401
153 68 376
139 61 338
150 65 362
161 70 386
142 61 335
146 62 342
155 65 361
143 60 331
140 58 320
153 63 347
191 78 434
150 61 336
158 64 351
177 71 389
123 49 266
140 55 302
132 52 281
131 51 277
109 42 227
112 43 231
86 33 174
67 25 132
117 44 237
67 25 130
37 14 66
95 35 184
79 29 151
100 36 191
86 31 162
62 23 114
84 30 156
124 44 233
60 21 106
24 9 37
93 33 169
54 19 92
129 45 234
76 26 133
34 12 54
132 45 234
62 21 104
91 31 156
44 15 70
31 10 46
39 13 60
80 26 132
0 0 0
0 0 0
0 0 0
0 0 0
0 0 0
0 0 0
0 0 0
0 0 0
0 0 0
0 0 0
0 0 0
0 0 0
0 0 0
0 0 0
0 0 0
0 0 0
0 0 0
0 0 0
0 0 0
0 0 0
0 0 0
0 0 0
0 0 0
0 0 0
0 0 0
0 0 0
0 0 0
0 0 0
0 0 0
0 0 0
0 0 0
0 0 0
0 0 0
0 0 0
0 0 0
0 0 0
0 0 0
0 0 0
0 0 0
0 0 0
0 0 0
0 0 0
0 0 0
0 0 0
0 0 0
0 0 0
0 0 0
0 0 0
0 0 0
0 0 0
0 0 0
0 0 0
0 0 0
0 0 0
0 0 0
0 0 0
0 0 0
0 0 0
0 0 0
0 0 0
0 0 0
0 0 0
0 0 0
0 0 0
0 0 0
65382 84 457
65358 98 533
65376 89 486
65362 97 531
65360 100 545
65379 90 490
65349 108 590
65359 103 564
65378 93 509
65376 95 522
65364 103 565
65383 93 509
65384 93 510
65378 97 537
65397 87 480
65365 107 594
65397 89 489
65387 96 530
65379 102 564
65383 101 558
65377 106 586
65389 99 549
65391 98 546
65409 88 487
65393 99 551
65385 106 588
65400 96 536
65408 92 513
65411 91 506
65404 97 543
65400 101 565
65398 104 580
65420 89 496
65411 97 543
65413 96 539
65419 94 523
65423 92 512
65421 94 527
65428 90 502
65421 96 540
65430 91 509
65435 88 490
65423 99 556
65421 102 574
65426 99 558
65449 80 450
65433 95 538
65410 118 666
65425 106 597
65438 96 541
65452 83 469
65434 102 578
65453 85 480
65444 96 542
65448 94 530
65458 85 480
0 0 0
65485 59 329
65463 84 476
65476 71 397
65470 79 447
65474 76 431
65480 71 400
65487 63 354
65485 68 381
65482 72 408
65485 70 396
65486 70 394
65490 67 378
65485 75 424
65487 74 421
65486 77 439
65492 69 392
65492 72 406
65493 72 410
65498 66 373
65499 66 376
65500 66 375
65499 70 399
65502 66 375
65502 69 393
65505 66 373
65505 68 386
65507 65 369
65506 70 395
65508 68 386
65508 72 408
65509 71 406
65510 73 413
65512 70 399
65513 70 398
65514 70 397
65515 71 406
65517 68 389
65517 72 412
65520 68 386
65519 73 415
65521 71 405
65523 67 380
65523 71 404
65525 71 403
65527 66 378
65527 70 396
65529 67 382
65529 71 402
65531 66 374
65532 63 361
65533 70 397
65534 68 390
0 65 372
0 71 403
1 70 401
2 70 398
3 65 369
4 68 386
5 69 392
7 72 414
8 69 396
9 67 380
10 70 402
11 69 394
12 65 369
13 65 372
14 67 381
16 69 392
16 65 373
18 68 387
19 67 385
20 69 395
21 66 375
23 70 402
24 70 402
23 64 364
26 69 393
27 69 391
28 68 386
28 66 377
29 64 363
32 68 390
32 67 385
33 66 374
35 67 383
36 68 389
38 70 400
39 68 389
39 67 381
39 66 374
41 66 377
46 73 418
46 70 402
46 69 394
45 65 373
47 67 379
48 68 385
52 72 409
50 67 379
47 62 349
51 65 372
53 67 379
54 66 374
54 64 365
56 66 376
57 66 374
60 68 387
58 64 366
56 61 347
61 65 366
63 66 377
65 67 380
67 67 382
65 64 365
66 65 366
72 70 396
73 69 394
70 65 370
71 65 369
75 67 383
75 67 377
77 67 381
76 66 373
74 63 355
83 70 396
78 65 366
79 65 365
78 63 354
79 63 355
80 62 351
87 67 381
85 64 364
76 57 320
85 63 354
89 66 369
81 59 329
89 64 358
93 66 372
83 58 323
85 59 328
95 65 364
89 60 338
83 55 309
90 59 331
91 59 331
101 65 366
88 56 312
94 59 332
93 58 323
95 59 327
109 66 371
104 63 352
105 63 352
97 57 318
102 60 334
110 64 356
115 66 369
111 63 352
118 67 371
109 61 336
135 74 415
117 64 355
109 59 328
121 65 361
128 68 377
129 68 376
119 62 344
132 68 379
134 69 381
137 70 385
129 65 359
121 61 334
120 59 325
118 58 318
135 66 362
127 61 336
130 62 342
138 66 360
142 67 367
127 60 325
138 64 349
145 67 365
139 64 348
147 67 364
135 61 331
134 60 326
141 63 340
146 64 350
141 62 334
134 58 314
147 63 342
147 63 339
126 53 286
140 59 316
166 69 374
171 71 383
170 70 379
147 60 322
130 53 280
128 52 275
90 36 188
133 53 281
133 53 279
107 42 221
123 48 252
60 23 118
102 39 204
54 21 102
90 34 177
134 50 265
82 31 157
96 36 185
52 19 94
70 26 129
76 28 140
99 36 183
81 29 147
89 32 162
41 15 69
90 32 162
85 30 151
51 18 85
91 32 159
77 27 132
37 13 57
82 28 139
121 41 208
128 43 220
69 23 113
41 14 62
0 0 0
0 0 0
0 0 0
0 0 0
0 0 0
0 0 0
0 0 0
0 0 0
0 0 0
0 0 0
0 0 0
0 0 0
0 0 0
0 0 0
0 0 0
0 0 0
0 0 0
0 0 0
0 0 0
0 0 0
0 0 0
0 0 0
0 0 0
0 0 0
0 0 0
0 0 0
0 0 0
0 0 0
0 0 0
0 0 0
0 0 0
0 0 0
0 0 0
0 0 0
0 0 0
0 0 0
0 0 0
0 0 0
0 0 0
0 0 0
0 0 0
0 0 0
0 0 0
0 0 0
0 0 0
0 0 0
0 0 0
0 0 0
0 0 0
0 0 0
0 0 0
0 0 0
0 0 0
0 0 0
0 0 0
0 0 0
0 0 0
0 0 0
0 0 0
0 0 0
0 0 0
0 0 0
0 0 0
0 0 0
65373 90 480
65372 91 488
65365 96 514
65349 105 565
65356 102 550
65346 109 586
65349 108 582
65360 103 556
65369 99 533
65363 103 558
65363 104 563
65373 100 538
65366 104 564
65395 88 474
65390 92 496
65400 87 468
65398 89 480
65389 95 516
65395 93 503
65371 109 594
65379 105 569
65383 103 561
65401 92 501
65400 94 514
65385 105 574
65395 100 545
65384 109 595
65408 93 505
65412 91 498
65406 96 528
65413 92 505
65401 102 560
65408 98 538
65407 100 550
65415 95 524
65415 97 532
65422 92 508
65409 104 574
65424 93 511
65416 101 555
65418 101 556
65427 94 519
65418 103 571
65420 103 572
65423 102 565
65439 89 493
65416 111 619
65441 90 500
65429 103 570
65426 107 593
65440 95 527
65447 90 498
65436 102 567
65445 95 526
65432 109 610
65443 100 557
65443 102 566
65466 79 436
65447 101 561
65470 78 433
65468 82 453
65494 53 289
65479 72 397
65479 73 404
65485 67 373
65481 73 406
65480 77 426
65485 72 398
65482 76 425
65491 66 366
65485 77 427
65488 73 408
65489 74 411
65495 67 371
65496 68 376
65495 70 389
65493 75 418
65495 74 415
65499 70 390
65499 72 400
65501 70 391
65500 74 413
65503 71 396
65504 70 389
65505 71 395
65505 73 405
65509 68 380
65510 68 378
65511 68 381
65510 72 404
65513 67 374
65513 70 391
65514 72 402
65516 68 381
65516 72 402
65518 69 384
65520 69 385
65520 70 391
65522 69 388
65522 73 406
65525 67 374
65525 69 387
65526 72 406
65527 73 408
65528 70 390
65530 68 379
65531 66 370
65532 70 393
65533 66 370
65534 69 385
65535 72 402
0 69 387
1 72 403
2 72 407
3 69 387
4 68 382
5 67 377
6 68 380
7 69 386
9 68 381
10 68 382
11 72 404
12 67 375
13 69 389
15 71 398
16 70 391
16 66 372
19 73 408
19 68 380
20 67 378
21 68 379
23 70 391
24 69 389
25 69 386
26 69 389
26 67 378
28 69 388
30 70 395
32 74 413
32 70 390
34 71 400
34 70 395
36 70 395
36 69 389
39 72 407
39 69 389
38 67 374
40 68 381
39 65 363
44 71 400
45 71 396
45 69 388
44 66 368
49 72 402
46 65 362
46 63 352
52 70 393
50 66 367
53 68 381
50 64 357
56 70 390
51 62 348
58 69 389
56 65 363
57 65 362
56 62 348
58 63 354
62 67 373
66 70 393
64 67 377
65 67 373
60 61 339
75 74 416
69 67 376
70 67 375
71 67 372
75 70 390
74 68 378
74 67 371
77 68 380
74 65 363
80 69 385
77 66 367
74 62 344
77 64 356
83 68 376
76 61 339
83 66 364
75 58 323
78 60 334
77 59 324
80 61 335
86 64 353
77 57 313
79 57 315
80 58 317
82 58 321
81 57 313
93 65 357
94 64 354
91 61 338
86 58 317
82 54 296
89 58 320
93 60 330
94 60 329
89 56 309
106 67 367
93 58 316
106 65 359
110 67 369
107 64 353
106 63 346
113 66 364
110 64 352
107 62 338
120 69 377
109 62 338
128 72 393
115 64 349
118 65 356
123 67 368
131 71 386
114 61 330
115 61 330
114 60 326
126 66 357
132 69 372
120 61 332
124 63 341
134 68 366
126 63 341
133 66 357
124 61 328
120 59 315
122 59 318
133 64 343
140 67 358
133 63 336
131 61 329
132 61 329
131 61 324
137 63 335
133 61 323
145 65 349
142 63 337
123 54 289
142 62 332
136 59 316
142 62 327
135 58 307
137 59 310
159 68 359
170 72 382
170 71 378
161 67 354
158 65 344
132 54 282
133 54 284
141 57 298
92 37 189
85 34 172
103 41 209
102 40 205
82 32 161
87 34 171
79 31 154
113 43 221
29 11 48
53 20 96
72 27 134
75 28 140
91 34 169
78 29 143
99 36 182
95 35 174
64 23 113
61 22 107
103 37 184
125 44 224
50 18 82
63 22 106
75 26 127
70 24 117
76 26 127
90 31 152
41 14 62
68 23 111
0 0 0
0 0 0
0 0 0
0 0 0
0 0 0
0 0 0
0 0 0
0 0 0
0 0 0
0 0 0
0 0 0
0 0 0
0 0 0
0 0 0
0 0 0
0 0 0
0 0 0
0 0 0
0 0 0
0 0 0
0 0 0
0 0 0
0 0 0
0 0 0
0 0 0
0 0 0
0 0 0
0 0 0
0 0 0
0 0 0
0 0 0
0 0 0
0 0 0
0 0 0
0 0 0
0 0 0
0 0 0
0 0 0
0 0 0
0 0 0
0 0 0
0 0 0
0 0 0
0 0 0
0 0 0
0 0 0
0 0 0
0 0 0
0 0 0
0 0 0
0 0 0
0 0 0
0 0 0
0 0 0
0 0 0
0 0 0
0 0 0
0 0 0
0 0 0
0 0 0
0 0 0
0 0 0
0 0 0
0 0 0
65369 94 491
65362 98 515
65360 100 526
65369 96 504
65349 108 570
65372 96 507
65368 99 524
65345 113 602
65350 112 593
65375 98 519
65378 97 515
65372 101 539
65378 99 524
65375 102 541
65381 99 526
65372 106 564
65399 89 475
65385 99 529
65378 105 560
65395 95 506
65380 106 566
65369 114 612
65380 108 579
65400 96 514
65387 106 569
65403 96 513
65403 97 520
65419 86 463
65404 98 528
65424 85 457
65409 97 522
65405 101 544
65421 90 484
65411 99 535
65408 102 552
65411 101 546
65404 108 586
65418 98 530
65425 94 506
65417 102 553
65425 97 524
65424 99 536
65426 98 534
65435 91 496
65442 87 471
65431 98 534
65452 80 434
65430 102 555
65440 94 511
65429 106 578
65442 95 518
65431 107 585
65468 72 391
65450 91 498
65443 100 548
65444 101 553
65471 74 400
0 0 0
65471 77 416
65478 70 380
65479 70 383
65468 84 457
65475 78 426
65479 74 402
65481 73 395
65489 64 348
65479 79 433
65485 73 399
65479 82 450
65488 71 387
65489 71 389
65494 66 361
65491 72 395
65492 73 399
65493 73 399
65494 73 398
65495 74 405
65497 72 396
65499 71 387
65495 79 433
65502 68 374
65499 78 427
65501 75 412
65503 73 402
65506 71 390
65504 76 416
65506 76 418
65509 71 388
65511 69 378
65511 72 394
65513 70 385
65512 75 415
65515 71 388
65516 71 388
65517 70 385
65517 74 408
65521 65 357
65519 76 416
65521 74 405
65523 72 396
65524 69 381
65525 71 389
65525 76 419
65528 66 362
65529 68 372
65529 73 402
65531 72 398
65532 68 377
65533 73 400
65534 70 388
65535 69 382
0 73 404
1 71 394
2 72 395
3 72 400
4 76 421
5 73 403
7 72 400
7 64 352
8 68 377
10 70 386
11 72 399
11 63 344
13 71 389
14 69 383
16 72 398
16 66 366
17 68 375
19 70 384
19 66 364
22 72 398
22 69 383
23 68 376
25 70 388
26 72 398
26 67 368
29 72 395
29 71 389
31 71 392
32 71 392
31 66 366
33 68 373
34 69 381
36 69 382
37 70 388
38 69 379
39 70 383
39 68 372
41 69 377
41 67 369
43 68 377
46 72 397
43 65 356
45 66 364
44 62 343
45 63 346
50 69 379
49 66 361
45 59 326
47 60 331
49 61 336
50 61 337
47 57 312
54 64 351
56 65 356
57 65 354
61 69 377
58 63 347
62 67 365
64 68 376
63 66 360
67 68 375
68 69 378
65 64 352
69 67 368
70 67 368
70 66 361
70 65 355
71 65 358
76 69 379
74 66 359
79 69 380
78 68 371
77 66 359
79 67 364
76 63 345
76 62 336
69 55 299
79 63 345
80 63 343
81 63 341
82 63 340
79 60 323
84 63 340
78 58 312
91 66 360
79 57 309
84 60 322
81 57 309
80 55 299
90 62 337
86 59 316
92 62 336
98 65 353
98 65 350
90 58 315
98 63 342
94 60 322
93 58 314
99 62 333
106 66 355
103 63 338
99 60 323
111 66 357
103 61 328
109 64 344
108 63 338
106 61 327
115 66 353
111 63 336
116 65 347
114 63 338
121 66 355
113 62 330
117 63 338
122 65 349
120 64 341
109 57 304
129 67 359
122 63 337
115 59 312
127 64 342
133 67 358
129 64 342
115 57 302
127 63 331
128 62 330
119 58 304
114 55 288
132 63 332
122 57 302
129 60 317
147 69 361
143 66 348
133 61 319
123 56 293
131 59 310
137 61 321
131 58 302
135 60 311
132 58 300
146 63 331
144 62 322
166 71 372
145 62 319
139 59 304
148 62 320
149 62 321
122 50 258
119 49 250
95 39 196
95 38 193
61 24 119
96 38 193
108 43 218
51 20 96
82 32 160
123 48 242
100 39 193
40 15 70
88 34 167
77 29 144
74 28 137
57 21 101
67 25 119
84 31 151
94 35 170
90 33 162
78 28 137
68 25 117
66 24 112
72 26 123
72 26 122
87 31 147
72 25 120
54 19 86
99 34 166
32 11 47
0 0 0
0 0 0
0 0 0
0 0 0
0 0 0
0 0 0
0 0 0
0 0 0
0 0 0
0 0 0
0 0 0
0 0 0
0 0 0
0 0 0
0 0 0
0 0 0
0 0 0
0 0 0
0 0 0
0 0 0
0 0 0
0 0 0
0 0 0
0 0 0
0 0 0
0 0 0
0 0 0
0 0 0
0 0 0
0 0 0
0 0 0
0 0 0
0 0 0
0 0 0
0 0 0
0 0 0
0 0 0
0 0 0
0 0 0
0 0 0
0 0 0
0 0 0
0 0 0
0 0 0
0 0 0
0 0 0
0 0 0
0 0 0
0 0 0
0 0 0
0 0 0
0 0 0
0 0 0
0 0 0
0 0 0
0 0 0
0 0 0
0 0 0
0 0 0
0 0 0
0 0 0
0 0 0
0 0 0
0 0 0
65385 86 443
65369 96 496
65367 98 506
65373 95 492
65368 99 514
65360 105 544
65377 96 497
65365 103 537
65380 96 498
65367 104 543
65374 101 528
65366 107 560
65365 108 567
65377 102 534
65389 96 501
65382 101 528
65381 103 538
65373 108 570
65381 104 549
65402 92 483
65400 94 496
65403 93 488
65387 105 555
65392 102 540
65420 84 442
65391 106 559
65388 109 575
65391 108 574
65396 106 560
65402 103 544
65401 105 555
65406 102 539
65410 100 532
65411 100 534
65394 115 613
65420 96 510
65420 97 515
65414 104 552
65408 110 585
65418 103 549
65422 101 538
65417 107 570
65437 90 478
65424 103 550
65420 108 577
65428 102 547
65427 105 562
65423 110 588
65443 92 495
65437 100 538
65436 103 552
65442 98 525
65447 94 505
65453 90 481
65466 78 415
65450 96 516
65471 75 399
0 0 0
65467 82 441
65471 79 425
65463 89 481
65467 87 466
65477 77 412
65478 77 412
65477 79 424
65481 75 405
65481 78 418
65478 82 444
65486 73 394
65484 78 419
65489 73 391
65489 75 401
65491 73 395
65492 73 393
65491 76 412
65493 76 409
65496 72 389
65497 72 390
65496 78 418
65500 73 392
65500 75 402
65502 71 385
65504 71 381
65505 71 381
65504 76 411
65504 77 418
65506 75 407
65508 73 397
65509 76 409
65511 72 389
65513 72 388
65514 70 377
65515 70 379
65516 73 394
65517 71 386
65516 78 425
65520 70 379
65520 74 398
65521 74 402
65523 72 388
65524 73 396
65524 76 412
65525 79 429
65527 72 391
65529 71 382
65530 71 385
65531 72 389
65532 75 407
65533 71 387
65534 73 395
0 68 368
0 68 370
1 68 370
2 72 390
3 71 385
4 67 364
5 70 380
7 76 415
7 69 372
9 70 377
10 70 380
11 69 376
12 69 375
13 71 388
15 76 415
15 68 366
16 70 380
18 72 390
18 69 376
20 71 384
21 71 386
22 72 389
23 69 372
24 69 375
25 69 373
26 69 372
26 66 358
28 68 370
32 75 408
31 70 378
31 66 360
33 70 379
34 69 374
35 69 373
37 71 384
35 66 355
37 67 364
36 62 335
