VERSION 0.7
FIELDS x y z
SIZE 4 4 4
TYPE I I I
COUNT 1 1 1
WIDTH 3585
HEIGHT 1
VIEWPOINT 0.0 0.0 0.0 1.0 0.0 0.0 0.0
POINTS 3585
DATA ascii
-558 351 1368
-559 354 1382
-556 354 1385
-546 351 1374
-539 349 1368
-532 348 1364
-529 348 1367
-532 353 1388
-532 356 1399
-519 350 1378
-512 348 1372
-513 351 1387
-507 350 1385
-501 349 1382
-488 343 1359
-482 342 1356
-484 346 1373
-480 347 1376
-473 345 1370
-469 345 1371
-470 348 1388
-472 353 1407
-465 351 1400
-459 349 1395
-456 351 1402
-456 354 1415
-449 352 1409
-444 351 1409
-446 356 1428
-442 356 1429
-426 347 1393
-423 348 1400
-419 348 1400
-415 348 1403
-412 349 1407
-412 353 1424
-407 352 1422
-401 350 1416
-399 353 1428
-392 350 1419
-381 344 1395
-378 346 1401
-381 352 1429
-373 348 1415
-369 349 1418
-369 353 1435
-363 351 1429
-356 349 1420
-348 344 1403
-347 347 1417
-344 349 1424
-339 348 1421
-334 347 1419
-331 348 1424
-327 349 1428
-318 343 1406
-314 344 1408
-308 342 1403
-303 341 1398
-297 339 1393
-293 339 1391
-291 342 1404
-283 337 1384
-281 340 1399
-276 339 1396
-273 340 1399
-266 337 1388
-263 338 1394
-260 339 1400
-255 338 1394
-249 336 1385
-246 337 1391
-242 337 1392
-235 333 1378
-233 336 1391
-226 332 1374
-224 336 1389
-218 332 1375
-215 333 1382
-213 337 1397
-207 334 1387
-204 335 1391
-200 336 1394
-196 336 1394
-191 334 1389
-187 335 1391
-182 334 1387
-181 338 1406
-174 334 1390
-171 336 1397
-167 335 1397
-163 335 1395
-158 335 1394
-155 337 1406
-150 333 1390
-146 336 1399
-143 338 1409
-138 336 1402
-134 335 1398
-132 340 1418
-126 336 1405
-120 331 1382
-113 322 1347
-105 310 1294
-95 292 1220
-88 282 1179
-83 277 1157
-77 270 1129
-73 267 1115
-70 266 1111
-66 264 1105
-62 264 1102
-60 265 1108
-56 264 1103
-53 264 1105
-50 264 1103
-46 263 1101
-43 266 1112
-40 268 1120
-37 269 1127
-35 273 1143
-32 278 1163
-29 282 1183
-27 295 1237
-25 312 1310
-21 318 1336
-18 330 1387
-15 337 1414
-11 339 1423
-6 339 1422
-2 337 1416
1 336 1411
5 336 1410
9 339 1426
14 340 1429
18 337 1414
22 335 1409
26 335 1408
30 337 1418
34 339 1425
38 335 1408
43 340 1430
47 339 1423
51 340 1427
56 341 1432
60 340 1430
64 342 1436
69 342 1439
73 341 1434
76 337 1416
81 341 1432
85 339 1426
90 341 1433
94 341 1432
98 340 1429
103 344 1444
106 340 1429
110 339 1426
115 341 1431
119 340 1430
122 338 1420
127 341 1432
132 342 1435
135 339 1424
141 343 1438
146 344 1446
150 344 1443
153 341 1430
158 343 1439
162 343 1438
167 343 1440
172 345 1447
176 345 1447
180 345 1445
184 343 1438
188 343 1436
193 345 1445
197 345 1444
197 337 1411
206 345 1445
210 345 1443
216 346 1450
215 338 1415
222 343 1434
225 341 1425
230 343 1433
234 342 1430
238 342 1428
243 342 1428
248 344 1436
254 345 1441
254 340 1418
260 342 1426
263 341 1423
271 345 1439
273 343 1428
277 342 1423
282 344 1431
285 342 1423
290 343 1427
296 344 1431
298 342 1423
306 346 1437
306 342 1419
312 343 1425
314 341 1414
322 344 1428
324 342 1418
328 342 1416
335 344 1427
339 345 1427
344 345 1428
351 348 1439
353 346 1430
358 346 1432
360 344 1421
368 347 1433
371 346 1429
377 347 1433
381 347 1430
383 345 1421
389 347 1428
397 350 1438
399 347 1429
403 348 1429
406 346 1421
414 350 1436
419 350 1436
421 348 1427
430 352 1441
431 349 1429
432 346 1416
441 350 1430
446 350 1431
454 353 1443
454 350 1428
460 351 1431
461 348 1419
472 354 1440
474 351 1430
480 353 1435
487 354 1440
493 356 1443
493 352 1430
501 355 1439
505 355 1437
515 358 1451
529 365 1478
537 368 1486
538 365 1474
539 362 1462
539 359 1448
549 363 1463
556 365 1468
560 364 1464
560 361 1451
563 361 1446
570 362 1450
575 363 1451
580 363 1451
590 366 1462
594 365 1458
600 367 1462
608 368 1466
616 370 1473
622 371 1475
624 369 1467
627 369 1464
632 369 1461
632 366 1449
636 366 1447
640 366 1444
645 366 1442
648 365 1438
661 369 1453
670 372 1463
679 374 1470
685 375 1471
681 370 1450
686 370 1450
700 375 1467
704 375 1463
714 377 1471
731 384 1495
736 384 1494
737 382 1484
741 382 1480
742 380 1471
737 375 1450
744 376 1452
749 376 1449
755 377 1450
755 374 1438
762 375 1441
769 376 1444
770 375 1434
773 374 1429
774 372 1419
781 373 1422
786 373 1421
784 370 1405
787 369 1401
783 365 1382
770 357 1350
746 344 1298
725 332 1252
-486 231 824
-475 226 811
-492 236 846
-503 242 872
-558 270 974
-639 311 1124
-707 346 1254
-704 346 1257
-695 343 1250
-682 339 1237
-661 331 1209
-652 328 1202
-642 325 1192
-639 326 1196
-647 331 1219
-680 350 1291
-708 367 1355
-750 391 1447
-778 408 1513
-753 398 1476
-645 343 1274
-556 298 1107
-550 297 1104
-545 296 1102
-542 296 1106
-539 296 1107
-523 289 1082
-525 292 1096
-528 296 1111
-528 298 1120
-513 291 1097
-522 299 1126
-530 305 1153
-535 310 1172
-528 308 1167
-524 308 1168
-511 303 1149
-507 303 1150
-504 303 1152
-505 305 1164
-500 305 1163
-511 314 1199
-541 334 1279
-563 350 1343
-567 355 1364
-561 354 1363
-561 357 1372
-556 356 1373
-545 352 1358
-534 348 1344
-536 351 1359
-532 352 1361
-525 350 1356
-525 353 1368
-520 352 1367
-519 355 1379
-507 349 1360
-506 352 1370
-501 351 1368
-492 347 1356
-482 343 1342
-483 347 1357
-479 347 1358
-474 346 1358
-466 343 1347
-468 348 1368
-459 345 1355
-455 345 1357
-461 352 1389
-456 352 1388
-452 352 1389
-448 352 1389
-442 350 1386
-440 352 1393
-442 357 1416
-438 357 1416
-422 348 1381
-420 350 1388
-413 347 1381
-412 350 1392
-408 350 1394
-404 350 1394
-403 353 1406
-398 353 1408
-393 352 1405
-388 351 1404
-381 348 1392
-377 349 1397
-374 350 1402
-368 348 1395
-364 348 1397
-357 345 1387
-359 351 1410
-351 347 1397
-348 349 1403
-344 349 1406
-338 347 1400
-337 350 1412
-334 351 1417
-327 349 1410
-323 349 1411
-313 343 1386
-308 341 1380
-303 340 1378
-299 341 1381
-293 339 1374
-289 339 1373
-288 343 1390
-282 341 1382
-279 341 1387
-276 342 1391
-269 339 1379
-265 339 1380
-259 337 1372
-257 340 1384
-252 339 1379
-250 341 1389
-244 338 1380
-238 335 1369
-233 335 1367
-230 337 1375
-226 336 1372
-222 336 1372
-217 335 1370
-212 333 1361
-210 336 1377
-204 333 1364
-200 333 1362
-198 336 1377
-193 335 1372
-191 338 1386
-185 335 1375
-181 335 1376
-176 334 1372
-173 336 1381
-168 334 1371
-165 336 1381
-162 338 1388
-157 336 1382
-152 333 1372
-150 338 1393
-145 337 1387
-141 336 1383
-136 334 1376
-133 337 1391
-130 339 1397
-125 336 1388
-117 327 1347
-110 317 1308
-101 305 1256
-94 293 1209
-87 283 1166
-82 277 1141
-77 273 1124
-72 267 1100
-69 267 1100
-65 265 1094
-62 265 1094
-59 264 1090
-55 264 1090
-52 264 1089
-49 265 1093
-46 265 1094
-43 266 1098
-40 270 1117
-37 271 1122
-34 272 1126
-31 277 1147
-29 283 1170
-26 290 1201
-24 311 1288
-21 317 1313
-18 327 1356
-14 337 1398
-10 343 1422
-6 338 1400
-2 336 1391
1 339 1408
5 338 1400
9 339 1408
14 340 1412
18 338 1400
22 336 1394
26 335 1391
30 335 1388
34 339 1408
38 340 1410
42 339 1407
47 340 1412
51 341 1414
55 341 1415
59 339 1407
63 341 1416
68 342 1417
71 338 1403
76 342 1421
80 342 1419
84 340 1409
89 342 1418
93 342 1419
97 342 1418
101 341 1413
105 341 1415
109 339 1406
113 340 1408
118 341 1415
122 343 1421
126 341 1415
130 340 1408
136 345 1430
139 343 1420
144 343 1422
149 345 1431
153 346 1433
156 342 1415
160 342 1418
166 346 1432
171 347 1436
175 347 1436
178 345 1430
183 346 1431
185 342 1415
192 347 1435
196 347 1433
200 346 1429
203 344 1421
209 348 1437
212 345 1426
217 345 1426
219 343 1414
225 345 1422
229 345 1425
232 343 1415
239 347 1429
241 344 1419
243 341 1405
250 344 1418
255 345 1422
259 346 1423
262 344 1414
268 346 1423
270 343 1413
277 346 1424
277 341 1401
287 348 1430
291 348 1430
294 347 1424
295 343 1407
300 343 1408
303 343 1405
311 346 1419
317 349 1428
318 344 1410
323 345 1413
327 345 1413
330 343 1405
337 346 1416
337 342 1399
343 344 1403
344 341 1391
354 347 1415
360 349 1421
364 348 1418
365 345 1405
373 348 1418
378 349 1419
386 352 1431
387 349 1418
389 347 1409
395 348 1414
399 348 1413
405 349 1417
409 350 1418
408 345 1396
418 350 1417
425 352 1425
430 352 1425
435 353 1426
434 349 1409
442 352 1418
444 350 1409
448 350 1408
454 351 1412
462 353 1421
468 355 1426
473 356 1428
475 353 1418
476 351 1407
484 354 1418
490 355 1420
493 354 1416
501 356 1424
504 356 1420
526 367 1467
528 366 1459
535 368 1465
528 359 1430
538 363 1445
539 361 1434
542 360 1428
549 362 1435
556 363 1440
559 362 1433
566 364 1438
570 363 1435
576 364 1439
575 361 1424
582 363 1428
591 365 1438
594 364 1432
602 366 1439
609 368 1442
612 367 1439
620 369 1446
625 369 1444
632 370 1447
632 368 1436
636 367 1432
632 363 1412
642 366 1422
647 366 1421
654 368 1426
669 373 1446
673 373 1443
678 373 1442
690 377 1455
696 378 1458
705 380 1463
707 379 1457
723 384 1477
737 389 1494
744 390 1496
738 385 1472
737 382 1459
733 378 1441
735 376 1433
745 378 1440
745 376 1430
757 380 1443
750 374 1418
758 376 1421
767 378 1428
767 376 1417
772 376 1416
772 373 1404
780 375 1408
779 372 1396
789 375 1403
800 378 1412
779 366 1364
782 365 1360
772 358 1332
-476 228 806
-506 244 863
-531 258 914
-597 291 1034
-693 339 1209
-719 354 1265
-718 355 1272
-704 350 1257
-692 347 1246
-671 338 1216
-660 334 1205
-656 334 1208
-653 335 1212
-655 338 1224
-643 334 1211
-649 339 1231
-670 351 1281
-712 376 1373
-760 403 1476
-751 401 1470
-667 359 1316
-563 305 1121
-547 299 1096
-549 301 1109
-545 302 1111
-540 300 1108
-539 302 1116
-544 307 1135
-520 295 1093
-559 319 1184
-527 303 1128
-527 305 1137
-520 303 1129
-522 306 1143
-514 304 1137
-509 303 1134
-508 304 1141
-505 305 1145
-504 306 1152
-500 306 1153
-501 309 1165
-520 323 1218
-551 345 1303
-556 350 1325
-553 351 1329
-554 354 1344
-554 356 1355
-545 354 1347
-541 354 1348
-533 351 1340
-526 349 1333
-519 347 1328
-520 351 1342
-520 354 1356
-513 352 1350
-510 353 1354
-499 348 1338
-497 349 1344
-490 348 1339
-488 348 1343
-479 345 1332
-474 344 1330
-473 347 1341
-466 345 1335
-465 347 1344
-464 349 1354
-458 347 1349
-456 349 1358
-457 354 1376
-449 350 1363
-446 351 1368
-447 355 1387
-438 351 1372
-433 351 1371
-438 358 1401
-426 352 1379
-419 350 1371
-410 345 1353
-405 344 1352
-408 351 1378
-404 351 1381
-398 349 1373
-403 357 1406
-394 353 1392
-385 348 1374
-380 348 1374
-374 346 1366
-374 350 1384
-372 352 1393
-369 353 1400
-364 353 1398
-357 349 1385
-355 351 1394
-349 350 1389
-339 344 1367
-340 349 1389
-332 346 1375
-331 348 1387
-330 351 1399
-324 350 1396
-319 349 1392
-310 343 1370
-304 341 1364
-304 346 1382
-296 341 1365
-292 342 1366
-286 340 1360
-283 340 1362
-278 339 1359
-276 342 1371
-271 341 1369
-266 339 1362
-262 340 1365
-257 339 1361
-254 340 1365
-249 338 1360
-243 336 1352
-242 341 1371
-235 336 1355
-233 339 1367
-230 340 1369
-224 337 1357
-221 339 1368
-215 336 1359
-213 340 1372
-207 336 1357
-201 332 1343
-200 337 1365
-196 338 1366
-192 337 1365
-188 337 1364
-184 338 1370
-180 337 1366
-174 335 1357
-171 335 1359
-168 337 1369
-164 338 1371
-160 339 1376
-157 340 1382
-152 339 1376
-146 335 1361
-144 338 1372
-140 339 1377
-136 340 1382
-133 340 1384
-129 341 1387
-124 338 1376
-114 324 1319
-108 318 1293
-101 306 1247
-92 291 1185
-87 285 1161
-81 277 1128
-76 273 1112
-72 268 1091
-68 267 1089
-65 267 1087
-61 265 1080
-58 265 1081
-55 265 1080
-51 263 1073
-49 265 1081
-46 267 1087
-43 267 1089
-40 269 1097
-37 272 1110
-34 273 1112
-31 277 1132
-28 282 1154
-26 291 1189
-23 306 1250
-20 315 1287
-17 325 1331
-14 340 1390
-10 339 1389
-6 342 1400
-2 341 1395
1 337 1382
5 341 1397
9 339 1389
13 341 1398
17 339 1387
22 340 1394
26 342 1399
30 340 1394
34 342 1401
38 342 1401
42 338 1385
46 341 1398
50 338 1386
55 343 1406
59 343 1407
63 341 1397
67 341 1396
71 340 1393
74 338 1385
79 341 1399
84 343 1407
88 345 1412
92 341 1397
96 341 1395
101 345 1412
104 341 1398
109 343 1406
114 346 1417
118 347 1420
121 343 1406
125 343 1403
129 342 1399
134 344 1408
137 342 1400
142 344 1407
146 344 1408
151 344 1409
153 339 1388
156 339 1384
164 346 1415
167 344 1406
173 346 1416
178 349 1424
180 345 1410
185 346 1412
190 347 1415
193 345 1409
198 347 1417
201 345 1407
204 343 1400
210 346 1413
216 348 1420
217 344 1403
223 347 1412
226 345 1404
228 342 1392
235 346 1407
238 343 1397
242 344 1400
247 344 1400
251 345 1402
257 347 1411
261 347 1409
265 346 1406
268 344 1397
271 343 1394
278 346 1405
278 341 1382
284 344 1394
293 349 1415
292 344 1392
297 344 1392
305 348 1409
307 346 1398
309 343 1387
315 345 1397
321 347 1404
325 348 1404
327 345 1392
333 346 1397
340 349 1408
340 345 1392
347 348 1404
347 344 1384
355 348 1400
360 348 1402
362 346 1391
371 350 1408
374 350 1405
379 350 1404
383 350 1402
392 354 1419
393 351 1406
395 349 1398
398 348 1393
403 349 1394
408 349 1394
412 349 1395
420 352 1405
421 349 1393
424 348 1389
435 354 1410
438 353 1404
442 353 1403
446 352 1399
448 351 1393
452 350 1391
462 355 1408
466 355 1406
471 355 1406
473 353 1397
483 357 1412
481 353 1394
495 360 1421
493 355 1399
511 364 1437
513 363 1430
517 362 1426
524 365 1433
526 363 1424
528 361 1418
539 366 1434
543 365 1430
545 364 1424
546 361 1414
555 364 1422
560 365 1423
565 365 1424
569 365 1421
571 363 1412
575 362 1409
582 364 1414
592 368 1427
594 366 1420
602 368 1427
601 365 1410
607 365 1412
614 367 1417
621 369 1421
630 372 1431
627 367 1412
639 371 1426
643 371 1423
649 372 1426
645 367 1405
653 369 1410
655 367 1404
672 374 1429
675 373 1423
681 374 1425
685 374 1420
706 383 1454
718 387 1467
729 390 1478
734 390 1476
739 390 1473
740 388 1463
726 379 1426
734 380 1429
735 378 1421
748 382 1433
746 379 1420
754 380 1423
761 382 1426
767 382 1426
765 379 1411
770 379 1410
772 378 1404
780 379 1406
784 379 1404
776 373 1379
786 375 1385
786 373 1375
786 371 1364
787 369 1356
-480 233 813
-557 271 949
-644 315 1106
-740 364 1281
-725 359 1265
-714 355 1255
-707 354 1251
-708 356 1263
-682 346 1226
-670 341 1214
-659 338 1204
-653 337 1201
-657 341 1217
-648 338 1210
-646 339 1215
-636 336 1206
-645 343 1232
-671 359 1293
-737 396 1430
-748 404 1463
-703 383 1386
-593 325 1179
-550 304 1103
-539 300 1089
-540 302 1099
-541 305 1110
-535 303 1107
-538 307 1122
-537 308 1128
-525 304 1113
-540 314 1154
-513 301 1106
-509 300 1105
-510 303 1116
-539 322 1189
-501 302 1115
-508 308 1141
-507 310 1149
-508 313 1161
-504 312 1160
-509 317 1181
-530 333 1240
-546 346 1290
-552 352 1315
-549 352 1319
-548 355 1329
-541 353 1323
-539 354 1329
-534 353 1329
-528 352 1325
-522 351 1322
-513 348 1313
-516 352 1331
-512 353 1334
-509 353 1338
-505 353 1340
-501 353 1340
-496 353 1341
-494 354 1347
-483 349 1329
-481 350 1336
-472 347 1324
-467 347 1324
-459 343 1313
-455 343 1314
-456 348 1331
-457 352 1348
-453 351 1347
-444 347 1334
-448 354 1362
-438 349 1342
-439 353 1360
-432 351 1351
-436 358 1381
-432 357 1380
-423 354 1367
-409 346 1338
-409 348 1350
-407 350 1357
-400 348 1350
-399 351 1362
-397 352 1369
-394 353 1373
-390 354 1377
-386 354 1379
-378 350 1365
-373 349 1362
-373 353 1379
-366 351 1370
-365 354 1384
-360 352 1379
-358 355 1390
-348 349 1368
-345 350 1374
-341 350 1375
-336 350 1373
-334 351 1380
-330 352 1383
-328 354 1392
-323 353 1390
-315 348 1371
-310 347 1369
-304 346 1363
-300 345 1363
-294 343 1354
-287 340 1343
-285 342 1352
-280 341 1350
-278 343 1359
-272 342 1352
-268 342 1354
-264 341 1351
-261 342 1357
-256 341 1351
-251 340 1348
-246 338 1344
-245 342 1360
-241 343 1363
-235 340 1352
-231 340 1352
-226 338 1346
-223 340 1354
-220 342 1362
-214 339 1350
-210 338 1346
-204 336 1340
-201 337 1344
-196 335 1336
-194 338 1350
-192 341 1362
-186 339 1354
-182 337 1349
-178 339 1357
-176 342 1369
-169 337 1349
-166 337 1352
-163 340 1362
-158 339 1359
-155 339 1361
-151 340 1362
-146 338 1356
-143 340 1366
-140 342 1373
-135 341 1369
-131 340 1366
-127 341 1371
-122 339 1362
-114 326 1311
-108 321 1289
-97 299 1203
-91 290 1168
-85 283 1139
-80 277 1113
-76 275 1106
-71 271 1090
-67 267 1074
-65 269 1083
-60 265 1068
-57 264 1061
-54 266 1073
-51 265 1065
-48 264 1064
-45 267 1075
-42 270 1089
-39 269 1082
-36 271 1093
-33 273 1100
-31 277 1118
-28 283 1141
-26 294 1187
-24 311 1254
-20 319 1287
-17 327 1322
-14 339 1369
-10 342 1381
-6 344 1389
-2 343 1387
1 339 1372
5 343 1385
9 342 1382
13 340 1375
17 340 1377
22 343 1389
26 344 1391
30 343 1387
34 342 1383
38 340 1377
42 343 1386
46 342 1384
50 340 1374
54 341 1381
58 344 1390
62 342 1383
67 344 1392
71 343 1387
75 343 1389
79 342 1385
83 342 1385
87 342 1382
91 343 1388
95 344 1391
99 343 1386
103 342 1384
108 344 1390
112 346 1398
116 343 1385
120 344 1390
124 344 1390
128 344 1389
132 344 1389
135 341 1376
141 346 1397
146 346 1399
150 346 1396
153 345 1391
159 348 1404
163 347 1401
167 347 1399
171 346 1397
173 342 1380
178 345 1392
183 347 1399
187 345 1393
191 345 1392
196 347 1397
199 346 1394
203 346 1392
206 344 1385
210 343 1381
215 344 1383
220 345 1389
224 346 1392
227 343 1379
233 346 1390
236 345 1386
240 345 1386
244 344 1382
249 345 1386
254 346 1390
259 348 1395
261 345 1384
265 345 1385
269 344 1380
274 345 1383
277 344 1378
283 346 1386
284 343 1373
295 350 1402
297 348 1393
302 350 1398
305 348 1391
310 348 1392
312 346 1381
315 345 1378
321 347 1383
323 345 1375
332 350 1395
334 348 1386
337 347 1380
342 347 1381
345 346 1377
351 347 1380
355 348 1381
362 351 1392
368 352 1395
371 351 1392
374 349 1384
379 350 1387
385 352 1392
388 351 1387
391 350 1383
399 353 1396
403 352 1392
404 350 1382
408 350 1381
414 351 1384
421 353 1391
422 351 1382
427 351 1382
433 353 1389
441 356 1399
440 352 1381
445 352 1381
453 355 1393
457 355 1390
459 353 1383
461 352 1375
469 354 1384
470 352 1373
483 358 1397
489 359 1400
492 358 1396
506 366 1424
509 365 1418
508 361 1401
514 362 1404
523 365 1417
522 361 1399
532 365 1413
535 364 1409
543 367 1417
543 364 1404
551 366 1411
557 367 1414
556 364 1399
564 366 1406
564 363 1394
568 362 1391
577 365 1401
579 364 1394
587 366 1401
586 362 1385
590 363 1385
601 366 1398
606 367 1397
612 368 1399
617 368 1400
623 369 1401
624 367 1392
637 372 1410
638 370 1399
641 369 1396
651 372 1405
658 373 1408
665 375 1413
665 372 1400
671 373 1402
682 377 1414
694 381 1427
699 381 1427
709 384 1436
722 388 1450
729 390 1453
730 388 1443
731 386 1434
732 384 1425
733 382 1415
732 379 1403
744 383 1415
747 382 1410
753 382 1409
760 383 1412
750 376 1383
763 381 1397
769 381 1396
763 376 1375
771 378 1379
777 378 1379
786 380 1385
778 374 1360
788 377 1367
789 375 1359
-594 291 1005
-712 351 1214
-769 380 1320
-746 371 1290
-716 359 1248
-711 358 1248
-702 356 1242
-688 351 1226
-685 351 1230
-662 341 1198
-650 337 1185
-648 338 1190
-646 339 1196
-647 342 1207
-649 345 1220
-637 340 1207
-635 341 1212
-652 352 1254
-704 383 1366
-747 409 1461
-718 396 1415
-640 355 1272
-557 312 1116
-546 307 1103
-542 307 1104
-543 310 1114
-536 307 1107
-561 324 1169
-516 300 1083
-546 319 1156
-545 321 1163
-527 313 1134
-529 316 1147
-512 308 1121
-520 314 1146
-522 318 1160
-510 313 1145
-509 315 1152
-507 316 1157
-504 316 1160
-516 326 1198
-538 342 1260
-544 348 1284
-550 354 1309
-535 348 1285
-538 352 1303
-531 350 1297
-526 349 1296
-528 354 1313
-516 349 1296
-511 348 1295
-507 347 1295
-505 349 1301
-502 350 1306
-499 351 1311
-502 356 1332
-499 356 1334
-492 354 1328
-483 350 1315
-479 350 1317
-472 348 1311
-464 346 1302
-462 347 1308
-456 345 1304
-452 345 1304
-453 349 1320
-452 352 1331
-447 351 1329
-439 348 1320
-442 353 1342
-439 354 1345
-435 354 1347
-424 349 1327
-427 354 1350
-423 355 1353
-415 351 1340
-412 352 1344
-407 351 1342
-397 347 1326
-396 349 1336
-395 351 1348
-391 352 1350
-386 350 1345
-385 353 1359
-379 352 1353
-374 351 1351
-366 347 1338
-365 350 1350
-361 350 1349
-359 352 1357
-355 352 1362
-346 348 1344
-345 351 1357
-342 351 1359
-340 353 1368
-335 352 1365
-330 351 1364
-327 353 1371
-326 356 1382
-320 354 1376
-316 354 1378
-307 348 1356
-301 347 1350
-293 342 1334
-292 345 1345
-286 343 1339
-281 342 1334
-278 343 1339
-275 344 1345
-269 341 1335
-267 344 1344
-262 343 1342
-256 340 1332
-254 343 1345
-250 343 1344
-248 345 1353
-241 341 1340
-238 342 1344
-232 340 1337
-228 339 1334
-225 341 1340
-220 339 1334
-213 334 1316
-211 338 1331
-207 338 1330
-203 338 1331
-198 335 1321
-194 336 1325
-191 338 1333
-188 338 1335
-184 339 1339
-180 338 1337
-177 340 1342
-173 340 1345
-168 338 1336
-165 341 1348
-162 341 1350
-157 340 1345
-152 338 1340
-150 341 1353
-145 339 1342
-141 339 1343
-138 342 1358
-134 341 1354
-129 340 1349
-124 338 1341
-122 341 1353
-113 327 1298
-105 316 1254
-96 301 1195
-90 291 1155
-84 282 1121
-78 276 1096
-74 271 1076
-71 271 1077
-67 269 1068
-64 268 1065
-60 266 1056
-57 266 1056
-54 266 1057
-51 266 1059
-47 266 1057
-44 267 1061
-42 269 1069
-39 272 1083
-36 272 1082
-33 276 1098
-30 279 1112
-28 284 1132
-25 291 1160
-23 308 1229
-20 322 1283
-17 332 1325
-14 340 1356
-10 341 1359
-6 342 1366
-2 344 1373
1 338 1351
5 343 1370
9 341 1361
13 342 1366
17 342 1368
22 347 1386
25 342 1367
29 343 1372
34 344 1374
38 345 1380
42 343 1370
46 346 1381
50 343 1372
53 341 1364
58 342 1367
62 343 1371
66 347 1386
70 345 1380
74 344 1375
78 345 1376
82 345 1379
86 344 1372
90 342 1367
94 344 1372
98 343 1370
103 347 1385
106 343 1368
111 345 1378
115 345 1376
119 344 1374
124 348 1389
127 343 1370
132 347 1383
136 347 1384
140 346 1380
144 345 1377
149 348 1389
152 345 1375
156 345 1375
161 347 1385
164 345 1374
169 347 1383
172 345 1375
178 349 1391
181 346 1380
186 348 1387
191 349 1391
195 350 1392
198 348 1383
201 346 1375
206 348 1383
208 343 1364
213 345 1371
218 346 1375
220 344 1366
226 346 1372
229 344 1366
234 346 1374
237 344 1364
244 348 1382
246 346 1373
252 348 1378
254 345 1366
258 345 1365
264 348 1377
265 343 1357
270 345 1364
277 349 1379
277 343 1357
286 349 1379
289 347 1372
292 347 1369
300 351 1386
304 351 1383
306 349 1374
309 347 1367
314 347 1369
321 351 1384
324 350 1377
328 350 1376
329 346 1361
334 347 1364
339 348 1366
342 347 1364
345 345 1355
349 346 1356
355 348 1363
357 345 1353
365 349 1368
375 355 1388
373 348 1363
381 352 1377
387 354 1384
386 349 1364
391 350 1368
399 353 1377
402 353 1374
408 354 1378
411 353 1374
415 353 1373
420 353 1372
421 351 1363
427 352 1367
429 351 1360
438 354 1372
442 354 1371
450 357 1380
449 353 1364
458 357 1378
461 356 1373
464 354 1367
469 355 1370
474 356 1371
486 362 1392
493 363 1397
498 364 1398
501 363 1393
503 361 1386
513 366 1401
519 366 1403
524 367 1403
527 366 1399
529 365 1393
528 361 1377
538 364 1389
541 363 1384
555 370 1407
552 365 1387
556 365 1386
566 369 1398
569 367 1392
572 367 1389
574 365 1381
577 364 1376
583 365 1378
586 364 1373
594 367 1381
602 369 1388
604 367 1379
612 370 1387
614 368 1380
625 372 1393
626 370 1383
626 367 1372
637 371 1386
643 372 1387
645 371 1380
649 371 1378
656 372 1380
663 373 1383
674 377 1397
678 377 1393
692 382 1411
706 387 1427
711 387 1426
716 387 1425
714 384 1410
712 380 1396
725 384 1409
721 380 1390
726 380 1390
726 378 1379
734 380 1383
744 382 1391
747 381 1386
755 383 1390
757 382 1384
755 379 1369
757 377 1363
761 377 1359
772 380 1368
770 377 1355
768 374 1341
781 378 1354
784 377 1349
-780 386 1318
-781 389 1330
-767 384 1315
-738 372 1275
-716 363 1246
-703 358 1233
-698 358 1234
-683 352 1217
-669 347 1201
-659 344 1192
-652 342 1188
-644 340 1183
-641 341 1187
-637 340 1187
-632 340 1187
-633 342 1199
-632 344 1207
-639 350 1229
-691 380 1339
-735 407 1436
-737 411 1451
-693 389 1375
-595 336 1191
-553 315 1115
-540 309 1098
-543 313 1114
-536 311 1108
-538 314 1120
-523 308 1098
-555 329 1175
-523 312 1116
-520 312 1119
-522 316 1133
-519 316 1135
-512 314 1130
-513 316 1140
-512 318 1148
-506 317 1145
-510 321 1162
-514 326 1182
-531 339 1232
-548 352 1282
-544 353 1284
-543 355 1293
-538 354 1291
-530 351 1284
-528 352 1290
-525 353 1294
-518 351 1288
-513 350 1286
-510 351 1292
-501 348 1279
-502 351 1293
-501 353 1303
-500 355 1312
-495 355 1312
-485 350 1296
-480 350 1296
-476 350 1297
-470 348 1292
-464 347 1290
-466 351 1307
-454 345 1284
-457 350 1305
-451 348 1300
-449 350 1307
-446 351 1313
-444 352 1319
-439 351 1317
-436 353 1324
-432 352 1322
-426 351 1319
-423 352 1324
-425 357 1344
-421 357 1345
-415 355 1340
-404 349 1318
-397 347 1309
-391 345 1305
-390 348 1316
-388 350 1324
-389 354 1340
-383 352 1334
-377 350 1330
-373 350 1329
-368 350 1329
-363 349 1326
-358 347 1321
-352 346 1317
-352 350 1333
-351 352 1343
-348 353 1350
-342 351 1341
-337 350 1339
-335 352 1347
-330 352 1346
-326 351 1347
-324 353 1354
-317 350 1344
-316 353 1356
-307 348 1338
-300 345 1325
-293 342 1315
-290 342 1318
-289 345 1330
-282 342 1319
-278 342 1319
-275 344 1325
-271 343 1324
-267 343 1325
-263 343 1325
-259 343 1325
-254 341 1321
-254 346 1340
-248 344 1334
-243 342 1325
-237 339 1314
-236 344 1335
-229 339 1316
-227 342 1327
-221 339 1318
-217 339 1317
-213 339 1319
-208 337 1310
-204 337 1311
-200 336 1307
-197 338 1318
-194 339 1321
-190 339 1320
-186 339 1324
-184 342 1335
-178 340 1326
-175 341 1330
-172 341 1334
-166 339 1324
-164 342 1335
-160 342 1337
-156 341 1336
-152 342 1340
-148 341 1336
-144 341 1336
-139 340 1332
-137 343 1343
-133 343 1344
-129 343 1343
-124 342 1341
-119 337 1323
-112 329 1290
-103 313 1229
-95 300 1176
-88 291 1140
-83 284 1114
-79 282 1105
-74 274 1074
-69 270 1058
-66 269 1056
-63 267 1049
-59 267 1047
-57 268 1053
-53 267 1047
-50 269 1057
-47 268 1052
-44 267 1049
-41 269 1058
-38 272 1068
-35 273 1073
-33 276 1084
-30 278 1093
-27 282 1109
-25 294 1159
-23 310 1220
-20 320 1262
-17 333 1311
-14 341 1346
-10 341 1345
-6 344 1356
-2 341 1346
1 342 1350
5 341 1345
9 344 1359
13 341 1347
17 343 1353
21 344 1357
25 344 1356
29 345 1362
33 341 1345
37 343 1355
41 342 1350
45 345 1360
49 345 1360
54 346 1367
58 346 1366
61 344 1359
65 342 1350
70 346 1364
74 346 1365
78 345 1363
81 344 1359
85 344 1358
89 344 1358
93 345 1360
98 346 1366
102 347 1367
105 344 1355
110 346 1364
114 346 1366
119 348 1371
123 348 1370
126 347 1366
130 345 1359
135 348 1373
139 347 1367
142 345 1359
146 346 1364
151 347 1367
155 346 1364
158 345 1356
164 349 1372
165 343 1349
172 350 1377
175 347 1367
179 346 1361
184 349 1373
187 346 1361
193 350 1377
197 350 1374
201 349 1371
205 349 1369
208 348 1365
213 349 1371
213 342 1342
218 345 1353
222 345 1352
226 345 1351
234 349 1369
237 348 1365
239 346 1354
243 345 1353
248 347 1357
253 348 1363
255 345 1350
262 349 1366
264 346 1353
268 346 1352
276 352 1373
278 349 1361
279 345 1345
287 349 1361
288 346 1349
292 346 1348
298 348 1356
301 347 1351
306 348 1354
313 350 1364
314 347 1351
316 345 1343
324 349 1356
327 348 1352
331 348 1352
334 347 1346
341 350 1356
343 347 1347
348 348 1349
352 349 1350
356 349 1349
364 353 1363
363 348 1343
368 348 1344
375 351 1353
377 349 1345
386 354 1363
393 356 1371
396 355 1367
392 348 1337
402 353 1357
410 356 1369
415 357 1370
416 354 1358
420 354 1357
421 351 1345
428 354 1355
432 354 1354
439 356 1361
439 353 1347
446 355 1355
453 357 1363
456 356 1358
459 355 1352
467 358 1361
468 356 1352
474 357 1355
481 359 1364
492 364 1382
504 370 1402
504 366 1388
505 364 1376
510 364 1378
518 367 1387
513 360 1360
522 364 1372
526 364 1371
531 364 1371
539 366 1378
540 365 1370
550 368 1380
551 366 1372
561 369 1383
564 369 1380
560 363 1358
575 370 1383
574 367 1368
577 366 1363
581 366 1361
585 365 1358
600 372 1380
603 371 1376
602 368 1363
613 372 1376
620 373 1379
623 372 1375
621 369 1360
631 372 1371
639 374 1376
647 376 1383
649 375 1376
645 370 1356
649 370 1354
662 374 1369
671 377 1377
680 380 1385
695 385 1404
690 380 1384
694 380 1380
698 380 1378
704 380 1378
708 380 1376
715 381 1377
716 379 1369
727 383 1380
729 381 1372
734 382 1372
736 381 1365
741 381 1363
752 384 1373
756 384 1370
759 383 1366
758 380 1352
757 377 1340
761 377 1338
775 382 1353
769 377 1332
775 377 1332
-801 401 1353
-779 392 1325
-757 383 1297
-733 374 1267
-706 362 1229
-700 361 1228
-695 360 1228
-675 352 1201
-663 348 1190
-650 343 1175
-646 343 1176
-639 341 1172
-639 343 1182
-625 338 1164
-625 340 1174
-627 343 1186
-624 344 1191
-635 351 1220
-678 377 1312
-737 413 1438
-752 424 1479
-726 412 1439
-666 381 1332
-573 330 1154
-541 314 1099
-545 318 1115
-539 316 1112
-535 316 1113
-536 319 1125
-525 314 1110
-514 310 1096
-521 316 1119
-522 319 1132
-519 320 1135
-516 320 1137
-512 319 1138
-509 320 1140
-511 323 1155
-512 326 1168
-522 335 1200
-541 350 1254
-543 353 1269
-535 351 1262
-535 353 1272
-528 351 1267
-530 355 1282
-520 351 1268
-517 352 1273
-514 352 1276
-508 351 1273
-504 351 1275
-500 351 1275
-496 351 1278
-496 354 1289
-495 356 1298
-488 353 1291
-488 356 1303
-479 353 1293
-473 351 1287
-469 352 1290
-465 352 1291
-453 345 1269
-451 347 1277
-444 344 1269
-450 352 1296
-445 351 1296
-440 351 1295
-440 353 1306
-440 356 1319
-433 355 1314
-430 355 1318
-429 358 1329
-425 358 1329
-424 360 1340
-419 359 1337
-411 356 1325
-400 350 1306
-398 351 1311
-392 350 1307
-389 350 1310
-388 353 1322
-382 351 1315
-380 353 1323
-375 352 1321
-368 350 1313
-364 349 1313
-362 352 1322
-359 352 1325
-353 351 1321
-348 350 1318
-350 355 1338
-343 352 1329
-341 355 1339
-336 354 1336
-328 349 1321
-325 350 1325
-320 349 1320
-315 347 1316
-306 342 1297
-300 340 1290
-295 338 1283
-287 334 1268
-282 333 1264
-283 337 1283
-279 337 1284
-278 342 1301
-275 342 1303
-273 345 1316
-267 342 1306
-266 346 1320
-261 344 1313
-257 344 1313
-253 344 1313
-248 342 1308
-245 344 1317
-240 343 1311
-239 346 1326
-230 339 1300
-227 341 1306
-223 339 1302
-221 342 1314
-215 340 1304
-211 340 1305
-208 340 1308
-203 339 1304
-198 337 1296
-195 339 1304
-190 337 1296
-188 339 1306
-185 341 1313
-181 342 1316
-175 338 1302
-174 342 1321
-170 342 1321
-166 343 1322
-163 344 1328
-158 342 1321
-153 339 1309
-150 342 1321
-146 342 1321
-142 341 1320
-139 343 1327
-136 344 1332
-132 346 1338
-127 343 1329
-123 343 1328
-119 341 1320
-111 331 1282
-102 315 1219
-94 301 1168
-86 288 1114
-82 283 1096
-77 278 1078
-73 274 1063
-69 272 1055
-66 270 1048
-62 269 1044
-59 269 1044
-56 269 1044
-52 267 1035
-50 268 1038
-47 269 1044
-43 266 1033
-41 272 1055
-38 270 1050
-35 275 1069
-32 276 1074
-29 279 1085
-27 282 1095
-25 295 1146
-22 310 1206
-20 324 1260
-17 331 1290
-13 341 1330
-10 345 1346
-6 343 1335
-2 341 1330
1 344 1340
5 343 1336
9 344 1342
13 344 1339
17 346 1349
21 346 1351
25 346 1350
29 347 1351
33 346 1349
37 345 1346
41 342 1335
45 347 1351
49 346 1350
54 350 1364
57 347 1351
61 346 1350
65 345 1346
69 345 1344
73 345 1346
77 349 1360
82 350 1365
85 348 1357
89 347 1353
92 344 1340
97 347 1352
101 347 1353
105 345 1346
109 347 1352
113 347 1353
117 348 1355
122 350 1364
124 345 1342
129 347 1349
133 346 1346
137 347 1349
142 350 1360
144 345 1340
148 345 1342
153 347 1349
159 351 1365
162 348 1352
166 348 1353
169 347 1350
174 348 1353
178 348 1353
180 345 1338
186 349 1354
190 348 1352
194 349 1354
196 345 1337
202 349 1354
206 348 1350
210 348 1350
214 349 1352
217 347 1344
221 347 1343
224 345 1336
228 345 1336
234 347 1345
236 344 1332
242 348 1345
244 345 1334
249 347 1341
253 347 1339
258 348 1342
259 344 1328
266 348 1342
270 347 1339
274 347 1339
279 348 1343
284 350 1349
286 348 1339
291 348 1339
299 353 1357
303 353 1358
303 348 1337
308 349 1342
313 350 1344
316 349 1339
320 349 1339
326 351 1347
327 348 1334
332 348 1335
336 349 1335
339 348 1332
345 350 1340
349 349 1335
353 350 1338
359 352 1343
364 352 1345
373 357 1361
370 351 1337
376 352 1342
380 352 1341
386 354 1347
388 352 1338
395 355 1349
397 353 1340
402 353 1341
403 351 1330
408 351 1332
411 350 1327
421 355 1345
422 353 1335
428 355 1341
435 357 1349
434 353 1331
441 355 1339
448 357 1346
446 352 1326
458 358 1348
461 357 1343
463 356 1337
472 360 1350
479 362 1356
487 365 1367
495 367 1374
501 368 1378
502 366 1369
505 365 1362
505 362 1350
511 364 1355
512 361 1345
526 368 1370
523 362 1347
531 365 1356
540 369 1368
538 364 1350
548 368 1363
549 366 1352
555 367 1355
564 370 1365
561 365 1347
570 369 1358
570 365 1345
580 369 1357
580 366 1346
590 370 1357
589 367 1344
589 364 1333
603 370 1353
610 372 1357
613 371 1353
619 372 1355
621 371 1349
633 375 1363
636 374 1357
644 376 1365
642 373 1349
642 370 1337
653 374 1350
658 374 1350
673 380 1369
673 378 1359
679 378 1359
687 380 1365
691 380 1362
692 378 1352
699 379 1356
702 379 1352
704 377 1345
718 382 1361
720 381 1354
726 382 1356
733 383 1358
738 383 1356
747 386 1363
742 381 1344
749 382 1345
759 385 1354
759 383 1344
769 386 1351
763 380 1330
764 378 1322
764 376 1313
-765 387 1291
-752 383 1278
-735 376 1258
-727 375 1255
-699 362 1216
-684 356 1198
-683 358 1205
-668 352 1188
-662 351 1187
-645 344 1165
-644 346 1172
-632 341 1158
-626 340 1156
-623 340 1159
-628 345 1178
-621 344 1175
-621 346 1184
-627 351 1204
-665 375 1287
-702 398 1369
-715 407 1405
-717 411 1420
-686 396 1370
-619 360 1246
-565 331 1148
-541 319 1107
-534 317 1100
-537 321 1116
-532 320 1116
-530 321 1120
-527 321 1122
-528 324 1134
-520 321 1126
-519 323 1134
-513 322 1131
-516 325 1145
-515 327 1153
-513 328 1158
-523 337 1191
-538 349 1235
-534 349 1237
-540 356 1262
-531 352 1250
-528 353 1254
-530 356 1269
-518 351 1253
-515 352 1256
-510 351 1256
-506 351 1256
-501 350 1255
-500 352 1263
-494 351 1259
-496 355 1277
-488 352 1268
-488 355 1278
-483 354 1277
-478 354 1277
-475 354 1281
-468 351 1272
-462 350 1270
-454 347 1259
-456 351 1276
-452 351 1277
-441 346 1260
-441 349 1272
-441 352 1284
-438 353 1287
-436 354 1294
-435 357 1305
-427 353 1293
-425 355 1300
-425 358 1313
-419 357 1311
-415 357 1312
-416 361 1328
-412 361 1328
-402 355 1309
-393 352 1297
-392 354 1305
-384 350 1292
-384 354 1307
-382 355 1315
-375 353 1306
-370 352 1303
-368 354 1312
-364 353 1311
-362 355 1319
-356 353 1312
-350 352 1309
-348 354 1317
-346 355 1322
-341 355 1322
-336 353 1318
-329 350 1307
-314 338 1262
-308 335 1253
-304 336 1255
-301 337 1260
-303 343 1285
-290 333 1246
-283 329 1232
-285 335 1256
-279 332 1248
-271 327 1229
-260 318 1196
-271 337 1267
-273 344 1295
-270 345 1299
-267 346 1304
-262 344 1298
-257 343 1293
-252 341 1288
-251 345 1302
-247 345 1303
-244 346 1309
-237 342 1294
-234 343 1299
-228 341 1290
-226 343 1299
-221 342 1294
-218 342 1297
-214 342 1295
-209 339 1288
-203 337 1281
-200 338 1285
-197 340 1291
-193 340 1291
-190 340 1292
-187 341 1299
-182 341 1297
-180 344 1308
-176 342 1303
-172 343 1306
-169 345 1315
-164 343 1309
-160 342 1305
-157 343 1308
-152 341 1302
-148 341 1302
-145 343 1312
-140 340 1301
-138 346 1321
-134 344 1315
-131 346 1325
-126 344 1315
-121 342 1308
-117 340 1303
-109 327 1251
-100 313 1196
-92 299 1144
-86 290 1111
-81 283 1083
-76 277 1062
-72 275 1051
-69 273 1047
-64 269 1031
-61 269 1031
-58 268 1028
-55 267 1024
-52 269 1030
-49 266 1018
-46 267 1025
-43 268 1029
-40 270 1037
-38 274 1050
-34 272 1044
-32 277 1065
-29 282 1082
-26 283 1086
-24 293 1124
-22 308 1185
-19 321 1236
-16 331 1273
-13 346 1330
-9 346 1332
-5 345 1327
-2 346 1333
1 344 1325
5 346 1333
9 343 1321
13 346 1333
17 344 1326
21 346 1331
25 346 1332
29 344 1325
33 343 1322
37 345 1327
41 347 1338
45 349 1344
49 347 1335
52 345 1329
57 347 1337
60 346 1334
64 347 1335
68 346 1331
72 347 1335
76 346 1332
80 345 1328
84 347 1337
87 344 1326
92 347 1338
95 344 1326
99 345 1328
104 348 1339
108 346 1333
112 349 1344
116 349 1343
119 345 1329
123 346 1330
127 345 1327
132 348 1337
136 348 1339
140 348 1337
144 349 1343
147 346 1329
152 349 1340
156 348 1338
160 349 1341
164 349 1339
167 347 1332
172 348 1338
177 351 1348
180 349 1338
185 350 1344
187 347 1333
191 346 1328
196 348 1335
200 349 1337
202 345 1323
206 346 1324
212 348 1334
217 350 1340
219 348 1331
224 348 1333
225 345 1318
230 346 1322
233 345 1318
240 349 1335
243 347 1325
245 345 1317
252 348 1329
256 349 1332
259 347 1325
263 347 1323
267 347 1323
272 349 1329
277 350 1333
281 350 1331
287 353 1342
285 345 1313
293 350 1330
296 349 1326
300 348 1323
305 350 1330
310 351 1332
314 351 1332
316 349 1322
319 348 1318
325 349 1323
328 348 1318
335 352 1332
335 348 1314
342 350 1324
344 349 1317
351 352 1328
353 350 1321
359 352 1327
365 353 1330
368 352 1326
369 350 1315
375 351 1322
382 354 1330
383 352 1321
393 356 1338
390 350 1312
401 357 1338
406 357 1339
403 351 1315
413 356 1333
416 356 1330
420 355 1328
424 355 1324
425 352 1313
435 357 1331
440 358 1333
440 355 1320
448 358 1330
448 354 1316
454 356 1322
462 359 1332
471 363 1346
477 364 1350
484 366 1357
489 367 1357
492 366 1354
498 367 1357
498 364 1343
502 364 1340
507 365 1343
513 366 1345
513 363 1335
519 364 1337
526 366 1342
527 364 1332
535 366 1341
543 369 1348
546 368 1345
554 371 1353
556 369 1345
559 368 1340
560 366 1332
570 370 1343
573 369 1341
571 365 1324
585 371 1346
589 371 1342
586 366 1325
593 368 1329
604 372 1342
607 372 1339
611 371 1336
620 374 1344
624 374 1342
627 373 1338
633 374 1338
634 372 1329
629 367 1309
648 375 1338
655 377 1341
662 378 1345
669 380 1349
676 381 1353
679 380 1347
687 382 1353
690 382 1349
695 382 1348
697 380 1341
708 384 1351
703 379 1332
716 383 1346
719 383 1340
719 380 1331
731 384 1342
727 380 1326
733 381 1326
744 384 1336
738 378 1314
745 380 1318
753 382 1321
758 382 1320
762 382 1317
769 383 1319
-752 385 1267
-735 379 1248
-728 377 1245
-717 374 1237
-684 359 1189
-688 363 1204
-676 359 1193
-660 352 1172
-650 349 1164
-641 346 1157
-634 344 1153
-631 345 1156
-624 343 1153
-621 343 1155
-621 345 1163
-616 345 1164
-614 346 1169
-628 356 1205
-652 372 1261
-687 394 1340
-690 398 1356
-691 401 1369
-683 399 1364
-646 380 1300
-608 360 1232
-575 343 1176
-546 328 1125
-542 327 1126
-535 326 1121
-535 327 1129
-526 324 1120
-522 324 1121
-519 324 1123
-519 326 1132
-523 331 1151
-520 331 1153
-514 331 1151
-526 340 1187
-543 354 1235
-543 356 1245
-536 354 1240
-532 354 1243
-528 354 1244
-523 353 1241
-523 356 1253
-516 354 1246
-517 357 1260
-504 351 1240
-504 354 1250
-498 352 1247
-488 348 1233
-488 351 1244
-491 355 1262
-490 357 1271
-476 350 1248
-478 354 1263
-471 352 1256
-468 353 1261
-463 352 1260
-460 353 1264
-455 351 1260
-450 351 1260
-449 353 1267
-439 349 1253
-440 352 1268
-440 356 1281
-431 351 1267
-432 355 1281
-431 358 1292
-432 362 1308
-422 356 1290
-424 362 1311
-415 358 1297
-413 359 1303
-408 358 1300
-410 363 1321
-401 359 1306
-391 353 1287
-385 351 1280
-384 354 1292
-379 353 1290
-383 361 1318
-370 352 1289
-369 355 1298
-364 354 1296
-362 356 1304
-355 352 1293
-350 352 1291
-347 352 1294
-345 354 1303
-340 353 1300
-337 354 1303
-332 353 1303
-316 340 1255
-309 337 1243
-293 324 1195
-302 337 1246
-307 348 1285
-284 325 1203
-274 318 1177
-283 333 1233
-278 331 1226
-279 337 1250
-267 327 1213
-265 328 1220
-270 339 1260
-269 343 1275
-268 346 1286
-262 344 1279
-260 346 1288
-257 346 1291
-252 345 1287
-247 344 1282
-242 342 1276
-242 347 1298
-235 343 1281
-234 347 1299
-229 345 1290
-225 345 1289
-220 344 1288
-216 343 1284
-212 342 1283
-208 342 1281
-204 342 1283
-199 341 1279
-195 341 1279
-192 341 1282
-187 338 1271
-185 342 1285
-182 344 1294
-177 342 1288
-174 343 1289
-170 343 1293
-167 344 1294
-162 342 1289
-159 344 1297
-156 345 1300
-152 344 1299
-148 345 1301
-144 345 1302
-141 346 1305
-135 342 1293
-133 346 1308
-129 346 1308
-126 347 1310
-121 346 1307
-115 338 1279
-108 330 1247
-98 311 1175
-91 297 1124
-85 291 1100
-80 284 1072
-75 277 1049
-71 275 1040
-68 273 1034
-64 271 1024
-61 271 1025
-58 271 1024
-54 268 1014
-51 267 1012
-49 269 1019
-46 269 1020
-43 269 1018
-40 270 1024
-37 273 1034
-34 273 1035
-31 276 1045
-29 281 1066
-26 284 1076
-23 290 1101
-22 308 1169
-19 323 1226
-16 330 1256
-13 342 1302
-9 345 1311
-5 346 1317
-2 347 1319
1 346 1317
5 347 1321
9 345 1312
13 349 1329
17 348 1322
21 347 1319
25 346 1315
29 346 1316
32 346 1316
36 344 1310
40 345 1313
44 346 1317
48 347 1322
52 347 1322
56 349 1329
60 349 1328
63 345 1313
68 347 1319
72 349 1326
75 347 1320
79 347 1319
83 346 1316
88 349 1328
91 346 1316
95 347 1318
98 345 1312
103 349 1329
108 350 1330
111 348 1325
115 349 1325
119 350 1330
122 346 1313
126 346 1316
130 348 1322
135 349 1326
137 345 1310
142 348 1322
145 346 1313
151 349 1326
155 350 1329
159 351 1333
161 347 1316
166 349 1323
170 348 1321
176 352 1334
178 349 1324
181 346 1312
186 349 1322
189 347 1316
193 346 1312
198 348 1319
201 348 1316
205 347 1312
209 347 1314
212 347 1312
218 350 1323
221 349 1317
226 350 1324
229 348 1315
233 349 1317
236 346 1308
241 348 1313
245 348 1313
250 350 1319
254 350 1321
258 350 1319
260 348 1311
264 347 1306
271 351 1321
273 349 1312
277 349 1314
281 348 1310
287 351 1319
289 349 1310
293 349 1309
297 349 1311
305 354 1326
307 351 1316
310 350 1313
316 353 1322
319 352 1317
322 351 1313
326 351 1311
332 352 1317
333 350 1307
342 354 1323
343 351 1311
349 353 1317
350 351 1307
355 352 1311
361 353 1315
364 353 1313
369 353 1313
376 356 1324
379 355 1318
378 350 1300
385 353 1310
391 355 1317
391 351 1300
400 356 1319
403 355 1313
410 358 1322
407 351 1298
415 355 1309
420 356 1312
427 358 1320
427 355 1307
433 356 1311
439 358 1315
442 357 1311
449 359 1319
457 363 1331
455 358 1312
464 361 1323
473 365 1337
476 364 1331
485 368 1345
482 363 1325
490 365 1333
491 363 1324
499 366 1332
500 363 1322
507 366 1328
509 364 1321
516 366 1328
518 364 1321
522 365 1320
531 368 1331
537 369 1333
537 366 1322
547 370 1333
550 369 1330
555 370 1331
558 369 1326
563 370 1327
569 370 1328
571 369 1321
573 368 1316
580 369 1320
585 370 1321
589 370 1319
591 369 1313
598 370 1316
601 369 1312
608 371 1317
618 375 1328
624 375 1329
629 376 1329
631 374 1322
635 375 1321
643 377 1327
652 379 1334
649 375 1317
653 375 1315
664 378 1326
665 377 1318
675 380 1328
683 382 1333
682 379 1320
689 380 1324
696 382 1326
699 381 1323
700 379 1313
707 381 1317
715 383 1322
714 380 1311
727 384 1324
726 381 1311
733 383 1314
735 382 1309
738 381 1304
745 382 1306
753 384 1310
755 383 1304
756 381 1296
-717 371 1207
-715 372 1213
-700 367 1196
-694 366 1196
-687 364 1192
-672 358 1175
-663 356 1169
-652 352 1158
-644 350 1153
-637 348 1148
-626 344 1137
-621 343 1137
-623 346 1149
-617 345 1147
-616 347 1154
-611 346 1154
-610 347 1160
-636 364 1219
-659 380 1274
-684 397 1333
-690 402 1353
-682 400 1349
-675 399 1346
-663 394 1332
-629 377 1275
-608 366 1242
-582 353 1199
-553 338 1148
-537 330 1124
-529 327 1115
-531 331 1129
-534 335 1145
-523 331 1132
-523 333 1140
-521 334 1146
-515 332 1142
-519 337 1160
-532 348 1200
-546 360 1242
-543 360 1244
-538 359 1243
-525 353 1224
-523 355 1230
-515 352 1223
-506 349 1212
-509 353 1228
-507 354 1234
-500 352 1228
-497 352 1232
-495 354 1239
-492 355 1243
-484 352 1233
-485 355 1247
-481 355 1247
-473 352 1238
-470 353 1243
-464 351 1237
-460 351 1239
-460 354 1251
-456 354 1251
-449 351 1244
-442 349 1237
-438 348 1235
-436 350 1244
-431 349 1240
-429 351 1248
-434 357 1273
-430 358 1275
-427 358 1279
-421 356 1274
-421 360 1288
-420 362 1296
-419 364 1306
-410 360 1291
-407 361 1298
-406 364 1309
-392 355 1277
-388 355 1276
-384 355 1277
-379 353 1275
-375 354 1276
-374 356 1288
-372 358 1295
-363 353 1276
-360 354 1281
-355 353 1278
-350 352 1275
-347 352 1277
-342 352 1277
-342 355 1291
-336 354 1286
-333 354 1288
-329 354 1290
-317 345 1258
-304 335 1221
-310 346 1264
-301 339 1239
-284 325 1188
-294 340 1244
-292 342 1252
-271 322 1179
-275 331 1212
-272 332 1218
-267 330 1209
-273 343 1258
-269 342 1255
-268 346 1271
-264 345 1267
-260 345 1270
-256 345 1269
-253 345 1272
-251 348 1284
-246 346 1276
-242 347 1279
-239 347 1281
-234 345 1275
-232 347 1284
-227 346 1280
-221 343 1269
-219 346 1280
-213 342 1267
-207 339 1255
-207 344 1275
-202 342 1270
-198 342 1267
-193 339 1259
-192 344 1278
-186 341 1265
-184 345 1280
-180 344 1280
-176 344 1277
-172 344 1278
-169 345 1285
-165 344 1282
-162 346 1287
-157 344 1282
-155 348 1296
-150 344 1283
-147 346 1290
-144 347 1296
-138 344 1282
-135 345 1288
-132 347 1296
-128 346 1291
-125 349 1304
-121 348 1300
-113 337 1260
-106 328 1224
-96 306 1145
-90 299 1117
-84 290 1085
-79 283 1056
-75 281 1049
-70 275 1028
-67 273 1021
-63 270 1011
-60 270 1008
-57 270 1011
-54 268 1004
-51 267 998
-48 268 1004
-45 268 1002
-42 271 1014
-40 272 1020
-37 273 1022
-34 275 1031
-31 277 1039
-29 282 1056
-26 287 1076
-23 292 1095
-21 305 1146
-19 319 1199
-16 328 1231
-13 340 1277
-9 347 1302
-5 349 1310
-1 346 1299
1 349 1311
5 347 1303
9 349 1312
13 346 1300
17 346 1301
21 349 1311
25 348 1309
28 345 1299
32 349 1314
36 349 1313
40 348 1307
44 349 1312
48 348 1310
51 346 1301
55 346 1302
60 352 1323
63 345 1296
66 345 1296
72 351 1319
76 351 1321
79 351 1318
83 350 1317
86 347 1306
91 352 1325
94 348 1308
98 347 1303
103 350 1316
106 350 1314
110 348 1306
115 352 1324
118 349 1309
121 348 1308
125 348 1307
129 347 1303
133 347 1302
138 351 1319
141 349 1310
144 346 1300
150 351 1316
151 345 1294
157 350 1314
160 347 1300
164 349 1307
168 348 1304
172 348 1306
178 352 1319
183 354 1327
186 352 1318
189 352 1317
192 349 1306
196 349 1305
198 346 1296
204 349 1306
207 349 1304
211 348 1299
217 352 1315
219 349 1302
223 349 1303
228 351 1311
229 346 1289
235 350 1304
240 351 1307
244 351 1307
247 349 1302
251 350 1302
254 349 1299
259 349 1301
262 348 1296
268 352 1308
272 351 1305
274 350 1299
278 349 1297
282 350 1299
288 351 1305
292 351 1303
296 352 1305
299 350 1299
304 352 1304
308 352 1305
311 351 1299
312 348 1285
321 353 1305
324 352 1302
329 353 1305
330 351 1294
334 350 1292
341 354 1305
344 352 1297
351 355 1308
355 356 1309
357 353 1300
363 356 1307
365 354 1300
370 355 1302
374 355 1302
379 355 1304
380 353 1294
386 355 1300
393 357 1307
392 352 1289
399 356 1299
407 359 1310
407 356 1298
417 360 1314
417 357 1301
424 360 1310
430 361 1313
428 356 1295
432 356 1295
436 357 1294
444 359 1303
448 360 1304
455 362 1309
461 363 1314
462 361 1306
467 361 1305
479 367 1326
484 368 1329
480 362 1304
487 364 1310
488 362 1303
492 362 1301
499 364 1305
504 364 1307
510 366 1312
514 366 1309
511 361 1290
525 368 1314
532 369 1319
526 363 1294
536 367 1306
545 370 1316
549 370 1314
558 373 1325
561 372 1320
562 370 1310
566 370 1309
564 366 1294
571 368 1300
577 369 1301
588 373 1315
592 373 1313
590 369 1298
600 373 1309
603 372 1306
609 373 1308
613 373 1305
619 374 1307
626 376 1310
623 371 1294
633 375 1304
637 375 1303
644 376 1307
655 380 1318
657 379 1311
661 378 1308
667 380 1311
663 375 1293
675 379 1305
677 378 1300
685 380 1305
695 383 1314
691 379 1296
708 386 1318
707 382 1305
713 383 1307
720 385 1309
720 383 1300
722 382 1294
737 387 1310
739 385 1304
734 381 1285
746 385 1298
748 384 1291
750 382 1284
-708 371 1191
-698 368 1183
-693 367 1183
-680 363 1171
-672 360 1166
-657 354 1148
-653 354 1150
-641 350 1137
-641 352 1146
-627 346 1130
-628 349 1140
-620 347 1135
-620 348 1143
-611 346 1135
-613 349 1147
-616 353 1162
-620 357 1178
-639 370 1223
-664 387 1283
-680 399 1324
-678 400 1330
-675 400 1334
-665 397 1325
-650 391 1305
-643 389 1301
-625 381 1276
-605 371 1244
-576 356 1194
-549 341 1148
-530 332 1118
-524 331 1114
-526 334 1128
-525 335 1134
-517 333 1126
-516 335 1134
-514 335 1138
-513 337 1147
-520 344 1172
-531 354 1207
-532 357 1218
-524 354 1210
-511 348 1191
-508 349 1195
-507 350 1202
-502 349 1200
-498 349 1202
-492 348 1198
-495 352 1215
-488 350 1208
-486 351 1214
-481 350 1213
-478 351 1216
-478 354 1229
-475 354 1231
-476 358 1244
-467 354 1233
-464 355 1236
-456 351 1226
-454 353 1231
-450 353 1233
-448 354 1238
-437 349 1222
-437 352 1233
-434 353 1238
-429 351 1234
-425 351 1236
-425 354 1246
-424 356 1256
-423 359 1266
-418 358 1264
-417 361 1275
-415 362 1280
-416 366 1297
-407 361 1281
-401 360 1279
-397 360 1279
-392 359 1275
-380 351 1249
-380 355 1263
-378 356 1270
-374 356 1271
-371 357 1276
-364 355 1267
-362 356 1272
-357 355 1271
-353 355 1272
-351 356 1276
-341 351 1258
-341 354 1272
-338 355 1276
-333 354 1272
-329 354 1274
-325 354 1273
-320 352 1270
-314 350 1262
-311 351 1265
-307 350 1264
-302 349 1260
-295 346 1249
-292 346 1251
-285 342 1239
-281 342 1236
-275 339 1228
-271 339 1229
-267 338 1226
-266 342 1242
-265 346 1257
-261 345 1253
-257 345 1255
-255 347 1262
-251 347 1264
