VERSION 0.7
FIELDS x y z
SIZE 4 4 4
TYPE I I I
COUNT 1 1 1
WIDTH 3621
HEIGHT 1
VIEWPOINT 0.0 0.0 0.0 1.0 0.0 0.0 0.0
POINTS 3621
DATA ascii
-1069 -401 2076
-1066 -402 2085
-1058 -402 2085
-1052 -402 2090
-1045 -402 2091
-1031 -399 2081
-1027 -400 2088
-1018 -399 2087
-1012 -400 2090
-999 -397 2080
-991 -397 2079
-980 -395 2074
-968 -393 2064
-961 -393 2065
-963 -396 2087
-958 -397 2094
-952 -397 2096
-941 -395 2089
-923 -391 2067
-908 -387 2050
-899 -386 2045
-896 -387 2057
-885 -385 2049
-869 -381 2029
-872 -385 2053
-859 -382 2039
-846 -380 2026
-845 -382 2041
-843 -384 2053
-829 -381 2037
-829 -383 2054
-822 -383 2055
-783 -368 1973
-795 -376 2022
-796 -380 2043
-776 -374 2011
-758 -367 1979
-757 -370 1996
-757 -373 2013
-739 -368 1986
-755 -379 2047
-756 -382 2067
-737 -376 2035
-736 -378 2051
-721 -374 2027
-724 -379 2057
-726 -383 2081
-725 -386 2097
-708 -380 2069
-709 -384 2091
-689 -377 2053
-689 -381 2075
-681 -379 2069
-670 -377 2057
-659 -374 2046
-664 -381 2081
-656 -380 2078
-648 -379 2072
-634 -374 2050
-629 -375 2056
-630 -379 2080
-628 -382 2096
-614 -377 2070
-607 -376 2068
-604 -379 2083
-599 -380 2089
-587 -376 2070
-583 -377 2078
-577 -377 2079
-574 -380 2092
-565 -378 2086
-561 -380 2095
-552 -378 2086
-548 -379 2095
-537 -376 2079
-540 -383 2116
-528 -379 2094
-525 -381 2108
-512 -376 2083
-510 -379 2102
-505 -380 2108
-501 -382 2119
-490 -378 2096
-495 -387 2148
-564 -446 2477
-683 -548 3040
-688 -560 3107
-677 -558 3097
-670 -559 3108
-658 -558 3099
-657 -565 3138
-642 -560 3113
-640 -566 3150
-636 -571 3177
-627 -572 3181
-614 -567 3159
-614 -576 3210
-602 -574 3197
-594 -575 3206
-587 -578 3220
-575 -576 3211
-574 -585 3261
-574 -595 3317
-570 -601 3351
-555 -595 3318
-546 -595 3323
-537 -597 3332
-526 -595 3321
-513 -591 3302
-500 -588 3286
-492 -590 3298
-482 -590 3296
-472 -589 3292
-461 -587 3282
-450 -586 3275
-440 -585 3270
-431 -585 3274
-422 -586 3280
-411 -585 3272
-400 -583 3263
-389 -580 3249
-379 -579 3243
-370 -580 3247
-361 -582 3256
-352 -582 3257
-341 -580 3251
-331 -580 3247
-322 -579 3245
-312 -580 3248
-304 -583 3264
-294 -580 3249
-284 -580 3252
-275 -580 3251
-266 -581 3257
-258 -586 3282
-268 -632 3542
-265 -649 3636
-271 -690 3867
-276 -733 4105
-302 -837 4687
-22 -72 410
-24 -82 465
-11 -45 256
-16 -63 359
-14 -61 346
-40 -162 912
0 0 0
0 0 0
-41 -205 1150
-38 -205 1151
-36 -212 1192
-35 -229 1285
-30 -218 1227
-28 -226 1267
-25 -235 1321
-20 -227 1275
-17 -232 1303
-13 -223 1251
-9 -219 1231
-5 -220 1236
-2 -220 1238
1 -210 1181
5 -216 1212
8 -221 1239
12 -227 1276
16 -225 1262
20 -227 1275
23 -229 1284
27 -224 1258
31 -234 1311
35 -229 1283
39 -234 1313
42 -227 1275
52 -262 1465
48 -221 1240
52 -221 1240
60 -242 1356
59 -223 1246
70 -251 1402
66 -221 1237
72 -230 1285
71 -215 1205
83 -240 1342
85 -234 1306
90 -237 1327
86 -217 1215
95 -232 1294
97 -226 1264
106 -238 1330
118 -258 1440
101 -212 1184
0 0 0
0 0 0
0 0 0
0 0 0
0 0 0
0 0 0
0 0 0
0 0 0
0 0 0
368 -584 3238
366 -566 3140
357 -539 2986
376 -554 3069
385 -555 3074
404 -568 3145
0 0 0
0 0 0
387 -510 2820
409 -528 2918
421 -532 2940
430 -532 2940
435 -528 2914
449 -534 2948
442 -516 2847
437 -501 2762
441 -497 2737
437 -483 2663
457 -497 2735
466 -498 2741
469 -493 2709
475 -490 2695
479 -486 2672
0 0 0
0 0 0
0 0 0
539 -514 2817
528 -496 2718
531 -491 2687
440 -400 2192
0 0 0
393 -347 1898
375 -326 1782
370 -317 1734
307 -259 1415
252 -209 1141
230 -188 1027
0 0 0
0 0 0
0 0 0
135 -103 566
114 -85 468
129 -96 524
0 0 0
68 -47 260
0 0 0
0 0 0
0 0 0
76 -51 280
54 -35 193
1271 -890 4800
29 -17 94
20 -10 58
22 -11 65
0 0 0
0 0 0
0 0 0
0 0 0
0 0 0
1035 -658 3524
1044 -657 3515
1034 -644 3445
1045 -644 3444
0 0 0
0 0 0
0 0 0
0 0 0
0 0 0
0 0 0
0 0 0
0 0 0
0 0 0
0 0 0
0 0 0
0 0 0
0 0 0
0 0 0
0 0 0
0 0 0
0 0 0
0 0 0
1033 -536 2816
1053 -542 2844
1075 -549 2876
1078 -546 2859
1087 -547 2857
1086 -542 2828
1096 -542 2828
1082 -531 2768
1076 -524 2728
1086 -525 2730
1078 -517 2686
1075 -512 2654
1050 -496 2570
1049 -492 2545
1061 -494 2552
1060 -490 2529
1073 -492 2536
1029 -469 2413
1010 -457 2348
1056 -474 2434
1024 -456 2341
1071 -474 2428
1098 -483 2469
1071 -467 2388
1078 -467 2383
1080 -465 2369
1102 -471 2399
1103 -469 2381
1109 -468 2375
1111 -466 2359
1109 -462 2336
1117 -462 2335
1118 -459 2317
1129 -461 2323
1112 -451 2268
1125 -454 2278
1128 -452 2266
1110 -442 2212
1110 -439 2196
1107 -435 2172
1113 -435 2167
1120 -435 2164
1128 -435 2163
1134 -435 2158
1136 -433 2145
1127 -427 2112
1137 -428 2114
1127 -422 2081
1132 -422 2074
1140 -422 2072
1135 -418 2048
1131 -414 2024
1133 -412 2014
1140 -412 2011
-504 -167 862
-488 -163 840
-477 -160 828
-476 -161 832
-481 -164 848
-475 -162 843
-479 -165 857
-459 -159 826
-467 -163 848
-457 -160 837
-463 -163 854
-483 -171 897
-484 -173 906
-501 -180 945
-751 -271 1426
-1082 -394 2071
-1078 -395 2077
-1071 -395 2080
-1063 -395 2081
-1054 -394 2080
-1046 -393 2080
-1042 -394 2088
-1036 -394 2091
-1026 -393 2089
-1019 -393 2089
-1008 -391 2083
-1000 -391 2083
-993 -391 2085
-986 -391 2087
-966 -385 2061
-968 -389 2083
-963 -390 2089
-958 -390 2093
-952 -391 2099
-945 -390 2100
-926 -385 2075
-908 -381 2051
-902 -381 2054
-904 -384 2075
-885 -379 2049
-881 -380 2057
-874 -380 2057
-866 -379 2056
-853 -376 2044
-850 -378 2053
-845 -378 2059
-832 -376 2046
-828 -376 2052
-812 -372 2031
-784 -362 1977
-782 -364 1991
-791 -371 2032
-786 -372 2037
-766 -365 2002
-767 -369 2023
-762 -370 2029
-756 -369 2030
-761 -375 2062
-754 -375 2063
-738 -370 2039
-726 -367 2023
-718 -366 2020
-725 -373 2059
-716 -372 2053
-720 -377 2086
-709 -375 2074
-705 -376 2080
-698 -376 2082
-689 -374 2076
-678 -372 2063
-662 -366 2034
-652 -364 2023
-662 -373 2075
-653 -372 2068
-651 -374 2083
-634 -368 2052
-630 -370 2060
-629 -373 2079
-622 -372 2078
-614 -371 2071
-604 -369 2060
-598 -369 2064
-600 -374 2091
-590 -372 2082
-577 -367 2058
-579 -373 2090
-575 -374 2099
-566 -372 2090
-560 -373 2092
-554 -373 2095
-545 -371 2084
-542 -373 2098
-536 -373 2100
-531 -374 2106
-524 -374 2106
-517 -373 2104
-517 -378 2129
-505 -374 2108
-499 -374 2109
-491 -373 2104
-492 -378 2135
-515 -401 2265
-633 -500 2821
-631 -505 2850
-646 -523 2957
-629 -517 2920
-634 -528 2986
-632 -534 3019
-640 -549 3106
-626 -544 3079
-619 -546 3092
-603 -541 3061
-590 -537 3041
-608 -562 3181
-606 -569 3224
-593 -566 3206
-589 -571 3236
-602 -593 3361
-605 -606 3437
-637 -649 3680
-649 -672 3813
-646 -680 3861
-707 -758 4304
-704 -769 4364
-666 -740 4205
-642 -727 4132
-625 -722 4104
-617 -727 4130
-604 -726 4123
-570 -699 3973
-516 -647 3677
-492 -629 3577
-479 -626 3560
-481 -642 3655
-476 -651 3702
-448 -627 3568
-417 -597 3398
-401 -589 3353
-389 -585 3330
-380 -587 3343
-368 -583 3320
-358 -583 3320
-353 -590 3361
-340 -586 3336
-324 -573 3266
-318 -581 3310
-308 -579 3299
-296 -576 3282
-289 -581 3313
-277 -576 3283
-271 -583 3323
-263 -586 3340
-273 -633 3607
-268 -646 3682
-273 -685 3904
-289 -756 4307
-312 -851 4848
-19 -62 358
-7 -30 178
-7 -31 183
-15 -57 333
-32 -123 703
-53 -208 1188
0 0 0
-49 -220 1258
0 0 0
-36 -190 1089
-36 -206 1177
-37 -237 1352
-32 -226 1294
-28 -223 1276
-24 -227 1295
-21 -234 1334
-17 -228 1305
-12 -218 1247
-9 -216 1236
-5 -217 1241
-2 -229 1306
1 -224 1278
5 -217 1241
8 -213 1218
13 -233 1329
16 -233 1328
19 -219 1250
23 -217 1236
27 -224 1280
32 -236 1347
36 -237 1349
39 -227 1292
41 -221 1257
45 -223 1269
48 -218 1242
55 -233 1325
53 -210 1197
61 -226 1285
64 -222 1266
70 -231 1316
69 -215 1226
77 -228 1299
80 -228 1295
87 -235 1336
87 -224 1276
95 -237 1345
94 -225 1276
102 -234 1326
109 -241 1370
100 -214 1214
97 -198 1127
0 0 0
0 0 0
0 0 0
0 0 0
0 0 0
0 0 0
0 0 0
0 0 0
0 0 0
348 -543 3062
355 -540 3043
366 -544 3066
375 -544 3065
383 -543 3057
388 -537 3023
0 0 0
0 0 0
390 -505 2840
408 -518 2913
413 -513 2882
425 -518 2909
430 -514 2883
431 -504 2830
0 0 0
0 0 0
0 0 0
0 0 0
0 0 0
0 0 0
0 0 0
0 0 0
0 0 0
0 0 0
242 -232 1299
0 0 0
435 -407 2269
441 -407 2269
347 -314 1752
333 -297 1653
296 -260 1449
364 -315 1756
358 -306 1703
370 -312 1736
322 -267 1484
228 -185 1031
198 -158 881
0 0 0
0 0 0
124 -94 523
96 -71 396
87 -63 351
106 -77 428
102 -73 406
0 0 0
116 -81 453
166 -116 644
0 0 0
0 0 0
81 -53 298
47 -29 162
28 -15 89
55 -33 187
38 -22 125
0 0 0
0 0 0
0 0 0
0 0 0
0 0 0
1023 -640 3485
1047 -648 3526
1049 -643 3496
1048 -636 3455
0 0 0
0 0 0
0 0 0
0 0 0
0 0 0
0 0 0
0 0 0
0 0 0
0 0 0
0 0 0
0 0 0
1043 -566 3041
0 0 0
999 -533 2858
0 0 0
0 0 0
0 0 0
0 0 0
1023 -523 2791
1048 -531 2832
1070 -538 2866
1078 -538 2861
1084 -536 2850
1077 -529 2806
1084 -528 2798
1083 -523 2772
1049 -503 2660
1072 -510 2694
1047 -494 2609
1018 -477 2515
1048 -487 2566
1076 -496 2612
998 -457 2402
1071 -487 2556
1039 -469 2457
1055 -473 2476
1107 -493 2576
1060 -468 2446
1053 -462 2409
1103 -480 2501
1120 -484 2519
1102 -473 2459
1087 -464 2406
1111 -471 2439
1100 -463 2394
1103 -461 2382
1098 -456 2353
1116 -460 2372
1111 -455 2343
1120 -456 2342
1117 -452 2316
1106 -444 2275
1125 -449 2297
1129 -448 2288
1124 -443 2259
1118 -438 2230
1108 -431 2193
1114 -431 2187
1108 -426 2159
1116 -426 2157
1126 -427 2159
1133 -427 2156
1134 -425 2142
1134 -423 2126
1131 -419 2104
1127 -415 2081
1127 -413 2066
1131 -412 2058
1122 -406 2026
1126 -405 2018
1128 -404 2006
1125 -400 1986
-493 -161 844
-481 -158 830
-483 -159 839
-471 -156 825
-470 -157 829
-479 -161 850
-465 -157 833
-466 -158 839
-464 -158 842
-476 -164 870
-489 -169 901
-467 -163 867
-468 -164 877
-514 -181 970
-806 -287 1531
-1086 -389 2079
-1076 -388 2075
-1070 -388 2080
-1068 -390 2092
-1056 -388 2085
-1052 -389 2092
-1040 -387 2084
-1033 -387 2086
-1025 -386 2088
-1015 -385 2083
-1009 -385 2088
-999 -384 2083
-990 -383 2081
-982 -383 2081
-967 -379 2065
-970 -383 2087
-961 -382 2086
-952 -381 2083
-951 -384 2097
-943 -383 2096
-917 -375 2056
-912 -376 2060
-894 -371 2038
-893 -373 2053
-886 -373 2053
-876 -372 2048
-857 -366 2020
-853 -367 2027
-857 -372 2054
-845 -369 2044
-844 -372 2058
-839 -372 2063
-823 -368 2043
-816 -368 2043
-799 -363 2017
-787 -360 2005
-790 -365 2031
-774 -360 2007
-753 -353 1969
-758 -359 2002
-744 -355 1982
-741 -356 1991
-764 -370 2071
-754 -369 2066
-740 -365 2045
-737 -366 2055
-727 -365 2048
-719 -364 2045
-718 -367 2062
-715 -368 2071
-705 -367 2064
-705 -370 2083
-691 -366 2063
-689 -368 2077
-684 -368 2081
-667 -363 2050
-667 -366 2072
-663 -368 2081
-655 -367 2076
-645 -364 2065
-638 -364 2064
-633 -365 2071
-625 -364 2067
-618 -364 2066
-616 -366 2080
-606 -364 2069
-602 -365 2079
-595 -364 2075
-588 -364 2075
-578 -362 2064
-575 -364 2076
-569 -364 2079
-568 -368 2100
-557 -364 2082
-553 -366 2091
-547 -366 2094
-543 -367 2101
-529 -362 2072
-527 -365 2092
-522 -367 2100
-515 -366 2098
-514 -369 2118
-505 -368 2109
-496 -366 2100
-488 -364 2089
-482 -365 2094
-497 -381 2187
-543 -421 2421
-558 -439 2523
-550 -438 2521
-543 -439 2526
-560 -459 2639
-595 -494 2844
-576 -485 2794
-561 -480 2762
-578 -502 2889
-572 -504 2904
0 0 0
0 0 0
0 0 0
0 0 0
0 0 0
-625 -605 3493
-667 -656 3786
-687 -687 3966
-688 -700 4042
-728 -754 4355
-785 -827 4777
-778 -835 4823
-760 -831 4801
-748 -833 4814
-730 -830 4794
-718 -832 4808
-707 -836 4831
-684 -825 4767
-665 -819 4737
-639 -803 4643
-628 -807 4667
-625 -820 4745
-604 -812 4697
-586 -805 4660
-504 -710 4110
-486 -700 4055
0 0 0
0 0 0
0 0 0
0 0 0
-395 -650 3766
-400 -677 3920
-350 -609 3528
-338 -607 3519
-331 -613 3551
-332 -634 3676
0 0 0
-310 -632 3665
-294 -621 3603
-292 -640 3713
-278 -634 3673
-273 -648 3755
-290 -716 4150
-320 -821 4757
-17 -51 301
-18 -56 332
-10 -37 220
-4 -22 133
-11 -45 265
-27 -102 598
-37 -147 855
-39 -164 954
-37 -166 965
-37 -178 1036
-36 -188 1096
-40 -223 1297
-35 -219 1275
-31 -217 1260
-28 -225 1306
-23 -213 1236
-20 -215 1247
-16 -218 1266
-13 -225 1306
-8 -203 1179
-5 -215 1250
-2 -219 1272
1 -212 1232
5 -221 1285
8 -219 1269
12 -221 1281
15 -210 1218
20 -229 1327
23 -217 1257
25 -206 1194
29 -204 1186
35 -221 1283
40 -231 1340
42 -222 1286
47 -226 1313
50 -222 1286
54 -226 1310
57 -219 1272
61 -223 1294
68 -235 1359
69 -224 1298
76 -236 1365
74 -217 1254
86 -240 1389
79 -211 1222
84 -213 1235
91 -223 1291
95 -223 1287
97 -218 1261
107 -233 1346
104 -218 1257
103 -208 1203
0 0 0
0 0 0
0 0 0
0 0 0
0 0 0
0 0 0
0 0 0
0 0 0
386 -610 3498
375 -576 3305
369 -552 3168
351 -512 2937
373 -531 3046
383 -533 3053
401 -546 3129
0 0 0
0 0 0
395 -503 2877
409 -510 2919
421 -514 2939
397 -475 2716
0 0 0
0 0 0
0 0 0
0 0 0
0 0 0
0 0 0
0 0 0
0 0 0
0 0 0
0 0 0
209 -203 1158
0 0 0
0 0 0
243 -225 1280
349 -320 1818
334 -302 1711
301 -268 1519
284 -248 1409
239 -206 1167
375 -320 1812
384 -323 1830
365 -302 1709
305 -249 1407
256 -206 1163
0 0 0
0 0 0
0 0 0
90 -66 376
70 -50 284
88 -62 356
112 -80 453
118 -83 472
0 0 0
0 0 0
0 0 0
115 -77 437
0 0 0
70 -44 254
16 -8 48
1291 -865 4821
26 -14 81
0 0 0
0 0 0
0 0 0
0 0 0
0 0 0
0 0 0
1033 -635 3520
1047 -637 3529
1049 -632 3496
1046 -624 3450
0 0 0
0 0 0
0 0 0
0 0 0
0 0 0
0 0 0
0 0 0
0 0 0
0 0 0
0 0 0
1055 -568 3109
1076 -574 3139
1072 -567 3099
1049 -550 3003
0 0 0
0 0 0
0 0 0
0 0 0
1033 -519 2819
1057 -527 2859
1062 -525 2846
1064 -522 2826
1068 -520 2811
1084 -523 2826
1076 -515 2780
1056 -502 2703
1041 -491 2643
1053 -493 2648
1042 -484 2599
1044 -481 2580
1064 -487 2608
1034 -469 2511
1054 -475 2539
1073 -480 2562
1095 -486 2592
1066 -470 2502
1095 -479 2547
1096 -476 2530
1089 -470 2491
1093 -468 2480
1108 -472 2495
1106 -468 2470
1100 -462 2436
1096 -457 2407
1107 -458 2411
1118 -460 2416
1117 -456 2393
1104 -448 2347
1114 -449 2349
1119 -448 2340
1113 -443 2309
1109 -438 2283
1107 -435 2261
1119 -436 2267
1126 -437 2265
1106 -426 2206
1108 -424 2194
1110 -422 2180
1115 -422 2174
1118 -420 2163
1125 -420 2159
1129 -419 2150
1123 -414 2123
1130 -414 2119
1131 -412 2105
1127 -408 2082
1122 -404 2057
1123 -402 2044
1131 -403 2043
1122 -397 2010
1121 -395 1995
1127 -395 1991
-503 -161 862
-496 -160 856
-481 -156 835
-473 -154 827
-477 -156 841
-463 -153 823
-471 -156 844
-458 -153 826
-459 -154 833
-477 -161 874
-461 -157 851
-475 -163 883
-473 -163 887
-520 -180 981
-846 -296 1608
-1083 -381 2075
-1077 -381 2079
-1072 -382 2085
-1063 -381 2083
-1058 -382 2090
-1047 -380 2084
-1039 -380 2083
-1033 -380 2088
-1028 -381 2095
-1014 -378 2081
-1011 -379 2092
-999 -377 2084
-989 -376 2079
-981 -376 2080
-970 -374 2072
-963 -374 2074
-963 -377 2092
-953 -375 2085
-950 -377 2097
-941 -375 2092
-920 -370 2063
-909 -368 2056
-896 -365 2043
-879 -361 2020
-885 -366 2051
-883 -368 2065
-869 -365 2048
-857 -363 2038
-848 -361 2032
-853 -366 2063
-847 -366 2065
-835 -364 2056
-822 -361 2040
-813 -360 2034
-799 -357 2017
-780 -351 1987
-787 -357 2022
-787 -360 2042
-763 -352 1997
-764 -355 2017
-756 -354 2016
-757 -358 2036
-764 -364 2072
-751 -361 2058
-738 -357 2039
-731 -357 2040
-725 -357 2041
-714 -355 2032
-719 -361 2065
-710 -360 2060
-701 -358 2052
-705 -363 2084
-695 -361 2075
-682 -358 2056
-678 -359 2064
-665 -356 2047
-664 -359 2064
-661 -360 2074
-658 -362 2085
-645 -358 2068
-638 -358 2065
-633 -359 2072
-628 -359 2076
-622 -359 2079
-612 -357 2067
-606 -358 2070
-601 -358 2075
-592 -356 2066
-595 -362 2101
-581 -358 2075
-577 -359 2084
-569 -358 2080
-564 -359 2084
-558 -359 2087
-554 -360 2096
-546 -359 2090
-542 -361 2102
-532 -358 2086
-528 -360 2095
-523 -361 2103
-512 -357 2084
-510 -360 2103
-502 -360 2099
-494 -358 2089
-492 -361 2108
-478 -355 2076
-483 -364 2127
-522 -398 2327
-490 -379 2219
-539 -422 2471
-554 -440 2575
-546 -440 2574
-589 -481 2817
0 0 0
-582 -490 2869
0 0 0
0 0 0
0 0 0
0 0 0
0 0 0
0 0 0
0 0 0
-663 -631 3705
-684 -662 3885
-694 -683 4008
-693 -694 4078
-729 -743 4364
-787 -816 4793
-777 -820 4820
-767 -824 4846
-753 -825 4851
-734 -820 4822
-722 -823 4838
-712 -827 4864
-694 -822 4837
-675 -817 4810
-654 -809 4761
-640 -808 4756
-634 -818 4816
-615 -812 4782
-600 -811 4775
-565 -782 4604
-530 -751 4423
0 0 0
0 0 0
-533 -816 4807
0 0 0
0 0 0
-421 -700 4127
0 0 0
-336 -593 3500
-360 -654 3857
-352 -661 3900
0 0 0
0 0 0
-323 -671 3957
0 0 0
0 0 0
-332 -771 4547
-346 -837 4936
-333 -840 4953
-3 -16 98
-9 -33 199
2 0 3
2 0 4
-10 -41 246
-23 -88 523
-40 -154 911
-37 -151 898
-39 -172 1021
-39 -185 1098
-37 -189 1121
-35 -197 1166
-35 -217 1281
-31 -212 1253
-26 -207 1226
-23 -212 1252
-18 -198 1169
-16 -210 1239
-14 -229 1353
-10 -235 1391
-5 -206 1217
-2 -226 1337
1 -202 1193
5 -200 1180
8 -215 1269
12 -212 1252
16 -226 1333
20 -220 1300
23 -215 1271
28 -226 1333
32 -228 1344
34 -216 1276
38 -213 1255
43 -223 1314
42 -200 1180
50 -217 1280
52 -210 1240
55 -211 1245
64 -228 1345
64 -216 1272
65 -208 1225
76 -230 1357
77 -220 1297
81 -221 1301
82 -215 1266
93 -233 1371
100 -240 1411
95 -219 1289
95 -210 1237
105 -224 1315
96 -197 1159
93 -184 1080
0 0 0
0 0 0
0 0 0
0 0 0
0 0 0
0 0 0
0 0 0
0 0 0
365 -566 3304
373 -563 3287
383 -565 3294
368 -528 3081
372 -522 3041
380 -520 3033
395 -528 3078
0 0 0
0 0 0
375 -470 2734
397 -487 2832
412 -495 2877
0 0 0
0 0 0
0 0 0
0 0 0
0 0 0
0 0 0
0 0 0
0 0 0
0 0 0
0 0 0
0 0 0
217 -208 1204
254 -239 1385
0 0 0
0 0 0
364 -329 1897
323 -287 1655
314 -275 1587
279 -240 1385
301 -256 1475
384 -322 1854
384 -318 1829
350 -285 1641
322 -258 1485
0 0 0
239 -186 1069
0 0 0
198 -149 856
134 -98 567
53 -36 214
71 -49 284
114 -80 462
136 -95 545
0 0 0
191 -132 755
0 0 0
0 0 0
0 0 0
51 -31 180
12 -5 32
1294 -852 4833
65 -39 227
0 0 0
108 -65 375
0 0 0
0 0 0
0 0 0
0 0 0
1033 -625 3522
1048 -627 3534
1053 -624 3513
1039 -609 3427
0 0 0
0 0 0
0 0 0
0 0 0
0 0 0
0 0 0
0 0 0
0 0 0
0 0 0
0 0 0
1061 -562 3128
1069 -561 3120
1074 -559 3105
1053 -543 3014
956 -488 2708
0 0 0
0 0 0
0 0 0
1002 -495 2736
1070 -525 2896
1075 -523 2883
1083 -523 2877
1081 -517 2845
1077 -511 2808
1049 -494 2711
1054 -492 2699
1075 -498 2729
1049 -482 2639
1055 -482 2632
1069 -484 2642
1086 -489 2663
1074 -479 2609
1077 -477 2594
1082 -476 2583
1096 -478 2595
1094 -474 2570
1100 -474 2562
1094 -468 2527
1090 -463 2496
1103 -465 2505
1110 -464 2499
1100 -457 2457
1107 -457 2452
1113 -456 2446
1107 -451 2413
1109 -449 2398
1106 -444 2371
1108 -442 2356
1111 -440 2343
1128 -444 2361
1100 -430 2284
1115 -433 2297
1118 -432 2286
1113 -427 2257
1113 -424 2240
1110 -421 2216
1103 -415 2184
1113 -417 2188
1112 -413 2168
1119 -413 2165
1120 -411 2151
1124 -410 2142
1124 -408 2126
1123 -405 2108
1122 -402 2090
1124 -401 2078
1117 -396 2049
1117 -394 2034
1122 -393 2027
1120 -390 2009
1133 -392 2016
1124 -387 1986
-489 -154 837
-474 -150 819
-481 -153 837
-480 -154 841
-470 -151 829
-468 -152 833
-471 -153 843
-468 -153 844
-475 -157 863
-471 -156 863
-481 -161 888
-489 -164 909
-474 -160 888
-529 -180 998
-899 -309 1710
-1086 -376 2082
-1078 -375 2081
-1075 -376 2091
-1065 -375 2087
-1054 -374 2084
-1046 -373 2083
-1041 -374 2089
-1033 -373 2089
-1023 -372 2086
-1016 -372 2087
-1010 -373 2092
-998 -370 2082
-990 -370 2082
-977 -367 2071
-970 -368 2074
-967 -369 2084
-963 -370 2092
-950 -367 2080
-950 -370 2097
-942 -369 2096
-920 -363 2064
-907 -361 2052
-899 -360 2050
-894 -361 2056
-881 -358 2044
-878 -360 2053
-864 -357 2038
-849 -353 2021
-852 -357 2045
-847 -357 2049
-845 -359 2062
-835 -358 2056
-824 -356 2047
-808 -352 2023
-787 -345 1988
-798 -353 2035
-788 -351 2027
-784 -352 2035
-764 -346 2000
-760 -347 2008
-760 -350 2027
-748 -347 2012
-758 -355 2058
-756 -357 2073
-749 -356 2071
-742 -356 2072
-724 -351 2040
-724 -354 2061
-729 -360 2095
-711 -354 2062
-705 -354 2064
-702 -355 2076
-695 -355 2075
-684 -353 2062
-684 -356 2083
-660 -347 2032
-663 -352 2062
-664 -356 2086
-659 -356 2090
-646 -353 2072
-639 -352 2069
-632 -352 2069
-633 -356 2095
-618 -351 2065
-610 -350 2061
-604 -350 2065
-598 -350 2066
-594 -352 2075
-590 -353 2083
-583 -352 2081
-579 -354 2091
-568 -351 2077
-566 -354 2094
-556 -352 2081
-553 -353 2093
-551 -357 2112
-538 -352 2086
-536 -355 2102
-529 -354 2102
-519 -352 2088
-518 -355 2111
-512 -356 2113
-503 -353 2101
-498 -355 2110
-489 -353 2098
-485 -355 2110
-492 -364 2169
-469 -351 2093
-512 -389 2317
-525 -405 2411
-558 -436 2595
0 0 0
-591 -474 2827
0 0 0
-717 -592 3530
-687 -576 3437
-676 -575 3432
-700 -605 3608
-762 -668 3990
-730 -651 3886
-715 -648 3868
-713 -656 3921
-693 -648 3871
-681 -647 3870
-692 -669 4001
-685 -674 4028
-710 -711 4249
-754 -769 4597
-751 -780 4664
-742 -784 4691
-732 -788 4716
-719 -789 4723
-705 -789 4724
-687 -785 4698
-674 -785 4702
-649 -772 4623
-632 -768 4603
-629 -781 4679
-615 -781 4680
-602 -781 4683
-581 -771 4625
-538 -732 4390
-501 -699 4190
-496 -709 4251
-492 -721 4325
-479 -720 4319
-468 -722 4334
-443 -703 4216
-425 -695 4169
-400 -673 4038
-372 -645 3871
-367 -655 3933
-373 -687 4125
-362 -689 4137
-335 -660 3964
-343 -700 4200
-324 -687 4123
0 0 0
-362 -826 4959
0 -5 34
1 -2 16
0 -4 32
-1 -11 72
0 -9 58
2 0 8
-5 -24 151
-26 -97 585
-40 -150 906
-34 -137 828
-39 -167 1005
0 0 0
-34 -173 1046
-36 -196 1180
-35 -209 1261
-31 -207 1246
-27 -204 1230
-22 -197 1184
-21 -221 1331
-16 -207 1249
-13 -212 1275
-9 -219 1320
-5 -201 1209
-1 -204 1227
1 -212 1273
5 -212 1276
9 -216 1297
13 -227 1364
16 -220 1321
20 -216 1297
25 -227 1363
25 -199 1194
30 -210 1261
33 -204 1224
38 -209 1253
42 -212 1272
48 -223 1337
53 -229 1374
55 -222 1333
57 -212 1273
60 -210 1260
60 -198 1190
68 -213 1275
74 -220 1317
76 -214 1282
78 -209 1253
86 -221 1325
86 -211 1261
105 -248 1484
91 -207 1240
99 -216 1293
107 -224 1342
103 -209 1250
105 -204 1222
0 0 0
0 0 0
0 0 0
0 0 0
0 0 0
0 0 0
0 0 0
0 0 0
369 -562 3341
360 -535 3176
374 -542 3217
363 -512 3037
370 -510 3025
377 -507 3010
387 -509 3016
0 0 0
0 0 0
367 -451 2675
405 -488 2888
359 -423 2505
0 0 0
0 0 0
0 0 0
0 0 0
0 0 0
0 0 0
0 0 0
0 0 0
0 0 0
0 0 0
212 -202 1191
230 -216 1272
0 0 0
0 0 0
493 -446 2618
512 -456 2676
451 -395 2320
314 -270 1586
299 -253 1483
273 -227 1336
414 -341 2000
381 -310 1815
368 -295 1726
295 -232 1361
256 -198 1161
230 -176 1030
236 -178 1042
0 0 0
0 0 0
118 -83 490
82 -57 334
107 -73 432
156 -107 628
155 -105 616
0 0 0
0 0 0
0 0 0
0 0 0
97 -61 358
11 -3 26
10 -3 23
27 -14 87
43 -24 143
0 0 0
0 0 0
0 0 0
0 0 0
0 0 0
0 0 0
1057 -622 3563
1044 -608 3484
1034 -596 3414
0 0 0
0 0 0
0 0 0
0 0 0
0 0 0
0 0 0
0 0 0
0 0 0
0 0 0
0 0 0
1064 -554 3138
1062 -548 3101
1072 -548 3101
1059 -537 3034
1013 -509 2872
0 0 0
0 0 0
0 0 0
1066 -518 2911
1067 -514 2888
1061 -507 2846
1072 -508 2847
1074 -505 2828
1055 -492 2752
1041 -482 2691
1076 -494 2756
1067 -486 2711
1069 -483 2690
1086 -487 2710
1085 -483 2683
1084 -479 2657
1086 -477 2640
1101 -480 2653
1098 -475 2623
1101 -472 2608
1100 -469 2584
1106 -468 2577
1097 -461 2535
1093 -456 2503
1110 -460 2521
1112 -457 2504
1101 -450 2459
1110 -450 2460
1108 -447 2436
1098 -439 2393
1106 -440 2393
1121 -443 2405
1104 -433 2349
1125 -438 2374
1112 -430 2329
1094 -421 2272
1096 -419 2260
1096 -416 2241
1106 -417 2243
1110 -416 2234
1103 -411 2202
1113 -412 2205
1110 -408 2183
1112 -407 2170
1117 -406 2163
1117 -403 2147
1119 -402 2133
1111 -396 2101
1118 -397 2100
1116 -394 2080
1120 -392 2071
1115 -389 2047
1123 -389 2045
1123 -387 2030
1125 -385 2019
1129 -384 2012
1124 -381 1988
-486 -150 833
-480 -149 830
-488 -153 848
-481 -151 842
-482 -153 851
-472 -150 840
-468 -150 839
-466 -150 841
-466 -151 848
-467 -152 856
-475 -156 878
-470 -155 874
-488 -162 914
-534 -179 1008
-947 -320 1803
-1086 -369 2082
-1081 -369 2088
-1069 -368 2081
-1059 -366 2078
-1050 -366 2076
-1050 -368 2092
-1038 -366 2083
-1034 -367 2092
-1024 -366 2088
-1014 -365 2085
-1006 -364 2085
-999 -364 2087
-987 -362 2078
-977 -361 2074
-957 -356 2046
-967 -362 2085
-960 -362 2086
-952 -362 2087
-951 -364 2100
-943 -363 2100
-918 -356 2061
-913 -357 2066
-893 -352 2039
-883 -350 2032
-884 -353 2051
-874 -352 2045
-868 -352 2048
-857 -350 2039
-848 -349 2037
-847 -351 2050
-841 -351 2053
-832 -350 2050
-828 -351 2056
-820 -351 2056
-797 -343 2014
-795 -345 2027
-791 -346 2035
-785 -346 2037
-769 -342 2014
-774 -347 2045
-767 -347 2046
-753 -343 2027
-756 -348 2054
-751 -348 2059
-739 -346 2046
-737 -348 2059
-723 -344 2039
-725 -348 2065
-714 -346 2052
-715 -349 2075
-713 -351 2088
-697 -347 2063
-700 -351 2092
-689 -349 2078
-681 -348 2076
-669 -345 2059
-667 -348 2075
-660 -347 2075
-653 -347 2073
-642 -344 2060
-642 -348 2081
-638 -349 2089
-630 -348 2084
-626 -349 2093
-610 -344 2063
-608 -346 2078
-599 -344 2069
-592 -344 2068
-586 -344 2070
-579 -344 2071
-579 -348 2092
-572 -348 2093
-567 -348 2099
-563 -350 2108
-553 -347 2093
-547 -347 2096
-544 -350 2110
-531 -345 2084
-527 -346 2093
-523 -348 2106
-513 -346 2090
-509 -347 2101
-503 -347 2102
-496 -347 2102
-490 -347 2102
-486 -349 2115
-505 -367 2224
-504 -371 2250
0 0 0
-496 -375 2276
-568 -436 2646
-647 -503 3052
-689 -543 3298
-749 -600 3639
-754 -612 3717
-746 -614 3730
-724 -606 3680
-746 -633 3848
-749 -645 3922
-734 -643 3909
-727 -647 3934
-713 -644 3918
-705 -648 3944
-689 -644 3918
-689 -654 3984
-683 -661 4022
-678 -667 4061
-681 -682 4156
-674 -687 4186
-669 -694 4231
-655 -693 4225
-646 -697 4250
-633 -696 4244
-619 -695 4239
-604 -692 4220
-576 -674 4110
-567 -677 4132
-556 -678 4140
-549 -685 4180
-540 -689 4203
-522 -681 4160
-494 -660 4031
-483 -661 4038
-471 -662 4041
-456 -657 4015
-446 -659 4028
-436 -661 4040
-423 -660 4034
-412 -661 4039
-401 -663 4051
-385 -655 4006
-374 -657 4016
-365 -661 4042
-353 -661 4043
-342 -663 4050
-344 -690 4216
-325 -676 4134
-319 -690 4221
-342 -768 4692
-346 -810 4952
-334 -815 4981
-320 -817 4994
2 0 6
-292 -818 4998
2 0 6
1 -4 29
-25 -90 553
-39 -143 882
0 0 0
-23 -102 631
-18 -87 537
-23 -117 719
-35 -189 1160
-35 -209 1279
-31 -203 1248
-28 -214 1313
-25 -217 1330
-18 -193 1183
-17 -214 1311
-12 -204 1249
-8 -195 1193
-5 -195 1195
-2 -217 1329
1 -203 1245
5 -211 1294
9 -213 1305
12 -209 1282
15 -198 1210
19 -203 1246
23 -202 1236
28 -218 1331
31 -211 1294
34 -207 1266
36 -195 1191
40 -199 1219
46 -209 1280
48 -202 1235
58 -228 1391
61 -227 1385
64 -222 1356
66 -214 1305
71 -218 1328
73 -214 1308
73 -203 1240
81 -214 1303
81 -204 1242
83 -200 1221
93 -216 1314
94 -209 1275
92 -197 1198
101 -209 1270
107 -213 1297
0 0 0
0 0 0
0 0 0
0 0 0
0 0 0
0 0 0
0 0 0
0 0 0
0 0 0
0 0 0
366 -533 3226
364 -517 3126
365 -505 3055
364 -492 2972
378 -500 3019
384 -496 2992
0 0 0
0 0 0
381 -460 2776
398 -471 2840
400 -464 2797
0 0 0
0 0 0
0 0 0
0 0 0
0 0 0
0 0 0
0 0 0
0 0 0
0 0 0
0 0 0
228 -214 1284
241 -223 1339
0 0 0
446 -402 2406
514 -457 2733
534 -468 2795
497 -428 2559
336 -284 1700
309 -257 1535
276 -226 1352
372 -302 1800
370 -295 1761
357 -281 1677
297 -229 1368
241 -184 1095
238 -179 1065
0 0 0
267 -195 1162
0 0 0
161 -114 679
161 -112 668
0 0 0
105 -70 419
108 -71 426
93 -60 359
120 -78 463
0 0 0
0 0 0
76 -46 277
37 -21 127
1289 -820 4820
42 -23 143
7 -1 11
0 0 0
0 0 0
0 0 0
0 0 0
0 0 0
0 0 0
0 0 0
0 0 0
0 0 0
0 0 0
0 0 0
0 0 0
0 0 0
0 0 0
0 0 0
0 0 0
0 0 0
0 0 0
0 0 0
1059 -542 3124
1059 -537 3093
1071 -538 3097
1063 -529 3044
971 -479 2753
0 0 0
0 0 0
0 0 0
1050 -501 2868
1049 -497 2841
1073 -504 2877
1066 -497 2835
1089 -503 2867
1092 -501 2850
1082 -492 2800
1080 -488 2769
1077 -482 2737
1091 -485 2747
1087 -479 2713
1077 -472 2666
1102 -479 2703
1092 -471 2656
1094 -468 2637
1095 -465 2617
1098 -463 2602
1096 -459 2576
1099 -457 2562
1095 -452 2531
1088 -446 2494
1085 -442 2466
1094 -442 2466
1098 -441 2454
1106 -441 2451
1093 -433 2403
1096 -431 2391
1097 -429 2373
1110 -431 2382
1091 -420 2322
1099 -421 2322
1092 -415 2287
1117 -422 2321
1084 -407 2234
1102 -411 2253
1098 -407 2229
1097 -404 2208
1097 -401 2191
1103 -401 2187
1111 -402 2185
1106 -397 2159
1111 -397 2152
1114 -395 2141
1121 -395 2138
1121 -393 2122
1122 -391 2108
1113 -386 2075
1127 -388 2086
1125 -385 2066
1128 -384 2056
1127 -381 2038
1131 -380 2030
1131 -378 2015
1132 -376 2002
-486 -148 834
-490 -149 846
-480 -148 836
-479 -148 841
-468 -146 828
-469 -147 835
-473 -149 849
-463 -146 836
-463 -147 842
-473 -151 867
-483 -156 892
-479 -155 891
-489 -159 917
-544 -179 1029
-978 -324 1862
-1083 -361 2078
-1079 -362 2085
-1069 -361 2083
-1060 -360 2081
-1054 -361 2086
-1046 -360 2085
-1041 -361 2092
-1033 -360 2093
-1020 -358 2082
-1014 -358 2086
-1005 -357 2082
-998 -357 2085
-993 -358 2090
-979 -355 2079
-961 -351 2056
-963 -354 2077
-962 -356 2091
-953 -356 2089
-951 -357 2101
-941 -356 2097
-915 -349 2055
-904 -347 2048
-904 -349 2065
-887 -345 2042
-887 -348 2060
-870 -344 2037
-866 -345 2045
-861 -345 2050
-858 -347 2060
-848 -345 2055
-847 -347 2068
-827 -342 2039
-833 -347 2070
-805 -338 2019
-790 -334 1999
-802 -342 2047
-791 -340 2037
-784 -340 2037
-758 -331 1986
-755 -333 1997
-760 -338 2029
-761 -341 2050
-753 -340 2046
-747 -340 2048
-744 -342 2060
-728 -337 2035
-725 -339 2047
-721 -340 2054
-721 -343 2073
-709 -340 2059
-714 -346 2094
-700 -342 2072
-692 -341 2070
-689 -343 2080
-679 -341 2072
-666 -338 2053
-663 -339 2064
-659 -340 2072
-651 -339 2066
-639 -336 2050
-640 -340 2075
-639 -343 2093
-630 -342 2086
-625 -343 2093
-607 -336 2053
-606 -339 2074
-600 -339 2073
-593 -339 2073
-590 -341 2087
-578 -337 2068
-574 -338 2075
-574 -343 2101
-566 -341 2095
-562 -342 2103
-554 -342 2098
-549 -342 2104
-539 -340 2091
-534 -341 2098
-524 -339 2084
-520 -340 2096
-518 -343 2112
-511 -342 2109
-501 -340 2097
-497 -341 2105
-492 -343 2114
-495 -349 2152
-518 -370 2285
-515 -373 2303
0 0 0
0 0 0
-605 -456 2815
-659 -503 3110
-752 -582 3600
-779 -612 3783
-772 -616 3806
-767 -621 3841
-760 -624 3862
-759 -633 3918
-750 -635 3930
-740 -637 3942
-729 -637 3946
-718 -637 3949
-701 -632 3919
-692 -635 3938
-688 -642 3983
-678 -644 3994
-669 -647 4012
-659 -648 4021
-647 -648 4024
-634 -647 4017
-626 -651 4039
-612 -648 4026
-600 -649 4030
-590 -650 4038
-577 -649 4030
-563 -647 4018
-549 -644 4005
-540 -647 4020
-529 -648 4028
-515 -645 4011
-503 -645 4012
-488 -641 3987
-479 -645 4012
-466 -643 4003
-455 -643 4003
-442 -642 3992
-431 -643 4001
-418 -641 3988
-408 -644 4008
-397 -644 4009
-382 -640 3982
-373 -643 4002
-361 -644 4007
-350 -644 4010
-340 -647 4028
-344 -678 4223
-320 -654 4070
-305 -648 4034
-304 -672 4181
-325 -747 4651
-320 -768 4782
-314 -787 4898
-306 -803 4998
2 0 4
-276 -802 4990
0 -8 54
-20 -72 451
-43 -156 975
-29 -117 732
-10 -50 319
-3 -26 170
-12 -68 431
-35 -184 1150
-36 -209 1305
-33 -213 1331
-28 -210 1313
-24 -206 1286
-21 -214 1338
-15 -186 1161
-13 -207 1292
-10 -215 1343
-5 -195 1215
-1 -195 1215
1 -205 1282
5 -201 1252
9 -213 1331
12 -208 1297
16 -200 1246
19 -194 1208
23 -197 1226
28 -213 1328
31 -209 1305
35 -209 1304
40 -213 1327
41 -201 1250
48 -217 1350
50 -209 1301
51 -198 1235
57 -204 1271
58 -197 1227
69 -220 1371
66 -198 1231
73 -210 1306
74 -202 1254
79 -206 1281
86 -213 1322
88 -209 1299
95 -216 1339
96 -209 1297
103 -217 1347
103 -209 1294
106 -207 1284
103 -194 1201
0 0 0
0 0 0
0 0 0
0 0 0
0 0 0
0 0 0
371 -576 3548
0 0 0
360 -529 3258
0 0 0
355 -495 3047
363 -494 3038
368 -489 3011
386 -501 3079
390 -495 3040
0 0 0
0 0 0
385 -457 2805
397 -462 2836
391 -445 2732
0 0 0
0 0 0
0 0 0
0 0 0
0 0 0
0 0 0
246 -243 1491
238 -231 1417
243 -232 1421
0 0 0
251 -232 1419
253 -229 1403
0 0 0
480 -426 2594
510 -445 2713
530 -456 2774
516 -437 2656
336 -279 1700
317 -259 1577
319 -257 1564
368 -293 1780
361 -283 1721
349 -270 1639
270 -205 1247
0 0 0
252 -186 1128
0 0 0
0 0 0
0 0 0
0 0 0
0 0 0
188 -127 772
0 0 0
0 0 0
123 -79 481
0 0 0
0 0 0
0 0 0
68 -40 247
36 -19 120
1282 -801 4792
18 -8 52
28 -14 87
0 0 0
0 0 0
0 0 0
0 0 0
0 0 0
0 0 0
0 0 0
0 0 0
0 0 0
0 0 0
0 0 0
0 0 0
0 0 0
0 0 0
0 0 0
0 0 0
0 0 0
0 0 0
0 0 0
1045 -525 3083
1055 -525 3083
1054 -520 3049
1045 -511 2994
0 0 0
0 0 0
0 0 0
0 0 0
1034 -485 2827
1056 -491 2860
1069 -493 2869
1081 -495 2873
1079 -490 2844
1093 -493 2855
1075 -480 2781
1093 -485 2802
1075 -473 2733
1082 -472 2726
1085 -470 2710
1085 -467 2685
1091 -466 2678
1086 -460 2641
1101 -463 2655
1094 -457 2615
1085 -450 2573
1092 -449 2567
1099 -449 2562
1086 -440 2510
1100 -443 2523
1100 -440 2501
1092 -434 2462
1075 -424 2403
1088 -426 2413
1100 -428 2420
1069 -413 2333
1072 -411 2319
1067 -407 2290
1085 -411 2311
1059 -398 2237
1086 -406 2276
1056 -392 2196
1089 -402 2246
1103 -404 2258
1107 -403 2248
1102 -399 2220
1083 -389 2164
1103 -394 2187
1112 -395 2188
1113 -393 2173
1118 -392 2166
1116 -389 2147
1126 -390 2148
1118 -385 2117
1121 -384 2107
1125 -383 2098
1125 -381 2083
1142 -384 2098
1125 -376 2052
1141 -379 2065
1131 -374 2032
1133 -372 2021
1146 -374 2028
-483 -144 828
-489 -147 846
-487 -147 849
-487 -148 855
-485 -148 857
-484 -149 862
-472 -146 847
-459 -142 830
-470 -147 857
-470 -148 863
-475 -150 878
-486 -155 905
-480 -154 901
-557 -180 1054
-1006 -327 1917
-1083 -355 2080
-1079 -355 2087
-1071 -355 2088
-1065 -355 2091
-1053 -353 2083
-1046 -353 2086
-1034 -352 2079
-1030 -352 2086
-1021 -352 2085
-1017 -353 2094
-1006 -351 2088
-999 -351 2089
-988 -350 2083
-975 -347 2071
-969 -347 2074
-963 -348 2077
-963 -350 2094
-953 -349 2090
-945 -349 2090
-939 -349 2093
-919 -344 2065
-899 -339 2038
-891 -338 2036
-895 -342 2061
-880 -339 2046
-881 -342 2065
-868 -339 2051
-850 -335 2025
-850 -337 2042
-842 -336 2041
-847 -341 2071
-834 -339 2057
-820 -335 2038
-813 -335 2041
-816 -339 2064
-800 -335 2042
-792 -334 2040
-771 -328 2005
-757 -325 1985
-763 -330 2018
-764 -333 2040
-762 -335 2054
-756 -335 2056
-743 -332 2038
-742 -334 2055
-729 -331 2039
-729 -334 2059
-722 -334 2058
-719 -336 2068
-716 -337 2079
-703 -334 2063
-703 -337 2083
-696 -337 2083
-698 -341 2107
-680 -335 2076
-652 -324 2010
-668 -335 2078
-663 -336 2086
-651 -333 2069
-645 -333 2071
-644 -336 2088
-638 -336 2092
-628 -334 2079
-621 -334 2080
-612 -333 2071
-606 -333 2073
-602 -334 2084
-597 -335 2088
-591 -335 2089
-579 -331 2070
-575 -333 2081
-571 -335 2091
-570 -337 2110
-556 -333 2082
-555 -336 2103
-552 -338 2117
-545 -337 2115
-529 -332 2079
-528 -335 2102
-519 -333 2093
-516 -335 2105
-508 -334 2099
-503 -335 2105
-496 -334 2102
-490 -335 2107
-491 -340 2138
-543 -380 2393
0 0 0
0 0 0
0 0 0
-654 -484 3047
-725 -544 3425
-763 -580 3655
-792 -611 3847
-784 -613 3865
-782 -621 3916
-771 -622 3919
-763 -625 3939
-751 -624 3937
-745 -629 3967
-732 -628 3963
-722 -630 3976
-705 -625 3947
-694 -626 3951
-693 -635 4010
-684 -638 4032
-676 -641 4053
-670 -647 4092
-660 -649 4105
-648 -649 4105
-634 -647 4093
-623 -648 4103
-609 -646 4089
-597 -646 4089
-583 -644 4078
-567 -639 4045
-554 -638 4041
-542 -638 4041
-532 -640 4052
-519 -639 4046
-506 -638 4041
-494 -636 4033
-480 -634 4019
-469 -635 4022
-456 -633 4012
-445 -634 4020
-433 -634 4022
-421 -634 4020
-409 -634 4020
-397 -634 4019
-385 -632 4009
-372 -631 4002
-361 -632 4008
-351 -634 4020
-341 -638 4049
-337 -652 4139
-321 -644 4086
-305 -636 4036
-295 -639 4056
-303 -684 4339
-310 -730 4630
-306 -753 4778
-305 -786 4984
-289 -782 4959
-276 -786 4984
0 -4 30
-20 -73 467
-45 -159 1015
-34 -132 844
-25 -107 684
-11 -58 376
-8 -50 323
-29 -155 991
-33 -189 1205
-29 -188 1197
-26 -193 1228
-23 -195 1242
-19 -193 1229
-17 -208 1321
-12 -194 1236
-9 -203 1293
-5 -197 1250
-2 -217 1380
1 -190 1205
5 -202 1286
9 -206 1311
12 -199 1263
16 -200 1269
20 -203 1287
23 -197 1253
26 -188 1193
32 -208 1320
35 -204 1294
40 -212 1345
43 -205 1300
46 -202 1279
50 -203 1290
53 -201 1272
57 -201 1277
64 -214 1359
68 -212 1346
70 -208 1320
70 -197 1246
76 -204 1293
78 -200 1264
82 -200 1267
87 -203 1288
97 -218 1380
90 -194 1226
99 -204 1292
104 -206 1302
107 -205 1297
110 -204 1289
0 0 0
0 0 0
0 0 0
0 0 0
0 0 0
0 0 0
0 0 0
0 0 0
364 -526 3298
358 -502 3153
355 -486 3046
366 -489 3067
376 -491 3075
387 -493 3088
387 -482 3016
0 0 0
0 0 0
402 -468 2930
400 -457 2855
380 -424 2652
0 0 0
0 0 0
0 0 0
0 0 0
0 0 0
246 -244 1522
282 -274 1711
288 -276 1720
281 -264 1648
253 -233 1456
224 -202 1261
262 -234 1455
385 -340 2112
485 -422 2622
507 -435 2696
534 -451 2799
520 -432 2678
361 -295 1827
295 -236 1464
318 -252 1559
384 -300 1857
364 -280 1736
357 -271 1676
284 -212 1310
216 -158 978
226 -163 1011
0 0 0
222 -156 965
0 0 0
0 0 0
135 -90 559
114 -74 461
0 0 0
0 0 0
117 -74 457
0 0 0
107 -65 406
123 -75 462
53 -30 188
26 -13 84
17 -7 50
12 -4 30
0 0 0
27 -13 83
0 0 0
0 0 0
0 0 0
0 0 0
0 0 0
0 0 0
0 0 0
0 0 0
0 0 0
0 0 0
0 0 0
0 0 0
0 0 0
0 0 0
0 0 0
0 0 0
0 0 0
0 0 0
0 0 0
0 0 0
0 0 0
0 0 0
0 0 0
0 0 0
0 0 0
0 0 0
1045 -482 2858
1062 -485 2877
1069 -485 2870
1084 -487 2882
1086 -484 2862
1079 -477 2819
1089 -478 2818
1081 -471 2775
1087 -470 2764
1081 -464 2725
1084 -461 2709
1097 -464 2718
1095 -459 2688
1089 -453 2652
1091 -451 2633
1087 -446 2601
1081 -440 2564
1090 -440 2564
1084 -435 2528
1087 -433 2514
1072 -424 2459
1090 -428 2479
1115 -435 2515
1067 -413 2388
1070 -412 2374
1071 -409 2357
1076 -408 2349
1083 -408 2346
1092 -409 2346
1025 -381 2184
1061 -392 2241
1072 -393 2248
1065 -388 2214
1086 -393 2241
1101 -396 2254
1112 -398 2260
1104 -392 2225
1097 -387 2193
1098 -385 2179
1113 -388 2191
1111 -385 2171
1118 -385 2167
1126 -386 2166
1126 -383 2150
1128 -382 2137
1130 -380 2125
1133 -379 2115
1136 -377 2103
1141 -377 2098
1138 -374 2076
1136 -371 2057
1142 -371 2052
1142 -369 2037
1145 -368 2027
-495 -145 850
-483 -142 835
-482 -142 840
-481 -143 845
-475 -142 841
-478 -144 853
-476 -144 854
-474 -144 857
-465 -143 848
-487 -150 895
-484 -150 895
-480 -150 895
-488 -153 917
-567 -179 1073
-1021 -326 1946
-1085 -348 2083
-1076 -348 2083
-1072 -349 2090
-1063 -348 2088
-1052 -346 2082
-1045 -346 2085
-1038 -346 2088
-1032 -347 2092
-1023 -346 2090
-1012 -344 2084
-1002 -343 2080
-998 -344 2087
-987 -343 2081
-975 -341 2072
-968 -341 2073
-968 -343 2089
-961 -343 2092
-952 -342 2090
-949 -343 2099
-941 -343 2098
-915 -336 2057
-902 -334 2046
-895 -333 2045
-888 -333 2047
-886 -335 2060
-874 -333 2049
-865 -332 2045
-852 -329 2030
-849 -330 2041
-843 -331 2044
-836 -330 2046
-832 -331 2051
-825 -331 2053
-807 -326 2026
-807 -329 2044
-799 -328 2040
-789 -327 2035
-762 -318 1982
-748 -315 1964
-746 -316 1975
-766 -328 2047
-753 -325 2029
-743 -323 2021
-751 -330 2063
-737 -326 2044
-726 -324 2030
-725 -327 2049
-715 -325 2039
-721 -331 2077
-719 -332 2089
-702 -327 2059
-699 -329 2071
-697 -331 2085
-685 -328 2071
-674 -326 2058
-662 -323 2040
-665 -328 2072
-663 -330 2086
-647 -325 2057
-642 -326 2062
-641 -329 2081
-634 -328 2080
-633 -331 2097
-621 -328 2079
-613 -327 2076
-605 -326 2073
-603 -328 2088
-592 -326 2073
-592 -329 2096
-583 -328 2088
-569 -323 2060
-575 -330 2104
-564 -327 2088
-567 -333 2126
-558 -332 2116
-551 -331 2114
-543 -330 2111
-531 -327 2088
-531 -330 2112
-522 -329 2103
-515 -328 2101
-507 -327 2096
-501 -328 2099
-492 -326 2086
-491 -329 2110
-489 -332 2130
-500 -344 2208
-499 -348 2233
-461 -326 2092
0 0 0
0 0 0
-658 -484 3108
-774 -578 3710
-790 -598 3839
-798 -613 3936
-781 -609 3914
-782 -619 3979
-771 -620 3983
-771 -629 4044
-760 -630 4050
-750 -632 4063
-735 -629 4045
-722 -628 4042
-701 -620 3991
-695 -625 4023
-689 -630 4060
-700 -652 4199
-706 -669 4312
-699 -675 4347
-690 -678 4371
-680 -681 4390
-662 -676 4358
-645 -672 4332
-635 -674 4349
-611 -662 4271
-586 -648 4184
-574 -649 4188
-565 -652 4209
-555 -655 4231
-539 -651 4202
-526 -650 4199
-506 -640 4133
-492 -638 4122
-477 -635 4099
-465 -634 4095
-452 -633 4092
-441 -634 4099
-428 -632 4083
-417 -633 4093
-405 -634 4097
-391 -631 4080
-379 -631 4076
-366 -629 4067
-356 -632 4085
-346 -635 4102
-334 -635 4103
-323 -637 4121
-307 -629 4069
-298 -635 4107
-304 -673 4353
-311 -719 4649
-306 -741 4788
2 0 3
-291 -773 4994
-276 -773 4993
-1 -10 73
-35 -118 767
-42 -147 955
-30 -114 741
-31 -127 825
-23 -105 686
-11 -63 411
-28 -148 964
-33 -189 1224
-30 -188 1218
-27 -193 1252
-22 -185 1201
-20 -196 1273
-15 -185 1197
-12 -189 1224
-9 -190 1230
-5 -187 1214
-1 -187 1211
1 -194 1257
5 -200 1293
9 -209 1352
13 -207 1342
17 -206 1334
20 -206 1333
23 -196 1267
27 -199 1291
32 -202 1307
36 -203 1314
39 -199 1289
41 -194 1256
45 -194 1257
49 -195 1260
53 -196 1265
58 -204 1315
59 -191 1233
65 -199 1282
69 -201 1299
73 -201 1299
80 -210 1358
85 -213 1376
80 -191 1230
89 -203 1311
93 -205 1319
99 -208 1341
99 -201 1292
108 -210 1354
103 -194 1252
107 -195 1257
0 0 0
0 0 0
0 0 0
0 0 0
0 0 0
0 0 0
0 0 0
354 -515 3297
0 0 0
363 -501 3205
353 -475 3036
359 -471 3009
373 -478 3053
381 -477 3043
378 -462 2947
0 0 0
0 0 0
374 -428 2730
402 -451 2874
0 0 0
0 0 0
0 0 0
196 -201 1280
206 -207 1318
221 -218 1387
272 -265 1683
284 -271 1726
292 -274 1745
300 -277 1759
280 -254 1611
269 -240 1523
272 -238 1513
376 -326 2064
481 -411 2603
505 -425 2685
527 -437 2761
511 -417 2636
344 -276 1742
294 -231 1462
268 -208 1313
308 -236 1489
360 -272 1716
341 -254 1602
286 -209 1320
0 0 0
207 -146 924
234 -164 1031
0 0 0
176 -119 753
146 -97 611
177 -117 736
0 0 0
154 -99 623
0 0 0
0 0 0
0 0 0
0 0 0
59 -34 216
60 -34 217
17 -7 52
3 1 -3
1309 -780 4840
14 -5 38
0 0 0
0 0 0
0 0 0
0 0 0
0 0 0
0 0 0
0 0 0
0 0 0
0 0 0
0 0 0
0 0 0
0 0 0
0 0 0
0 0 0
0 0 0
0 0 0
0 0 0
0 0 0
0 0 0
0 0 0
0 0 0
0 0 0
0 0 0
0 0 0
0 0 0
0 0 0
0 0 0
1050 -475 2873
1053 -472 2853
1064 -474 2858
1083 -478 2882
1080 -473 2847
1083 -470 2829
1084 -467 2807
1087 -465 2790
1092 -463 2778
1068 -450 2693
1080 -451 2699
1071 -444 2655
1098 -452 2698
1068 -436 2600
1083 -439 2615
1095 -441 2621
1052 -420 2495
1075 -427 2531
1073 -423 2504
1065 -416 2463
1067 -414 2447
1052 -405 2393
1029 -394 2321
1089 -414 2438
1039 -392 2307
1045 -392 2301
1043 -388 2277
1059 -392 2293
1082 -398 2324
1068 -390 2276
1087 -394 2298
1071 -386 2246
1086 -389 2260
1100 -391 2270
1105 -391 2264
1111 -390 2259
1114 -389 2246
1100 -382 2202
1109 -382 2202
1113 -381 2193
1110 -378 2169
1111 -376 2155
1126 -379 2168
1123 -375 2145
1129 -375 2140
1133 -374 2131
1136 -373 2120
1138 -371 2109
1128 -366 2075
1132 -365 2066
1137 -365 2060
1140 -364 2051
1140 -361 2035
1138 -359 2015
-487 -140 837
-486 -140 841
-482 -140 840
-463 -135 814
-466 -137 825
-474 -140 845
-476 -141 855
-462 -138 837
-475 -143 866
-486 -147 892
-484 -147 896
-457 -140 852
-489 -151 919
-582 -181 1102
-1047 -328 1997
-1084 -341 2083
-1078 -342 2088
-1070 -341 2089
-1059 -340 2082
-1050 -339 2081
-1044 -340 2085
-1036 -339 2086
-1031 -340 2090
-1023 -339 2091
-1015 -339 2091
-1002 -337 2080
-995 -337 2082
-989 -337 2086
-968 -332 2059
-963 -333 2065
-970 -337 2096
-963 -337 2098
-956 -337 2099
-949 -337 2101
-936 -334 2088
-907 -326 2041
-901 -327 2045
-894 -327 2045
-889 -327 2050
-887 -328 2062
-874 -326 2050
-868 -327 2054
-855 -324 2039
-843 -322 2027
-851 -327 2064
-846 -328 2069
-828 -323 2044
-824 -324 2052
-810 -321 2035
-807 -323 2044
-800 -322 2044
-803 -326 2070
-779 -319 2026
-727 -300 1909
-748 -311 1980
-753 -316 2013
-755 -320 2037
-743 -317 2024
-752 -324 2067
-744 -323 2063
-735 -322 2058
-720 -318 2034
-735 -327 2097
-720 -323 2072
-713 -323 2072
-714 -326 2095
-699 -323 2073
-691 -322 2070
-685 -322 2072
-678 -322 2069
-667 -319 2056
-662 -320 2063
-661 -323 2081
-645 -318 2052
-642 -319 2062
-642 -323 2085
-637 -324 2091
-629 -322 2085
-624 -323 2093
-612 -320 2073
-604 -319 2068
-598 -320 2072
-597 -322 2091
-588 -321 2082
-578 -319 2071
-578 -322 2093
-571 -322 2093
-563 -321 2087
-557 -321 2087
-551 -321 2091
-548 -323 2104
-537 -320 2086
-536 -323 2107
-524 -320 2087
-517 -319 2084
-516 -323 2106
-507 -321 2097
-505 -324 2113
-494 -321 2096
-487 -321 2095
-486 -324 2117
-487 -329 2150
-457 -313 2046
-417 -289 1893
-445 -312 2046
-449 -320 2095
0 0 0
0 0 0
-764 -567 3715
-796 -600 3931
-785 -601 3936
-770 -598 3919
-795 -626 4106
-804 -643 4218
-793 -645 4230
-765 -632 4147
-763 -640 4200
-731 -624 4096
-704 -611 4011
-695 -613 4026
-696 -625 4101
-734 -671 4404
-781 -726 4769
-771 -730 4795
-756 -730 4795
-743 -730 4800
-726 -727 4780
-714 -729 4792
-695 -724 4761
-673 -716 4709
-651 -707 4652
-631 -700 4604
-624 -707 4650
-613 -710 4673
-600 -711 4682
-580 -704 4632
-545 -677 4454
-525 -668 4399
-502 -655 4313
-493 -659 4340
-482 -662 4360
-466 -658 4333
-443 -642 4227
-431 -642 4232
-416 -639 4212
-397 -629 4142
-385 -628 4136
-380 -640 4218
-371 -646 4258
-359 -647 4262
-347 -647 4261
-331 -641 4224
-318 -639 4208
-316 -659 4346
-316 -688 4537
-318 -722 4754
-311 -738 4864
-2 -11 81
1 0 10
2 0 7
-5 -21 144
-35 -115 762
-33 -115 767
-40 -146 967
-40 -159 1050
-30 -131 872
-29 -138 912
-37 -185 1225
-35 -195 1287
-30 -185 1227
-27 -188 1243
-25 -204 1348
-19 -187 1238
-15 -183 1211
-13 -193 1275
-9 -187 1236
-5 -180 1190
-2 -194 1284
1 -185 1222
5 -202 1335
9 -198 1305
12 -180 1188
16 -196 1294
21 -202 1336
23 -193 1275
26 -186 1229
30 -189 1248
37 -210 1387
38 -191 1260
44 -202 1334
48 -206 1355
53 -207 1367
53 -194 1279
59 -202 1331
59 -187 1231
66 -200 1318
69 -198 1301
69 -186 1222
79 -203 1336
83 -204 1340
84 -196 1291
88 -196 1291
96 -207 1360
97 -201 1318
103 -205 1344
109 -209 1372
113 -209 1369
114 -204 1342
0 0 0
0 0 0
0 0 0
0 0 0
0 0 0
0 0 0
0 0 0
0 0 0
0 0 0
0 0 0
345 -455 2963
367 -473 3080
360 -452 2943
381 -467 3040
376 -451 2932
0 0 0
0 0 0
371 -416 2703
401 -441 2866
369 -397 2577
0 0 0
0 0 0
213 -214 1390
204 -201 1305
223 -216 1405
257 -245 1588
273 -256 1661
298 -275 1782
292 -265 1714
294 -262 1697
269 -235 1524
296 -255 1650
379 -322 2080
470 -394 2541
506 -418 2693
542 -441 2841
523 -419 2695
349 -274 1768
300 -232 1492
262 -199 1283
352 -265 1703
359 -266 1713
359 -262 1686
284 -204 1314
235 -166 1067
224 -156 1003
233 -160 1027
0 0 0
0 0 0
0 0 0
158 -102 656
160 -102 654
0 0 0
148 -92 591
125 -76 489
139 -84 541
0 0 0
0 0 0
46 -24 162
30 -15 101
17 -7 49
6 0 6
36 -17 117
0 0 0
0 0 0
0 0 0
0 0 0
0 0 0
0 0 0
1015 -545 3427
1005 -535 3359
1034 -544 3417
0 0 0
0 0 0
0 0 0
0 0 0
0 0 0
0 0 0
0 0 0
0 0 0
0 0 0
0 0 0
0 0 0
0 0 0
0 0 0
0 0 0
0 0 0
0 0 0
0 0 0
0 0 0
1033 -458 2826
1057 -465 2866
1069 -467 2872
1074 -465 2858
1082 -465 2855
1080 -460 2822
1096 -464 2839
1092 -458 2805
1074 -447 2732
1084 -448 2733
1061 -435 2653
1075 -437 2664
1078 -436 2649
1063 -426 2589
1041 -414 2515
1074 -424 2572
1070 -419 2539
1063 -414 2501
1007 -389 2349
1046 -401 2420
1047 -399 2402
1029 -389 2342
1079 -405 2435
1035 -386 2317
1094 -405 2429
1052 -387 2317
1082 -396 2364
1102 -400 2388
1088 -392 2338
1111 -398 2369
1108 -395 2344
1097 -388 2301
1112 -391 2315
1112 -388 2297
1119 -388 2292
1108 -382 2252
1115 -382 2249
1115 -379 2231
1114 -377 2213
1109 -373 2186
1109 -370 2168
1120 -372 2174
1128 -372 2172
1130 -371 2160
1133 -369 2149
1137 -369 2140
1136 -366 2122
1137 -364 2107
1145 -365 2106
1142 -362 2085
1136 -358 2059
1145 -358 2060
1140 -355 2036
1143 -354 2026
-485 -136 834
-491 -139 851
-482 -137 841
-493 -141 867
-475 -137 842
-463 -134 827
-465 -135 836
-472 -138 855
-468 -138 855
-469 -139 861
-492 -147 912
-475 -142 886
-485 -147 913
-600 -182 1136
-1053 -323 2010
-1083 -335 2083
-1075 -334 2082
-1068 -334 2085
-1058 -333 2081
-1053 -333 2087
-1045 -333 2087
-1038 -333 2090
-1026 -331 2082
-1022 -332 2090
-1013 -332 2089
-1000 -329 2077
-995 -330 2084
-985 -329 2078
-971 -327 2066
-965 -327 2070
-967 -330 2090
-959 -329 2090
-957 -331 2102
-950 -331 2105
-936 -328 2089
-915 -323 2059
-893 -317 2026
-905 -324 2072
-889 -321 2052
-874 -318 2034
-878 -321 2059
-858 -316 2030
-853 -317 2036
-852 -319 2051
-851 -321 2065
-848 -322 2075
-836 -320 2063
-828 -319 2062
-823 -320 2068
-806 -316 2043
-802 -317 2051
-800 -319 2063
-767 -308 1997
-726 -294 1907
-755 -308 2000
-759 -312 2030
-752 -312 2028
-745 -312 2029
-744 -314 2046
-744 -316 2063
-731 -314 2047
-723 -313 2044
-724 -316 2067
-719 -317 2072
-712 -317 2072
-707 -317 2078
-700 -317 2076
-695 -318 2082
-690 -318 2087
-678 -315 2071
-664 -312 2051
-663 -314 2065
-660 -316 2079
-646 -312 2056
-644 -314 2071
-642 -316 2086
-632 -315 2075
-621 -312 2059
-620 -315 2079
-610 -313 2067
-607 -315 2080
-600 -314 2079
-595 -315 2086
-590 -316 2090
-582 -315 2085
-574 -314 2079
-572 -316 2095
-568 -317 2106
-562 -318 2109
-555 -317 2106
-544 -314 2088
-542 -317 2108
-536 -317 2108
-524 -314 2087
-522 -316 2104
-512 -314 2093
-511 -317 2113
-501 -315 2101
-494 -314 2095
-493 -318 2120
-483 -316 2106
-467 -309 2063
-429 -288 1920
-416 -283 1890
-434 -299 1997
-409 -286 1912
-382 -271 1811
-387 -278 1861
0 0 0
0 0 0
0 0 0
0 0 0
0 0 0
-913 -717 4793
-908 -724 4841
-867 -702 4696
-867 -714 4774
-773 -647 4330
