VERSION 0.7
FIELDS x y z
SIZE 4 4 4
TYPE I I I
COUNT 1 1 1
WIDTH 3298
HEIGHT 1
VIEWPOINT 0.0 0.0 0.0 1.0 0.0 0.0 0.0
POINTS 3298
DATA ascii
43 -471 2508
50 -468 2494
58 -468 2495
65 -469 2497
72 -468 2492
79 -468 2491
86 -465 2474
93 -466 2478
101 -467 2488
108 -466 2480
114 -463 2465
122 -465 2475
129 -464 2467
136 -465 2471
144 -465 2474
150 -464 2465
158 -465 2470
165 -465 2468
173 -466 2474
179 -465 2466
186 -463 2457
193 -463 2455
200 -464 2459
207 -462 2449
213 -460 2439
221 -461 2445
228 -461 2444
235 -461 2441
242 -461 2441
249 -461 2439
256 -461 2437
263 -461 2437
270 -461 2437
278 -461 2438
284 -460 2430
291 -460 2427
299 -461 2432
306 -461 2430
312 -459 2424
319 -459 2421
322 -454 2392
327 -451 2376
332 -448 2360
336 -445 2342
343 -445 2341
349 -443 2332
358 -446 2344
364 -445 2341
372 -447 2346
381 -449 2357
388 -449 2355
396 -450 2362
401 -448 2351
408 -449 2352
415 -448 2347
423 -450 2354
428 -448 2343
435 -448 2342
443 -449 2349
448 -448 2339
456 -448 2341
462 -448 2335
469 -448 2334
476 -448 2334
482 -447 2330
490 -448 2334
496 -447 2326
503 -448 2329
510 -448 2327
517 -448 2327
526 -450 2334
530 -447 2318
538 -449 2325
545 -448 2323
551 -448 2317
557 -447 2311
564 -447 2310
570 -447 2308
578 -447 2309
583 -446 2301
589 -445 2296
596 -446 2296
604 -447 2299
611 -447 2297
619 -448 2301
633 -452 2323
639 -452 2318
645 -451 2313
653 -452 2317
658 -451 2309
667 -452 2312
674 -452 2312
681 -453 2311
687 -452 2305
692 -451 2299
699 -451 2296
706 -451 2295
713 -451 2292
720 -451 2293
726 -450 2287
732 -450 2284
738 -450 2278
747 -451 2281
755 -451 2283
759 -450 2273
765 -449 2269
772 -449 2266
782 -451 2273
785 -449 2259
794 -450 2263
799 -449 2257
804 -448 2248
812 -449 2249
820 -450 2252
826 -449 2246
835 -450 2251
838 -448 2238
847 -449 2241
850 -448 2230
862 -450 2239
867 -450 2234
876 -450 2235
882 -450 2231
890 -451 2231
896 -450 2226
902 -450 2222
910 -450 2223
916 -450 2217
926 -452 2223
929 -450 2212
937 -450 2211
946 -451 2214
953 -452 2212
957 -450 2203
970 -453 2213
974 -452 2203
987 -455 2215
1002 -458 2229
1025 -466 2264
1021 -461 2236
1027 -460 2231
1033 -460 2226
1040 -460 2223
1048 -461 2222
1052 -459 2212
1060 -459 2211
1054 -454 2182
1023 -438 2100
932 -396 1896
895 -378 1808
888 -372 1779
905 -377 1798
901 -373 1778
909 -374 1780
916 -375 1779
908 -369 1750
922 -373 1764
932 -374 1768
938 -375 1767
943 -374 1763
954 -376 1770
956 -375 1759
959 -374 1752
964 -374 1748
967 -373 1740
974 -373 1741
982 -374 1742
989 -375 1740
-1346 -471 2297
-1331 -468 2288
-1319 -467 2284
-1298 -462 2265
-1278 -458 2247
-1274 -459 2256
-1280 -464 2283
-1235 -450 2221
-1231 -451 2229
-1240 -457 2262
-1205 -447 2215
-1190 -444 2205
-1195 -449 2231
-1177 -445 2214
-1181 -449 2239
-1165 -446 2224
-1154 -444 2220
-1145 -444 2220
-1138 -444 2224
-1126 -442 2216
-1117 -441 2216
-1105 -439 2210
-1101 -441 2219
-1096 -442 2227
-1083 -439 2217
-1069 -436 2205
-1055 -434 2195
-1054 -436 2208
-1045 -435 2208
-1030 -432 2194
-1022 -431 2195
-1017 -432 2202
-1001 -429 2185
-984 -424 2165
-978 -424 2169
-993 -434 2221
-1005 -442 2266
-1003 -445 2280
-997 -445 2286
-995 -448 2299
-992 -449 2311
-987 -451 2321
-985 -453 2335
-979 -454 2340
-977 -456 2355
-967 -455 2353
-966 -458 2370
-961 -459 2379
-960 -462 2397
-957 -465 2411
-954 -467 2424
-948 -467 2429
-945 -470 2445
-944 -473 2462
-936 -473 2465
-934 -476 2482
-926 -475 2482
-922 -478 2495
-918 -480 2508
-915 -482 2522
-907 -482 2524
-905 -485 2542
-900 -486 2551
-899 -490 2573
-890 -490 2573
-885 -491 2583
-876 -491 2583
-874 -494 2601
-873 -498 2624
-863 -497 2619
-859 -499 2633
-852 -500 2639
-848 -502 2654
-841 -503 2659
-835 -504 2667
-829 -505 2674
-826 -508 2693
-817 -508 2692
-812 -510 2707
-809 -514 2725
-805 -516 2740
-803 -520 2765
-802 -525 2792
-796 -527 2801
-793 -530 2822
-788 -533 2836
-777 -531 2830
-750 -518 2762
-730 -510 2722
-718 -507 2706
-706 -504 2694
-700 -506 2703
-689 -504 2695
-681 -504 2695
-674 -505 2702
-664 -503 2695
-655 -503 2691
-645 -501 2686
-634 -499 2674
-627 -499 2678
-620 -501 2686
-611 -500 2681
-605 -502 2693
-594 -499 2679
-583 -497 2668
-577 -498 2676
-570 -499 2684
-560 -497 2674
-552 -497 2676
-542 -495 2666
-535 -496 2669
-526 -495 2663
-518 -494 2664
-507 -492 2650
-504 -496 2675
-495 -496 2672
-484 -492 2654
-474 -490 2645
-466 -490 2643
-458 -490 2645
-450 -489 2643
-441 -489 2640
-434 -489 2642
-426 -489 2644
-419 -489 2646
-408 -486 2630
-402 -488 2639
-393 -487 2634
-384 -486 2627
-375 -484 2619
-370 -488 2639
-360 -484 2621
-352 -483 2617
-345 -484 2623
-337 -484 2619
-327 -482 2608
-323 -486 2635
-314 -484 2621
-305 -483 2618
-298 -483 2618
-288 -480 2600
-280 -480 2600
-274 -482 2611
-265 -480 2600
-257 -479 2600
-249 -478 2591
-241 -476 2583
-234 -478 2592
-225 -474 2573
-218 -476 2580
-211 -477 2585
-202 -473 2568
-194 -474 2569
-187 -476 2580
-179 -474 2570
-171 -473 2565
-163 -471 2553
-156 -471 2557
-148 -471 2555
-141 -471 2553
-133 -470 2552
-126 -470 2548
-118 -470 2548
-110 -468 2539
-103 -468 2541
-96 -469 2542
-88 -466 2529
-80 -466 2526
-73 -467 2533
-66 -468 2536
-58 -465 2521
-51 -467 2533
-44 -466 2528
-36 -465 2519
-29 -464 2518
-21 -463 2512
-14 -460 2494
-7 -463 2510
0 -464 2514
7 -461 2500
14 -463 2510
21 -460 2493
29 -460 2494
36 -462 2501
43 -461 2498
50 -461 2495
58 -461 2494
65 -459 2482
72 -460 2489
79 -459 2485
86 -460 2488
94 -461 2491
101 -459 2480
108 -459 2481
115 -458 2477
121 -455 2458
129 -456 2463
136 -457 2468
143 -456 2465
151 -457 2468
157 -455 2457
164 -455 2455
172 -457 2466
178 -454 2451
186 -456 2457
192 -454 2449
199 -453 2441
207 -455 2451
214 -455 2452
220 -451 2431
227 -453 2436
235 -453 2439
241 -452 2430
248 -452 2431
255 -452 2428
263 -453 2437
269 -451 2425
277 -453 2434
284 -453 2431
290 -451 2422
297 -452 2423
304 -451 2416
310 -450 2413
317 -449 2405
324 -449 2403
327 -444 2378
333 -443 2369
338 -440 2351
342 -437 2336
349 -436 2331
355 -436 2327
362 -436 2331
370 -438 2335
378 -438 2339
385 -439 2339
393 -440 2346
399 -440 2342
407 -440 2343
413 -440 2341
419 -438 2332
426 -439 2332
433 -439 2334
441 -440 2337
447 -439 2330
454 -440 2334
460 -439 2329
466 -438 2322
475 -440 2329
481 -439 2322
486 -438 2314
494 -438 2318
500 -438 2314
508 -439 2320
514 -438 2312
521 -439 2314
527 -437 2306
536 -440 2315
540 -438 2304
548 -439 2307
555 -439 2305
562 -438 2302
568 -438 2297
574 -437 2294
583 -439 2302
590 -439 2301
595 -438 2292
600 -437 2284
610 -439 2296
614 -437 2281
626 -441 2301
634 -441 2302
642 -442 2304
653 -445 2316
659 -445 2314
666 -444 2310
673 -445 2310
681 -446 2312
687 -445 2307
691 -443 2297
700 -444 2299
709 -446 2305
715 -445 2300
723 -446 2301
726 -444 2289
734 -444 2290
738 -443 2278
746 -443 2281
753 -443 2279
760 -443 2276
768 -444 2277
771 -442 2265
780 -443 2269
788 -444 2269
794 -443 2265
799 -443 2259
805 -442 2252
816 -444 2262
822 -444 2258
825 -442 2245
832 -442 2244
844 -444 2254
848 -443 2244
860 -446 2255
860 -442 2237
872 -445 2247
874 -443 2233
887 -446 2245
893 -445 2239
896 -443 2228
904 -444 2229
910 -443 2223
916 -443 2220
922 -443 2215
926 -441 2205
937 -443 2212
943 -443 2207
952 -444 2211
960 -445 2211
963 -443 2198
970 -443 2197
981 -445 2204
997 -449 2220
1008 -451 2226
1016 -451 2225
1039 -459 2258
1027 -450 2213
1041 -453 2225
1048 -453 2223
1049 -451 2208
1057 -451 2207
1054 -447 2182
1019 -429 2093
928 -388 1891
892 -371 1802
893 -368 1789
897 -368 1783
904 -368 1783
905 -367 1772
917 -369 1781
913 -365 1761
924 -368 1769
926 -366 1758
934 -367 1760
938 -366 1753
951 -369 1766
959 -370 1766
959 -368 1752
965 -368 1751
971 -368 1749
974 -367 1740
986 -370 1749
982 -366 1729
-1339 -461 2286
-1337 -463 2300
-1304 -454 2261
-1304 -457 2276
-1287 -453 2263
-1269 -450 2248
-1262 -450 2252
-1255 -450 2257
-1240 -447 2248
-1232 -447 2249
-1217 -444 2239
-1208 -444 2240
-1202 -444 2245
-1195 -444 2249
-1181 -442 2239
-1173 -442 2242
-1157 -438 2227
-1148 -438 2227
-1140 -438 2229
-1129 -436 2225
-1119 -435 2221
-1111 -435 2223
-1101 -433 2220
-1087 -431 2210
-1079 -430 2210
-1071 -430 2211
-1059 -428 2203
-1053 -429 2210
-1038 -425 2194
-1033 -426 2201
-1021 -424 2193
-1009 -422 2185
-998 -420 2179
-980 -416 2157
-980 -418 2174
-990 -426 2214
-1002 -434 2260
-999 -436 2272
-1001 -440 2295
-994 -440 2300
-994 -443 2318
-985 -442 2316
-986 -446 2338
-982 -448 2350
-976 -448 2354
-969 -449 2359
-967 -451 2373
-962 -452 2383
-960 -455 2397
-959 -458 2415
-954 -459 2425
-951 -461 2438
-944 -462 2442
-940 -464 2454
-933 -464 2459
-927 -464 2463
-928 -469 2489
-925 -472 2505
-918 -472 2507
-915 -474 2523
-906 -473 2521
-905 -477 2542
-897 -477 2545
-892 -479 2555
-890 -482 2574
-886 -484 2586
-882 -486 2600
-873 -486 2600
-870 -488 2616
-863 -489 2622
-857 -490 2629
-853 -492 2642
-844 -492 2643
-839 -494 2655
-833 -495 2661
-827 -496 2669
-827 -501 2698
-821 -502 2707
-812 -502 2706
-809 -505 2727
-802 -506 2730
-797 -508 2743
-791 -510 2755
-786 -512 2766
-784 -516 2792
-775 -516 2792
-763 -513 2778
-743 -505 2738
-723 -497 2696
-717 -499 2707
-712 -501 2720
-702 -499 2711
-696 -501 2721
-681 -496 2696
-680 -501 2726
-665 -496 2699
-658 -497 2705
-649 -496 2703
-639 -495 2695
-633 -496 2705
-620 -493 2687
-611 -492 2683
-600 -489 2669
-595 -491 2683
-585 -490 2678
-576 -489 2672
-567 -488 2668
-558 -487 2666
-554 -491 2683
-543 -488 2673
-534 -487 2666
-529 -490 2681
-517 -486 2664
-508 -485 2658
-502 -486 2666
-490 -482 2645
-484 -485 2657
-476 -484 2656
-465 -481 2638
-457 -481 2637
-451 -483 2649
-443 -483 2654
-435 -482 2648
-425 -480 2635
-417 -480 2635
-409 -480 2637
-403 -482 2651
-392 -478 2628
-386 -480 2638
-375 -476 2617
-368 -477 2622
-360 -477 2624
-351 -475 2612
-343 -474 2610
-336 -476 2618
-326 -472 2597
-321 -476 2619
-312 -474 2610
-303 -472 2602
-295 -472 2598
-288 -472 2601
-279 -470 2593
-272 -470 2590
-264 -470 2590
-255 -467 2576
-249 -470 2592
-241 -469 2585
-234 -470 2592
-224 -466 2572
-217 -467 2574
-209 -465 2566
-202 -468 2580
-194 -465 2565
-186 -465 2565
-178 -464 2560
-171 -463 2554
-163 -464 2557
-156 -464 2559
-148 -462 2549
-140 -462 2547
-133 -462 2547
-125 -460 2536
-117 -459 2533
-110 -461 2540
-103 -460 2537
-95 -456 2517
-87 -457 2523
-81 -460 2536
-73 -457 2521
-65 -457 2519
-58 -456 2512
-51 -456 2514
-44 -458 2526
-36 -456 2516
-29 -455 2510
-21 -456 2512
-14 -455 2507
-7 -453 2497
0 -453 2498
7 -453 2494
14 -453 2496
21 -453 2494
29 -453 2494
36 -451 2482
43 -453 2493
50 -452 2488
57 -452 2486
65 -451 2484
72 -451 2481
79 -451 2479
86 -449 2468
93 -450 2472
100 -450 2473
107 -450 2471
115 -452 2481
122 -448 2464
129 -449 2466
136 -447 2457
143 -450 2468
150 -448 2459
157 -447 2454
164 -447 2450
171 -446 2443
178 -446 2443
185 -446 2443
192 -447 2449
200 -447 2449
206 -445 2438
214 -448 2450
220 -445 2437
227 -445 2433
235 -446 2440
241 -445 2432
250 -447 2445
255 -444 2426
262 -444 2424
270 -445 2432
276 -445 2427
283 -445 2427
287 -440 2400
296 -443 2413
304 -443 2416
309 -441 2405
316 -442 2405
323 -441 2400
329 -440 2394
335 -438 2383
338 -433 2352
345 -433 2353
349 -430 2334
355 -428 2326
358 -425 2305
365 -425 2305
372 -425 2306
383 -430 2328
390 -430 2329
399 -432 2338
402 -428 2317
411 -430 2328
418 -431 2331
425 -431 2328
431 -431 2325
438 -431 2325
444 -430 2319
452 -431 2323
458 -430 2319
464 -429 2313
471 -430 2312
478 -429 2311
484 -429 2308
489 -428 2298
500 -431 2314
504 -429 2301
512 -430 2307
519 -430 2302
527 -431 2307
532 -429 2298
539 -430 2298
546 -430 2299
551 -428 2289
558 -429 2290
565 -429 2289
573 -430 2291
579 -429 2287
587 -430 2290
594 -430 2288
600 -430 2284
607 -430 2285
612 -429 2275
616 -427 2265
623 -427 2264
637 -432 2286
647 -434 2297
658 -437 2309
664 -436 2305
675 -439 2316
678 -437 2303
684 -436 2299
691 -436 2297
697 -436 2291
706 -437 2298
711 -436 2288
717 -435 2282
725 -436 2285
730 -435 2276
740 -437 2285
749 -438 2289
749 -434 2267
759 -436 2275
769 -438 2283
773 -436 2270
780 -436 2269
784 -435 2260
792 -435 2261
803 -437 2269
809 -437 2265
814 -436 2258
820 -436 2255
831 -438 2262
835 -436 2252
838 -435 2241
851 -437 2253
856 -437 2248
861 -436 2240
867 -435 2234
875 -436 2235
881 -436 2232
890 -436 2232
902 -439 2244
904 -437 2229
908 -435 2219
920 -438 2230
924 -437 2221
935 -439 2228
935 -436 2209
944 -437 2212
951 -437 2209
962 -438 2215
967 -438 2209
969 -435 2194
982 -438 2205
990 -439 2206
1001 -441 2212
1009 -441 2211
1021 -443 2220
1029 -444 2220
1041 -446 2226
1047 -446 2222
1049 -444 2209
1049 -441 2190
1050 -438 2175
1022 -424 2100
934 -385 1904
898 -367 1814
886 -360 1777
905 -365 1800
904 -363 1785
901 -359 1765
915 -363 1779
923 -364 1781
928 -363 1776
929 -362 1766
942 -364 1776
941 -362 1760
946 -362 1757
951 -361 1753
958 -362 1753
964 -362 1749
974 -364 1755
974 -362 1741
981 -362 1741
979 -359 1725
-1325 -449 2265
-1314 -448 2262
-1304 -447 2262
-1291 -445 2256
-1293 -448 2276
-1273 -444 2257
-1268 -445 2266
-1254 -442 2257
-1251 -444 2269
-1232 -440 2251
-1225 -440 2255
-1227 -444 2276
-1206 -439 2255
-1193 -436 2246
-1182 -435 2243
-1171 -434 2239
-1166 -435 2247
-1153 -433 2238
-1149 -434 2248
-1132 -430 2232
-1123 -429 2230
-1105 -425 2213
-1102 -427 2223
-1086 -423 2209
-1076 -422 2206
-1071 -423 2213
-1058 -421 2203
-1050 -420 2203
-1035 -417 2189
-1027 -417 2189
-1022 -417 2196
-1012 -416 2192
-997 -413 2178
-982 -410 2162
-974 -409 2163
-993 -420 2224
-1006 -429 2272
-1001 -430 2279
-997 -431 2289
-995 -433 2303
-991 -435 2314
-986 -436 2321
-980 -436 2326
-980 -439 2345
-978 -442 2360
-977 -445 2378
-965 -443 2371
-962 -445 2384
-958 -447 2395
-952 -447 2400
-953 -451 2423
-952 -454 2442
-944 -454 2444
-941 -456 2457
-936 -458 2466
-930 -459 2475
-922 -459 2476
-923 -463 2500
-924 -467 2525
-908 -463 2505
-912 -469 2539
-903 -468 2538
-899 -470 2552
-891 -470 2553
-890 -474 2576
-886 -476 2588
-877 -476 2588
-871 -477 2596
-867 -479 2607
-862 -480 2619
-856 -481 2626
-848 -482 2629
-849 -487 2659
-843 -488 2669
-833 -487 2663
-828 -489 2675
-824 -491 2692
-820 -493 2705
-810 -492 2700
-806 -495 2718
-800 -497 2728
-791 -496 2726
-791 -501 2754
-784 -502 2761
-782 -506 2785
-768 -502 2766
-755 -500 2753
-740 -495 2730
-731 -494 2726
-717 -491 2708
-710 -491 2712
-700 -490 2708
-692 -490 2708
-681 -488 2699
-672 -488 2698
-668 -490 2713
-657 -488 2701
-648 -488 2701
-635 -484 2681
-627 -484 2682
-622 -486 2694
-614 -486 2699
-600 -481 2672
-592 -481 2672
-585 -482 2679
-580 -484 2691
-567 -480 2670
-558 -480 2668
-548 -478 2658
-542 -479 2666
-529 -475 2641
-526 -479 2666
-517 -478 2663
-507 -476 2654
-498 -476 2651
-493 -478 2664
-484 -477 2660
-471 -472 2632
-464 -473 2638
-459 -475 2652
-449 -473 2642
-440 -472 2634
-434 -473 2644
-424 -471 2630
-413 -467 2611
-408 -471 2632
-399 -469 2621
-392 -470 2631
-384 -469 2625
-374 -467 2610
-367 -468 2620
-359 -467 2616
-351 -467 2611
-343 -467 2615
-335 -466 2608
-327 -466 2611
-318 -464 2597
-312 -466 2611
-303 -463 2596
-295 -464 2600
-288 -464 2598
-279 -463 2592
-269 -459 2569
-262 -459 2574
-255 -460 2576
-247 -459 2576
-239 -459 2573
-232 -460 2576
-224 -459 2571
-216 -457 2565
-209 -458 2571
-200 -455 2551
-193 -456 2560
-186 -456 2560
-178 -455 2550
-170 -456 2555
-162 -453 2543
-155 -453 2543
-148 -454 2549
-140 -453 2540
-132 -453 2540
-125 -451 2531
-117 -450 2526
-110 -452 2532
-102 -451 2531
-95 -451 2531
-88 -451 2528
-80 -450 2525
-73 -451 2531
-65 -448 2511
-58 -448 2510
-50 -446 2502
-43 -447 2504
-36 -445 2496
-28 -447 2505
-21 -446 2499
-14 -447 2505
-7 -447 2505
0 -445 2491
7 -444 2487
14 -445 2490
21 -445 2491
29 -444 2486
36 -445 2490
43 -444 2483
50 -443 2477
57 -442 2471
64 -442 2475
72 -443 2479
79 -443 2479
86 -442 2474
93 -444 2480
100 -442 2471
107 -440 2461
114 -440 2455
122 -441 2463
129 -442 2465
136 -442 2466
143 -440 2454
150 -439 2452
156 -438 2442
164 -440 2452
171 -440 2450
177 -438 2439
185 -438 2442
192 -438 2438
199 -439 2446
206 -438 2438
212 -437 2430
219 -437 2430
227 -438 2437
233 -435 2421
241 -437 2429
248 -437 2427
255 -437 2428
261 -435 2416
268 -436 2419
275 -436 2419
281 -433 2404
290 -436 2418
295 -434 2404
302 -434 2406
308 -433 2398
316 -433 2399
322 -433 2395
327 -430 2380
334 -429 2375
339 -428 2365
344 -425 2351
349 -423 2337
355 -422 2327
360 -420 2318
366 -418 2307
370 -416 2292
378 -418 2302
387 -420 2312
396 -422 2324
402 -421 2318
408 -420 2310
416 -422 2318
422 -421 2312
430 -422 2317
437 -422 2317
443 -421 2311
449 -421 2307
455 -420 2303
464 -422 2311
468 -420 2300
477 -421 2305
483 -421 2301
490 -421 2300
496 -421 2298
504 -421 2300
509 -421 2294
517 -422 2298
522 -420 2289
528 -420 2284
537 -421 2290
546 -423 2300
554 -424 2302
559 -422 2291
562 -419 2274
571 -422 2285
577 -421 2280
583 -420 2274
588 -419 2266
594 -419 2264
599 -418 2255
605 -417 2250
608 -414 2233
609 -410 2211
616 -411 2214
634 -418 2251
647 -423 2272
654 -423 2272
661 -423 2268
668 -423 2268
677 -424 2274
683 -424 2272
688 -423 2264
694 -423 2260
701 -423 2258
706 -422 2251
713 -422 2249
720 -422 2247
725 -421 2241
737 -424 2253
741 -423 2244
748 -422 2241
755 -423 2241
761 -423 2238
765 -421 2228
777 -424 2239
780 -422 2226
787 -422 2226
795 -423 2227
800 -422 2220
806 -422 2217
815 -422 2219
824 -424 2223
828 -422 2213
835 -422 2211
842 -423 2211
847 -422 2205
855 -422 2203
861 -422 2201
869 -423 2201
876 -423 2198
885 -424 2203
891 -424 2199
898 -424 2195
905 -424 2194
911 -423 2189
917 -423 2184
926 -424 2187
935 -426 2191
934 -422 2171
949 -426 2186
956 -426 2185
963 -426 2183
969 -426 2178
981 -428 2187
993 -430 2196
1005 -432 2203
1019 -436 2217
1024 -435 2209
1036 -437 2218
1047 -439 2222
1042 -434 2194
1043 -431 2179
1043 -428 2161
1024 -418 2106
938 -380 1912
895 -360 1810
887 -355 1780
901 -358 1794
905 -357 1788
912 -358 1787
909 -355 1769
915 -355 1767
928 -358 1778
934 -358 1775
941 -358 1776
940 -356 1759
945 -356 1756
951 -356 1754
959 -357 1755
960 -355 1743
970 -356 1748
973 -356 1742
977 -355 1735
984 -356 1735
-1346 -448 2301
-1320 -442 2274
-1310 -441 2273
-1302 -441 2276
-1300 -443 2290
-1271 -436 2256
-1279 -441 2287
-1262 -438 2272
-1252 -437 2271
-1242 -436 2271
-1227 -434 2261
-1224 -435 2271
-1214 -434 2269
-1194 -429 2249
-1184 -428 2247
-1173 -427 2243
-1161 -425 2237
-1150 -424 2235
-1142 -424 2236
-1129 -422 2227
-1115 -419 2216
-1107 -419 2218
-1095 -417 2212
-1088 -417 2214
-1070 -413 2195
-1062 -412 2195
-1051 -411 2190
-1053 -415 2211
-1046 -415 2214
-1026 -410 2190
-1017 -409 2187
-1007 -407 2183
-995 -405 2175
-980 -402 2160
-977 -404 2171
-991 -413 2221
-1002 -420 2264
-1001 -422 2279
-996 -423 2286
-992 -425 2296
-990 -427 2311
-984 -428 2318
-987 -432 2343
-979 -432 2344
-977 -434 2360
-973 -436 2370
-967 -436 2375
-960 -437 2378
-961 -441 2403
-953 -440 2404
-949 -442 2416
-949 -445 2436
-945 -447 2447
-938 -448 2452
-934 -449 2463
-928 -450 2468
-923 -451 2479
-921 -454 2496
-917 -456 2509
-913 -458 2521
-906 -458 2524
-905 -461 2545
-897 -462 2548
-892 -463 2558
-888 -465 2571
-881 -466 2576
-877 -468 2590
-874 -470 2606
-867 -471 2611
-864 -474 2628
-855 -473 2626
-853 -476 2646
-845 -476 2648
-839 -478 2658
-835 -480 2670
-829 -481 2680
-826 -484 2698
-817 -484 2698
-814 -487 2715
-806 -487 2719
-798 -487 2722
-794 -490 2736
-786 -490 2738
-786 -495 2770
-778 -496 2775
-765 -492 2757
-748 -487 2728
-733 -482 2705
-728 -484 2717
-716 -482 2703
-708 -482 2705
-698 -481 2701
-688 -479 2693
-680 -479 2695
-670 -478 2688
-661 -477 2685
-656 -479 2700
-641 -474 2673
-638 -478 2694
-627 -476 2682
-619 -476 2682
-609 -475 2679
-599 -473 2669
-593 -474 2677
-586 -475 2684
-573 -471 2663
-568 -474 2677
-559 -472 2672
-545 -468 2647
-540 -470 2658
-531 -469 2654
-524 -469 2658
-515 -469 2657
-505 -466 2642
-496 -466 2640
-490 -467 2650
-480 -465 2640
-474 -466 2647
-465 -466 2642
-455 -464 2634
-446 -463 2627
-439 -463 2629
-430 -462 2626
-424 -464 2635
-413 -460 2617
-407 -462 2627
-399 -461 2623
-392 -462 2627
-382 -460 2617
-375 -460 2619
-366 -459 2614
-359 -460 2615
-349 -457 2603
-342 -458 2606
-333 -456 2594
-326 -457 2605
-317 -454 2586
-308 -453 2578
-303 -456 2598
-295 -456 2598
-286 -454 2590
-278 -453 2579
-270 -452 2576
-262 -452 2575
-254 -450 2565
-247 -451 2573
-237 -447 2549
-231 -450 2566
-224 -450 2566
-215 -448 2557
-208 -449 2560
-200 -448 2556
-192 -447 2549
-185 -449 2558
-177 -445 2539
-169 -445 2539
-162 -445 2536
-154 -444 2534
-147 -446 2545
-139 -444 2535
-131 -442 2520
-124 -442 2519
-117 -442 2523
-110 -446 2544
-102 -442 2521
-95 -444 2534
-87 -442 2520
-80 -441 2516
-72 -441 2513
-65 -441 2517
-58 -440 2509
-51 -442 2519
-43 -438 2497
-36 -439 2500
-28 -437 2489
-21 -437 2493
-14 -438 2495
-7 -438 2495
0 -437 2491
7 -437 2486
14 -435 2477
21 -436 2485
29 -436 2481
36 -433 2466
43 -435 2477
50 -435 2477
57 -435 2477
64 -434 2468
72 -437 2484
79 -434 2471
86 -436 2476
93 -433 2459
100 -434 2466
107 -434 2468
115 -435 2473
121 -432 2453
129 -435 2468
135 -432 2452
142 -432 2452
149 -431 2448
157 -432 2449
164 -431 2447
170 -429 2432
178 -431 2445
185 -431 2443
191 -430 2434
198 -429 2428
205 -430 2434
212 -429 2429
219 -429 2426
227 -430 2432
233 -428 2422
239 -427 2417
246 -427 2411
252 -425 2404
259 -425 2400
267 -426 2404
273 -425 2398
280 -424 2394
286 -423 2385
292 -423 2383
298 -421 2371
305 -421 2373
312 -421 2373
318 -420 2362
324 -419 2355
331 -419 2354
337 -417 2346
344 -418 2347
348 -415 2331
353 -413 2317
359 -412 2312
364 -410 2300
370 -409 2292
375 -407 2283
383 -408 2285
389 -408 2285
397 -409 2291
407 -413 2308
412 -411 2298
420 -413 2305
428 -413 2306
434 -413 2303
441 -413 2303
446 -411 2293
454 -413 2299
461 -413 2298
469 -414 2303
476 -414 2301
481 -412 2291
488 -412 2291
494 -412 2289
502 -413 2291
506 -411 2279
514 -412 2285
522 -413 2286
530 -414 2293
535 -412 2281
548 -417 2307
557 -419 2315
558 -415 2291
562 -413 2276
567 -412 2270
571 -410 2256
577 -409 2253
583 -409 2249
585 -405 2228
588 -403 2212
592 -401 2202
599 -402 2202
602 -400 2189
612 -401 2197
622 -404 2210
630 -405 2214
636 -404 2209
644 -405 2213
652 -406 2216
658 -406 2211
662 -404 2200
668 -404 2196
677 -405 2203
684 -406 2204
689 -405 2195
697 -405 2198
702 -405 2191
710 -405 2193
717 -406 2194
722 -405 2188
730 -406 2188
736 -405 2184
740 -404 2177
749 -405 2181
755 -405 2177
760 -404 2172
770 -406 2179
776 -406 2175
780 -404 2164
789 -406 2170
793 -404 2160
805 -407 2172
808 -406 2162
815 -406 2161
825 -407 2166
831 -407 2162
835 -406 2153
846 -408 2163
854 -409 2165
855 -406 2148
865 -408 2154
874 -409 2157
877 -407 2146
887 -409 2150
894 -409 2150
900 -409 2147
909 -410 2148
911 -408 2136
923 -410 2145
927 -409 2137
936 -410 2140
945 -411 2141
952 -411 2140
961 -413 2144
969 -413 2143
981 -415 2151
995 -418 2165
1006 -420 2172
1024 -425 2193
1041 -429 2211
1038 -425 2187
1026 -417 2145
1025 -414 2125
1012 -406 2082
948 -378 1934
896 -355 1813
887 -349 1780
894 -349 1780
900 -350 1778
904 -349 1773
912 -350 1776
912 -348 1762
927 -351 1776
926 -349 1762
936 -350 1766
939 -350 1760
945 -350 1756
953 -351 1758
951 -348 1740
964 -351 1752
967 -350 1744
973 -350 1741
983 -352 1747
977 -347 1723
-1332 -436 2280
-1325 -436 2285
-1315 -435 2283
-1304 -434 2281
-1303 -437 2297
-1299 -438 2307
-1274 -432 2278
-1262 -430 2274
-1245 -427 2261
-1239 -428 2267
-1225 -426 2258
-1224 -428 2274
-1205 -424 2255
-1184 -419 2232
-1182 -420 2244
-1177 -421 2253
-1159 -418 2235
-1150 -417 2235
-1133 -413 2219
-1112 -408 2195
-1112 -411 2212
-1091 -406 2187
-1074 -402 2170
-1060 -400 2159
-1050 -398 2154
-1033 -394 2136
-1034 -397 2155
-1051 -407 2208
-1076 -419 2278
-1030 -404 2199
-1017 -402 2190
-1010 -402 2192
-997 -399 2181
-977 -394 2154
-974 -396 2166
-994 -407 2228
-1005 -414 2270
-998 -414 2275
-999 -418 2295
-994 -419 2303
-991 -420 2315
-986 -421 2323
-983 -423 2335
-978 -424 2345
-970 -424 2344
-971 -427 2366
-967 -429 2379
-957 -428 2373
-955 -431 2390
-953 -433 2406
-948 -434 2413
-947 -437 2433
-943 -439 2443
-934 -438 2443
-936 -443 2470
-926 -442 2466
-927 -446 2491
-925 -449 2509
-913 -446 2499
-906 -447 2503
-904 -450 2520
-902 -453 2540
-899 -455 2555
-895 -457 2567
-884 -455 2562
-885 -460 2589
-876 -460 2588
-871 -461 2598
-864 -461 2603
-860 -464 2616
-853 -464 2621
-849 -466 2634
-842 -467 2641
-841 -471 2664
-832 -470 2663
-823 -470 2662
-827 -477 2703
-818 -476 2701
-814 -479 2717
-805 -478 2718
-799 -479 2725
-792 -481 2733
-790 -484 2757
-779 -482 2746
-773 -484 2756
-759 -480 2738
-741 -474 2705
-732 -474 2701
-726 -475 2712
-713 -472 2694
-704 -471 2693
-696 -471 2693
-685 -469 2685
-680 -471 2696
-673 -472 2703
-660 -469 2686
-653 -470 2691
-642 -467 2680
-633 -466 2674
-626 -468 2682
-618 -467 2682
-609 -466 2676
-600 -466 2675
-590 -464 2665
-581 -463 2661
-575 -464 2671
-564 -463 2661
-557 -463 2665
-547 -461 2656
-537 -459 2645
-527 -458 2636
-520 -458 2639
-512 -459 2643
-507 -460 2654
-493 -455 2622
-491 -460 2656
-478 -455 2627
-471 -456 2634
-460 -454 2618
-455 -455 2630
-446 -455 2629
-437 -454 2622
-428 -452 2614
-422 -453 2621
-412 -451 2606
-404 -451 2611
-399 -454 2627
-389 -452 2614
-380 -450 2606
-372 -449 2599
-365 -451 2609
-356 -449 2600
-350 -450 2606
-341 -449 2602
-329 -443 2569
-324 -447 2589
-316 -446 2583
-309 -447 2589
-299 -443 2570
-291 -443 2566
-285 -445 2581
-277 -443 2571
-267 -441 2555
-262 -444 2573
-254 -443 2567
-245 -441 2560
-238 -441 2557
-230 -440 2555
-222 -440 2553
-215 -440 2553
-207 -438 2543
-199 -439 2546
-191 -437 2537
-184 -438 2543
-176 -437 2535
-169 -436 2532
-161 -436 2530
-153 -435 2524
-146 -436 2528
-139 -436 2533
-131 -433 2514
-124 -434 2517
-116 -434 2518
-109 -435 2523
-101 -432 2507
-95 -435 2522
-87 -433 2513
-80 -433 2513
-72 -431 2500
-65 -433 2509
-58 -434 2518
-50 -432 2504
-43 -432 2506
-36 -431 2497
-28 -433 2512
-21 -430 2491
-14 -428 2483
-7 -431 2496
0 -429 2487
7 -430 2491
14 -427 2476
21 -427 2474
29 -428 2478
36 -427 2471
43 -427 2471
50 -427 2470
57 -427 2469
64 -427 2470
71 -425 2457
78 -425 2460
85 -424 2452
92 -424 2450
99 -423 2445
106 -422 2439
113 -421 2432
120 -421 2434
127 -421 2430
134 -420 2427
140 -418 2414
148 -419 2421
154 -418 2411
161 -417 2407
168 -417 2404
174 -414 2388
180 -413 2383
188 -415 2391
194 -412 2376
201 -413 2380
208 -414 2382
214 -411 2366
221 -412 2373
227 -410 2361
234 -411 2362
241 -410 2359
246 -408 2346
253 -408 2347
260 -408 2345
266 -408 2341
272 -406 2331
279 -406 2331
285 -405 2324
293 -407 2332
298 -405 2319
305 -404 2317
310 -403 2308
317 -402 2302
324 -403 2304
330 -402 2301
336 -401 2294
342 -401 2290
347 -399 2277
355 -401 2287
363 -401 2290
370 -403 2296
377 -403 2296
381 -400 2278
388 -400 2279
394 -400 2274
402 -401 2281
411 -403 2289
418 -403 2292
425 -403 2290
431 -402 2285
438 -403 2287
444 -402 2281
452 -404 2291
457 -402 2280
465 -404 2286
472 -404 2283
480 -405 2289
485 -404 2280
493 -405 2286
498 -403 2274
503 -402 2267
512 -404 2277
517 -402 2266
528 -406 2286
535 -406 2285
545 -408 2296
552 -409 2295
565 -413 2321
565 -408 2289
566 -404 2265
566 -399 2235
571 -398 2230
573 -395 2210
576 -392 2194
585 -394 2201
590 -393 2195
596 -393 2192
601 -392 2186
606 -391 2178
616 -394 2190
620 -392 2179
630 -394 2187
634 -393 2180
642 -393 2181
645 -391 2170
655 -393 2178
659 -392 2167
666 -392 2168
674 -393 2172
681 -393 2170
686 -392 2163
693 -393 2163
700 -393 2165
707 -394 2165
713 -393 2161
722 -395 2167
727 -394 2159
735 -395 2161
741 -394 2157
749 -395 2160
752 -394 2149
758 -393 2144
765 -394 2145
771 -393 2140
780 -395 2146
782 -392 2132
791 -394 2137
797 -393 2133
799 -391 2119
812 -395 2134
814 -392 2118
821 -393 2119
827 -392 2114
835 -393 2116
840 -393 2112
845 -392 2105
852 -392 2104
858 -392 2101
869 -394 2108
875 -393 2104
880 -393 2099
891 -395 2106
894 -393 2095
902 -394 2096
908 -394 2094
917 -395 2097
920 -394 2087
928 -394 2088
938 -396 2091
945 -396 2090
952 -396 2089
962 -398 2093
972 -399 2098
990 -404 2119
1028 -417 2184
1019 -411 2149
1001 -401 2093
1003 -399 2080
1005 -397 2069
950 -373 1940
900 -351 1823
889 -344 1786
894 -344 1781
893 -341 1765
903 -343 1772
911 -344 1773
922 -346 1782
925 -345 1774
930 -345 1770
934 -344 1763
938 -343 1757
958 -349 1782
947 -343 1748
956 -344 1752
968 -346 1760
968 -344 1747
975 -345 1747
976 -343 1734
987 -345 1741
-1345 -433 2304
-1324 -429 2284
-1313 -427 2281
-1306 -427 2285
-1292 -425 2278
-1279 -424 2272
-1270 -423 2273
-1260 -422 2272
-1257 -424 2283
-1233 -418 2258
-1222 -417 2254
-1211 -416 2249
-1199 -414 2245
-1185 -412 2235
-1175 -411 2233
-1164 -410 2229
-1150 -407 2219
-1129 -402 2195
-1121 -402 2197
-1092 -394 2156
-1089 -395 2166
-1070 -391 2147
-1063 -391 2149
-1044 -387 2126
-1033 -385 2120
-1025 -385 2121
-1016 -384 2120
-1052 -400 2211
-1087 -416 2303
-1034 -399 2208
-1009 -392 2173
-1004 -393 2180
-993 -391 2173
-979 -388 2161
-975 -389 2169
-992 -399 2225
-1002 -406 2266
-1000 -408 2279
-992 -407 2279
-992 -411 2299
-990 -413 2315
-985 -414 2323
-981 -415 2331
-978 -417 2344
-973 -418 2353
-971 -420 2368
-965 -421 2375
-958 -421 2378
-956 -423 2392
-950 -424 2399
-948 -427 2415
-943 -428 2424
-942 -431 2444
-941 -434 2463
-933 -434 2462
-924 -433 2463
-925 -437 2487
-917 -437 2487
-914 -439 2504
-909 -441 2513
-905 -442 2524
-900 -444 2536
-894 -445 2541
-891 -447 2558
-887 -449 2570
-873 -446 2556
-873 -450 2580
-873 -454 2605
-867 -455 2614
-857 -454 2610
-856 -458 2632
-849 -459 2638
-843 -459 2643
-838 -461 2657
-836 -464 2677
-829 -465 2683
-821 -465 2686
-816 -467 2696
-810 -468 2704
-807 -471 2725
-800 -472 2729
-791 -471 2728
-784 -473 2737
-783 -477 2763
-770 -474 2748
-751 -467 2710
-739 -465 2697
-732 -465 2702
-719 -463 2688
-715 -465 2702
-703 -463 2691
-694 -462 2686
-685 -461 2685
-677 -461 2685
-670 -462 2694
-659 -460 2681
-649 -459 2674
-640 -458 2671
-630 -456 2662
-626 -459 2680
-614 -457 2667
-605 -456 2662
-596 -455 2660
-590 -457 2670
-580 -455 2661
-570 -453 2649
-563 -453 2655
-556 -455 2663
-542 -449 2633
-537 -452 2649
-528 -450 2640
-522 -453 2654
-510 -448 2631
-503 -449 2634
-495 -449 2634
-486 -448 2631
-479 -448 2634
-469 -447 2625
-464 -449 2640
-452 -445 2618
-445 -446 2619
-437 -446 2622
-428 -445 2616
-421 -445 2620
-411 -443 2606
-404 -444 2611
-395 -442 2603
-387 -442 2602
-379 -441 2599
-371 -440 2593
-364 -442 2603
-354 -438 2582
-345 -437 2575
-339 -439 2587
-332 -440 2594
-324 -440 2592
-315 -437 2574
-306 -435 2565
-301 -438 2586
-292 -436 2572
-284 -436 2573
-276 -436 2571
-268 -434 2561
-259 -432 2547
-252 -433 2556
-245 -434 2563
-237 -432 2551
-230 -433 2554
-221 -431 2544
-214 -431 2543
-206 -430 2536
-200 -432 2552
-190 -427 2524
-184 -430 2540
-176 -429 2535
-169 -429 2533
-161 -430 2537
-154 -428 2528
-146 -429 2533
-139 -427 2524
-131 -428 2528
-124 -428 2524
-117 -428 2526
-108 -424 2505
-101 -425 2507
-94 -426 2512
-87 -425 2509
-79 -423 2499
-72 -423 2499
-64 -422 2493
-57 -421 2487
-50 -421 2482
-43 -421 2485
-35 -421 2481
-28 -420 2481
-21 -417 2460
-13 -418 2464
-6 -417 2460
0 -417 2457
7 -417 2457
14 -413 2438
21 -415 2444
28 -412 2430
35 -412 2427
42 -410 2417
49 -411 2421
56 -410 2417
63 -410 2413
70 -408 2402
77 -408 2405
84 -408 2398
90 -407 2395
97 -407 2393
104 -405 2380
111 -405 2379
117 -405 2379
124 -403 2367
131 -403 2366
137 -402 2362
144 -402 2359
150 -400 2351
157 -400 2350
164 -400 2349
170 -399 2344
177 -398 2337
184 -399 2337
190 -399 2337
197 -398 2331
203 -397 2328
210 -398 2330
217 -397 2327
222 -395 2312
229 -395 2314
236 -396 2315
243 -395 2312
250 -396 2314
257 -396 2314
261 -393 2297
269 -394 2302
275 -394 2299
282 -394 2297
289 -394 2297
295 -393 2292
301 -392 2287
308 -394 2293
314 -392 2285
321 -392 2282
328 -393 2285
334 -393 2285
341 -392 2280
347 -392 2277
352 -391 2268
360 -392 2274
369 -394 2285
376 -395 2291
384 -396 2295
388 -393 2279
393 -392 2269
399 -391 2263
408 -393 2275
416 -394 2280
424 -396 2289
429 -394 2276
436 -395 2277
442 -394 2276
449 -394 2272
457 -395 2278
462 -394 2271
467 -393 2260
476 -395 2273
483 -395 2272
489 -395 2268
495 -394 2263
501 -394 2259
507 -393 2255
515 -394 2260
522 -394 2257
530 -396 2265
539 -397 2270
543 -395 2257
549 -395 2254
553 -392 2240
556 -390 2227
556 -386 2198
560 -384 2186
568 -385 2191
576 -386 2195
583 -386 2197
591 -387 2198
595 -385 2188
602 -386 2190
606 -385 2180
615 -386 2186
622 -386 2185
627 -385 2178
635 -386 2181
640 -385 2175
646 -385 2173
650 -384 2162
659 -385 2169
666 -386 2169
671 -385 2164
672 -381 2142
687 -387 2169
690 -384 2154
698 -385 2158
703 -385 2153
713 -387 2162
724 -389 2172
717 -382 2131
725 -383 2132
735 -385 2143
742 -385 2141
746 -383 2131
754 -384 2133
756 -382 2119
763 -382 2118
768 -382 2114
784 -387 2138
785 -384 2121
796 -386 2129
802 -386 2127
800 -382 2102
816 -387 2126
820 -385 2116
830 -387 2123
827 -383 2098
842 -387 2116
844 -385 2103
851 -385 2101
858 -385 2101
863 -385 2096
872 -386 2098
875 -384 2088
885 -386 2095
890 -385 2087
897 -385 2086
905 -386 2088
911 -386 2084
918 -386 2081
919 -384 2069
932 -387 2080
938 -386 2075
914 -374 2006
950 -386 2068
969 -391 2092
971 -390 2080
1009 -402 2144
1010 -400 2131
987 -388 2066
992 -388 2058
996 -387 2051
956 -369 1952
896 -343 1816
892 -339 1792
897 -339 1788
904 -340 1789
905 -338 1777
912 -338 1776
919 -339 1777
927 -340 1777
920 -335 1751
927 -336 1751
945 -340 1772
945 -339 1759
950 -338 1754
959 -339 1758
962 -338 1750
975 -341 1760
976 -339 1749
980 -339 1743
979 -337 1728
-1344 -425 2302
-1336 -425 2306
-1318 -422 2292
-1304 -419 2284
-1297 -420 2288
-1284 -418 2283
-1267 -415 2269
-1252 -412 2259
-1246 -413 2265
-1221 -407 2236
-1222 -410 2255
-1204 -406 2238
-1183 -402 2217
-1169 -399 2207
-1146 -394 2179
-1131 -391 2166
-1126 -392 2173
-1111 -389 2161
-1096 -386 2149
-1079 -383 2132
-1068 -381 2127
-1056 -379 2119
-1061 -383 2145
-1049 -382 2139
-1031 -378 2118
-1022 -377 2117
-1019 -378 2127
-1051 -393 2211
-1067 -402 2262
-1023 -388 2187
-1011 -386 2178
-1004 -386 2181
-986 -381 2159
-977 -380 2156
-981 -385 2184
-993 -392 2228
-1002 -399 2267
-1000 -401 2282
-997 -402 2292
-990 -403 2296
-988 -405 2312
-987 -407 2328
-978 -407 2326
-975 -408 2339
-971 -410 2348
-970 -413 2367
-960 -412 2363
-958 -414 2378
-955 -416 2393
-954 -419 2410
-947 -419 2414
-944 -421 2428
-936 -421 2428
-937 -424 2452
-931 -425 2460
-925 -426 2466
-925 -429 2488
-916 -429 2488
-914 -432 2504
-906 -431 2505
-903 -434 2520
-899 -436 2534
-894 -437 2544
-893 -440 2565
-882 -439 2559
-882 -443 2582
-876 -443 2588
-870 -445 2599
-867 -447 2613
-859 -447 2614
-853 -448 2624
-846 -449 2628
-844 -452 2648
-842 -455 2671
-833 -455 2670
-825 -455 2670
-820 -456 2682
-818 -460 2704
-812 -461 2713
-799 -458 2698
-796 -461 2717
-794 -465 2740
-787 -466 2746
-780 -467 2753
-767 -464 2737
-752 -460 2715
-738 -456 2694
-729 -456 2693
-718 -454 2683
-710 -454 2687
-702 -454 2689
-691 -452 2678
-681 -451 2671
-674 -452 2677
-669 -454 2691
-659 -452 2682
-644 -447 2653
-638 -448 2664
-632 -450 2672
-621 -448 2660
-613 -448 2661
-603 -446 2655
-594 -445 2651
-588 -447 2660
-577 -444 2646
-568 -444 2644
-560 -443 2643
-552 -444 2645
-543 -442 2638
-533 -441 2630
-526 -441 2633
-518 -441 2632
-510 -441 2632
-501 -440 2626
-493 -440 2628
-481 -436 2604
-477 -439 2624
-467 -437 2614
-459 -436 2611
-452 -438 2621
-443 -436 2611
-436 -437 2616
-427 -436 2610
-419 -436 2609
-409 -433 2594
-402 -433 2596
-394 -433 2596
-387 -434 2599
-378 -432 2592
-369 -430 2581
-362 -431 2587
-354 -431 2586
-345 -429 2574
-337 -429 2574
-328 -427 2562
-322 -429 2575
-315 -429 2577
-307 -428 2571
-299 -428 2567
-290 -426 2560
-282 -425 2552
-274 -425 2554
-267 -426 2558
-260 -426 2556
-251 -424 2547
-243 -423 2541
-236 -423 2541
-228 -423 2540
-220 -421 2531
-213 -422 2533
-207 -424 2547
-198 -421 2529
-191 -421 2531
-183 -420 2523
-175 -419 2519
-167 -419 2516
-160 -418 2512
-152 -417 2505
-145 -416 2502
-137 -414 2490
-130 -415 2494
-122 -414 2488
-115 -414 2485
-107 -412 2478
-100 -412 2476
-92 -411 2468
-85 -409 2459
-78 -409 2456
-70 -407 2448
-63 -407 2446
-56 -407 2444
-49 -407 2444
-41 -405 2434
-34 -406 2435
-27 -404 2424
-20 -402 2416
-13 -403 2418
-6 -401 2407
0 -400 2399
7 -401 2404
14 -400 2401
21 -398 2391
28 -398 2389
35 -399 2391
41 -397 2382
48 -398 2384
55 -396 2374
62 -397 2377
69 -397 2380
76 -395 2369
83 -396 2375
89 -396 2371
96 -394 2357
103 -395 2365
109 -393 2355
116 -393 2354
123 -394 2355
130 -393 2350
136 -391 2339
143 -392 2342
149 -391 2335
156 -391 2335
163 -391 2336
169 -389 2323
177 -391 2335
183 -390 2329
190 -391 2330
197 -391 2330
203 -390 2326
210 -390 2327
216 -389 2318
223 -389 2319
229 -388 2313
237 -389 2318
242 -387 2303
250 -389 2313
256 -388 2310
262 -388 2305
269 -387 2302
275 -387 2300
282 -387 2298
289 -388 2303
295 -387 2298
302 -387 2294
308 -387 2292
315 -387 2292
321 -386 2288
327 -385 2281
335 -386 2288
340 -385 2280
347 -385 2277
355 -387 2285
361 -386 2279
367 -386 2277
374 -385 2274
381 -386 2280
388 -387 2281
394 -386 2275
400 -385 2267
404 -382 2252
412 -384 2261
417 -383 2251
427 -386 2267
433 -386 2265
439 -385 2260
447 -386 2265
454 -386 2264
461 -387 2266
468 -386 2264
471 -384 2249
480 -386 2256
486 -385 2251
493 -385 2251
498 -385 2246
507 -386 2253
513 -385 2248
518 -384 2241
524 -384 2238
531 -384 2238
536 -383 2230
538 -380 2209
540 -377 2189
544 -375 2178
554 -377 2190
559 -377 2183
567 -377 2187
576 -379 2197
584 -381 2202
591 -381 2201
599 -382 2205
604 -381 2199
609 -380 2192
617 -381 2196
623 -380 2190
632 -382 2197
636 -381 2187
643 -381 2189
648 -380 2182
656 -381 2183
662 -380 2180
670 -381 2182
675 -380 2176
679 -379 2166
678 -375 2141
679 -372 2123
691 -375 2136
696 -375 2133
707 -377 2144
716 -378 2148
719 -377 2138
723 -375 2128
728 -374 2121
739 -377 2132
738 -373 2109
749 -376 2122
751 -373 2107
760 -375 2112
766 -374 2109
774 -375 2112
788 -379 2128
788 -376 2111
802 -379 2127
800 -375 2102
809 -377 2107
817 -377 2109
817 -375 2092
836 -380 2120
837 -378 2105
845 -379 2106
853 -379 2109
854 -377 2093
874 -383 2122
875 -380 2106
875 -378 2089
883 -379 2090
887 -378 2083
900 -380 2094
903 -379 2083
910 -379 2082
917 -379 2081
922 -379 2075
931 -380 2078
947 -384 2097
942 -379 2068
950 -380 2070
953 -379 2060
963 -380 2064
994 -390 2115
1010 -393 2130
980 -379 2052
986 -379 2047
994 -379 2046
966 -366 1974
912 -344 1849
894 -334 1797
900 -335 1796
892 -329 1765
911 -335 1789
906 -331 1766
921 -334 1782
924 -333 1773
926 -332 1763
932 -332 1761
942 -334 1768
940 -331 1750
948 -332 1752
955 -332 1751
955 -330 1738
973 -335 1757
972 -332 1743
979 -333 1742
982 -332 1735
-1346 -418 2308
-1321 -412 2281
-1308 -411 2275
-1308 -413 2292
-1292 -410 2280
-1272 -406 2262
-1251 -402 2241
-1240 -401 2239
-1222 -398 2222
-1200 -393 2200
-1189 -391 2194
-1172 -388 2179
-1158 -386 2171
-1151 -386 2173
-1129 -381 2149
-1128 -383 2163
-1109 -379 2142
-1103 -379 2147
-1091 -378 2141
-1083 -377 2141
-1074 -376 2139
-1068 -377 2145
-1056 -375 2137
-1051 -376 2144
-1036 -373 2129
-1031 -373 2136
-1028 -375 2147
-1021 -375 2150
-1028 -380 2182
-1018 -379 2177
-1016 -381 2190
-1000 -377 2174
-986 -374 2159
-976 -373 2155
-979 -377 2179
-991 -384 2224
-995 -389 2252
-999 -393 2280
-993 -394 2284
-992 -396 2302
-985 -396 2305
-984 -399 2322
-978 -400 2328
-975 -401 2339
-970 -402 2349
-965 -403 2356
-964 -406 2373
-959 -407 2382
-954 -408 2391
-950 -409 2402
-947 -412 2416
-943 -413 2427
-940 -415 2439
-939 -418 2461
-934 -419 2469
-925 -418 2466
-920 -420 2476
-915 -421 2484
-910 -422 2493
-907 -424 2510
-903 -426 2521
-899 -428 2536
-893 -429 2543
-892 -432 2564
-884 -432 2564
-878 -433 2571
-873 -434 2583
-872 -438 2606
-865 -438 2608
-859 -439 2616
-856 -442 2633
-849 -443 2641
-843 -443 2647
-839 -446 2661
-834 -447 2673
-825 -447 2672
-825 -451 2701
-819 -452 2709
-811 -452 2711
-807 -455 2726
-797 -454 2722
-788 -454 2722
-785 -456 2741
-774 -455 2735
-758 -450 2707
-744 -447 2689
-735 -446 2685
-728 -447 2692
-720 -447 2695
-707 -444 2677
-698 -443 2674
-690 -443 2673
-680 -442 2667
-672 -442 2670
-662 -441 2663
-657 -442 2674
-646 -441 2666
-639 -441 2670
-626 -438 2649
-618 -438 2649
-611 -438 2653
-600 -436 2644
-595 -438 2657
-586 -437 2652
-575 -435 2640
-565 -433 2629
-559 -435 2637
-550 -434 2633
-540 -432 2627
-531 -431 2620
-526 -433 2633
-517 -433 2631
-507 -431 2619
-498 -429 2612
-491 -430 2617
-482 -429 2613
-475 -430 2619
-467 -429 2615
-459 -429 2612
-449 -427 2602
-442 -427 2605
-434 -428 2607
-424 -426 2595
-416 -424 2588
-408 -424 2588
-399 -423 2582
-391 -422 2577
-382 -421 2567
-376 -422 2578
-368 -423 2581
-359 -420 2568
-350 -419 2558
-344 -420 2567
-335 -418 2555
-329 -421 2571
-319 -418 2554
-312 -417 2552
-304 -417 2549
-297 -417 2552
-288 -416 2542
-279 -414 2531
-272 -414 2533
-264 -413 2528
-256 -411 2517
-249 -413 2524
-241 -412 2518
-233 -411 2516
-225 -409 2503
-217 -408 2495
-210 -408 2497
-202 -407 2490
-194 -407 2489
-187 -406 2483
-179 -406 2482
-171 -404 2471
-164 -403 2469
-157 -403 2469
-149 -403 2465
-142 -402 2459
-134 -400 2446
-127 -400 2447
-120 -400 2448
-112 -399 2439
-105 -398 2437
-98 -398 2435
-91 -397 2427
-83 -396 2424
-76 -395 2418
-69 -395 2419
-62 -396 2423
-55 -395 2416
-48 -394 2410
-41 -395 2415
-34 -393 2404
-27 -393 2406
-20 -393 2405
-13 -393 2402
-6 -392 2394
0 -392 2395
7 -391 2390
14 -391 2391
21 -391 2388
28 -391 2386
35 -391 2388
41 -389 2378
48 -389 2377
55 -389 2377
62 -388 2368
69 -389 2373
76 -388 2367
82 -387 2363
89 -388 2365
96 -388 2364
103 -388 2367
110 -387 2359
116 -386 2352
123 -386 2348
130 -386 2353
137 -386 2352
143 -385 2346
150 -385 2341
157 -385 2342
163 -383 2332
170 -384 2332
176 -383 2331
183 -384 2331
190 -383 2329
196 -383 2326
203 -383 2325
210 -384 2330
216 -382 2321
223 -383 2322
230 -383 2320
236 -382 2318
243 -382 2312
249 -381 2309
255 -381 2304
263 -382 2312
269 -381 2305
275 -380 2298
282 -381 2301
289 -381 2303
296 -381 2301
301 -379 2292
309 -380 2296
315 -380 2291
321 -379 2288
327 -379 2282
334 -379 2283
341 -379 2283
347 -378 2277
354 -379 2282
360 -379 2277
366 -377 2268
373 -378 2269
379 -377 2264
387 -379 2273
393 -378 2270
402 -380 2280
406 -378 2263
410 -375 2248
416 -375 2248
423 -375 2247
431 -377 2255
439 -378 2261
444 -377 2250
451 -377 2250
457 -376 2245
464 -376 2245
472 -378 2251
479 -378 2252
485 -377 2247
491 -378 2246
499 -378 2248
503 -376 2235
509 -376 2231
513 -374 2222
519 -374 2218
522 -372 2202
523 -368 2177
532 -369 2186
535 -367 2171
544 -369 2180
553 -371 2189
560 -371 2188
570 -373 2201
577 -374 2202
585 -374 2205
592 -375 2204
598 -375 2203
603 -373 2194
610 -374 2194
616 -373 2190
624 -374 2194
630 -374 2192
635 -373 2183
646 -376 2198
651 -375 2193
657 -375 2186
663 -374 2184
670 -375 2185
676 -374 2180
672 -368 2143
684 -372 2160
684 -369 2140
692 -369 2142
697 -369 2136
704 -369 2135
711 -369 2136
716 -368 2128
720 -367 2119
728 -368 2122
733 -368 2118
741 -368 2118
749 -369 2123
753 -368 2112
761 -369 2117
769 -369 2118
772 -368 2107
782 -369 2114
784 -367 2100
794 -369 2108
797 -367 2095
809 -370 2108
811 -368 2094
817 -368 2090
825 -369 2094
834 -370 2098
837 -369 2088
844 -369 2085
857 -372 2099
859 -370 2087
866 -370 2086
871 -369 2080
876 -369 2073
890 -372 2090
893 -371 2080
892 -368 2058
925 -379 2118
915 -372 2078
922 -372 2077
931 -373 2078
943 -376 2089
945 -374 2076
953 -374 2077
948 -370 2050
959 -372 2056
990 -381 2105
1008 -386 2128
977 -371 2045
984 -372 2044
1002 -376 2065
977 -364 1997
926 -343 1878
891 -328 1792
889 -325 1774
894 -325 1770
901 -325 1770
910 -326 1774
911 -325 1763
922 -327 1770
927 -326 1766
929 -325 1756
937 -326 1759
946 -327 1761
950 -327 1755
956 -327 1753
958 -326 1745
964 -326 1743
972 -327 1744
976 -326 1738
980 -326 1733
-1326 -404 2274
-1308 -401 2261
-1297 -400 2258
-1275 -396 2236
-1257 -392 2221
-1243 -390 2212
-1230 -388 2206
-1211 -384 2187
-1203 -384 2190
-1178 -378 2159
-1179 -381 2177
-1166 -379 2169
-1150 -376 2156
-1132 -373 2139
-1125 -373 2142
-1127 -376 2162
-1112 -373 2151
-1114 -376 2170
-1095 -372 2150
-1090 -373 2156
-1082 -373 2158
-1069 -370 2148
-1059 -369 2144
-1052 -369 2147
-1042 -368 2143
-1034 -368 2144
-1027 -368 2146
-1009 -364 2125
-1007 -366 2138
-1007 -368 2154
-1010 -372 2180
-1000 -371 2175
-986 -368 2162
-981 -368 2167
-982 -372 2188
-992 -378 2227
-1000 -384 2265
-993 -384 2268
-993 -387 2287
-989 -388 2295
-987 -390 2310
-981 -391 2317
-978 -392 2329
-975 -394 2341
-969 -394 2346
-969 -398 2367
-961 -397 2368
-956 -398 2376
-952 -400 2386
-950 -402 2404
-947 -404 2417
-941 -405 2422
-934 -405 2427
-936 -409 2452
-934 -412 2470
-927 -412 2473
-923 -413 2485
-915 -413 2485
-913 -416 2503
-908 -417 2514
-900 -417 2515
-901 -421 2541
-892 -420 2539
-888 -422 2553
-884 -424 2566
-876 -424 2567
-879 -429 2600
-868 -428 2595
-861 -429 2600
-860 -432 2623
-853 -433 2627
-848 -434 2639
-842 -435 2644
-834 -435 2646
-832 -438 2669
-827 -440 2679
-822 -442 2692
-817 -443 2704
-809 -443 2705
-803 -445 2715
-794 -444 2712
-788 -445 2723
-786 -449 2746
-768 -443 2713
-753 -439 2691
-743 -438 2686
-732 -437 2676
-722 -435 2670
-711 -433 2660
-703 -434 2662
-700 -436 2680
-691 -436 2681
-677 -433 2659
-670 -433 2661
-657 -430 2643
-652 -432 2658
-641 -429 2644
-634 -430 2650
-625 -429 2645
-617 -429 2645
-607 -428 2641
-597 -426 2629
-589 -426 2630
-579 -424 2620
-572 -425 2626
-563 -424 2621
-558 -426 2634
-547 -424 2623
-538 -423 2615
-530 -423 2617
-520 -421 2606
-511 -420 2603
-504 -421 2607
-497 -421 2610
-486 -418 2592
-479 -419 2595
-469 -417 2585
-462 -417 2587
-453 -417 2584
-445 -416 2580
-438 -417 2586
-429 -415 2579
-420 -414 2571
-413 -414 2573
-403 -412 2560
-396 -412 2562
-388 -412 2558
-380 -411 2555
-370 -408 2539
-363 -409 2543
-355 -409 2542
-347 -408 2537
-340 -409 2543
-332 -407 2534
-323 -405 2521
-315 -406 2524
-307 -405 2520
-300 -405 2521
-291 -403 2507
-284 -402 2506
-275 -400 2494
-267 -399 2488
-260 -400 2494
-253 -400 2490
-245 -399 2488
-238 -400 2491
-230 -398 2478
-221 -395 2465
-215 -397 2473
-207 -396 2465
-200 -396 2467
-193 -396 2469
-185 -396 2468
-177 -394 2457
-170 -394 2453
-163 -393 2453
-155 -393 2448
-148 -392 2446
-141 -392 2447
-133 -391 2437
-127 -392 2440
-119 -390 2428
-112 -391 2435
-105 -391 2439
-98 -389 2426
-90 -388 2421
-84 -391 2435
-76 -389 2424
-69 -388 2415
-62 -388 2417
-55 -387 2410
-48 -388 2416
-41 -387 2413
-34 -387 2411
-27 -387 2408
-20 -387 2411
-13 -386 2400
-6 -385 2394
0 -387 2407
7 -386 2400
14 -385 2395
21 -385 2395
28 -385 2395
35 -384 2387
42 -384 2385
48 -383 2384
55 -383 2380
62 -383 2383
69 -382 2375
76 -382 2372
83 -382 2373
89 -381 2368
96 -380 2360
103 -380 2361
109 -379 2354
116 -380 2358
123 -379 2350
129 -378 2342
137 -379 2350
143 -378 2346
149 -377 2336
157 -379 2346
164 -379 2347
169 -376 2327
176 -376 2329
183 -376 2325
190 -376 2328
196 -376 2324
203 -376 2325
210 -376 2322
216 -375 2318
223 -375 2315
229 -374 2307
236 -374 2311
242 -374 2305
250 -375 2313
255 -373 2299
263 -375 2309
269 -375 2308
275 -373 2298
282 -373 2298
289 -374 2303
296 -374 2302
302 -374 2299
308 -372 2289
315 -373 2291
321 -372 2286
327 -372 2284
334 -372 2283
342 -373 2291
347 -372 2280
353 -371 2273
359 -371 2271
367 -371 2273
373 -371 2273
380 -372 2275
386 -371 2266
393 -371 2269
399 -371 2265
405 -371 2263
411 -370 2257
416 -368 2244
420 -366 2233
426 -366 2227
435 -368 2238
443 -369 2243
450 -369 2244
456 -368 2239
462 -368 2238
468 -368 2232
474 -368 2232
481 -368 2233
488 -368 2230
490 -365 2211
500 -368 2226
504 -366 2212
507 -363 2194
508 -359 2169
516 -361 2177
522 -360 2171
529 -361 2175
539 -363 2185
546 -363 2186
554 -365 2193
563 -366 2202
572 -368 2207
576 -366 2199
584 -367 2202
588 -365 2190
597 -367 2199
600 -365 2185
611 -368 2198
614 -366 2184
622 -367 2188
627 -366 2182
634 -366 2181
640 -366 2177
646 -365 2173
654 -367 2179
660 -366 2174
669 -368 2181
677 -368 2183
679 -366 2169
677 -361 2138
688 -364 2151
694 -364 2148
699 -363 2143
704 -362 2135
712 -363 2138
714 -361 2123
722 -361 2125
729 -362 2126
733 -361 2117
737 -360 2109
744 -360 2109
755 -362 2119
761 -362 2117
768 -362 2115
775 -363 2116
779 -362 2108
789 -363 2113
791 -361 2100
802 -363 2109
812 -365 2117
812 -362 2099
824 -365 2111
828 -363 2101
832 -363 2093
844 -365 2105
837 -359 2070
859 -366 2106
857 -362 2083
861 -362 2075
864 -360 2064
