VERSION 0.7
FIELDS x y z
SIZE 4 4 4
TYPE I I I
COUNT 1 1 1
WIDTH 3297
HEIGHT 1
VIEWPOINT 0.0 0.0 0.0 1.0 0.0 0.0 0.0
POINTS 3297
DATA ascii
-981 -166 2323
-977 -167 2333
-972 -167 2341
-966 -168 2347
-965 -169 2365
-966 -170 2386
-954 -169 2378
-955 -171 2400
-947 -171 2402
-942 -171 2410
-945 -173 2438
-940 -174 2448
-932 -174 2447
-929 -175 2464
-925 -175 2473
-923 -177 2491
-915 -177 2493
-912 -177 2507
-904 -177 2507
-902 -179 2526
-899 -180 2541
-891 -179 2542
-886 -180 2552
-883 -181 2566
-880 -182 2582
-871 -182 2581
-869 -183 2600
-860 -183 2599
-856 -184 2613
-848 -184 2615
-844 -185 2626
-839 -185 2638
-831 -186 2641
-823 -185 2640
-819 -186 2655
-815 -187 2669
-807 -187 2672
-802 -188 2683
-798 -189 2700
-789 -189 2698
-777 -188 2685
-750 -183 2620
-738 -182 2609
-741 -185 2647
-738 -187 2668
-731 -187 2672
-724 -187 2677
-715 -187 2672
-707 -187 2674
-704 -188 2695
-688 -186 2666
-681 -186 2670
-671 -186 2665
-663 -186 2664
-656 -186 2668
-645 -185 2657
-636 -185 2652
-630 -185 2661
-619 -185 2652
-613 -185 2658
-604 -185 2655
-595 -185 2652
-585 -184 2643
-574 -183 2630
-568 -184 2639
-559 -183 2632
-552 -183 2638
-542 -183 2626
-535 -183 2631
-527 -183 2630
-517 -182 2621
-509 -182 2618
-500 -182 2615
-494 -182 2622
-484 -181 2611
-477 -181 2614
-468 -181 2607
-461 -181 2611
-450 -180 2594
-443 -181 2600
-435 -180 2598
-427 -180 2593
-417 -179 2583
-410 -179 2582
-403 -180 2589
-395 -179 2585
-387 -179 2585
-379 -179 2583
-372 -179 2586
-363 -179 2574
-355 -178 2568
-347 -178 2566
-340 -178 2570
-332 -178 2570
-324 -178 2562
-316 -178 2564
-309 -178 2565
-300 -177 2547
-294 -178 2561
-285 -177 2550
-277 -177 2544
-270 -177 2549
-262 -177 2545
-254 -176 2539
-246 -176 2532
-239 -176 2538
-232 -176 2536
-224 -176 2530
-216 -175 2521
-208 -175 2516
-200 -174 2511
-194 -175 2521
-186 -175 2516
-179 -175 2516
-171 -174 2506
-164 -174 2506
-156 -174 2495
-149 -174 2500
-141 -173 2493
-134 -173 2491
-127 -174 2496
-119 -173 2489
-112 -173 2487
-105 -173 2485
-98 -173 2485
-90 -173 2483
-83 -173 2476
-76 -172 2473
-69 -172 2473
-61 -172 2469
-54 -173 2473
-47 -172 2461
-40 -172 2465
-33 -172 2466
-26 -171 2456
-19 -172 2461
-12 -172 2457
-5 -172 2455
2 -171 2453
9 -171 2451
16 -171 2451
23 -171 2438
30 -171 2445
37 -171 2440
44 -170 2432
50 -170 2425
57 -170 2422
65 -170 2431
71 -170 2426
78 -170 2423
85 -170 2419
92 -170 2416
99 -169 2409
106 -169 2404
112 -169 2401
119 -168 2397
126 -169 2405
133 -169 2402
140 -169 2405
147 -169 2402
154 -169 2400
161 -169 2398
168 -170 2405
174 -168 2388
181 -168 2385
188 -168 2386
194 -168 2381
202 -169 2391
208 -168 2383
215 -168 2383
221 -168 2371
228 -168 2371
235 -168 2373
241 -168 2371
248 -168 2370
255 -168 2365
261 -168 2361
267 -167 2354
274 -167 2354
281 -168 2358
289 -168 2359
294 -167 2351
301 -167 2351
308 -167 2349
314 -167 2346
321 -167 2340
327 -167 2339
335 -167 2342
341 -167 2338
347 -167 2335
353 -167 2329
360 -166 2327
366 -166 2325
373 -166 2322
380 -166 2322
385 -166 2311
392 -166 2311
397 -165 2303
403 -165 2298
410 -165 2299
417 -165 2298
425 -166 2305
431 -166 2298
438 -166 2298
445 -166 2301
450 -165 2291
456 -165 2287
464 -166 2291
471 -166 2291
476 -165 2284
483 -165 2282
488 -165 2273
496 -166 2282
501 -165 2271
509 -165 2274
515 -165 2274
522 -166 2274
527 -165 2262
534 -165 2265
542 -165 2268
547 -165 2260
554 -165 2259
559 -165 2252
565 -165 2251
571 -164 2244
576 -164 2238
583 -164 2239
589 -164 2232
596 -164 2236
603 -164 2235
610 -165 2234
617 -165 2235
623 -165 2230
627 -164 2222
635 -164 2225
642 -165 2225
649 -165 2223
654 -164 2216
660 -164 2214
668 -165 2215
673 -164 2209
679 -164 2205
687 -165 2210
693 -164 2204
700 -165 2204
690 -161 2151
639 -147 1971
567 -129 1731
552 -125 1666
608 -136 1820
673 -150 1996
703 -155 2065
696 -152 2023
697 -151 2008
690 -148 1969
696 -148 1967
729 -154 2041
749 -157 2078
748 -156 2057
759 -157 2069
805 -165 2173
811 -165 2171
815 -165 2162
818 -164 2150
827 -164 2154
829 -164 2141
841 -165 2152
845 -164 2144
853 -165 2147
859 -165 2141
865 -165 2138
871 -164 2133
878 -165 2134
885 -165 2131
891 -165 2129
897 -165 2124
904 -165 2123
910 -165 2120
918 -165 2120
923 -165 2114
930 -165 2113
933 -164 2104
943 -165 2109
948 -165 2102
956 -165 2103
962 -165 2099
967 -165 2093
989 -167 2124
1021 -172 2177
1026 -172 2169
1000 -166 2097
1003 -166 2087
1008 -165 2081
984 -160 2015
909 -147 1847
891 -143 1796
893 -143 1786
900 -143 1786
904 -143 1780
902 -142 1763
909 -142 1763
917 -142 1766
920 -142 1758
930 -143 1764
935 -143 1760
938 -142 1752
945 -142 1752
945 -142 1740
957 -143 1748
962 -143 1745
970 -143 1746
975 -143 1742
-1315 -163 2287
-1297 -162 2272
-1281 -161 2260
-1279 -162 2273
-1263 -161 2262
-1249 -160 2253
-1231 -159 2236
-1221 -158 2235
-1216 -159 2243
-1201 -158 2230
-1189 -157 2225
-1166 -155 2199
-1165 -156 2214
-1157 -156 2215
-1134 -153 2186
-1128 -154 2191
-1121 -154 2195
-1115 -154 2199
-1103 -153 2193
-1096 -153 2196
-1080 -152 2180
-1066 -151 2170
-1057 -151 2167
-1060 -152 2190
-1047 -151 2180
-1038 -151 2179
-1025 -150 2169
-1015 -150 2164
-1006 -149 2162
-998 -149 2162
-996 -150 2174
-976 -148 2149
-978 -150 2170
-985 -152 2203
-999 -155 2253
-997 -156 2266
-997 -157 2285
-993 -158 2296
-982 -157 2290
-984 -159 2313
-982 -159 2328
-973 -159 2326
-971 -160 2339
-967 -161 2351
-962 -161 2357
-960 -162 2374
-958 -163 2390
-950 -163 2390
-945 -163 2396
-948 -165 2425
-943 -166 2434
-938 -166 2443
-936 -167 2461
-929 -167 2463
-928 -168 2482
-917 -168 2475
-913 -169 2488
-912 -170 2508
-908 -171 2521
-901 -171 2524
-893 -171 2525
-893 -172 2547
-890 -173 2563
-881 -173 2561
-880 -174 2583
-876 -175 2597
-872 -176 2610
-865 -176 2613
-858 -176 2619
-850 -176 2619
-845 -177 2632
-840 -178 2641
-832 -178 2644
-827 -178 2655
-819 -178 2657
-815 -179 2671
-808 -180 2675
-801 -180 2680
-796 -181 2693
-793 -182 2712
-773 -179 2671
-751 -176 2625
-738 -175 2608
-737 -176 2634
-735 -178 2657
-733 -179 2677
-723 -179 2675
-717 -179 2683
-708 -179 2680
-701 -179 2683
-690 -179 2673
-682 -179 2676
-674 -179 2675
-664 -178 2670
-657 -179 2675
-647 -178 2666
-637 -177 2660
-630 -178 2663
-619 -177 2652
-610 -176 2646
-604 -177 2656
-595 -177 2653
-586 -176 2648
-576 -176 2636
-567 -175 2634
-562 -176 2648
-553 -176 2643
-542 -175 2629
-537 -176 2639
-527 -175 2629
-519 -175 2629
-510 -175 2627
-501 -174 2621
-494 -175 2624
-485 -174 2616
-476 -174 2612
-469 -174 2615
-461 -174 2612
-453 -174 2610
-444 -173 2603
-435 -173 2600
-429 -173 2606
-420 -173 2598
-413 -173 2602
-404 -172 2593
-395 -172 2585
-389 -173 2595
-380 -172 2585
-372 -172 2582
-364 -172 2580
-356 -171 2579
-348 -171 2577
-340 -171 2573
-333 -172 2579
-326 -171 2579
-318 -171 2576
-309 -171 2566
-301 -170 2558
-293 -170 2559
-286 -171 2564
-278 -170 2551
-271 -170 2558
-263 -170 2551
-255 -169 2545
-247 -169 2544
-240 -170 2547
-232 -169 2539
-225 -169 2544
-217 -169 2537
-209 -168 2526
-202 -169 2533
-194 -168 2521
-187 -168 2523
-178 -167 2511
-172 -168 2524
-164 -167 2513
-156 -167 2508
-149 -167 2504
-142 -167 2510
-135 -167 2507
-127 -166 2493
-119 -166 2485
-112 -165 2477
-104 -165 2477
-97 -165 2477
-90 -165 2475
-83 -166 2484
-76 -166 2487
-69 -166 2479
-62 -166 2478
-54 -166 2476
-47 -165 2467
-40 -166 2475
-33 -165 2466
-26 -165 2469
-19 -165 2467
-12 -165 2462
-5 -165 2459
2 -165 2459
9 -164 2452
16 -164 2450
23 -164 2452
30 -164 2439
37 -164 2444
44 -164 2438
51 -164 2442
58 -164 2437
65 -163 2429
72 -163 2430
78 -163 2423
85 -163 2422
92 -163 2418
99 -162 2402
105 -161 2397
112 -162 2398
119 -161 2394
126 -162 2398
133 -162 2400
141 -163 2409
147 -162 2402
154 -162 2402
161 -163 2405
167 -162 2395
175 -162 2401
181 -162 2394
188 -162 2388
194 -161 2385
202 -162 2390
208 -161 2380
214 -161 2374
222 -162 2381
229 -162 2386
235 -161 2370
241 -161 2369
248 -161 2371
255 -161 2369
262 -161 2365
268 -161 2359
275 -161 2361
281 -160 2350
289 -161 2362
294 -160 2350
301 -160 2348
308 -161 2352
315 -161 2350
321 -160 2343
327 -160 2339
336 -161 2349
342 -161 2347
347 -160 2335
354 -160 2332
360 -160 2330
367 -160 2331
374 -160 2328
380 -160 2321
385 -159 2310
391 -159 2305
396 -158 2295
404 -159 2302
410 -158 2295
418 -159 2305
424 -159 2301
431 -159 2299
439 -159 2303
445 -159 2300
452 -159 2302
458 -159 2296
463 -159 2287
471 -159 2295
477 -159 2290
484 -159 2289
491 -159 2289
496 -159 2282
502 -159 2277
509 -159 2278
516 -159 2275
522 -159 2272
528 -159 2268
534 -158 2263
543 -159 2272
548 -159 2264
555 -159 2264
559 -158 2254
566 -158 2252
571 -158 2245
575 -157 2233
583 -158 2238
588 -157 2230
593 -157 2222
602 -158 2232
611 -158 2239
616 -158 2230
625 -159 2239
630 -158 2231
635 -158 2225
642 -158 2225
647 -157 2216
658 -159 2231
662 -158 2221
669 -158 2219
675 -158 2215
680 -158 2209
685 -157 2202
694 -158 2208
702 -158 2212
710 -159 2214
626 -138 1930
553 -121 1687
516 -112 1558
554 -119 1657
590 -126 1749
674 -143 1981
713 -150 2075
702 -146 2023
622 -128 1774
592 -121 1672
609 -123 1705
664 -134 1842
610 -122 1675
633 -125 1723
753 -148 2032
808 -158 2163
818 -159 2171
823 -158 2164
828 -158 2158
835 -158 2157
840 -158 2152
847 -158 2148
854 -158 2148
861 -158 2147
868 -158 2145
872 -158 2138
881 -159 2140
885 -158 2132
891 -158 2130
900 -159 2131
906 -159 2129
909 -158 2117
920 -159 2126
925 -159 2119
931 -159 2117
938 -159 2115
944 -159 2111
950 -159 2108
955 -158 2101
963 -159 2102
969 -159 2099
987 -161 2121
1021 -165 2176
1021 -164 2159
1001 -160 2101
1006 -160 2093
1010 -159 2085
983 -154 2014
909 -141 1847
891 -137 1796
883 -135 1766
895 -136 1777
897 -136 1766
909 -137 1777
912 -137 1770
913 -136 1758
920 -136 1759
926 -136 1756
931 -136 1753
941 -137 1758
946 -137 1755
956 -138 1759
951 -136 1738
962 -137 1745
973 -138 1752
974 -137 1741
-1300 -154 2261
-1281 -153 2244
-1276 -153 2251
-1266 -153 2251
-1261 -153 2258
-1235 -151 2227
-1225 -151 2226
-1211 -150 2217
-1215 -151 2241
-1203 -151 2236
-1189 -150 2227
-1175 -149 2216
-1166 -149 2215
-1159 -149 2218
-1138 -147 2195
-1131 -147 2199
-1137 -149 2227
-1112 -147 2194
-1113 -148 2213
-1096 -146 2197
-1091 -147 2203
-1082 -146 2201
-1065 -145 2183
-1058 -145 2187
-1050 -145 2188
-1046 -145 2196
-1035 -145 2190
-1019 -144 2173
-1014 -144 2181
-1002 -143 2172
-996 -143 2176
-980 -142 2158
-972 -142 2157
-987 -145 2208
-1002 -148 2260
-996 -149 2266
-995 -150 2283
-992 -150 2293
-990 -151 2307
-984 -151 2313
-981 -152 2325
-980 -153 2342
-974 -153 2349
-967 -153 2350
-964 -154 2363
-961 -155 2377
-952 -155 2373
-954 -156 2399
-951 -157 2413
-947 -158 2424
-943 -158 2435
-937 -159 2442
-932 -159 2451
-926 -159 2455
-925 -160 2476
-920 -161 2485
-916 -162 2496
-910 -162 2501
-906 -163 2515
-904 -164 2532
-895 -163 2531
-888 -164 2534
-886 -165 2551
-879 -165 2556
-881 -167 2586
-870 -166 2580
-867 -167 2596
-862 -168 2607
-856 -168 2613
-851 -169 2624
-843 -169 2625
-835 -169 2626
-832 -170 2643
-825 -170 2648
-820 -171 2661
-817 -172 2679
-808 -172 2676
-803 -172 2690
-796 -173 2694
-793 -174 2712
-773 -171 2673
-753 -168 2632
-736 -166 2601
-736 -168 2632
-734 -170 2652
-731 -171 2671
-727 -172 2688
-720 -172 2694
-708 -171 2681
-701 -171 2684
-693 -172 2686
-684 -171 2683
-675 -171 2680
-668 -171 2684
-657 -171 2675
-647 -170 2668
-637 -170 2660
-632 -170 2670
-622 -170 2665
-613 -170 2661
-604 -169 2658
-594 -169 2647
-586 -169 2650
-580 -169 2655
-571 -169 2653
-562 -168 2646
-553 -168 2641
-544 -168 2638
-537 -168 2645
-528 -168 2634
-519 -167 2633
-513 -168 2639
-502 -167 2627
-494 -167 2625
-486 -167 2623
-478 -167 2624
-469 -166 2618
-461 -166 2616
-453 -166 2615
-447 -167 2622
-437 -166 2608
-430 -166 2611
-420 -165 2598
-413 -166 2604
-405 -165 2599
-397 -165 2601
-388 -165 2591
-380 -164 2586
-370 -164 2575
-365 -165 2592
-358 -165 2591
-350 -165 2593
-341 -164 2584
-333 -164 2577
-327 -164 2586
-317 -164 2572
-310 -164 2576
-302 -164 2574
-295 -164 2572
-286 -163 2565
-278 -162 2553
-271 -163 2559
-264 -163 2560
-255 -162 2548
-248 -163 2555
-241 -162 2553
-232 -162 2545
-225 -162 2541
-217 -161 2536
-209 -161 2531
-202 -162 2539
-194 -161 2525
-187 -161 2528
-180 -161 2528
-173 -161 2533
-164 -160 2515
-157 -160 2514
-150 -161 2520
-142 -160 2507
-134 -160 2503
-127 -160 2502
-119 -158 2481
-112 -158 2476
-104 -158 2468
-97 -158 2472
-90 -158 2478
-83 -158 2476
-76 -158 2479
-69 -158 2474
-62 -158 2478
-55 -159 2482
-47 -159 2484
-40 -159 2478
-33 -159 2476
-26 -158 2468
-19 -158 2470
-12 -158 2466
-4 -158 2462
2 -158 2467
9 -158 2462
16 -158 2456
23 -158 2458
30 -157 2448
37 -158 2456
44 -157 2448
51 -157 2445
58 -157 2438
65 -157 2444
72 -156 2429
79 -157 2434
86 -156 2427
92 -156 2416
99 -155 2409
106 -155 2404
112 -155 2397
119 -154 2393
126 -155 2400
133 -155 2404
140 -155 2406
147 -155 2403
154 -156 2407
161 -155 2400
168 -155 2399
174 -155 2395
181 -155 2394
188 -155 2395
195 -155 2395
202 -155 2397
209 -155 2388
215 -155 2388
222 -155 2388
228 -154 2376
235 -155 2378
242 -155 2379
249 -155 2376
255 -154 2372
263 -155 2378
269 -155 2372
275 -154 2363
282 -154 2366
289 -154 2360
295 -154 2352
302 -154 2356
307 -153 2345
315 -154 2353
320 -153 2338
329 -154 2351
336 -154 2349
341 -153 2340
348 -153 2338
354 -153 2331
361 -153 2334
368 -154 2335
375 -153 2332
379 -153 2317
387 -153 2324
390 -152 2300
396 -152 2298
403 -152 2297
411 -152 2305
418 -152 2307
425 -152 2305
431 -152 2302
439 -153 2304
445 -152 2300
452 -153 2303
458 -152 2296
466 -153 2301
472 -153 2300
478 -152 2292
485 -153 2295
490 -152 2287
497 -152 2285
504 -153 2286
509 -152 2275
517 -152 2282
524 -153 2283
531 -153 2281
536 -152 2274
542 -152 2270
548 -152 2267
554 -152 2261
562 -152 2264
566 -152 2254
572 -151 2249
575 -151 2236
584 -151 2243
588 -151 2230
595 -151 2231
603 -151 2236
611 -151 2237
617 -151 2235
624 -151 2233
631 -152 2234
637 -152 2230
644 -152 2231
650 -152 2227
657 -152 2225
664 -152 2228
669 -152 2220
675 -152 2217
682 -152 2217
688 -152 2213
694 -151 2209
707 -153 2229
717 -154 2236
642 -136 1982
547 -115 1669
519 -108 1569
546 -112 1633
587 -120 1740
637 -129 1871
727 -147 2117
731 -146 2108
693 -137 1978
605 -118 1708
592 -115 1657
587 -113 1628
573 -109 1573
578 -109 1572
669 -126 1806
766 -143 2051
809 -150 2146
827 -153 2174
832 -152 2168
838 -152 2164
844 -152 2160
849 -152 2154
854 -152 2148
861 -152 2148
867 -152 2144
875 -152 2145
879 -152 2136
886 -152 2135
893 -152 2134
899 -152 2132
904 -152 2124
913 -152 2127
920 -152 2127
927 -152 2126
932 -152 2119
939 -152 2117
945 -152 2114
949 -152 2106
958 -152 2109
965 -152 2106
973 -153 2106
989 -154 2124
1024 -159 2183
1026 -158 2171
1002 -153 2103
1005 -153 2092
1010 -153 2087
993 -149 2036
910 -136 1850
887 -131 1788
887 -130 1775
898 -131 1783
898 -131 1770
909 -131 1778
912 -131 1769
919 -131 1769
921 -131 1761
927 -131 1759
928 -130 1746
942 -131 1760
942 -131 1747
950 -131 1749
959 -132 1752
963 -131 1746
970 -132 1746
967 -130 1727
-1303 -147 2267
-1308 -149 2291
-1286 -147 2270
-1268 -146 2254
-1250 -145 2240
-1250 -146 2255
-1239 -145 2251
-1228 -145 2249
-1219 -145 2248
-1205 -144 2240
-1195 -143 2238
-1191 -144 2247
-1175 -143 2234
-1166 -143 2234
-1149 -141 2217
-1140 -141 2217
-1128 -141 2210
-1131 -142 2233
-1116 -141 2221
-1104 -140 2213
-1099 -141 2221
-1083 -140 2204
-1080 -140 2216
-1063 -139 2197
-1057 -139 2203
-1044 -138 2193
-1039 -139 2198
-1026 -138 2188
-1018 -138 2190
-1004 -137 2175
-1002 -137 2189
-985 -136 2170
-971 -135 2156
-986 -138 2206
-999 -141 2255
-1001 -142 2277
-996 -143 2284
-989 -143 2288
-989 -144 2307
-983 -144 2310
-979 -145 2320
-974 -145 2329
-974 -146 2349
-970 -147 2358
-964 -147 2364
-961 -147 2376
-956 -148 2385
-952 -149 2395
-946 -149 2400
-945 -150 2421
-943 -151 2437
-940 -152 2450
-933 -152 2453
-927 -152 2460
-922 -152 2468
-918 -153 2479
-914 -154 2491
-912 -155 2508
-906 -155 2514
-899 -155 2520
-893 -156 2527
-888 -156 2536
-884 -157 2549
-885 -158 2574
-878 -159 2580
-868 -158 2575
-871 -160 2607
-858 -159 2596
-855 -160 2611
-849 -160 2618
-843 -161 2627
-837 -161 2633
-832 -162 2646
-825 -162 2651
-824 -164 2673
-815 -164 2674
-812 -165 2691
-801 -164 2683
-799 -165 2704
-787 -164 2691
-771 -163 2668
-751 -160 2626
-737 -159 2605
-731 -159 2615
-737 -162 2665
-733 -164 2682
-730 -165 2699
-721 -164 2698
-710 -164 2689
-703 -164 2693
-694 -164 2692
-685 -164 2687
-678 -164 2691
-666 -163 2678
-659 -163 2684
-649 -163 2675
-640 -162 2672
-632 -162 2673
-624 -163 2675
-614 -162 2665
-606 -162 2665
-597 -162 2661
-588 -161 2657
-579 -161 2653
-571 -161 2651
-563 -161 2654
-556 -161 2657
-547 -161 2652
-539 -161 2651
-527 -160 2635
-522 -161 2647
-512 -160 2636
-503 -160 2633
-495 -160 2631
-489 -160 2639
-478 -159 2620
-471 -159 2629
-462 -159 2620
-455 -159 2623
-446 -159 2616
-434 -157 2595
-431 -159 2621
-421 -158 2604
-413 -158 2604
-403 -157 2589
-397 -158 2603
-387 -157 2587
-381 -158 2597
-373 -157 2595
-366 -158 2598
-357 -157 2587
-350 -157 2591
-341 -157 2583
-334 -157 2585
-325 -156 2578
-318 -157 2582
-310 -156 2577
-303 -156 2576
-294 -156 2569
-287 -156 2568
-280 -156 2573
-271 -156 2562
-264 -156 2561
-257 -156 2565
-248 -155 2554
-241 -155 2559
-232 -155 2544
-225 -155 2548
-218 -155 2551
-209 -154 2535
-203 -155 2548
-195 -154 2539
-187 -154 2526
-181 -155 2542
-172 -154 2530
-165 -154 2528
-157 -153 2511
-150 -153 2514
-142 -153 2518
-134 -152 2501
-127 -152 2504
-119 -152 2489
-112 -151 2484
-104 -151 2475
-97 -151 2483
-90 -152 2485
-83 -152 2489
-76 -151 2478
-69 -152 2484
-62 -152 2483
-55 -152 2482
-47 -152 2484
-40 -152 2481
-33 -152 2479
-26 -151 2474
-19 -151 2472
-12 -151 2468
-4 -151 2469
2 -151 2467
9 -151 2462
16 -151 2460
23 -151 2459
30 -150 2445
37 -151 2457
44 -151 2458
51 -150 2449
58 -150 2445
65 -150 2439
72 -150 2435
79 -150 2439
86 -149 2426
93 -149 2426
99 -148 2413
106 -148 2402
112 -148 2402
119 -148 2398
127 -149 2416
134 -149 2410
141 -149 2412
148 -149 2408
155 -149 2414
161 -149 2408
168 -149 2404
175 -149 2403
181 -148 2394
189 -149 2400
196 -149 2400
202 -148 2391
209 -148 2391
215 -148 2387
223 -148 2389
229 -148 2388
236 -148 2385
242 -148 2378
250 -148 2384
256 -148 2376
264 -148 2384
270 -148 2376
276 -148 2370
283 -148 2373
290 -148 2367
296 -147 2360
303 -147 2360
309 -147 2360
316 -147 2354
322 -147 2353
329 -147 2349
336 -147 2349
342 -147 2347
349 -147 2348
355 -147 2342
361 -147 2335
368 -147 2336
375 -147 2333
382 -147 2334
386 -146 2319
391 -145 2308
398 -145 2306
403 -145 2297
412 -146 2307
419 -146 2311
425 -146 2304
432 -146 2304
440 -146 2314
447 -146 2309
454 -147 2311
461 -147 2310
466 -146 2300
472 -146 2299
479 -146 2297
486 -146 2299
493 -146 2297
499 -146 2292
506 -146 2292
511 -146 2287
518 -146 2286
523 -146 2279
530 -146 2278
536 -146 2274
544 -146 2276
551 -146 2276
556 -146 2269
561 -145 2262
568 -145 2261
574 -145 2257
578 -145 2244
583 -144 2240
590 -144 2239
595 -144 2231
603 -145 2236
611 -145 2239
618 -145 2237
625 -145 2239
631 -145 2234
639 -145 2237
645 -145 2233
652 -145 2234
657 -145 2226
666 -146 2233
670 -145 2222
676 -145 2220
683 -145 2219
689 -145 2217
696 -145 2214
712 -147 2243
719 -147 2242
634 -129 1957
551 -110 1682
505 -100 1525
541 -106 1618
612 -120 1815
707 -137 2077
773 -149 2251
764 -146 2204
789 -150 2253
752 -141 2127
681 -127 1907
664 -122 1842
583 -106 1602
620 -112 1688
633 -114 1707
644 -115 1722
741 -132 1965
808 -143 2126
836 -146 2179
837 -145 2162
844 -146 2162
850 -146 2158
856 -146 2155
864 -146 2155
868 -145 2148
875 -145 2145
882 -146 2144
888 -145 2139
895 -146 2139
903 -146 2139
907 -146 2133
915 -146 2133
923 -146 2133
926 -146 2123
935 -146 2127
942 -146 2124
946 -146 2117
953 -146 2114
960 -146 2114
966 -146 2109
973 -146 2107
995 -149 2139
1029 -153 2195
1029 -152 2178
1001 -147 2101
1007 -147 2097
1011 -146 2089
986 -142 2022
912 -130 1854
886 -125 1787
885 -125 1771
896 -125 1780
901 -125 1775
909 -126 1778
916 -126 1778
920 -126 1771
924 -126 1766
929 -126 1763
933 -125 1756
938 -125 1753
945 -126 1754
944 -125 1737
955 -125 1746
958 -125 1738
963 -125 1734
975 -126 1744
-1304 -140 2268
-1292 -139 2264
-1299 -141 2293
-1277 -140 2271
-1266 -139 2267
-1253 -139 2262
-1249 -139 2271
-1237 -139 2266
-1224 -138 2259
-1211 -137 2252
-1197 -137 2241
-1192 -137 2249
-1180 -136 2243
-1162 -135 2227
-1159 -136 2237
-1151 -136 2239
-1140 -135 2234
-1131 -135 2233
-1123 -135 2234
-1104 -133 2214
-1097 -134 2217
-1086 -133 2211
-1077 -133 2209
-1068 -133 2209
-1059 -132 2207
-1045 -132 2195
-1038 -132 2198
-1028 -131 2194
-1021 -131 2197
-1009 -131 2187
-1001 -131 2189
-980 -129 2160
-971 -128 2155
-990 -132 2216
-996 -134 2247
-997 -135 2268
-990 -135 2270
-994 -136 2300
-983 -136 2292
-979 -136 2303
-980 -138 2323
-971 -137 2321
-966 -138 2330
-967 -139 2352
-965 -140 2367
-959 -140 2371
-956 -141 2384
-954 -142 2402
-949 -142 2409
-943 -142 2415
-939 -143 2425
-936 -143 2440
-931 -144 2449
-928 -145 2463
-925 -145 2477
-917 -145 2477
-915 -146 2494
-912 -147 2508
-907 -147 2518
-900 -148 2522
-896 -148 2534
-890 -149 2543
-884 -149 2549
-881 -150 2564
-874 -150 2567
-869 -150 2577
-862 -151 2582
-859 -152 2599
-855 -152 2613
-847 -152 2613
-841 -153 2621
-834 -153 2624
-834 -155 2653
-828 -155 2660
-822 -155 2667
-819 -156 2685
-809 -156 2681
-803 -156 2691
-795 -157 2693
-787 -156 2691
-776 -156 2683
-750 -152 2623
-735 -151 2600
-730 -151 2610
-739 -155 2673
-736 -156 2692
-730 -157 2701
-721 -156 2700
-713 -157 2701
-705 -156 2699
-696 -156 2697
-684 -155 2682
-676 -155 2684
-669 -156 2689
-657 -155 2677
-650 -155 2680
-641 -155 2677
-634 -155 2680
-624 -155 2675
-615 -154 2669
-604 -154 2657
-598 -154 2666
-589 -154 2662
-582 -154 2666
-572 -154 2660
-564 -154 2660
-555 -153 2652
-547 -153 2655
-538 -153 2649
-529 -153 2643
-521 -153 2643
-514 -153 2645
-505 -152 2640
-496 -152 2633
-489 -152 2638
-479 -152 2626
-470 -151 2623
-463 -152 2625
-454 -151 2617
-447 -151 2624
-438 -151 2616
-430 -151 2614
-423 -151 2617
-413 -151 2608
-406 -151 2610
-398 -151 2608
-391 -151 2611
-382 -150 2601
-375 -150 2606
-366 -150 2598
-358 -150 2596
-350 -150 2596
-343 -150 2596
-335 -150 2594
-326 -149 2581
-319 -150 2588
-311 -149 2583
-303 -149 2579
-296 -149 2580
-288 -149 2581
-280 -149 2572
-271 -148 2566
-264 -148 2568
-257 -149 2572
-249 -148 2560
-241 -148 2557
-234 -148 2562
-225 -148 2550
-218 -148 2556
-211 -148 2552
-202 -147 2539
-195 -147 2542
-187 -147 2531
-180 -147 2539
-172 -147 2530
-165 -146 2527
-157 -146 2519
-149 -146 2515
-143 -146 2521
-135 -146 2509
-127 -145 2502
-119 -144 2488
-112 -144 2480
-105 -144 2482
-97 -144 2479
-90 -144 2481
-83 -144 2486
-76 -145 2489
-69 -145 2499
-62 -145 2489
-55 -145 2486
-47 -144 2483
-40 -144 2482
-33 -145 2489
-26 -145 2485
-19 -144 2477
-11 -144 2463
-4 -144 2471
2 -144 2468
9 -144 2464
16 -144 2461
23 -144 2464
30 -144 2459
37 -143 2455
44 -144 2462
51 -143 2450
58 -143 2450
65 -143 2445
72 -143 2447
79 -143 2438
86 -142 2426
93 -142 2428
99 -141 2412
105 -141 2398
112 -140 2392
119 -141 2402
127 -142 2410
134 -142 2416
141 -142 2416
148 -142 2410
154 -142 2408
161 -142 2405
169 -142 2419
176 -142 2410
182 -141 2401
189 -142 2403
196 -142 2404
203 -142 2402
209 -141 2395
216 -141 2390
224 -142 2400
230 -142 2392
237 -141 2391
242 -141 2379
249 -141 2376
256 -141 2380
263 -141 2378
270 -141 2377
275 -140 2364
283 -141 2370
290 -141 2369
296 -141 2363
303 -141 2364
309 -141 2360
315 -140 2353
323 -141 2357
330 -141 2361
337 -141 2355
342 -140 2346
350 -141 2350
356 -140 2345
362 -140 2338
369 -140 2340
376 -140 2339
381 -140 2332
387 -139 2324
391 -138 2305
395 -138 2292
403 -138 2300
412 -139 2310
420 -139 2316
426 -139 2312
433 -140 2313
440 -140 2312
447 -139 2309
453 -140 2308
459 -139 2304
467 -140 2306
473 -140 2305
479 -139 2299
487 -140 2303
492 -139 2294
498 -139 2292
506 -140 2294
511 -139 2286
518 -139 2285
524 -139 2282
531 -139 2281
538 -139 2282
544 -139 2276
550 -139 2276
557 -139 2272
564 -139 2275
569 -139 2264
573 -138 2253
576 -137 2238
579 -137 2225
586 -137 2224
594 -137 2227
604 -138 2238
613 -139 2245
620 -139 2246
625 -139 2239
631 -138 2236
640 -139 2243
646 -139 2238
652 -139 2236
657 -139 2229
666 -139 2234
673 -139 2233
678 -139 2226
685 -139 2225
694 -139 2231
700 -139 2227
713 -141 2248
719 -141 2243
653 -126 2016
620 -119 1894
565 -107 1707
615 -116 1843
719 -134 2133
763 -142 2244
753 -139 2192
746 -136 2151
767 -139 2192
774 -139 2190
736 -131 2064
734 -129 2037
714 -125 1963
703 -122 1915
674 -116 1820
658 -112 1760
622 -105 1647
735 -124 1931
817 -136 2129
838 -139 2165
847 -139 2169
850 -139 2159
858 -139 2159
866 -139 2160
873 -140 2159
877 -139 2151
886 -140 2154
893 -140 2152
898 -140 2147
902 -139 2138
911 -140 2140
915 -139 2133
923 -140 2134
931 -140 2136
939 -140 2136
943 -140 2128
948 -140 2122
956 -140 2122
964 -140 2122
970 -140 2117
976 -140 2114
1000 -143 2150
1029 -146 2193
1026 -144 2171
1011 -141 2121
1007 -140 2097
1015 -140 2098
997 -137 2043
915 -125 1861
883 -119 1781
885 -119 1771
894 -119 1775
906 -120 1785
907 -120 1775
912 -120 1771
921 -120 1774
918 -119 1755
926 -119 1757
929 -119 1749
940 -120 1757
950 -121 1763
954 -120 1757
956 -120 1748
959 -120 1739
966 -120 1740
972 -120 1738
-1319 -134 2295
-1304 -133 2287
-1290 -133 2278
-1278 -132 2274
-1273 -133 2282
-1257 -132 2269
-1247 -131 2267
-1232 -131 2256
-1230 -131 2271
-1213 -130 2256
-1200 -130 2249
-1194 -130 2254
-1180 -129 2244
-1170 -129 2241
-1163 -129 2246
-1151 -128 2238
-1139 -128 2232
-1126 -127 2224
-1113 -127 2214
-1108 -127 2221
-1100 -127 2222
-1087 -126 2213
-1081 -126 2218
-1066 -125 2204
-1059 -126 2208
-1052 -126 2210
-1038 -125 2198
-1028 -124 2194
-1019 -124 2192
-1007 -124 2183
-995 -123 2175
-981 -122 2162
-975 -122 2166
-985 -124 2207
-996 -127 2249
-995 -128 2265
-995 -129 2284
-993 -129 2297
-985 -129 2298
-985 -130 2318
-977 -130 2317
-971 -130 2322
-973 -132 2346
-968 -132 2354
-961 -132 2358
-959 -133 2373
-956 -133 2387
-954 -134 2402
-949 -134 2409
-943 -135 2417
-939 -135 2425
-937 -136 2444
-933 -137 2453
-927 -137 2460
-922 -137 2470
-919 -138 2482
-914 -139 2492
-909 -139 2502
-904 -139 2510
-896 -139 2512
-893 -140 2525
-890 -141 2541
-885 -141 2551
-879 -142 2560
-875 -142 2570
-869 -143 2578
-863 -143 2585
-860 -144 2600
-856 -145 2614
-846 -144 2610
-836 -144 2605
-835 -145 2628
-832 -146 2645
-830 -147 2668
-821 -147 2666
-816 -148 2675
-810 -148 2686
-805 -149 2698
-797 -149 2700
-790 -149 2704
-778 -148 2693
-760 -146 2658
-744 -145 2633
-737 -145 2635
-745 -148 2695
-741 -149 2712
-730 -149 2700
-723 -149 2708
-714 -149 2705
-703 -148 2693
-696 -148 2700
-689 -149 2703
-679 -148 2698
-671 -148 2699
-658 -147 2682
-651 -147 2685
-640 -147 2673
-633 -147 2678
-626 -147 2681
-616 -147 2674
-607 -146 2670
-599 -146 2670
-588 -146 2658
-582 -146 2667
-574 -146 2670
-564 -146 2658
-557 -146 2663
-547 -146 2654
-539 -145 2652
-531 -145 2653
-523 -145 2654
-513 -145 2643
-506 -145 2649
-496 -144 2635
-489 -145 2638
-479 -144 2630
-471 -144 2626
-463 -144 2626
-455 -144 2628
-447 -144 2622
-439 -144 2621
-431 -144 2621
-423 -144 2622
-414 -143 2615
-407 -143 2614
-399 -143 2613
-390 -143 2608
-382 -143 2602
-374 -143 2602
-367 -143 2604
-358 -142 2593
-350 -142 2592
-342 -142 2590
-336 -143 2599
-327 -142 2588
-318 -142 2580
-310 -141 2574
-303 -142 2581
-296 -142 2583
-288 -142 2580
-280 -141 2572
-272 -141 2567
-264 -141 2563
-256 -141 2566
-249 -141 2561
-240 -140 2552
-233 -141 2559
-225 -140 2544
-217 -140 2541
-210 -140 2545
-202 -140 2542
-195 -140 2541
-187 -140 2537
-180 -139 2534
-172 -139 2528
-165 -139 2529
-157 -139 2523
-150 -139 2519
-142 -139 2517
-135 -139 2516
-127 -138 2505
-119 -138 2495
-111 -137 2478
-104 -136 2471
-97 -137 2482
-90 -137 2487
-83 -138 2495
-76 -137 2489
-69 -137 2479
-62 -138 2491
-54 -137 2479
-47 -137 2482
-40 -137 2483
-33 -137 2471
-26 -137 2472
-19 -137 2475
-11 -136 2465
-4 -137 2465
2 -137 2469
9 -137 2468
16 -137 2470
23 -137 2462
30 -136 2455
37 -137 2459
44 -136 2452
51 -136 2447
58 -136 2446
65 -136 2444
72 -136 2440
79 -136 2439
86 -135 2431
93 -136 2433
99 -134 2413
105 -134 2399
112 -134 2394
119 -133 2392
127 -134 2408
134 -135 2416
141 -135 2413
147 -134 2402
154 -134 2404
161 -134 2397
168 -135 2403
175 -135 2404
182 -135 2403
188 -134 2396
195 -134 2392
202 -135 2398
209 -135 2397
215 -134 2383
223 -134 2390
230 -134 2389
236 -134 2383
242 -134 2374
250 -134 2384
256 -134 2378
263 -134 2377
269 -134 2370
277 -134 2375
283 -134 2373
290 -134 2368
295 -133 2357
303 -134 2361
309 -134 2357
316 -133 2355
323 -134 2355
328 -133 2347
334 -133 2339
342 -133 2347
348 -133 2338
355 -133 2341
363 -134 2345
368 -133 2336
374 -133 2330
382 -133 2334
386 -132 2320
391 -132 2309
396 -131 2295
402 -131 2289
410 -132 2298
420 -133 2313
427 -133 2318
434 -133 2315
440 -133 2311
446 -133 2309
452 -132 2301
460 -133 2308
464 -132 2295
473 -133 2301
477 -132 2291
486 -133 2301
492 -132 2293
497 -132 2286
506 -133 2293
513 -133 2294
519 -133 2291
523 -132 2278
530 -132 2277
538 -133 2281
545 -133 2284
551 -133 2279
556 -132 2269
562 -132 2264
569 -132 2265
575 -132 2264
578 -131 2247
581 -131 2231
587 -130 2227
595 -131 2231
605 -132 2243
612 -132 2243
620 -132 2245
627 -132 2245
634 -132 2246
638 -132 2235
646 -132 2238
652 -132 2235
658 -132 2230
664 -132 2228
672 -132 2229
678 -132 2227
686 -132 2229
693 -133 2230
705 -134 2244
720 -135 2269
739 -138 2306
711 -131 2196
632 -115 1931
561 -101 1695
588 -105 1761
607 -108 1798
631 -111 1852
605 -105 1758
599 -103 1724
647 -111 1846
678 -116 1918
700 -118 1960
686 -115 1905
712 -119 1959
686 -113 1868
707 -116 1909
732 -119 1960
716 -115 1899
680 -109 1785
783 -125 2041
834 -132 2155
845 -133 2165
852 -133 2163
859 -133 2161
865 -133 2159
875 -133 2163
880 -133 2157
883 -133 2148
890 -133 2147
898 -133 2147
904 -133 2143
914 -134 2150
916 -133 2135
925 -133 2138
928 -133 2129
937 -133 2131
945 -133 2132
949 -133 2123
957 -133 2123
973 -135 2142
980 -135 2140
974 -133 2110
1002 -136 2154
1030 -139 2197
1031 -138 2182
1006 -134 2113
1012 -134 2108
1018 -134 2105
998 -130 2046
918 -119 1867
891 -115 1797
892 -114 1786
893 -114 1774
903 -114 1779
904 -114 1769
916 -115 1778
919 -114 1771
922 -114 1762
926 -114 1757
932 -114 1756
943 -115 1763
948 -115 1759
946 -114 1743
953 -114 1742
961 -114 1744
964 -114 1737
974 -114 1741
-1316 -126 2291
-1309 -126 2295
-1298 -126 2292
-1293 -126 2301
-1271 -125 2278
-1257 -124 2270
-1242 -124 2258
-1236 -124 2265
-1226 -124 2263
-1213 -123 2256
-1210 -124 2267
-1192 -122 2250
-1186 -123 2255
-1180 -123 2262
-1156 -121 2232
-1151 -121 2240
-1135 -120 2226
-1125 -120 2222
-1118 -120 2225
-1107 -120 2221
-1097 -120 2218
-1084 -119 2207
-1072 -118 2201
-1064 -118 2201
-1055 -118 2200
-1046 -118 2198
-1039 -118 2201
-1027 -117 2192
-1016 -117 2187
-1010 -117 2191
-999 -117 2185
-981 -115 2163
-972 -115 2160
-985 -118 2207
-997 -120 2252
-999 -121 2273
-995 -121 2283
-988 -121 2286
-983 -122 2293
-983 -123 2314
-977 -123 2318
-973 -123 2329
-971 -124 2342
-968 -125 2354
-969 -126 2376
-957 -125 2370
-954 -126 2382
-948 -126 2386
-949 -127 2409
-945 -128 2420
-939 -128 2426
-936 -129 2440
-930 -129 2445
-926 -129 2457
-922 -130 2469
-919 -131 2483
-914 -131 2491
-907 -131 2497
-906 -132 2517
-896 -132 2512
-890 -132 2519
-889 -133 2538
-885 -134 2553
-879 -134 2560
-875 -135 2572
-869 -135 2579
-865 -136 2592
-856 -136 2590
-852 -136 2605
-849 -137 2620
-844 -137 2630
-837 -138 2635
-836 -139 2658
-828 -139 2660
-820 -139 2663
-816 -140 2676
-807 -140 2677
-802 -140 2687
-800 -141 2710
-793 -141 2713
-783 -141 2708
-769 -140 2691
-747 -138 2642
-739 -138 2643
-753 -142 2725
-746 -142 2728
-736 -142 2724
-726 -141 2719
-715 -141 2708
-706 -141 2705
-696 -140 2698
-687 -140 2699
-681 -141 2706
-669 -140 2693
-662 -140 2695
-652 -140 2688
-643 -140 2688
-634 -139 2681
-629 -140 2696
-618 -139 2685
-609 -139 2682
-599 -139 2673
-592 -139 2676
-584 -139 2677
-574 -138 2668
-563 -138 2653
-555 -138 2654
-548 -138 2658
-536 -137 2640
-531 -138 2654
-522 -138 2651
-514 -138 2651
-506 -137 2647
-496 -137 2637
-488 -137 2638
-480 -137 2634
-472 -137 2637
-464 -136 2631
-455 -136 2625
-446 -136 2617
-437 -136 2612
-430 -136 2614
-423 -136 2619
-413 -135 2609
-405 -135 2603
-398 -135 2611
-389 -135 2599
-382 -135 2605
-374 -135 2602
-365 -135 2594
-357 -135 2593
-351 -135 2601
-342 -134 2590
-334 -134 2584
-325 -134 2579
-317 -134 2576
-311 -134 2584
-301 -133 2568
-294 -134 2572
-286 -133 2566
-279 -133 2564
-271 -133 2564
-263 -133 2555
-255 -133 2555
-248 -133 2552
-240 -133 2547
-232 -132 2545
-224 -132 2541
-217 -132 2543
-209 -132 2536
-202 -132 2539
-195 -132 2536
-187 -132 2531
-179 -131 2522
-172 -132 2525
-164 -131 2522
-156 -131 2510
-150 -131 2518
-142 -131 2510
-134 -131 2508
-127 -131 2505
-120 -131 2502
-112 -130 2486
-104 -129 2475
-97 -130 2480
-90 -130 2486
-83 -130 2490
-76 -130 2479
-69 -130 2480
-61 -130 2481
-54 -130 2474
-47 -130 2477
-40 -130 2477
-33 -130 2473
-26 -130 2473
-18 -129 2463
-11 -129 2465
-4 -129 2460
2 -129 2461
9 -129 2459
16 -130 2467
23 -129 2460
30 -129 2447
37 -128 2441
44 -129 2454
51 -129 2441
58 -128 2435
65 -129 2445
72 -129 2442
79 -128 2435
86 -129 2440
93 -129 2434
100 -128 2430
106 -127 2405
113 -127 2404
120 -127 2407
127 -128 2421
134 -128 2423
141 -128 2410
147 -127 2391
155 -128 2415
161 -128 2404
168 -128 2408
175 -128 2402
181 -127 2391
189 -127 2397
195 -128 2397
202 -127 2394
209 -127 2392
215 -127 2385
223 -127 2388
230 -128 2390
236 -127 2386
243 -127 2381
248 -127 2370
256 -127 2374
263 -127 2379
270 -127 2380
276 -127 2373
283 -127 2367
288 -126 2357
297 -127 2370
302 -127 2358
309 -127 2358
316 -127 2357
323 -127 2358
329 -127 2351
335 -126 2348
342 -126 2344
349 -126 2344
356 -127 2348
362 -127 2343
369 -126 2338
375 -126 2338
382 -126 2335
387 -126 2326
392 -125 2313
397 -125 2300
405 -125 2307
412 -125 2308
420 -126 2315
426 -126 2312
433 -126 2311
439 -126 2307
447 -126 2312
452 -126 2304
459 -126 2301
466 -126 2303
473 -126 2304
478 -126 2293
486 -126 2298
492 -126 2296
498 -126 2291
505 -126 2289
511 -126 2284
518 -126 2284
524 -126 2280
531 -126 2281
537 -126 2278
542 -125 2270
549 -126 2272
556 -126 2270
563 -126 2268
569 -125 2264
577 -126 2271
579 -125 2249
581 -124 2229
587 -124 2226
597 -125 2241
605 -125 2243
611 -125 2241
619 -125 2244
627 -125 2245
632 -125 2240
638 -125 2234
644 -125 2232
654 -126 2240
657 -125 2227
665 -125 2230
672 -126 2230
678 -125 2226
683 -125 2220
697 -127 2241
710 -128 2261
725 -129 2285
711 -126 2217
639 -112 1971
607 -105 1853
568 -97 1717
525 -89 1572
544 -91 1611
516 -86 1513
507 -84 1472
499 -81 1434
515 -83 1467
541 -87 1526
578 -92 1617
601 -95 1666
647 -102 1778
646 -101 1758
651 -101 1758
711 -110 1902
706 -108 1873
696 -106 1829
771 -116 2008
828 -124 2139
844 -126 2161
851 -126 2161
857 -126 2156
864 -126 2155
871 -126 2155
880 -126 2158
883 -126 2147
893 -126 2152
899 -127 2150
904 -126 2143
913 -127 2147
916 -126 2137
924 -126 2136
929 -126 2131
938 -127 2134
945 -127 2133
952 -127 2131
958 -127 2126
970 -128 2137
980 -128 2141
976 -127 2116
1003 -129 2156
1031 -132 2198
1027 -131 2174
1006 -127 2112
1010 -127 2104
1017 -127 2102
999 -124 2048
915 -113 1862
883 -108 1781
889 -108 1781
897 -109 1782
898 -108 1771
899 -108 1760
916 -109 1778
914 -108 1761
922 -108 1763
928 -108 1762
937 -109 1766
941 -109 1760
944 -108 1752
943 -108 1737
955 -109 1747
960 -108 1742
963 -108 1735
971 -109 1737
-1312 -119 2284
-1307 -119 2292
-1295 -118 2287
-1278 -118 2274
-1272 -118 2280
-1260 -117 2276
-1251 -117 2275
-1233 -116 2259
-1219 -116 2252
-1212 -116 2254
-1200 -115 2248
-1195 -116 2257
-1180 -115 2245
-1174 -115 2251
-1160 -114 2240
-1143 -113 2223
-1140 -114 2234
-1127 -113 2227
-1116 -113 2221
-1106 -113 2218
-1096 -112 2217
-1084 -112 2209
-1076 -112 2209
-1065 -112 2204
-1059 -112 2208
-1049 -111 2204
-1035 -111 2192
-1027 -111 2192
-1020 -111 2195
-1006 -110 2183
-999 -110 2185
-982 -109 2164
-971 -108 2158
-985 -111 2206
-1000 -113 2259
-996 -114 2268
-993 -114 2279
-992 -115 2296
-985 -115 2299
-981 -115 2309
-980 -116 2325
-974 -116 2331
-973 -117 2349
-967 -117 2353
-966 -118 2372
-957 -118 2368
-959 -119 2394
-952 -119 2399
-948 -120 2408
-944 -120 2420
-940 -121 2429
-935 -121 2438
-932 -122 2451
-925 -122 2457
-922 -122 2471
-917 -123 2478
-913 -123 2491
-910 -124 2504
-904 -124 2511
-897 -124 2514
-889 -124 2515
-889 -126 2540
-884 -126 2551
-877 -126 2554
-877 -127 2580
-869 -127 2579
-862 -127 2582
-859 -128 2599
-853 -128 2606
-850 -129 2623
-843 -130 2630
-834 -129 2626
-831 -130 2642
-829 -131 2665
-821 -131 2668
-814 -131 2670
-810 -132 2685
-805 -133 2699
-798 -133 2703
-794 -134 2718
-783 -133 2709
-768 -132 2688
-752 -131 2659
-737 -129 2638
-753 -134 2723
-745 -134 2727
-734 -133 2716
-723 -133 2707
-716 -133 2711
-706 -133 2707
-697 -133 2703
-688 -132 2702
-681 -133 2707
-672 -132 2702
-659 -132 2685
-654 -132 2699
-642 -131 2682
-635 -132 2689
-626 -131 2684
-616 -131 2677
-600 -129 2639
-588 -128 2623
-588 -130 2661
-582 -131 2668
-574 -131 2668
-565 -131 2666
-556 -130 2659
-548 -130 2661
-539 -130 2655
-531 -130 2655
-521 -129 2642
-512 -129 2637
-505 -130 2646
-496 -129 2639
-489 -129 2641
-479 -129 2629
-472 -129 2633
-465 -129 2640
-455 -129 2627
-446 -128 2618
-440 -129 2632
-430 -128 2617
-421 -128 2608
-414 -128 2613
-405 -128 2604
-398 -128 2608
-389 -127 2602
-381 -127 2597
-373 -127 2594
-365 -127 2594
-357 -127 2592
-349 -127 2590
-342 -127 2593
-334 -127 2585
-325 -126 2580
-318 -126 2579
-310 -126 2579
-302 -126 2576
-294 -126 2570
-287 -126 2572
-279 -126 2571
-271 -126 2561
-263 -126 2560
-255 -125 2553
-248 -125 2553
-240 -125 2554
-232 -125 2547
-225 -125 2546
-217 -125 2546
-210 -125 2546
-201 -124 2530
-194 -125 2533
-187 -124 2530
-179 -124 2526
-172 -124 2527
-164 -124 2519
-157 -125 2529
-150 -125 2532
-142 -124 2513
-135 -124 2519
-127 -124 2514
-120 -124 2508
-111 -122 2482
-105 -123 2491
-98 -123 2498
-91 -124 2510
-83 -123 2487
-76 -123 2489
-69 -123 2494
-62 -123 2486
-54 -123 2482
-47 -123 2480
-40 -123 2476
-33 -123 2475
-26 -123 2479
-19 -123 2482
-11 -123 2472
-4 -122 2468
2 -122 2463
9 -122 2465
16 -122 2457
23 -123 2465
30 -122 2455
37 -122 2458
44 -122 2459
51 -122 2453
58 -122 2443
65 -122 2442
72 -122 2443
79 -122 2444
86 -121 2433
93 -122 2441
101 -122 2447
106 -121 2421
113 -121 2416
121 -121 2426
128 -121 2424
135 -121 2426
141 -121 2408
148 -121 2415
155 -121 2417
162 -121 2414
169 -121 2415
176 -121 2416
182 -121 2401
189 -121 2402
196 -121 2403
203 -121 2399
209 -120 2390
216 -121 2392
222 -120 2381
230 -120 2389
236 -120 2387
243 -120 2384
249 -120 2380
256 -120 2380
264 -121 2386
271 -121 2387
277 -120 2377
283 -120 2368
290 -120 2371
297 -120 2372
303 -120 2361
310 -120 2362
317 -120 2362
323 -120 2358
330 -120 2355
335 -119 2345
343 -120 2351
348 -119 2342
356 -120 2349
363 -120 2350
369 -120 2341
376 -120 2341
384 -120 2345
389 -120 2338
396 -120 2334
402 -120 2330
406 -119 2313
415 -119 2324
422 -120 2327
429 -120 2325
434 -119 2317
440 -119 2312
448 -119 2316
455 -120 2315
461 -119 2312
467 -119 2309
474 -119 2308
480 -119 2303
485 -119 2294
491 -119 2289
499 -119 2296
506 -119 2294
511 -119 2287
519 -119 2291
524 -119 2284
532 -119 2284
538 -119 2282
545 -119 2282
550 -119 2272
556 -119 2271
563 -119 2269
569 -119 2266
577 -119 2270
581 -119 2256
586 -118 2252
591 -118 2241
600 -119 2249
606 -119 2248
615 -119 2253
621 -119 2251
628 -119 2251
634 -119 2247
642 -119 2250
647 -119 2241
652 -119 2236
659 -119 2235
665 -119 2229
672 -119 2229
678 -119 2226
685 -119 2227
696 -120 2238
713 -122 2271
734 -124 2313
702 -117 2189
604 -100 1864
569 -93 1736
532 -86 1606
530 -85 1587
502 -80 1485
487 -76 1426
486 -76 1411
491 -76 1411
502 -77 1430
513 -78 1448
541 -82 1512
550 -82 1524
565 -84 1553
591 -87 1609
650 -96 1755
686 -100 1835
736 -107 1952
765 -110 2011
815 -117 2126
835 -119 2158
843 -119 2159
851 -119 2160
859 -119 2161
864 -119 2156
873 -120 2159
878 -119 2152
885 -120 2151
894 -120 2155
896 -119 2142
905 -120 2147
913 -120 2146
918 -120 2140
926 -120 2141
929 -120 2131
937 -120 2132
947 -120 2136
951 -120 2129
956 -120 2122
980 -122 2158
973 -120 2125
977 -120 2117
1004 -123 2158
1033 -126 2203
1029 -124 2177
1005 -121 2111
1007 -120 2098
1016 -120 2100
999 -118 2049
920 -108 1871
884 -103 1784
888 -102 1778
896 -103 1781
903 -103 1781
903 -102 1767
910 -103 1766
918 -103 1770
921 -103 1761
924 -102 1754
933 -103 1757
940 -103 1758
941 -102 1746
952 -103 1754
951 -102 1739
957 -103 1737
963 -103 1735
973 -103 1741
-1310 -111 2282
-1301 -111 2282
-1287 -110 2274
-1279 -110 2277
-1272 -110 2280
-1260 -110 2275
-1245 -109 2265
-1233 -109 2261
-1223 -109 2259
-1216 -109 2263
-1197 -108 2244
-1190 -108 2248
-1174 -107 2235
-1166 -107 2235
-1156 -107 2233
-1142 -106 2223
-1127 -106 2210
-1127 -106 2228
-1113 -106 2217
-1102 -105 2211
-1095 -105 2214
-1083 -105 2208
-1072 -105 2202
-1068 -105 2210
-1050 -104 2190
-1048 -104 2204
-1031 -103 2186
-1024 -103 2187
-1016 -103 2187
-1007 -103 2184
-1001 -103 2188
-979 -102 2157
-973 -102 2162
-987 -104 2211
-1001 -106 2261
-998 -107 2273
-997 -108 2289
-989 -108 2290
-988 -108 2307
-984 -109 2315
-976 -109 2316
-975 -109 2334
-975 -110 2353
-968 -110 2357
-965 -111 2370
-961 -111 2378
-955 -111 2385
-952 -112 2397
-946 -112 2403
-943 -113 2417
-937 -113 2421
-936 -114 2441
-932 -114 2454
-927 -115 2460
-918 -114 2459
-914 -115 2472
-914 -116 2493
-905 -116 2491
-907 -117 2520
-900 -117 2524
-891 -117 2522
-885 -117 2530
-884 -118 2549
-879 -119 2561
-874 -119 2569
-867 -119 2572
-863 -120 2588
-860 -121 2603
-852 -121 2605
-847 -121 2615
-842 -122 2626
-837 -122 2636
-832 -122 2648
-826 -123 2657
-822 -123 2670
-818 -124 2685
-806 -124 2675
-805 -125 2697
-799 -125 2708
-788 -125 2700
-783 -125 2712
-772 -125 2702
-752 -123 2662
-734 -121 2628
-752 -126 2721
-748 -126 2739
-736 -126 2726
-725 -125 2715
-715 -125 2708
-707 -125 2710
-697 -125 2705
-687 -124 2697
-679 -124 2698
-668 -124 2688
-660 -124 2690
-654 -124 2697
-644 -124 2690
-634 -123 2682
-620 -122 2657
-564 -113 2453
-538 -109 2371
-522 -107 2332
-551 -115 2494
-566 -119 2596
-571 -122 2656
-563 -122 2654
-556 -122 2659
-550 -123 2671
-539 -122 2654
-531 -122 2653
-521 -122 2646
-512 -121 2637
-506 -122 2650
-495 -121 2635
-489 -122 2641
-480 -121 2637
-472 -121 2636
-464 -121 2633
-457 -122 2639
-448 -121 2631
-439 -121 2625
-429 -120 2614
-422 -120 2616
-415 -121 2618
-408 -121 2624
-398 -120 2613
-391 -120 2612
-382 -120 2606
-374 -120 2607
-366 -120 2600
-358 -120 2598
-351 -120 2603
-342 -120 2593
-335 -120 2598
-326 -119 2589
-319 -120 2592
-311 -119 2588
-304 -120 2591
-295 -119 2576
-287 -119 2571
-279 -119 2574
-272 -119 2578
-271 -122 2633
-256 -119 2567
-247 -118 2548
-241 -118 2559
-234 -119 2564
-226 -118 2555
-218 -118 2554
-210 -118 2545
-202 -117 2538
-195 -118 2543
-187 -118 2539
-180 -117 2534
-172 -117 2529
-165 -117 2532
-157 -117 2521
-150 -117 2526
-142 -117 2514
-135 -117 2514
-128 -117 2525
-121 -117 2523
-112 -116 2497
-105 -116 2496
-98 -116 2506
-91 -116 2499
-85 -119 2547
-77 -118 2533
-68 -115 2462
-62 -116 2488
-54 -116 2484
-47 -116 2484
-40 -116 2482
-33 -116 2484
-26 -116 2484
-18 -116 2476
-11 -115 2462
-4 -117 2506
2 -116 2473
9 -115 2454
16 -115 2452
23 -115 2463
31 -117 2489
37 -115 2457
44 -115 2452
51 -114 2438
58 -115 2447
66 -116 2466
72 -115 2448
80 -116 2467
86 -115 2445
93 -115 2439
100 -115 2442
107 -115 2442
114 -114 2430
121 -115 2439
128 -115 2430
135 -114 2428
143 -116 2456
151 -116 2458
155 -114 2421
162 -114 2415
169 -114 2409
176 -114 2414
183 -114 2413
190 -114 2414
195 -113 2395
203 -114 2399
209 -114 2393
216 -114 2392
223 -114 2391
230 -114 2388
236 -114 2389
236 -110 2315
249 -113 2378
257 -114 2384
263 -113 2377
272 -114 2391
278 -114 2385
284 -114 2378
291 -114 2380
296 -113 2365
310 -116 2417
308 -112 2346
317 -113 2364
324 -113 2364
332 -114 2375
337 -113 2357
343 -113 2352
350 -113 2351
359 -114 2367
362 -113 2343
370 -113 2350
377 -113 2347
384 -113 2346
390 -113 2344
399 -114 2353
404 -113 2343
410 -113 2334
416 -113 2334
422 -113 2324
428 -113 2319
436 -113 2327
441 -113 2314
447 -113 2314
455 -113 2318
461 -113 2311
468 -113 2312
475 -113 2311
481 -113 2310
487 -113 2301
494 -113 2301
500 -113 2301
507 -113 2299
513 -113 2297
520 -113 2294
526 -113 2291
532 -112 2285
538 -112 2283
546 -113 2285
550 -112 2274
557 -112 2275
564 -112 2272
569 -112 2266
577 -112 2270
585 -113 2273
590 -113 2267
598 -113 2270
603 -112 2261
609 -112 2257
615 -112 2253
622 -112 2254
629 -113 2253
635 -112 2250
641 -112 2247
647 -112 2242
652 -112 2237
661 -113 2242
667 -113 2239
672 -112 2230
677 -112 2224
686 -112 2230
698 -113 2244
712 -115 2268
739 -118 2328
685 -108 2137
616 -96 1901
535 -83 1634
560 -86 1692
507 -77 1515
493 -74 1459
483 -72 1416
479 -70 1392
488 -71 1403
489 -71 1392
510 -73 1440
528 -75 1476
550 -78 1524
575 -81 1580
603 -84 1641
606 -84 1635
643 -89 1719
697 -95 1849
785 -107 2064
825 -112 2150
839 -113 2168
847 -113 2169
850 -113 2159
859 -113 2162
865 -113 2159
872 -113 2159
879 -113 2155
882 -113 2146
890 -113 2147
899 -113 2151
906 -113 2148
912 -113 2144
919 -113 2144
925 -113 2140
932 -113 2138
937 -113 2132
946 -114 2134
950 -113 2126
958 -114 2127
965 -114 2126
977 -114 2135
979 -114 2123
1005 -116 2162
1031 -119 2200
1031 -118 2182
1008 -114 2117
1011 -114 2107
1015 -114 2099
1004 -112 2059
924 -102 1880
891 -98 1798
884 -96 1771
895 -97 1779
903 -97 1781
904 -97 1769
915 -98 1778
919 -97 1771
922 -97 1764
927 -97 1759
936 -97 1763
942 -98 1761
942 -97 1749
948 -97 1746
958 -98 1753
966 -98 1755
966 -97 1740
971 -97 1737
-1318 -104 2295
-1299 -103 2278
-1293 -104 2286
-1277 -103 2273
-1264 -102 2267
-1259 -103 2275
-1242 -102 2261
-1226 -101 2248
-1225 -102 2263
-1206 -101 2244
-1195 -101 2240
-1190 -101 2249
-1175 -100 2236
-1169 -100 2241
-1154 -100 2229
-1142 -99 2223
-1133 -99 2223
-1120 -99 2214
-1111 -98 2213
-1098 -98 2203
-1091 -98 2206
-1079 -98 2199
-1072 -98 2202
-1062 -97 2198
-1050 -97 2190
-1043 -97 2194
-1034 -97 2191
-1023 -96 2185
-1012 -96 2180
-1010 -97 2192
-991 -96 2169
-979 -95 2160
-975 -95 2167
-990 -98 2218
-1001 -99 2262
-999 -100 2276
-990 -100 2274
-993 -101 2299
-987 -101 2304
-984 -101 2316
-978 -102 2321
-974 -102 2331
-970 -102 2342
-967 -103 2354
-966 -104 2372
-959 -104 2375
-961 -105 2401
-952 -105 2398
-954 -106 2425
-943 -105 2419
-938 -106 2425
-937 -106 2445
-932 -107 2453
-928 -107 2464
-928 -108 2488
-917 -108 2480
-913 -108 2492
-911 -109 2509
-903 -109 2508
-896 -109 2515
-892 -110 2525
-883 -110 2524
-883 -110 2547
-879 -111 2560
-871 -111 2562
-865 -111 2569
-862 -112 2584
-861 -113 2606
-856 -113 2617
-848 -113 2618
-845 -114 2635
-837 -114 2637
-832 -115 2648
-829 -115 2664
-820 -115 2664
-814 -116 2672
-810 -116 2686
-805 -117 2700
-797 -117 2701
-789 -117 2701
-781 -117 2703
-776 -117 2716
-749 -114 2651
-735 -114 2633
-754 -118 2729
-751 -119 2748
-734 -117 2718
-726 -117 2721
-714 -117 2706
-710 -117 2722
-698 -117 2709
-688 -116 2702
-681 -117 2706
-670 -116 2698
-661 -116 2693
-654 -116 2699
-646 -116 2698
-634 -116 2686
-616 -114 2643
-525 -98 2283
-495 -94 2181
-493 -95 2203
-523 -102 2369
-561 -111 2574
-572 -115 2663
-564 -115 2661
-557 -115 2667
-549 -115 2665
-540 -115 2660
-532 -115 2659
-524 -115 2658
-513 -114 2647
-506 -114 2647
-496 -114 2638
-489 -114 2641
-481 -114 2645
-471 -113 2632
-464 -114 2634
-455 -113 2629
-447 -113 2627
-439 -113 2628
-432 -113 2631
-423 -113 2620
-415 -113 2619
-406 -113 2614
-398 -113 2614
-392 -113 2622
-382 -112 2605
-375 -113 2611
-365 -112 2597
-359 -113 2606
-350 -112 2595
-344 -113 2605
-335 -112 2598
-327 -112 2593
-319 -112 2590
-312 -112 2594
-303 -112 2584
-296 -112 2586
-288 -112 2585
-279 -111 2570
-272 -111 2573
-271 -114 2640
-256 -111 2569
-249 -111 2565
-238 -110 2532
-233 -111 2557
-226 -111 2564
-218 -111 2552
-210 -110 2546
-202 -110 2539
-194 -110 2534
-190 -112 2581
-180 -110 2540
-173 -111 2545
-165 -110 2535
-157 -110 2527
-150 -110 2526
-143 -110 2529
-135 -109 2514
-127 -110 2517
-120 -110 2520
-113 -110 2525
-106 -110 2523
-98 -110 2515
-91 -109 2499
-84 -110 2512
-77 -110 2526
-69 -109 2500
