VERSION 0.7
FIELDS x y z
SIZE 4 4 4
TYPE I I I
COUNT 1 1 1
WIDTH 3246
HEIGHT 1
VIEWPOINT 0.0 0.0 0.0 1.0 0.0 0.0 0.0
POINTS 3246
DATA ascii
444 -789 2467
449 -786 2454
457 -785 2452
466 -788 2458
472 -786 2452
480 -787 2454
487 -786 2449
493 -785 2445
500 -784 2440
508 -785 2442
516 -785 2441
521 -783 2432
528 -782 2427
535 -781 2423
544 -784 2431
549 -780 2417
559 -784 2428
564 -781 2416
571 -781 2414
579 -781 2415
586 -780 2410
594 -781 2411
600 -779 2403
606 -779 2400
614 -779 2400
620 -777 2392
627 -777 2389
636 -779 2392
642 -777 2387
649 -777 2385
656 -777 2381
664 -778 2383
670 -776 2375
678 -778 2378
687 -779 2381
693 -777 2373
697 -774 2362
707 -777 2367
715 -778 2369
720 -776 2360
727 -775 2357
737 -778 2362
742 -776 2354
750 -776 2353
756 -776 2349
765 -777 2351
769 -773 2337
777 -774 2338
787 -777 2344
792 -775 2335
799 -775 2334
806 -774 2329
814 -775 2330
821 -775 2325
825 -772 2315
836 -775 2322
844 -776 2323
849 -774 2313
856 -774 2311
864 -775 2311
872 -775 2310
881 -777 2312
888 -776 2308
892 -774 2299
900 -775 2298
910 -777 2301
914 -774 2291
921 -774 2287
929 -774 2286
936 -774 2283
940 -772 2272
951 -775 2279
954 -772 2266
966 -775 2273
974 -776 2274
980 -775 2267
984 -772 2256
994 -775 2262
998 -772 2251
1005 -772 2248
1034 -789 2293
1043 -790 2294
1026 -771 2236
1036 -773 2238
1045 -775 2239
1051 -774 2235
1060 -776 2235
1065 -774 2228
1071 -773 2221
1049 -752 2158
976 -695 1990
905 -640 1830
883 -620 1770
902 -629 1795
902 -625 1780
906 -624 1773
920 -629 1787
914 -621 1761
919 -621 1757
932 -626 1768
938 -626 1766
946 -627 1766
955 -630 1770
953 -624 1752
963 -627 1757
973 -630 1762
976 -628 1754
973 -622 1734
991 -630 1753
988 -625 1735
1002 -629 1745
1000 -624 1728
1000 -621 1716
1018 -628 1733
-2037 -1182 3352
-2013 -1175 3337
-1988 -1168 3322
-1958 -1156 3295
-1943 -1154 3294
-1915 -1144 3271
-1894 -1138 3260
-1882 -1137 3263
-1874 -1139 3275
-1850 -1132 3258
-1829 -1125 3245
-1819 -1126 3253
-1796 -1119 3236
-1781 -1116 3233
-1776 -1120 3249
-1749 -1110 3224
-1728 -1103 3211
-1717 -1103 3215
-1701 -1099 3209
-1679 -1092 3194
-1666 -1091 3193
-1655 -1090 3196
-1640 -1087 3193
-1622 -1083 3184
-1607 -1080 3179
-1592 -1077 3175
-1578 -1074 3172
-1563 -1071 3167
-1548 -1068 3162
-1530 -1062 3150
-1514 -1059 3143
-1498 -1054 3134
-1483 -1051 3129
-1470 -1049 3127
-1454 -1045 3119
-1438 -1041 3111
-1426 -1040 3111
-1411 -1036 3103
-1397 -1033 3099
-1389 -1035 3108
-1373 -1030 3098
-1359 -1027 3091
-1344 -1023 3083
-1328 -1019 3073
-1314 -1016 3068
-1301 -1013 3064
-1292 -1014 3069
-1275 -1008 3056
-1261 -1005 3048
-1250 -1004 3049
-1236 -1000 3041
-1220 -995 3028
-1213 -997 3038
-1199 -994 3031
-1186 -991 3025
-1175 -990 3026
-1164 -989 3024
-1152 -987 3022
-1139 -984 3016
-1128 -982 3014
-1113 -977 3002
-1101 -975 2997
-1092 -976 3003
-1073 -967 2979
-1061 -965 2975
-1035 -949 2928
-974 -901 2783
-861 -804 2486
-824 -777 2402
-971 -924 2859
-998 -958 2969
-986 -955 2962
-972 -951 2951
-962 -950 2950
-951 -948 2946
-941 -947 2947
-932 -947 2949
-917 -942 2935
-909 -942 2938
-898 -941 2936
-887 -938 2930
-875 -935 2922
-866 -936 2927
-853 -931 2914
-842 -929 2909
-832 -928 2908
-822 -927 2906
-807 -920 2887
-799 -921 2891
-792 -923 2901
-779 -919 2888
-767 -915 2879
-759 -916 2882
-748 -913 2876
-737 -911 2870
-730 -912 2877
-716 -906 2860
-708 -907 2863
-698 -905 2858
-687 -903 2853
-678 -902 2852
-668 -900 2846
-659 -900 2848
-647 -896 2837
-639 -896 2837
-632 -899 2848
-618 -891 2826
-610 -892 2829
-600 -890 2825
-592 -890 2827
-583 -889 2825
-571 -885 2813
-562 -883 2809
-555 -886 2819
-544 -882 2808
-536 -882 2809
-525 -879 2799
-517 -880 2805
-507 -878 2797
-497 -874 2787
-489 -875 2791
-480 -874 2787
-471 -873 2786
-460 -868 2772
-453 -870 2778
-443 -868 2774
-434 -866 2769
-425 -865 2764
-418 -867 2773
-407 -862 2757
-399 -862 2756
-390 -861 2754
-382 -861 2756
-373 -860 2754
-364 -859 2752
-355 -855 2740
-346 -855 2740
-337 -854 2736
-329 -854 2738
-319 -849 2724
-312 -851 2729
-303 -851 2728
-295 -849 2724
-287 -849 2724
-278 -847 2717
-269 -845 2712
-261 -845 2712
-252 -844 2709
-244 -843 2708
-235 -841 2700
-227 -841 2701
-220 -843 2708
-210 -837 2689
-203 -840 2698
-195 -838 2694
-185 -834 2679
-178 -835 2685
-170 -837 2689
-162 -834 2682
-153 -832 2675
-145 -833 2677
-137 -830 2668
-129 -830 2668
-121 -828 2661
-113 -829 2665
-105 -828 2661
-97 -827 2659
-89 -824 2649
-81 -826 2654
-73 -822 2643
-65 -821 2641
-57 -822 2643
-49 -822 2642
-41 -818 2631
-33 -818 2630
-25 -817 2626
-17 -818 2629
-10 -818 2628
-2 -818 2630
5 -813 2611
13 -817 2626
21 -814 2615
28 -812 2608
36 -815 2618
44 -813 2611
52 -811 2605
59 -813 2612
67 -812 2608
75 -812 2606
82 -810 2599
90 -810 2601
97 -806 2588
105 -807 2589
113 -805 2583
120 -805 2583
128 -804 2577
135 -802 2572
143 -802 2570
150 -802 2569
158 -802 2570
165 -800 2562
173 -798 2557
181 -801 2564
188 -797 2551
195 -798 2554
202 -795 2543
210 -797 2549
218 -797 2547
225 -794 2539
232 -793 2535
239 -792 2531
247 -791 2527
254 -791 2525
262 -791 2525
269 -790 2521
277 -793 2529
284 -790 2518
291 -788 2513
300 -792 2524
306 -789 2513
313 -787 2507
321 -789 2512
326 -782 2489
336 -789 2511
342 -785 2496
349 -784 2492
356 -785 2492
363 -782 2482
373 -787 2498
379 -786 2492
386 -784 2485
393 -783 2481
399 -781 2473
408 -783 2480
413 -778 2464
422 -781 2471
429 -782 2472
435 -779 2462
442 -777 2455
451 -780 2462
458 -780 2462
464 -778 2454
471 -777 2450
479 -779 2452
486 -777 2447
492 -776 2441
501 -777 2445
506 -774 2433
514 -775 2433
522 -777 2437
531 -778 2441
536 -775 2430
543 -774 2426
550 -774 2424
558 -775 2424
565 -775 2424
570 -771 2410
578 -773 2412
585 -772 2410
590 -769 2397
599 -771 2402
607 -772 2403
614 -771 2399
621 -771 2397
627 -769 2390
637 -773 2399
642 -770 2389
650 -771 2390
655 -768 2379
664 -770 2383
670 -769 2379
679 -771 2381
684 -769 2373
691 -768 2369
698 -768 2366
706 -768 2366
713 -768 2363
721 -769 2364
727 -768 2359
733 -767 2353
742 -768 2355
747 -766 2347
754 -765 2343
759 -763 2334
771 -769 2348
778 -768 2343
788 -771 2350
791 -767 2336
798 -766 2332
806 -768 2333
811 -765 2322
821 -768 2329
828 -768 2326
835 -767 2321
841 -766 2315
851 -769 2322
855 -766 2311
864 -767 2312
869 -765 2304
878 -767 2306
887 -768 2307
891 -766 2298
898 -766 2294
906 -766 2294
914 -766 2291
921 -766 2288
927 -766 2283
936 -767 2284
942 -766 2279
949 -766 2276
959 -768 2280
963 -766 2270
971 -766 2268
978 -766 2266
984 -765 2259
991 -765 2255
1002 -768 2261
1005 -765 2248
1017 -768 2256
1023 -768 2252
1015 -756 2214
1032 -763 2232
1044 -767 2239
1052 -767 2238
1058 -767 2233
1067 -768 2232
1070 -765 2222
1057 -751 2177
984 -694 2008
908 -636 1838
893 -621 1793
905 -625 1802
898 -616 1773
903 -616 1769
919 -623 1787
924 -622 1782
925 -619 1770
936 -622 1777
933 -616 1757
947 -622 1769
952 -621 1765
954 -619 1755
958 -618 1749
966 -619 1750
978 -623 1759
978 -619 1744
992 -625 1757
988 -618 1736
990 -616 1726
1003 -621 1736
1001 -616 1718
1008 -617 1719
-2035 -1170 3354
-2005 -1159 3328
-1981 -1152 3314
-1960 -1146 3302
-1937 -1139 3287
-1913 -1132 3272
-1885 -1122 3248
-1883 -1127 3269
-1861 -1121 3255
-1847 -1119 3256
-1833 -1117 3256
-1824 -1118 3264
-1798 -1109 3243
-1780 -1105 3235
-1760 -1099 3223
-1750 -1099 3229
-1726 -1091 3210
-1717 -1092 3218
-1694 -1084 3199
-1681 -1083 3200
-1672 -1084 3207
-1652 -1078 3194
-1639 -1076 3195
-1619 -1070 3180
-1602 -1066 3173
-1594 -1068 3182
-1579 -1065 3178
-1562 -1060 3168
-1541 -1053 3150
-1526 -1049 3145
-1513 -1048 3144
-1501 -1047 3145
-1480 -1039 3127
-1462 -1034 3114
-1448 -1031 3110
-1440 -1032 3117
-1423 -1027 3107
-1408 -1024 3101
-1396 -1022 3099
-1379 -1017 3087
-1366 -1015 3085
-1350 -1010 3074
-1342 -1012 3082
-1331 -1011 3084
-1309 -1002 3060
-1303 -1005 3072
-1290 -1002 3068
-1273 -996 3052
-1260 -995 3050
-1252 -996 3057
-1235 -990 3042
-1220 -986 3033
-1215 -989 3046
-1200 -985 3036
-1187 -982 3032
-1173 -978 3022
-1160 -975 3016
-1148 -973 3013
-1140 -975 3020
-1127 -972 3014
-1114 -969 3008
-1105 -970 3013
-1088 -963 2994
-1075 -960 2988
-1062 -957 2980
-1052 -955 2979
-1000 -916 2860
-925 -855 2672
-819 -765 2390
-925 -871 2726
-988 -939 2941
-988 -948 2971
-973 -943 2957
-958 -937 2942
-951 -939 2951
-937 -934 2938
-929 -936 2944
-920 -935 2945
-910 -934 2945
-897 -931 2936
-882 -925 2918
-877 -928 2932
-862 -922 2915
-853 -923 2918
-841 -919 2909
-833 -921 2915
-823 -919 2911
-810 -915 2900
-797 -910 2888
-790 -912 2895
-777 -908 2883
-766 -904 2875
-760 -908 2889
-747 -903 2874
-738 -903 2876
-729 -903 2876
-719 -901 2873
-706 -896 2858
-698 -897 2864
-686 -892 2850
-677 -892 2851
-667 -890 2846
-659 -891 2851
-649 -890 2847
-639 -887 2840
-631 -888 2844
-618 -883 2829
-611 -884 2834
-601 -882 2829
-591 -881 2828
-581 -878 2818
-572 -877 2817
-563 -877 2819
-553 -874 2811
-545 -875 2814
-534 -871 2802
-525 -871 2802
-517 -871 2803
-506 -867 2793
-497 -865 2787
-489 -866 2792
-479 -865 2788
-470 -862 2781
-460 -861 2776
-451 -859 2772
-443 -859 2772
-435 -859 2775
-426 -858 2771
-415 -854 2758
-406 -852 2755
-399 -855 2763
-388 -849 2746
-381 -851 2754
-372 -849 2746
-362 -846 2737
-356 -850 2751
-346 -846 2739
-337 -845 2738
-329 -846 2740
-321 -846 2740
-311 -842 2729
-303 -842 2729
-294 -840 2723
-286 -840 2722
-278 -839 2722
-269 -836 2712
-260 -834 2706
-254 -840 2724
-244 -836 2712
-235 -830 2693
-227 -832 2699
-219 -832 2699
-211 -830 2695
-203 -831 2698
-194 -828 2688
-186 -827 2685
-178 -826 2683
-170 -828 2689
-161 -823 2672
-153 -823 2674
-145 -823 2673
-137 -824 2675
-129 -821 2667
-121 -819 2662
-113 -819 2660
-105 -819 2660
-96 -816 2651
-89 -818 2657
-81 -818 2657
-72 -812 2639
-65 -815 2648
-57 -814 2643
-49 -813 2642
-41 -813 2640
-33 -813 2640
-25 -813 2642
-17 -809 2627
-10 -812 2638
-2 -813 2641
5 -810 2629
13 -809 2626
21 -808 2623
28 -807 2619
36 -806 2615
44 -804 2610
52 -805 2611
59 -803 2605
67 -800 2596
74 -800 2594
82 -800 2595
90 -799 2592
98 -799 2592
105 -799 2592
113 -797 2583
120 -795 2576
128 -798 2586
135 -794 2571
143 -795 2575
150 -791 2561
158 -793 2568
165 -789 2554
173 -792 2562
181 -793 2565
188 -792 2563
196 -793 2565
203 -790 2552
210 -788 2547
217 -787 2541
225 -786 2540
232 -787 2541
239 -785 2534
246 -781 2521
255 -785 2533
261 -783 2526
269 -783 2525
276 -782 2519
284 -784 2525
291 -783 2521
298 -782 2516
306 -783 2519
313 -780 2510
321 -782 2515
328 -781 2511
335 -779 2503
341 -776 2492
348 -776 2491
357 -779 2500
364 -778 2496
370 -774 2483
379 -778 2493
385 -775 2484
392 -775 2481
400 -775 2481
407 -773 2474
414 -773 2471
421 -772 2467
428 -772 2467
436 -772 2465
443 -772 2463
449 -770 2458
459 -773 2465
462 -767 2444
472 -772 2457
480 -772 2456
487 -771 2453
492 -768 2441
499 -767 2436
506 -767 2436
513 -767 2433
521 -768 2435
528 -767 2431
536 -767 2429
541 -764 2419
549 -765 2422
556 -765 2417
564 -765 2417
571 -766 2417
578 -764 2412
583 -762 2403
591 -763 2403
599 -764 2405
606 -763 2400
613 -763 2398
619 -762 2394
626 -761 2390
634 -761 2388
643 -764 2394
649 -763 2390
655 -761 2382
661 -760 2377
669 -760 2376
677 -761 2377
682 -758 2365
691 -761 2372
697 -760 2366
704 -759 2362
714 -762 2369
717 -758 2354
726 -759 2356
733 -759 2355
739 -758 2348
750 -762 2357
756 -760 2350
762 -759 2346
771 -761 2350
776 -759 2340
783 -758 2336
793 -761 2343
797 -758 2331
803 -757 2326
811 -758 2325
819 -759 2325
827 -759 2325
834 -759 2320
841 -759 2318
845 -756 2308
855 -759 2313
865 -761 2316
869 -758 2305
876 -758 2302
884 -759 2303
891 -758 2300
898 -758 2297
906 -759 2295
912 -757 2289
921 -759 2290
927 -758 2285
935 -759 2286
942 -759 2281
948 -758 2276
956 -759 2276
965 -760 2276
971 -759 2271
974 -756 2259
983 -757 2260
986 -754 2246
999 -758 2257
1004 -757 2249
1013 -758 2249
1005 -747 2214
1010 -745 2206
1034 -757 2239
1044 -760 2242
1051 -760 2239
1057 -758 2232
1061 -757 2224
1073 -760 2231
1062 -747 2188
993 -694 2029
913 -633 1851
892 -615 1793
905 -620 1805
912 -620 1804
907 -613 1780
908 -609 1767
921 -614 1778
915 -606 1753
934 -615 1775
938 -614 1770
943 -614 1765
947 -612 1758
955 -614 1759
954 -610 1744
963 -611 1746
980 -619 1765
983 -617 1756
971 -606 1722
990 -614 1742
989 -610 1727
1002 -614 1736
1005 -613 1728
1017 -616 1736
-2028 -1155 3345
-1989 -1139 3305
-1980 -1140 3314
-1953 -1131 3294
-1930 -1124 3280
-1918 -1124 3284
-1897 -1118 3273
-1884 -1117 3275
-1865 -1112 3266
-1850 -1110 3264
-1831 -1105 3256
-1812 -1100 3247
-1791 -1094 3234
-1775 -1091 3229
-1759 -1088 3226
-1742 -1084 3219
-1724 -1079 3209
-1706 -1075 3201
-1704 -1080 3223
-1681 -1072 3204
-1671 -1073 3210
-1652 -1067 3198
-1636 -1064 3192
-1624 -1063 3194
-1603 -1056 3179
-1587 -1053 3172
-1571 -1049 3165
-1557 -1046 3161
-1541 -1043 3155
-1531 -1043 3160
-1510 -1035 3141
-1492 -1030 3130
-1483 -1031 3136
-1465 -1026 3123
-1450 -1022 3118
-1440 -1022 3120
-1423 -1018 3111
-1412 -1016 3111
-1398 -1013 3106
-1383 -1010 3099
-1368 -1007 3092
-1354 -1003 3085
-1341 -1001 3083
-1321 -994 3064
-1311 -994 3067
-1298 -991 3063
-1287 -990 3062
-1275 -989 3061
-1260 -984 3051
-1250 -984 3055
-1235 -981 3046
-1221 -977 3038
-1210 -976 3038
-1199 -975 3038
-1184 -970 3026
-1175 -970 3030
-1159 -966 3018
-1147 -963 3013
-1137 -963 3015
-1123 -959 3006
-1109 -955 2996
-1098 -954 2995
-1087 -952 2994
-1073 -948 2983
-1062 -947 2982
-1050 -945 2977
-1027 -932 2939
-1003 -919 2901
-929 -859 2714
-848 -791 2501
-922 -868 2749
-961 -913 2892
-970 -931 2951
-960 -930 2951
-953 -932 2959
-935 -923 2934
-929 -927 2947
-915 -921 2931
-907 -922 2938
-896 -921 2935
-884 -918 2928
-871 -913 2915
-864 -916 2925
-851 -911 2912
-843 -913 2919
-833 -911 2915
-818 -904 2896
-808 -904 2897
-800 -905 2901
-791 -904 2902
-778 -900 2890
-768 -898 2886
-757 -896 2880
-746 -893 2874
-736 -892 2871
-728 -892 2873
-720 -893 2879
-709 -891 2872
-697 -887 2861
-689 -888 2864
-679 -885 2859
-667 -882 2848
-659 -883 2854
-647 -878 2839
-640 -880 2846
-627 -875 2831
-617 -872 2823
-610 -875 2834
-599 -871 2823
-588 -868 2814
-581 -870 2823
-572 -869 2822
-564 -870 2827
-552 -865 2810
-543 -865 2810
-533 -862 2803
-525 -862 2803
-516 -861 2801
-506 -859 2796
-496 -856 2788
-489 -858 2793
-478 -854 2784
-468 -851 2774
-461 -854 2785
-452 -852 2778
-442 -849 2768
-434 -850 2774
-424 -847 2764
-416 -846 2764
-409 -851 2778
-398 -844 2759
-389 -842 2752
-380 -841 2749
-372 -842 2751
-363 -840 2746
-355 -840 2749
-345 -837 2738
-337 -838 2741
-329 -837 2740
-320 -836 2736
-311 -833 2727
-303 -833 2728
-295 -832 2726
-286 -832 2726
-277 -829 2717
-269 -829 2717
-260 -826 2708
-252 -825 2706
-243 -822 2696
-235 -823 2700
-227 -823 2698
-218 -821 2692
-210 -821 2693
-202 -820 2689
-194 -819 2687
-186 -820 2689
-178 -822 2697
-169 -816 2677
-161 -815 2676
-153 -816 2679
-145 -817 2681
-137 -814 2673
-128 -812 2665
-121 -812 2664
-113 -812 2667
-105 -813 2668
-96 -809 2656
-89 -809 2656
-81 -809 2655
-73 -809 2656
-65 -808 2654
-57 -804 2639
-49 -804 2639
-41 -802 2632
-33 -804 2639
-25 -804 2639
-17 -800 2627
-9 -801 2628
-2 -800 2627
5 -800 2625
13 -800 2624
21 -797 2614
28 -796 2610
36 -796 2610
44 -796 2611
51 -792 2596
59 -796 2610
67 -792 2596
75 -795 2607
82 -792 2594
90 -791 2591
97 -790 2587
105 -790 2589
113 -792 2595
120 -788 2581
128 -789 2582
135 -787 2575
143 -787 2576
151 -786 2573
158 -786 2571
165 -784 2565
173 -785 2567
180 -781 2553
188 -782 2556
195 -779 2546
203 -780 2550
210 -779 2544
217 -778 2539
225 -780 2545
232 -777 2536
239 -777 2534
246 -775 2528
254 -775 2527
262 -777 2532
268 -772 2514
277 -778 2532
283 -773 2516
291 -774 2517
298 -773 2513
306 -773 2513
312 -770 2503
319 -770 2502
326 -767 2492
334 -769 2499
342 -771 2504
350 -771 2502
357 -770 2496
364 -769 2492
371 -768 2488
377 -766 2481
385 -767 2484
392 -766 2479
399 -765 2474
407 -765 2475
414 -766 2474
420 -764 2467
429 -766 2474
436 -765 2467
442 -763 2459
450 -763 2461
456 -761 2452
464 -762 2454
471 -762 2451
477 -760 2446
485 -761 2447
492 -761 2444
499 -760 2441
508 -761 2444
514 -759 2435
521 -760 2437
527 -758 2427
536 -760 2432
541 -756 2419
550 -759 2427
555 -756 2415
562 -756 2415
569 -755 2410
578 -758 2415
585 -757 2413
591 -755 2404
598 -755 2403
605 -755 2400
612 -755 2397
618 -753 2392
627 -755 2396
635 -756 2395
642 -756 2394
648 -754 2386
655 -754 2385
661 -752 2376
669 -752 2376
675 -751 2370
681 -751 2367
692 -754 2375
701 -756 2380
705 -753 2368
714 -754 2369
719 -752 2362
726 -751 2357
736 -754 2364
740 -751 2352
749 -753 2356
755 -752 2349
757 -747 2333
769 -752 2345
778 -754 2348
781 -750 2334
790 -751 2336
793 -747 2321
805 -751 2332
810 -749 2323
820 -752 2329
824 -749 2318
834 -752 2324
841 -751 2319
846 -750 2313
852 -748 2306
860 -749 2306
871 -752 2312
877 -751 2308
881 -749 2297
891 -751 2300
896 -749 2293
905 -751 2295
910 -749 2287
918 -750 2286
927 -751 2288
932 -749 2280
941 -750 2280
952 -754 2288
957 -752 2279
962 -750 2270
968 -749 2266
973 -748 2258
985 -751 2265
988 -748 2253
999 -751 2259
1004 -749 2250
1020 -756 2268
1019 -750 2246
1044 -763 2282
1026 -745 2224
1040 -750 2236
1050 -751 2238
1054 -749 2229
1064 -751 2231
1071 -751 2227
1065 -742 2197
1003 -694 2053
920 -632 1867
894 -610 1798
893 -605 1781
900 -606 1782
905 -606 1777
919 -611 1791
921 -608 1780
929 -610 1782
928 -605 1765
936 -607 1767
940 -606 1761
941 -603 1749
960 -611 1771
964 -610 1764
961 -604 1745
971 -607 1749
979 -608 1751
984 -608 1745
985 -605 1734
989 -604 1728
998 -606 1731
1006 -607 1732
1010 -606 1724
-2032 -1146 3356
-1995 -1131 3319
-1971 -1124 3304
-1953 -1120 3298
-1935 -1116 3291
-1916 -1112 3285
-1894 -1105 3270
-1881 -1104 3272
-1862 -1099 3265
-1844 -1095 3258
-1826 -1091 3251
-1810 -1088 3247
-1797 -1087 3247
-1773 -1079 3229
-1759 -1077 3228
-1742 -1073 3221
-1725 -1069 3215
-1710 -1067 3213
-1694 -1064 3208
-1679 -1060 3203
-1664 -1058 3200
-1649 -1055 3196
-1627 -1048 3179
-1621 -1051 3192
-1601 -1044 3177
-1586 -1041 3173
-1567 -1036 3160
-1553 -1033 3157
-1539 -1031 3153
-1523 -1027 3147
-1510 -1025 3143
-1494 -1022 3137
-1479 -1018 3131
-1468 -1018 3133
-1445 -1009 3110
-1436 -1009 3115
-1423 -1007 3112
-1412 -1007 3115
-1394 -1001 3101
-1377 -996 3089
-1364 -994 3087
-1350 -991 3080
-1342 -993 3089
-1327 -988 3080
-1308 -981 3062
-1302 -984 3074
-1284 -979 3060
-1272 -977 3057
-1258 -974 3051
-1248 -973 3052
-1238 -973 3056
-1222 -968 3042
-1209 -965 3036
-1194 -961 3027
-1184 -960 3028
-1173 -960 3028
-1158 -955 3018
-1150 -956 3023
-1136 -953 3016
-1126 -952 3017
-1112 -948 3007
-1100 -946 3003
-1090 -946 3005
-1076 -942 2995
-1061 -936 2981
-1052 -937 2987
-1036 -931 2968
-1020 -925 2951
-989 -905 2890
-867 -801 2560
-822 -766 2452
-941 -886 2836
-964 -916 2935
-961 -921 2954
-948 -918 2945
-936 -915 2940
-927 -915 2942
-918 -915 2943
-905 -911 2933
-893 -909 2928
-881 -906 2921
-870 -904 2916
-860 -902 2914
-847 -898 2902
-841 -901 2913
-827 -896 2899
-819 -897 2904
-806 -893 2891
-799 -894 2898
-786 -890 2886
-776 -888 2882
-768 -890 2890
-758 -888 2886
-750 -889 2891
-735 -881 2867
-729 -885 2879
-716 -880 2867
-706 -878 2862
-696 -876 2857
-685 -874 2852
-675 -873 2848
-669 -875 2859
-659 -875 2857
-650 -873 2854
-638 -869 2842
-628 -867 2836
-618 -865 2832
-609 -865 2831
-599 -863 2827
-591 -863 2829
-579 -859 2816
-570 -858 2814
-560 -856 2809
-553 -858 2818
-544 -857 2815
-533 -853 2803
-525 -853 2805
-514 -849 2793
-505 -849 2794
-496 -847 2788
-489 -849 2795
-478 -845 2782
-469 -845 2783
-459 -841 2772
-451 -843 2779
-443 -843 2779
-433 -839 2767
-424 -838 2764
-415 -837 2761
-406 -835 2756
-397 -834 2755
-390 -836 2760
-381 -835 2760
-372 -834 2754
-363 -831 2747
-354 -829 2741
-346 -831 2747
-336 -827 2735
-329 -829 2742
-320 -827 2737
-311 -823 2725
-303 -825 2730
-293 -821 2717
-285 -821 2717
-277 -819 2713
-267 -816 2704
-260 -819 2713
-252 -820 2717
-243 -817 2707
-235 -817 2706
-227 -814 2699
-218 -813 2695
-210 -814 2699
-202 -814 2699
-194 -812 2693
-186 -812 2691
-177 -809 2685
-169 -810 2686
-161 -807 2678
-153 -805 2672
-145 -805 2672
-137 -806 2673
-128 -804 2666
-121 -806 2673
-112 -803 2664
-104 -802 2662
-96 -800 2653
-88 -799 2651
-80 -799 2652
-72 -796 2641
-64 -796 2642
-57 -799 2650
-49 -795 2639
-41 -794 2636
-33 -795 2638
-25 -793 2631
-17 -792 2627
-9 -793 2632
-2 -792 2627
5 -792 2627
13 -789 2617
21 -789 2616
28 -787 2610
36 -787 2608
44 -790 2618
52 -786 2604
59 -785 2600
67 -783 2595
75 -784 2596
82 -782 2590
90 -783 2594
98 -784 2595
105 -781 2587
112 -778 2575
120 -778 2574
128 -779 2578
135 -777 2571
142 -775 2563
151 -779 2575
158 -776 2566
165 -776 2565
172 -774 2557
180 -775 2560
187 -772 2550
195 -775 2558
203 -773 2551
210 -772 2548
216 -767 2532
225 -771 2542
232 -771 2541
240 -771 2541
246 -767 2528
254 -767 2528
260 -762 2510
269 -767 2525
277 -768 2527
283 -766 2520
290 -764 2513
298 -766 2519
305 -763 2507
313 -764 2510
320 -763 2506
327 -762 2501
334 -761 2499
342 -763 2504
348 -760 2493
356 -760 2490
363 -760 2488
371 -762 2494
378 -759 2486
385 -759 2482
392 -758 2478
399 -758 2477
407 -759 2480
414 -759 2478
420 -755 2464
427 -755 2462
434 -754 2459
442 -755 2461
449 -755 2460
456 -754 2454
463 -753 2451
469 -751 2442
478 -754 2452
482 -749 2434
491 -752 2441
499 -752 2441
504 -749 2429
513 -751 2432
521 -752 2437
527 -750 2429
533 -748 2420
541 -750 2425
549 -750 2423
556 -750 2420
561 -747 2412
572 -751 2422
578 -750 2416
584 -749 2411
592 -749 2409
596 -745 2394
606 -748 2405
612 -746 2397
621 -749 2402
626 -746 2392
633 -746 2392
644 -750 2402
648 -747 2389
655 -746 2385
660 -743 2374
668 -744 2375
674 -744 2371
683 -745 2373
690 -745 2371
696 -744 2366
704 -745 2367
710 -743 2360
718 -743 2358
725 -743 2356
734 -745 2360
740 -744 2354
747 -744 2353
752 -742 2342
759 -742 2341
769 -744 2346
773 -741 2334
782 -743 2338
791 -745 2341
797 -743 2334
802 -742 2327
808 -740 2320
819 -743 2327
828 -745 2330
833 -743 2323
839 -742 2316
846 -742 2312
855 -744 2317
862 -743 2312
868 -742 2306
874 -741 2301
882 -742 2301
889 -742 2298
895 -741 2293
902 -740 2288
910 -742 2289
918 -742 2288
925 -742 2284
933 -743 2285
940 -743 2281
946 -741 2274
955 -743 2276
960 -741 2268
968 -742 2267
972 -740 2258
981 -741 2258
988 -741 2255
994 -740 2249
1003 -741 2250
991 -727 2204
1030 -751 2273
1021 -739 2234
1025 -737 2224
1041 -743 2240
1049 -743 2238
1059 -745 2241
1061 -742 2226
1068 -742 2223
1068 -737 2205
1016 -696 2080
932 -634 1892
891 -602 1794
896 -601 1789
896 -598 1776
907 -601 1782
916 -603 1787
912 -596 1764
921 -599 1768
937 -605 1784
936 -601 1768
942 -601 1766
948 -601 1763
949 -598 1752
964 -604 1766
971 -604 1764
965 -597 1740
979 -602 1752
982 -601 1744
993 -604 1750
991 -599 1733
1004 -603 1743
996 -595 1715
1009 -600 1725
-2006 -1119 3316
-1998 -1121 3327
-1980 -1117 3321
-1952 -1108 3299
-1931 -1102 3288
-1914 -1099 3285
-1895 -1095 3276
-1871 -1087 3259
-1864 -1090 3271
-1842 -1083 3257
-1818 -1075 3239
-1809 -1077 3248
-1790 -1072 3238
-1782 -1073 3248
-1761 -1067 3236
-1744 -1064 3229
-1732 -1063 3231
-1704 -1053 3205
-1698 -1055 3218
-1677 -1049 3203
-1663 -1047 3201
-1649 -1044 3198
-1633 -1041 3192
-1620 -1039 3192
-1599 -1033 3176
-1589 -1033 3181
-1565 -1024 3159
-1555 -1024 3164
-1539 -1021 3156
-1523 -1017 3149
-1507 -1013 3141
-1492 -1010 3135
-1474 -1004 3123
-1464 -1004 3127
-1450 -1002 3123
-1437 -1000 3121
-1422 -996 3113
-1405 -992 3102
-1391 -989 3097
-1383 -990 3105
-1362 -982 3084
-1349 -980 3082
-1339 -980 3084
-1325 -977 3079
-1312 -975 3076
-1296 -970 3064
-1283 -968 3059
-1271 -966 3057
-1261 -966 3060
-1244 -960 3045
-1233 -959 3045
-1219 -956 3038
-1205 -952 3030
-1195 -953 3033
-1182 -949 3026
-1169 -947 3020
-1158 -946 3021
-1147 -944 3018
-1135 -943 3017
-1123 -940 3012
-1107 -935 2997
-1101 -937 3008
-1084 -932 2992
-1077 -933 3000
-1063 -929 2991
-1049 -925 2980
-1038 -923 2976
-1020 -916 2955
-1005 -911 2942
-937 -857 2770
-872 -805 2603
-875 -815 2638
-926 -871 2821
-953 -905 2935
-946 -907 2944
-937 -907 2946
-927 -906 2946
-914 -902 2934
-905 -903 2938
-894 -901 2934
-879 -895 2917
-870 -895 2917
-861 -894 2919
-850 -892 2913
-839 -891 2910
-826 -886 2897
-816 -884 2893
-808 -886 2901
-799 -885 2901
-787 -882 2891
-776 -880 2886
-765 -877 2880
-756 -877 2880
-744 -873 2870
-733 -871 2865
-728 -876 2881
-716 -872 2870
-706 -870 2866
-694 -865 2852
-688 -869 2865
-675 -864 2850
-668 -866 2857
-654 -858 2835
-647 -861 2843
-635 -857 2832
-630 -861 2848
-617 -855 2830
-610 -857 2837
-599 -855 2830
-590 -854 2829
-579 -851 2819
-571 -850 2820
-559 -845 2803
-550 -845 2806
-543 -847 2811
-532 -844 2802
-524 -844 2804
-514 -841 2796
-504 -838 2787
-496 -840 2793
-487 -839 2791
-477 -835 2780
-469 -836 2782
-460 -835 2780
-452 -836 2785
-441 -830 2766
-432 -830 2768
-423 -828 2762
-415 -828 2761
-406 -828 2762
-399 -829 2767
-388 -824 2751
-380 -824 2751
-371 -822 2746
-361 -819 2736
-354 -822 2747
-343 -816 2728
-337 -821 2743
-328 -818 2734
-319 -816 2729
-309 -813 2718
-302 -814 2724
-294 -815 2726
-285 -812 2716
-276 -811 2713
-269 -812 2720
-261 -812 2718
-252 -809 2709
-243 -807 2704
-235 -808 2708
-227 -808 2708
-218 -806 2700
-210 -804 2695
-202 -805 2698
-194 -805 2698
-185 -801 2686
-177 -801 2683
-169 -800 2681
-161 -800 2683
-153 -799 2679
-144 -795 2667
-137 -799 2678
-129 -797 2674
-120 -793 2660
-112 -795 2666
-104 -795 2664
-96 -793 2660
-88 -792 2655
-80 -788 2644
-73 -792 2655
-64 -789 2647
-56 -787 2639
-49 -788 2641
-41 -788 2640
-33 -785 2632
-25 -787 2639
-17 -783 2624
-9 -782 2623
-2 -785 2631
5 -782 2622
13 -782 2620
21 -781 2615
28 -779 2611
36 -778 2607
44 -779 2610
52 -779 2610
59 -779 2609
67 -775 2595
74 -774 2592
82 -773 2589
90 -773 2589
97 -773 2587
105 -772 2584
113 -772 2582
120 -770 2575
127 -768 2568
135 -771 2578
143 -769 2570
150 -770 2573
157 -767 2562
165 -767 2562
173 -768 2564
180 -768 2564
188 -766 2558
195 -763 2547
202 -762 2542
210 -763 2544
217 -763 2543
224 -762 2539
232 -762 2539
239 -759 2530
246 -759 2529
253 -758 2524
261 -759 2525
269 -760 2527
276 -759 2523
282 -756 2512
290 -756 2514
297 -756 2512
305 -756 2512
312 -754 2503
318 -751 2493
327 -754 2502
335 -756 2508
341 -753 2495
349 -755 2501
356 -754 2496
362 -751 2486
370 -751 2487
377 -751 2484
384 -749 2478
392 -750 2481
398 -749 2473
405 -747 2468
413 -748 2470
421 -749 2471
427 -748 2467
436 -750 2470
442 -747 2462
449 -747 2460
456 -746 2455
463 -746 2452
470 -745 2449
477 -744 2446
485 -746 2449
491 -744 2443
497 -741 2431
504 -742 2432
512 -742 2431
521 -744 2436
527 -743 2431
534 -742 2427
539 -740 2417
547 -741 2419
555 -741 2419
562 -740 2414
569 -740 2413
578 -743 2419
583 -739 2406
593 -743 2416
596 -738 2398
604 -739 2399
613 -741 2404
619 -740 2399
625 -738 2392
633 -738 2390
639 -737 2385
648 -739 2388
655 -739 2387
661 -737 2379
668 -738 2379
677 -739 2382
682 -737 2374
689 -736 2369
694 -734 2361
702 -735 2362
709 -735 2358
717 -736 2360
725 -736 2358
730 -734 2349
737 -734 2346
744 -733 2343
753 -735 2346
756 -731 2331
767 -735 2342
770 -731 2328
781 -734 2335
790 -736 2339
797 -736 2335
801 -733 2325
807 -732 2318
816 -734 2322
824 -734 2322
834 -737 2327
838 -734 2316
844 -733 2311
852 -734 2311
860 -734 2308
867 -734 2306
875 -735 2306
881 -734 2300
888 -734 2298
896 -734 2296
901 -733 2289
906 -731 2281
918 -735 2290
923 -733 2281
931 -734 2281
939 -734 2279
946 -734 2277
956 -736 2279
961 -735 2274
968 -734 2269
973 -733 2262
983 -735 2265
981 -728 2240
995 -734 2254
1002 -733 2251
1010 -734 2249
988 -713 2181
1029 -738 2254
1013 -721 2199
1041 -735 2241
1047 -735 2237
1058 -737 2240
1060 -734 2226
1067 -734 2224
1073 -733 2218
1020 -692 2091
934 -629 1898
891 -596 1796
899 -597 1796
905 -598 1795
911 -598 1792
910 -593 1776
918 -594 1777
923 -594 1773
933 -597 1779
934 -594 1767
936 -591 1756
949 -596 1767
950 -593 1754
953 -591 1746
971 -599 1766
967 -593 1746
981 -597 1756
975 -591 1734
986 -594 1739
989 -592 1731
995 -592 1729
1001 -592 1726
1003 -590 1717
-2013 -1112 3332
-1995 -1108 3325
-1968 -1100 3306
-1945 -1093 3291
-1924 -1088 3280
-1907 -1084 3276
-1886 -1079 3265
-1871 -1076 3262
-1855 -1073 3259
-1841 -1072 3259
-1824 -1068 3253
-1814 -1069 3260
-1789 -1061 3240
-1777 -1060 3243
-1759 -1055 3234
-1743 -1052 3231
-1731 -1052 3234
-1712 -1047 3223
-1687 -1038 3200
-1678 -1039 3207
-1657 -1032 3192
-1649 -1034 3202
-1629 -1028 3189
-1616 -1026 3188
-1595 -1020 3171
-1585 -1020 3177
-1563 -1013 3158
-1558 -1016 3172
-1541 -1012 3164
-1524 -1007 3154
-1504 -1001 3139
-1490 -998 3134
-1477 -996 3132
-1463 -994 3128
-1445 -989 3116
-1429 -984 3106
-1417 -983 3106
-1407 -983 3109
-1388 -977 3095
-1378 -977 3097
-1363 -973 3089
-1350 -971 3087
-1333 -966 3073
-1323 -966 3077
-1311 -964 3075
-1294 -959 3061
-1283 -958 3062
-1273 -958 3065
-1256 -953 3052
-1248 -954 3058
-1232 -949 3045
-1216 -944 3033
-1207 -944 3038
-1193 -941 3030
-1181 -939 3027
-1169 -937 3023
-1151 -931 3006
-1141 -930 3007
-1130 -929 3006
-1123 -931 3016
-1107 -926 3001
-1096 -924 2999
-1086 -923 2998
-1070 -918 2983
-1059 -916 2981
-1041 -909 2960
-1038 -914 2980
-1024 -911 2970
-1006 -903 2947
-991 -897 2931
-913 -834 2728
-832 -768 2513
-871 -811 2658
-908 -853 2797
-933 -885 2903
-937 -898 2947
-924 -894 2938
-913 -892 2933
-903 -892 2934
-890 -887 2921
-881 -887 2923
-870 -885 2918
-858 -883 2913
-849 -882 2912
-836 -878 2901
-826 -878 2901
-816 -876 2898
-808 -877 2902
-797 -875 2899
-785 -871 2888
-776 -871 2888
-766 -870 2888
-755 -867 2880
-744 -864 2872
-735 -864 2872
-723 -861 2862
-714 -860 2861
-704 -859 2860
-695 -858 2859
-684 -855 2851
-675 -855 2850
-666 -854 2850
-657 -854 2850
-644 -848 2832
-636 -849 2836
-628 -850 2840
-618 -848 2836
-608 -846 2830
-600 -847 2834
-588 -842 2819
-578 -841 2816
-570 -841 2818
-561 -841 2819
-550 -837 2808
-541 -836 2804
-531 -834 2800
-524 -836 2808
-516 -837 2811
-504 -830 2789
-496 -832 2796
-488 -831 2795
-478 -829 2791
-468 -826 2782
-460 -827 2783
-450 -824 2776
-442 -824 2776
-432 -822 2769
-422 -819 2759
-414 -818 2760
-407 -821 2768
-396 -816 2752
-387 -815 2750
-379 -815 2752
-370 -813 2745
-362 -814 2747
-355 -815 2752
-345 -811 2741
-337 -812 2743
-328 -810 2738
-319 -808 2730
-310 -805 2723
-302 -805 2723
-294 -806 2726
-286 -807 2731
-277 -805 2723
-268 -803 2716
-259 -798 2702
-251 -800 2708
-243 -799 2705
-235 -798 2704
-226 -797 2698
-218 -797 2699
-210 -797 2698
-201 -793 2687
-193 -791 2681
-185 -794 2690
-177 -794 2689
-169 -791 2679
-161 -794 2691
-152 -788 2669
-144 -788 2671
-137 -790 2676
-128 -787 2668
-120 -789 2673
-112 -788 2670
-104 -787 2669
-96 -783 2655
-88 -784 2659
-80 -781 2648
-72 -781 2647
-64 -780 2645
-56 -780 2644
-49 -780 2644
-41 -781 2646
-33 -777 2634
-25 -777 2634
-17 -777 2633
-9 -776 2630
-2 -775 2625
5 -773 2620
13 -774 2622
21 -772 2615
28 -770 2609
36 -772 2613
44 -771 2612
52 -770 2608
59 -768 2599
67 -770 2606
75 -769 2602
82 -767 2594
90 -764 2584
97 -763 2580
105 -766 2589
112 -763 2580
120 -763 2579
127 -760 2569
135 -763 2577
143 -761 2570
150 -757 2559
158 -760 2567
165 -759 2563
173 -759 2562
180 -757 2556
188 -759 2561
195 -756 2549
202 -755 2546
210 -757 2552
217 -755 2545
224 -754 2540
231 -752 2534
239 -753 2535
247 -753 2534
254 -752 2530
261 -752 2530
268 -750 2524
276 -750 2521
282 -747 2512
290 -749 2516
298 -749 2517
304 -747 2507
312 -746 2505
319 -747 2507
326 -745 2498
334 -745 2499
340 -744 2492
348 -745 2495
355 -743 2487
361 -740 2478
370 -744 2489
377 -742 2482
384 -743 2483
391 -742 2478
399 -743 2482
406 -741 2475
412 -739 2464
419 -739 2465
427 -740 2465
435 -741 2469
442 -741 2467
448 -738 2456
454 -737 2450
460 -733 2436
471 -739 2456
476 -736 2443
485 -738 2449
488 -732 2426
499 -737 2443
505 -735 2435
512 -735 2435
518 -734 2427
526 -733 2425
533 -734 2426
540 -733 2420
548 -734 2423
554 -733 2418
561 -732 2413
569 -732 2413
573 -729 2401
583 -732 2407
590 -732 2406
597 -731 2402
603 -730 2398
611 -731 2398
618 -731 2396
626 -732 2397
633 -731 2393
638 -729 2385
645 -728 2379
653 -730 2383
659 -727 2373
667 -729 2377
672 -726 2366
681 -729 2372
688 -728 2369
697 -730 2371
703 -729 2366
709 -727 2359
717 -728 2361
724 -728 2358
728 -725 2346
738 -727 2351
745 -728 2350
750 -725 2339
757 -725 2336
767 -727 2342
771 -725 2333
781 -727 2337
788 -727 2335
794 -726 2329
805 -730 2339
809 -727 2327
815 -726 2322
824 -727 2323
829 -726 2316
837 -726 2314
842 -724 2307
851 -726 2309
857 -725 2303
865 -725 2303
874 -727 2306
880 -726 2299
886 -725 2294
897 -728 2300
902 -726 2291
908 -725 2288
920 -729 2296
925 -727 2288
933 -728 2287
937 -726 2277
944 -725 2274
952 -726 2273
959 -726 2269
968 -727 2272
974 -727 2266
981 -726 2262
986 -725 2254
994 -726 2254
1000 -724 2247
1026 -738 2287
1012 -723 2236
1014 -719 2221
1038 -731 2255
1037 -726 2236
1049 -728 2241
1053 -727 2232
1064 -729 2236
1065 -725 2221
1067 -722 2207
1029 -691 2111
947 -632 1927
896 -593 1807
901 -593 1803
901 -589 1788
911 -592 1794
909 -587 1775
922 -592 1788
916 -584 1761
934 -591 1782
936 -589 1772
942 -589 1770
946 -588 1763
945 -584 1747
957 -588 1756
961 -587 1750
970 -588 1752
977 -589 1752
980 -588 1744
982 -585 1733
992 -588 1738
998 -588 1736
1000 -586 1727
1011 -589 1731
-2011 -1100 3331
-1985 -1092 3312
-1962 -1085 3299
-1946 -1082 3296
-1924 -1077 3284
-1908 -1074 3280
-1888 -1069 3272
-1868 -1064 3261
-1863 -1067 3276
-1840 -1060 3261
-1824 -1057 3257
-1805 -1053 3248
-1791 -1051 3247
-1775 -1048 3243
-1760 -1045 3240
-1732 -1035 3214
-1723 -1036 3221
-1707 -1033 3216
-1692 -1030 3212
-1676 -1027 3207
-1656 -1021 3194
-1640 -1018 3187
-1628 -1017 3189
-1612 -1013 3183
-1592 -1007 3168
-1581 -1007 3172
-1563 -1002 3161
-1551 -1001 3162
-1531 -995 3147
-1517 -992 3142
-1503 -990 3139
-1488 -987 3134
-1472 -983 3125
-1463 -984 3132
-1442 -977 3112
-1427 -973 3105
-1417 -974 3110
-1402 -970 3103
-1387 -966 3095
-1372 -962 3086
-1360 -961 3085
-1345 -958 3079
-1333 -956 3076
-1318 -952 3067
-1305 -951 3065
-1290 -947 3056
-1283 -949 3066
-1267 -944 3054
-1258 -945 3059
-1242 -939 3046
-1229 -937 3043
-1217 -935 3038
-1198 -928 3018
-1194 -933 3036
-1180 -929 3027
-1166 -926 3019
-1152 -922 3010
-1141 -921 3008
-1131 -921 3011
-1115 -915 2995
-1109 -917 3007
-1092 -911 2990
-1083 -911 2993
-1069 -908 2984
-1060 -908 2986
-1046 -904 2976
-1039 -906 2985
-1024 -901 2973
-1009 -896 2958
-996 -893 2949
-970 -878 2901
-851 -777 2572
-782 -721 2387
-811 -755 2501
-877 -824 2734
-923 -875 2905
-922 -884 2936
-909 -879 2923
-903 -883 2936
-890 -879 2925
-881 -879 2928
-870 -877 2923
-857 -873 2911
-848 -872 2911
-839 -872 2914
-825 -867 2899
-816 -867 2899
-807 -867 2901
-794 -863 2889
-783 -861 2884
-776 -863 2892
-763 -858 2877
-751 -854 2867
-740 -852 2861
-734 -854 2872
-725 -855 2874
-713 -850 2861
-703 -849 2857
-695 -850 2862
-686 -849 2861
-674 -846 2851
-667 -847 2856
-655 -843 2847
-646 -842 2844
-632 -836 2823
-629 -843 2848
-617 -838 2833
-606 -835 2824
-596 -833 2820
-587 -832 2818
-578 -832 2819
-568 -830 2813
-557 -826 2799
-550 -828 2809
-540 -826 2803
-529 -822 2789
-521 -822 2791
-512 -821 2789
-505 -824 2800
-495 -821 2790
-485 -818 2780
-476 -818 2782
-467 -817 2778
-459 -816 2778
-450 -815 2775
-441 -814 2774
-433 -814 2775
-423 -812 2768
-415 -812 2769
-405 -809 2759
-397 -809 2761
-387 -806 2750
-379 -806 2749
-371 -807 2755
-362 -805 2749
-353 -802 2739
-345 -804 2746
-336 -802 2741
-327 -800 2733
-319 -800 2735
-310 -797 2725
-301 -796 2721
-293 -797 2725
-284 -795 2718
-276 -793 2712
-268 -794 2716
-260 -795 2719
-251 -790 2704
-243 -790 2705
-235 -791 2707
-226 -790 2703
-218 -789 2700
-209 -787 2694
-201 -784 2683
-194 -787 2696
-184 -781 2676
-177 -785 2690
-169 -783 2681
-160 -782 2680
-152 -779 2670
-144 -781 2675
-136 -778 2666
-128 -777 2663
-120 -777 2661
-112 -780 2671
-104 -774 2650
-96 -774 2652
-88 -773 2648
-80 -772 2645
-72 -772 2646
-64 -770 2638
-56 -772 2645
-48 -769 2634
-41 -771 2640
-33 -768 2631
-25 -767 2629
-17 -769 2633
-9 -765 2621
-1 -765 2619
5 -767 2626
13 -762 2611
21 -764 2616
29 -765 2618
36 -761 2606
44 -761 2603
52 -762 2609
59 -763 2612
67 -759 2596
75 -760 2601
82 -757 2589
90 -757 2590
97 -757 2587
105 -757 2587
112 -754 2578
120 -755 2580
128 -756 2582
135 -753 2573
142 -750 2563
150 -750 2562
157 -750 2560
165 -749 2557
172 -749 2557
180 -749 2555
188 -750 2559
194 -747 2548
202 -746 2543
210 -748 2550
217 -745 2539
224 -746 2540
231 -744 2534
239 -744 2532
246 -742 2526
254 -744 2531
261 -743 2527
267 -740 2516
276 -743 2524
282 -740 2513
290 -740 2514
297 -739 2510
304 -739 2509
313 -741 2514
319 -740 2509
326 -737 2500
334 -739 2503
341 -737 2496
348 -736 2493
355 -737 2494
361 -734 2483
369 -735 2485
377 -735 2483
385 -736 2486
391 -734 2480
398 -733 2475
405 -733 2472
412 -733 2471
417 -728 2454
426 -731 2464
434 -731 2462
442 -733 2466
446 -727 2447
455 -731 2457
463 -730 2454
469 -729 2449
477 -730 2450
483 -728 2441
489 -725 2432
493 -721 2417
504 -726 2433
511 -725 2428
518 -725 2427
524 -724 2422
534 -727 2429
540 -726 2423
544 -722 2409
553 -724 2414
560 -723 2411
567 -723 2407
575 -724 2410
580 -722 2400
589 -723 2403
596 -723 2400
602 -722 2396
611 -723 2398
618 -723 2397
623 -721 2387
630 -720 2382
639 -722 2388
646 -723 2387
654 -723 2386
661 -722 2382
666 -720 2374
675 -722 2378
681 -721 2373
689 -722 2374
693 -718 2359
700 -718 2358
710 -721 2364
714 -717 2351
725 -722 2363
731 -720 2355
737 -719 2351
743 -718 2343
752 -720 2349
758 -719 2342
766 -719 2342
774 -720 2342
781 -720 2339
787 -719 2333
793 -718 2327
802 -719 2329
808 -718 2325
815 -718 2322
822 -718 2320
830 -719 2320
837 -718 2316
843 -717 2310
848 -716 2303
860 -720 2312
864 -717 2302
873 -719 2305
879 -718 2299
889 -720 2302
895 -719 2297
901 -718 2293
910 -720 2294
916 -719 2288
922 -718 2283
928 -717 2278
937 -718 2280
944 -718 2275
952 -719 2275
959 -719 2271
965 -718 2266
972 -718 2263
977 -716 2255
983 -715 2249
998 -721 2265
992 -712 2232
995 -708 2218
1016 -718 2247
1034 -726 2268
1017 -709 2212
1036 -717 2234
1047 -720 2239
1050 -717 2227
1056 -716 2221
1066 -719 2226
1072 -717 2219
1035 -688 2126
950 -627 1933
899 -589 1815
898 -585 1797
908 -587 1803
905 -582 1784
909 -581 1777
921 -584 1786
926 -584 1782
931 -584 1777
934 -582 1770
930 -576 1747
948 -583 1768
948 -580 1754
960 -583 1762
967 -585 1763
968 -582 1751
973 -581 1746
976 -579 1738
983 -580 1738
992 -582 1740
998 -583 1738
1007 -584 1740
1000 -577 1716
-2001 -1083 3317
-1971 -1073 3294
-1956 -1071 3292
-1931 -1063 3274
-1917 -1061 3274
-1909 -1064 3286
-1889 -1058 3276
-1882 -1061 3289
-1855 -1051 3265
-1841 -1050 3266
-1818 -1043 3250
-1803 -1041 3248
-1788 -1039 3246
-1767 -1032 3231
-1754 -1031 3233
-1736 -1027 3224
-1723 -1026 3225
-1704 -1021 3214
-1690 -1018 3211
-1668 -1012 3196
-1661 -1014 3206
-1643 -1009 3197
-1621 -1003 3180
-1612 -1003 3186
-1597 -1000 3182
-1579 -995 3170
-1561 -991 3160
-1546 -988 3154
-1532 -985 3151
-1513 -980 3137
-1503 -980 3142
-1487 -976 3133
-1467 -969 3116
-1460 -972 3128
-1445 -969 3121
-1426 -963 3106
-1408 -957 3092
-1397 -956 3094
-1386 -956 3095
-1374 -955 3095
-1356 -949 3081
-1342 -946 3075
-1332 -946 3077
-1320 -944 3075
-1302 -938 3060
-1296 -941 3071
-1281 -937 3062
-1267 -934 3057
-1255 -933 3054
-1241 -929 3046
-1227 -926 3040
-1215 -924 3037
-1204 -923 3036
-1191 -920 3029
-1180 -919 3029
-1164 -914 3016
-1154 -914 3018
-1137 -908 3001
-1129 -909 3009
-1119 -909 3010
-1105 -905 3000
-1096 -905 3003
-1082 -901 2993
-1070 -899 2989
-1055 -895 2977
-1044 -893 2974
-1034 -893 2974
-1021 -889 2965
-1009 -887 2961
-1001 -888 2965
-974 -872 2914
-841 -760 2544
-764 -697 2334
-762 -702 2353
-816 -759 2546
-910 -854 2867
-919 -872 2927
-912 -874 2937
-897 -868 2920
-890 -870 2927
-878 -866 2918
-869 -867 2922
-856 -862 2909
-844 -860 2903
-837 -862 2911
-827 -861 2909
-813 -855 2892
-805 -856 2895
-796 -856 2898
-785 -853 2891
-775 -853 2891
-765 -851 2888
-753 -848 2878
-741 -844 2868
-733 -844 2869
-723 -843 2865
-715 -844 2873
-703 -841 2861
-694 -839 2859
-682 -835 2846
-675 -838 2857
-663 -834 2844
-655 -835 2848
-642 -830 2832
-635 -831 2839
-625 -830 2835
-617 -830 2839
-606 -826 2827
-596 -825 2822
-586 -823 2817
-579 -824 2822
-566 -818 2803
-559 -820 2812
-551 -821 2815
-540 -817 2804
-530 -814 2795
-522 -816 2800
-512 -814 2795
-504 -814 2795
-494 -812 2789
-485 -811 2786
-476 -809 2781
-467 -807 2778
-458 -807 2777
-450 -808 2781
-441 -807 2777
-430 -802 2761
-424 -806 2776
-415 -803 2768
-406 -804 2770
-396 -799 2756
-387 -798 2754
-379 -797 2751
-370 -796 2748
-361 -794 2740
-352 -794 2741
-343 -791 2730
-335 -792 2737
-327 -791 2733
-319 -793 2739
-311 -792 2736
-301 -789 2726
-293 -787 2721
-284 -785 2715
-277 -787 2723
-267 -784 2710
-259 -784 2712
-251 -785 2714
-243 -783 2708
-233 -779 2695
-225 -778 2693
-217 -779 2696
-209 -778 2692
-201 -778 2693
-193 -779 2698
-185 -777 2691
-177 -775 2685
-168 -775 2683
-160 -773 2678
-152 -771 2671
-144 -771 2671
-136 -772 2674
-128 -770 2667
-119 -766 2652
-112 -767 2658
-104 -768 2662
-96 -767 2655
-88 -767 2657
-80 -762 2640
-72 -762 2640
-64 -763 2642
-56 -762 2641
-48 -762 2641
-40 -761 2637
-33 -763 2641
-25 -760 2632
-17 -760 2630
-9 -759 2629
-1 -757 2622
5 -755 2613
13 -755 2615
21 -756 2617
28 -752 2603
36 -753 2605
44 -754 2610
52 -753 2604
59 -751 2598
67 -752 2602
75 -751 2598
82 -749 2591
90 -749 2589
97 -750 2592
105 -748 2585
112 -746 2576
120 -745 2574
128 -746 2577
135 -745 2574
142 -744 2570
150 -745 2572
158 -744 2567
164 -741 2556
173 -743 2563
180 -742 2560
187 -739 2548
194 -737 2542
202 -740 2550
209 -738 2543
217 -738 2543
224 -738 2541
230 -734 2526
238 -736 2532
246 -734 2526
253 -734 2525
260 -734 2523
268 -733 2520
275 -734 2522
283 -735 2524
290 -732 2514
297 -731 2509
304 -731 2509
312 -732 2511
317 -727 2492
326 -731 2505
333 -729 2498
341 -731 2503
348 -729 2495
354 -726 2485
362 -728 2490
369 -728 2488
377 -727 2485
383 -726 2479
390 -724 2472
397 -725 2473
404 -723 2467
412 -724 2470
419 -724 2468
426 -723 2462
433 -723 2461
442 -726 2469
448 -723 2459
455 -722 2454
460 -719 2444
469 -721 2447
475 -720 2444
484 -722 2447
490 -719 2439
500 -723 2450
504 -719 2434
512 -720 2437
518 -718 2429
526 -719 2430
531 -716 2419
539 -717 2421
547 -718 2422
553 -716 2413
561 -718 2418
568 -716 2412
573 -715 2404
583 -718 2413
588 -714 2400
597 -717 2408
603 -715 2400
610 -715 2398
617 -715 2396
625 -716 2396
631 -715 2391
637 -713 2382
644 -712 2379
651 -712 2378
659 -714 2380
668 -715 2383
672 -711 2368
680 -713 2371
686 -712 2365
694 -712 2364
700 -711 2360
708 -712 2360
714 -710 2353
721 -710 2349
729 -711 2352
736 -711 2349
745 -712 2352
752 -713 2351
758 -711 2343
765 -711 2341
772 -711 2338
776 -708 2326
784 -709 2327
793 -710 2329
802 -712 2332
808 -711 2326
812 -708 2316
822 -711 2321
829 -711 2319
839 -713 2323
844 -711 2316
850 -710 2310
859 -712 2313
865 -711 2307
872 -711 2304
880 -712 2304
888 -712 2302
894 -711 2297
901 -711 2293
906 -709 2285
913 -709 2283
922 -711 2285
929 -710 2281
932 -707 2269
943 -710 2275
951 -711 2275
959 -711 2272
967 -712 2272
972 -710 2264
978 -710 2259
987 -711 2261
992 -710 2253
977 -694 2199
999 -704 2231
1016 -711 2250
1051 -730 2307
1033 -713 2248
1038 -711 2240
1047 -713 2242
1053 -712 2237
1060 -712 2233
1067 -712 2230
1073 -711 2223
1047 -689 2151
967 -632 1970
904 -587 1827
887 -572 1778
906 -580 1801
901 -573 1776
913 -578 1787
918 -577 1782
927 -579 1785
930 -577 1777
937 -578 1777
943 -578 1774
945 -576 1764
949 -575 1759
959 -577 1763
960 -575 1752
971 -577 1758
974 -576 1750
979 -576 1746
988 -577 1748
988 -574 1735
991 -572 1726
1002 -575 1733
1007 -575 1729
-1997 -1070 3316
-1957 -1054 3273
-1890 -1024 3185
-1861 -1014 3159
-1898 -1040 3246
-1901 -1048 3276
-1898 -1053 3295
-1872 -1044 3274
-1854 -1040 3267
-1837 -1037 3262
-1824 -1036 3263
-1794 -1025 3235
-1783 -1025 3239
-1762 -1019 3225
-1752 -1020 3233
-1732 -1014 3221
-1715 -1010 3212
-1700 -1007 3209
-1687 -1006 3210
-1674 -1005 3210
-1653 -998 3194
-1640 -997 3194
-1622 -993 3184
-1603 -987 3172
-1594 -988 3178
-1571 -981 3159
-1558 -979 3158
-1544 -976 3154
-1527 -972 3144
-1512 -969 3139
-1499 -967 3137
-1488 -967 3139
-1469 -961 3125
-1455 -959 3121
-1441 -956 3115
-1429 -955 3116
-1413 -951 3106
-1397 -947 3097
-1384 -945 3094
-1373 -944 3094
-1360 -942 3091
-1342 -936 3076
-1334 -937 3083
-1316 -932 3069
-1303 -930 3066
-1290 -927 3061
-1276 -924 3053
-1262 -921 3046
-1251 -920 3048
-1238 -918 3043
-1227 -916 3041
-1214 -914 3036
-1198 -909 3024
-1191 -911 3032
-1175 -906 3020
-1164 -905 3019
-1153 -904 3019
-1142 -902 3016
-1123 -895 2995
-1119 -900 3013
-1107 -897 3008
-1093 -894 2998
-1079 -890 2989
-1070 -890 2993
-1055 -885 2978
-1043 -883 2974
-1033 -883 2974
-1021 -880 2968
-1008 -877 2960
-997 -875 2957
-980 -868 2935
-907 -812 2747
-785 -709 2400
-760 -693 2348
-776 -714 2422
-858 -798 2707
-913 -857 2911
-910 -862 2931
-897 -859 2922
-888 -859 2925
-877 -857 2918
-866 -855 2913
-859 -857 2922
-847 -853 2912
-833 -849 2900
-825 -850 2903
-814 -847 2897
-805 -847 2900
-795 -847 2899
-783 -843 2888
-774 -842 2888
-763 -840 2881
-753 -838 2878
-742 -836 2871
-731 -834 2864
-722 -834 2866
-711 -830 2856
-702 -830 2857
-694 -832 2864
-682 -827 2851
-674 -828 2853
-663 -825 2846
-652 -823 2839
-645 -824 2846
-634 -821 2836
-623 -817 2824
-616 -820 2834
-602 -813 2813
-596 -816 2822
-586 -815 2820
-577 -814 2818
-568 -813 2818
-558 -811 2811
-549 -809 2807
-539 -807 2800
-531 -808 2805
-521 -805 2796
-512 -805 2796
-503 -804 2792
-493 -802 2786
-485 -802 2789
-475 -799 2780
-468 -801 2786
-458 -798 2775
-449 -797 2774
-440 -797 2774
-432 -797 2775
-422 -794 2765
-414 -794 2768
-404 -792 2759
-396 -790 2755
-388 -791 2757
-378 -789 2751
-370 -789 2754
-362 -789 2753
-351 -784 2735
-343 -783 2734
-336 -786 2743
-327 -783 2736
-318 -782 2731
-309 -780 2727
-301 -781 2729
-292 -778 2720
-285 -780 2727
-275 -776 2715
-267 -777 2716
-259 -776 2714
-250 -773 2704
-242 -773 2703
-234 -773 2706
-226 -773 2706
-217 -771 2697
-209 -770 2696
-201 -771 2698
-192 -766 2683
-184 -765 2679
-176 -765 2679
-168 -765 2678
-160 -765 2677
-152 -764 2677
-144 -763 2674
-136 -762 2668
-128 -764 2675
-119 -760 2660
-112 -760 2663
-104 -759 2657
-96 -758 2654
-88 -757 2652
-80 -760 2661
-72 -756 2646
-64 -756 2648
-56 -756 2647
-48 -754 2639
-40 -751 2630
-32 -751 2630
-25 -752 2634
-17 -750 2627
-9 -749 2624
-1 -747 2615
5 -747 2615
13 -746 2611
21 -748 2617
29 -747 2615
36 -745 2605
44 -743 2600
52 -745 2607
59 -743 2597
67 -744 2602
75 -743 2598
82 -743 2597
90 -740 2586
97 -739 2584
105 -740 2585
112 -739 2583
120 -737 2576
127 -737 2574
135 -738 2576
142 -736 2569
149 -734 2561
157 -736 2567
165 -734 2562
172 -732 2554
180 -735 2563
187 -732 2554
193 -728 2538
202 -731 2548
208 -727 2533
217 -730 2543
224 -728 2535
231 -728 2535
238 -725 2523
246 -727 2529
253 -727 2528
260 -726 2523
268 -727 2526
275 -725 2519
282 -725 2518
290 -724 2514
297 -724 2512
303 -721 2502
312 -725 2513
319 -722 2504
326 -722 2503
332 -719 2489
339 -719 2491
347 -720 2491
356 -723 2500
363 -721 2494
368 -717 2479
376 -719 2485
383 -719 2482
391 -719 2481
398 -718 2478
404 -717 2471
413 -718 2475
418 -714 2459
427 -717 2468
432 -713 2454
439 -713 2452
447 -715 2457
455 -715 2457
461 -712 2447
469 -714 2452
475 -713 2445
482 -711 2440
490 -712 2440
497 -712 2439
502 -709 2426
512 -712 2437
518 -710 2429
524 -709 2423
529 -706 2411
538 -708 2416
545 -708 2416
553 -709 2417
560 -709 2414
567 -708 2411
573 -707 2404
581 -708 2407
588 -707 2401
596 -708 2405
603 -708 2403
607 -704 2386
617 -707 2396
624 -707 2393
630 -706 2388
636 -704 2380
644 -705 2382
652 -706 2383
660 -706 2382
665 -704 2373
672 -705 2373
680 -705 2370
686 -704 2367
694 -704 2366
701 -704 2363
708 -705 2362
714 -703 2355
720 -702 2350
727 -702 2348
735 -703 2347
743 -703 2346
747 -701 2336
757 -703 2341
765 -704 2342
770 -702 2334
781 -705 2342
785 -703 2332
792 -702 2329
799 -702 2326
805 -701 2321
814 -703 2323
821 -703 2320
829 -703 2321
833 -700 2308
840 -700 2305
851 -704 2314
856 -702 2305
863 -702 2303
871 -702 2301
878 -702 2300
886 -703 2299
892 -702 2294
897 -701 2287
907 -703 2290
915 -703 2289
922 -703 2287
927 -702 2279
934 -701 2274
943 -703 2278
949 -702 2272
957 -703 2271
965 -703 2269
972 -703 2267
977 -702 2259
986 -703 2259
