VERSION 0.7
FIELDS x y z
SIZE 4 4 4
TYPE I I I
COUNT 1 1 1
WIDTH 3570
HEIGHT 1
VIEWPOINT 0.0 0.0 0.0 1.0 0.0 0.0 0.0
POINTS 3570
DATA ascii
-601 125 1772
-617 130 1837
-588 125 1768
-573 123 1738
-590 128 1810
-577 126 1785
-570 125 1783
-544 121 1718
-556 125 1775
-528 120 1703
-531 121 1729
-542 125 1785
-532 124 1772
-532 125 1788
-528 125 1796
-514 123 1765
-502 121 1742
-511 125 1794
-501 124 1780
-491 122 1763
-480 121 1742
-485 124 1782
-485 125 1803
-458 119 1722
-450 118 1711
-443 118 1706
-465 125 1811
-442 120 1741
-447 123 1783
-432 120 1747
-422 119 1727
-419 120 1738
-419 121 1758
-412 120 1751
-400 118 1724
-397 119 1733
-394 119 1742
-393 121 1762
-382 119 1739
-373 118 1721
-370 118 1728
-365 118 1732
-363 119 1747
-352 117 1720
-350 118 1734
-348 119 1752
-339 118 1731
-340 120 1762
-330 118 1737
-325 118 1742
-320 118 1740
-317 119 1753
-316 120 1775
-305 118 1745
-301 119 1753
-292 117 1729
-286 116 1723
-282 117 1728
-276 116 1722
-274 117 1740
-263 115 1706
-258 115 1707
-253 115 1709
-251 116 1725
-244 115 1711
-238 114 1703
-230 113 1687
-226 113 1690
-221 114 1694
-218 115 1709
-210 113 1687
-208 114 1706
-201 113 1692
-197 114 1702
-192 114 1701
-186 113 1692
-180 112 1680
-177 113 1695
-172 113 1697
-164 111 1665
-157 109 1642
-152 109 1635
-147 109 1638
-142 109 1634
-136 108 1617
-130 107 1602
-123 105 1574
-117 104 1562
-111 102 1541
-109 104 1565
-103 103 1549
-98 103 1546
-93 102 1537
-90 103 1553
-85 103 1551
-78 100 1510
-77 103 1560
-69 99 1489
-67 102 1538
-63 103 1551
-58 102 1541
-55 104 1571
-51 106 1609
-47 106 1611
-41 104 1576
-35 101 1532
-31 101 1530
-27 103 1553
-22 99 1498
-19 107 1625
-14 102 1552
-9 103 1564
-5 105 1588
0 105 1593
3 101 1539
8 101 1528
12 101 1529
16 100 1520
22 104 1582
26 105 1599
31 104 1582
35 103 1564
40 103 1571
43 101 1531
48 101 1542
53 103 1565
57 102 1555
63 105 1599
70 108 1640
74 108 1640
78 105 1607
83 106 1623
88 107 1634
94 109 1660
101 110 1687
106 111 1696
113 113 1731
116 111 1693
120 110 1675
126 111 1692
127 108 1651
133 109 1661
142 112 1713
146 111 1700
150 111 1692
152 109 1662
150 104 1589
147 98 1502
156 101 1551
162 102 1564
159 98 1495
166 99 1516
174 102 1554
190 108 1652
212 117 1798
204 110 1692
193 102 1558
203 104 1598
197 99 1514
202 100 1522
211 102 1556
213 101 1539
211 97 1487
221 100 1526
225 100 1525
232 101 1542
231 98 1506
238 100 1522
245 100 1536
245 99 1509
250 99 1513
253 98 1503
258 99 1508
263 99 1507
269 99 1519
274 100 1522
287 102 1566
299 105 1609
294 102 1556
301 103 1568
312 105 1601
333 110 1681
342 111 1701
345 110 1690
333 105 1608
342 106 1627
343 105 1608
334 101 1543
345 103 1575
328 97 1473
331 96 1467
341 98 1495
351 99 1517
349 97 1487
338 93 1424
357 97 1484
354 95 1450
365 97 1481
364 96 1455
366 95 1448
367 94 1432
376 95 1450
370 93 1411
380 94 1431
390 95 1452
392 95 1441
413 99 1502
431 102 1551
450 105 1602
434 100 1527
493 113 1719
457 104 1572
442 99 1506
515 114 1738
504 111 1682
529 115 1746
544 117 1778
552 118 1785
511 108 1633
535 112 1695
532 110 1669
524 107 1625
513 104 1575
485 98 1475
490 98 1475
495 98 1475
491 96 1449
489 95 1428
487 94 1410
486 92 1392
490 93 1392
511 96 1437
520 96 1450
522 96 1442
540 98 1479
560 101 1519
587 105 1579
617 110 1645
622 109 1642
642 112 1682
649 112 1685
660 113 1697
647 110 1650
638 108 1613
647 108 1622
660 110 1639
674 111 1660
686 112 1676
691 112 1674
663 107 1591
720 115 1715
716 114 1691
722 114 1690
719 112 1670
722 112 1663
746 115 1704
770 118 1745
760 115 1707
734 111 1635
763 114 1687
776 115 1701
713 105 1550
712 104 1536
733 107 1569
815 118 1732
808 116 1703
812 116 1699
783 111 1624
771 108 1587
802 112 1638
831 115 1684
850 117 1710
871 119 1739
896 122 1775
901 122 1772
897 120 1750
906 121 1754
911 120 1751
922 121 1758
928 121 1757
932 121 1751
941 121 1756
940 120 1739
939 120 1725
953 121 1738
959 121 1735
965 121 1734
970 121 1731
-1314 185 2288
-1302 185 2285
-1296 185 2290
-1283 184 2284
-1270 183 2278
-1256 182 2270
-1245 181 2266
-1228 180 2252
-1222 180 2258
-1208 179 2249
-1199 179 2250
-1191 179 2251
-1182 178 2250
-1164 176 2232
-1103 168 2132
-1015 156 1977
-977 151 1918
-976 152 1930
-975 153 1944
-969 153 1947
-968 153 1960
-950 151 1937
-938 150 1929
-928 150 1921
-920 149 1921
-912 149 1919
-903 148 1915
-896 148 1915
-887 148 1912
-880 147 1911
-869 147 1903
-859 146 1896
-852 146 1896
-842 145 1889
-837 145 1893
-826 144 1884
-819 144 1882
-811 143 1879
-807 144 1885
-795 143 1874
-789 143 1876
-776 141 1859
-771 141 1864
-765 141 1864
-755 140 1855
-747 140 1853
-742 140 1857
-738 140 1861
-731 140 1861
-722 139 1854
-718 139 1859
-709 139 1853
-706 139 1862
-696 138 1853
-690 138 1851
-681 137 1843
-677 138 1850
-667 137 1839
-661 137 1841
-660 138 1854
-649 137 1842
-647 137 1854
-641 137 1854
-631 136 1843
-626 136 1844
-617 135 1836
-617 137 1855
-603 135 1831
-594 134 1819
-595 135 1841
-591 136 1849
-590 136 1863
-588 137 1878
-578 136 1862
-549 131 1789
-550 132 1812
-545 132 1813
-547 134 1838
-523 129 1779
-526 131 1808
-501 126 1740
-507 129 1780
-505 130 1791
-500 130 1796
-490 129 1778
-479 127 1761
-467 125 1735
-450 122 1691
-465 128 1768
-447 124 1722
-448 126 1746
-441 125 1740
-437 125 1744
-427 124 1727
-431 127 1764
-426 127 1765
-418 126 1754
-413 126 1757
-396 122 1707
-397 124 1733
-404 128 1788
-386 123 1730
-392 127 1783
-377 124 1738
-374 125 1750
-363 122 1720
-358 123 1723
-358 124 1747
-347 122 1722
-352 126 1771
-339 123 1733
-337 124 1745
-333 124 1752
-321 122 1718
-326 125 1774
-320 125 1769
-311 123 1746
-300 121 1713
-298 122 1733
-304 127 1799
-294 125 1771
-286 123 1751
-284 125 1774
-276 123 1754
-271 123 1757
-264 123 1746
-260 123 1751
-255 123 1753
-248 122 1741
-241 121 1731
-237 122 1735
-227 119 1703
-224 120 1718
-219 120 1715
-215 121 1726
-205 118 1686
-199 117 1672
-193 116 1667
-186 115 1643
-180 114 1634
-175 114 1634
-172 115 1647
-167 115 1646
-159 112 1614
-155 113 1620
-151 114 1633
-145 112 1613
-137 110 1581
-132 109 1575
-128 110 1584
-125 112 1606
-117 109 1563
-108 104 1497
-105 106 1520
-105 109 1573
-100 109 1571
-93 107 1538
-88 106 1528
-84 106 1527
-81 108 1555
-75 106 1537
-72 107 1554
-67 106 1538
-62 106 1538
-57 104 1510
-53 106 1534
-50 109 1575
-45 108 1569
-40 107 1545
-36 108 1562
-31 107 1548
-27 107 1549
-24 113 1648
-17 105 1518
-13 107 1551
-9 108 1573
-5 109 1582
0 108 1566
3 112 1624
8 107 1560
12 106 1540
18 112 1638
22 109 1594
26 107 1557
31 110 1597
36 110 1599
41 110 1608
45 109 1596
50 110 1598
55 112 1632
58 108 1570
61 106 1548
71 114 1667
71 107 1560
78 111 1616
84 112 1637
90 114 1660
95 114 1670
101 116 1690
106 116 1690
111 116 1698
112 112 1633
121 115 1689
126 116 1696
130 115 1678
138 118 1724
139 114 1674
147 117 1710
150 115 1689
155 115 1687
151 109 1599
144 101 1471
157 107 1562
163 107 1573
166 107 1560
166 104 1520
176 107 1564
196 116 1705
214 124 1813
204 115 1686
191 105 1537
199 107 1567
209 110 1612
201 103 1511
211 106 1552
212 104 1529
219 106 1546
218 103 1509
224 104 1516
227 103 1510
231 103 1503
234 102 1497
247 106 1551
249 105 1534
252 104 1523
256 104 1524
258 103 1509
266 104 1529
268 103 1514
278 106 1546
276 103 1507
275 101 1475
288 104 1522
300 107 1559
310 108 1587
337 116 1703
346 118 1722
346 116 1694
330 109 1594
342 111 1626
337 108 1582
340 108 1573
339 106 1547
329 101 1479
331 101 1467
338 101 1478
354 105 1528
354 103 1509
345 99 1451
354 101 1469
359 101 1472
363 101 1471
365 100 1458
367 99 1449
367 98 1434
379 100 1461
375 98 1428
381 99 1434
387 99 1442
391 99 1438
410 102 1490
429 106 1543
427 104 1517
465 113 1638
470 113 1638
471 112 1621
481 113 1638
479 111 1614
509 117 1696
538 122 1775
584 131 1910
537 120 1735
518 114 1658
525 115 1662
513 111 1607
537 115 1667
502 106 1540
499 105 1517
499 104 1501
493 102 1468
496 102 1465
489 99 1428
482 97 1393
486 97 1391
493 97 1400
503 98 1413
523 101 1458
525 101 1450
543 103 1485
558 105 1512
596 112 1602
645 120 1719
643 118 1699
639 117 1672
639 116 1658
659 118 1694
653 116 1663
655 116 1655
638 112 1597
628 109 1559
647 112 1593
666 114 1626
692 117 1675
692 117 1661
706 118 1680
718 119 1694
726 120 1699
730 119 1695
731 119 1684
755 122 1724
772 123 1750
770 122 1729
771 121 1717
779 122 1723
759 118 1665
729 112 1584
750 115 1617
760 116 1626
815 123 1732
822 123 1733
814 121 1703
754 112 1563
762 112 1567
801 117 1635
830 120 1682
863 124 1735
886 127 1769
898 128 1780
905 128 1779
906 127 1767
914 127 1771
913 126 1755
919 126 1752
926 127 1753
930 126 1747
936 126 1745
945 127 1749
947 126 1739
953 126 1737
959 126 1735
962 126 1728
974 127 1737
-1307 192 2276
-1301 192 2283
-1282 190 2266
-1274 190 2269
-1264 190 2268
-1257 189 2271
-1241 188 2259
-1230 188 2255
-1222 187 2258
-1211 187 2253
-1200 186 2249
-1195 186 2258
-1181 185 2249
-1167 184 2237
-1116 177 2157
-1026 164 1997
-984 158 1931
-974 158 1926
-959 156 1910
-978 160 1964
-933 154 1888
-948 157 1933
-937 156 1926
-927 156 1921
-921 156 1922
-914 155 1923
-905 155 1918
-896 154 1915
-890 154 1917
-878 153 1907
-869 153 1903
-863 152 1904
-857 152 1907
-847 152 1900
-837 151 1891
-823 149 1875
-826 151 1898
-816 150 1892
-819 152 1913
-782 146 1842
-812 153 1930
-785 148 1880
-783 149 1892
-757 145 1845
-749 145 1841
-767 149 1902
-766 150 1916
-751 148 1895
-702 140 1787
-708 142 1817
-725 146 1876
-688 140 1799
-715 147 1884
-709 147 1886
-669 140 1795
-674 142 1825
-674 143 1843
-687 147 1896
-646 139 1799
-649 141 1825
-646 141 1831
-638 141 1828
-631 141 1825
-623 140 1819
-617 140 1819
-609 139 1812
-601 139 1806
-596 139 1810
-594 139 1822
-586 139 1813
-581 139 1815
-572 138 1807
-570 139 1819
-561 138 1808
-556 138 1810
-546 137 1797
-543 137 1807
-539 137 1811
-531 137 1805
-525 136 1802
-518 136 1798
-515 137 1807
-504 135 1788
-504 137 1811
-500 137 1817
-485 134 1782
-484 135 1799
-475 134 1785
-480 137 1826
-472 136 1818
-468 137 1823
-454 134 1790
-454 136 1812
-450 136 1820
-440 134 1799
-432 134 1790
-432 135 1812
-420 133 1784
-405 130 1746
-400 130 1745
-398 131 1763
-386 129 1732
-394 133 1793
-367 125 1690
-374 130 1748
-351 124 1666
-369 132 1777
-349 126 1704
-348 128 1725
-343 127 1723
-339 128 1733
-335 128 1737
-319 124 1681
-318 126 1702
-307 123 1672
-303 124 1677
-306 127 1721
-302 127 1727
-305 130 1772
-281 122 1664
-290 128 1746
-283 127 1736
-277 127 1733
-275 128 1747
-269 128 1744
-255 123 1686
-253 125 1704
-257 129 1766
-252 129 1767
-245 128 1755
-233 124 1704
-230 126 1722
-223 124 1704
-215 123 1687
-216 126 1727
-199 119 1635
-192 118 1619
-187 117 1609
-178 114 1573
-178 117 1615
-171 116 1595
-168 117 1607
-162 116 1597
-153 113 1551
-151 115 1584
-143 112 1550
-140 113 1564
-135 113 1558
-130 112 1553
-126 113 1562
-123 114 1571
-119 114 1578
-113 113 1563
-103 108 1494
-107 116 1611
-97 111 1530
-92 109 1511
-88 110 1520
-81 107 1478
-78 109 1506
-75 111 1536
-70 110 1526
-68 112 1561
-62 110 1529
-57 109 1508
-54 113 1570
-50 113 1567
-44 111 1538
-38 107 1483
-37 114 1586
-30 108 1507
-27 113 1570
-23 114 1590
-18 114 1587
-14 114 1596
-9 114 1583
-5 114 1584
0 113 1579
3 113 1575
8 114 1585
13 114 1587
17 114 1587
22 114 1595
26 114 1590
31 114 1597
36 114 1599
40 115 1604
45 115 1603
50 115 1603
55 115 1616
59 115 1607
64 115 1610
68 114 1596
73 114 1600
78 116 1619
84 118 1650
91 120 1679
96 120 1680
101 120 1684
105 119 1674
110 120 1682
115 120 1680
120 120 1686
125 120 1685
131 121 1694
136 121 1698
141 121 1699
146 121 1703
152 122 1708
156 121 1706
159 120 1681
156 114 1595
160 113 1587
153 105 1476
165 110 1548
169 110 1545
182 115 1618
200 124 1741
211 128 1794
204 120 1685
197 113 1587
205 115 1617
199 109 1528
208 112 1570
205 108 1510
208 107 1499
212 107 1498
218 107 1506
227 109 1536
230 109 1530
231 107 1501
241 110 1540
243 109 1523
246 108 1513
251 108 1518
253 107 1503
262 109 1529
264 108 1512
265 107 1496
276 109 1532
280 109 1527
284 109 1525
289 109 1525
300 111 1561
315 115 1613
340 122 1719
355 126 1766
360 126 1764
348 120 1682
340 115 1617
341 114 1601
340 112 1572
347 113 1581
326 105 1465
332 105 1473
342 107 1496
354 109 1530
350 106 1489
342 103 1437
358 106 1488
360 106 1476
365 106 1477
366 105 1463
363 103 1433
364 102 1420
364 101 1404
373 102 1421
379 102 1427
383 102 1425
402 106 1479
420 110 1529
413 107 1484
436 111 1551
460 116 1618
457 114 1592
474 117 1631
459 112 1564
505 122 1703
502 120 1675
492 117 1623
540 127 1765
526 122 1699
523 120 1674
520 118 1645
548 124 1716
533 119 1652
503 111 1543
490 107 1487
498 108 1497
495 107 1473
491 105 1449
487 103 1422
483 101 1398
489 101 1400
495 102 1404
504 103 1418
524 106 1461
516 104 1425
543 108 1484
542 107 1468
592 116 1590
647 125 1723
669 128 1767
662 126 1734
662 125 1719
675 127 1737
665 124 1695
666 123 1683
660 121 1652
640 116 1588
640 115 1576
654 117 1595
688 122 1665
702 123 1685
710 124 1690
721 125 1702
734 126 1717
740 126 1718
758 128 1745
793 133 1811
828 138 1876
830 137 1865
831 137 1853
834 136 1844
843 137 1848
809 130 1760
809 129 1745
826 131 1769
818 129 1736
795 124 1675
789 123 1649
765 118 1586
764 117 1571
791 121 1614
834 126 1690
849 128 1707
879 131 1753
911 135 1804
905 133 1779
913 134 1781
917 133 1776
923 133 1773
917 132 1747
931 133 1762
931 132 1749
935 132 1744
945 132 1749
947 132 1739
957 132 1745
961 132 1739
962 131 1727
980 133 1747
-1306 199 2275
-1299 199 2279
-1289 199 2278
-1276 198 2271
-1259 196 2258
-1251 196 2260
-1242 196 2260
-1232 195 2259
-1215 193 2244
-1209 194 2250
-1191 192 2232
-1184 192 2237
-1174 191 2234
-1162 190 2228
-1128 186 2179
-1028 171 2002
-982 164 1927
-974 164 1925
-968 164 1928
-952 162 1911
-948 162 1917
-945 163 1927
-938 163 1927
-930 162 1925
-922 162 1925
-910 161 1914
-905 161 1918
-894 160 1911
-886 160 1909
-878 159 1906
-870 159 1905
-864 159 1906
-853 158 1897
-848 158 1901
-839 157 1896
-834 157 1900
-834 158 1916
-843 161 1953
-820 158 1915
-803 156 1892
-792 155 1882
-775 152 1857
-780 155 1886
-792 158 1929
-754 152 1854
-748 151 1853
-735 150 1839
-729 150 1839
-724 150 1841
-721 150 1850
-728 153 1886
-709 150 1852
-693 148 1825
-686 147 1824
-673 146 1805
-697 152 1887
-676 149 1848
-654 145 1804
-646 145 1800
-656 148 1844
-661 150 1875
-630 145 1804
-641 148 1852
-627 146 1829
-616 145 1814
-594 141 1768
-607 145 1824
-598 145 1816
-605 147 1854
-578 142 1789
-582 144 1819
-588 147 1857
-574 145 1832
-540 138 1740
-570 147 1857
-562 146 1851
-541 142 1799
-536 142 1801
-517 139 1758
-502 136 1723
-491 134 1706
-514 142 1805
-499 139 1772
-470 132 1687
-488 139 1771
-482 139 1770
-477 139 1773
-470 138 1767
-464 138 1766
-457 137 1760
-454 138 1769
-449 138 1770
-441 137 1760
-437 137 1766
-429 137 1757
-426 137 1766
-420 137 1763
-417 137 1772
-409 136 1762
-406 137 1773
-399 137 1767
-396 137 1774
-385 135 1749
-387 138 1783
-375 135 1753
-377 138 1785
-371 138 1786
-362 136 1768
-359 137 1778
-352 136 1772
-344 135 1756
-340 135 1762
-340 137 1788
-328 135 1757
-319 133 1734
-321 136 1775
-318 137 1790
-306 134 1747
-305 135 1771
-295 133 1744
-290 133 1747
-292 137 1791
-279 133 1745
-285 138 1810
-268 132 1740
-263 132 1739
-257 132 1733
-247 129 1699
-251 134 1764
-235 128 1686
-241 134 1768
-228 130 1709
-224 130 1714
-219 130 1715
-210 128 1687
-196 122 1609
-189 121 1591
-179 117 1541
-182 122 1610
-178 122 1616
-171 120 1592
-166 121 1597
-161 120 1584
-155 119 1578
-153 121 1598
-151 123 1635
-135 114 1508
-134 117 1547
-127 114 1519
-125 116 1546
-123 119 1579
-119 119 1583
-115 120 1596
-108 117 1553
-98 111 1481
-96 113 1509
-92 115 1524
-89 116 1540
-85 116 1546
-78 113 1506
-75 115 1528
-72 117 1563
-66 114 1523
-61 114 1522
-59 117 1565
-53 115 1536
-49 115 1541
-46 118 1577
-41 117 1566
-36 118 1571
-32 119 1594
-28 121 1619
-23 120 1608
-19 122 1631
-14 121 1619
-9 121 1619
-5 120 1606
0 120 1614
4 119 1601
8 120 1612
13 119 1596
17 120 1607
22 122 1632
27 120 1612
31 120 1616
36 120 1607
40 119 1595
45 120 1611
50 120 1610
55 120 1610
59 120 1613
64 120 1614
69 120 1613
73 120 1613
78 120 1616
84 122 1645
89 122 1638
94 123 1655
99 123 1652
104 123 1661
109 123 1662
115 124 1672
120 125 1679
124 124 1673
130 124 1678
135 125 1684
140 125 1683
144 124 1677
150 125 1686
155 125 1690
160 125 1693
158 120 1615
157 115 1555
160 115 1545
165 115 1549
171 116 1564
182 120 1625
193 124 1675
204 128 1733
203 124 1679
200 120 1614
200 117 1578
204 116 1568
206 115 1547
209 114 1539
216 115 1554
210 110 1484
222 114 1538
231 116 1567
236 116 1568
231 112 1505
235 111 1498
240 111 1502
242 110 1488
255 114 1541
256 113 1522
260 112 1515
263 112 1507
267 112 1506
282 116 1567
298 121 1627
281 112 1508
295 116 1558
305 118 1588
322 122 1651
341 128 1724
350 129 1739
357 130 1750
343 123 1657
340 120 1617
338 118 1585
347 119 1605
343 116 1561
331 111 1489
333 110 1478
343 111 1498
351 113 1516
345 109 1469
343 108 1444
355 110 1476
359 110 1473
364 110 1475
362 108 1447
365 107 1440
366 107 1427
371 107 1429
376 107 1431
379 106 1426
388 108 1442
391 107 1437
416 113 1514
403 108 1448
421 112 1496
431 113 1516
447 116 1556
447 115 1539
441 112 1500
464 117 1562
489 122 1629
480 119 1583
511 125 1668
513 124 1657
514 123 1644
522 124 1653
544 128 1705
553 129 1716
498 115 1529
491 112 1490
488 110 1467
488 109 1451
486 108 1433
490 108 1429
484 106 1400
491 106 1405
492 106 1397
506 108 1422
513 108 1428
532 111 1469
540 112 1478
538 111 1459
563 115 1513
635 128 1691
658 132 1738
660 131 1726
659 130 1709
668 130 1716
675 131 1719
686 132 1734
690 132 1729
682 129 1692
697 131 1715
714 133 1742
719 133 1739
703 129 1686
712 129 1694
727 131 1714
732 131 1714
747 133 1735
766 135 1763
799 140 1825
827 144 1874
828 143 1859
831 142 1852
843 143 1863
850 144 1865
835 140 1816
824 137 1777
823 136 1761
834 137 1771
813 133 1713
804 130 1680
775 125 1607
778 124 1601
794 126 1620
810 128 1641
840 132 1689
857 133 1709
895 138 1772
904 139 1777
904 138 1763
907 137 1755
918 138 1763
915 137 1744
923 137 1746
932 138 1749
934 137 1740
944 138 1745
946 137 1737
959 138 1748
962 138 1739
965 137 1732
977 138 1741
-1295 205 2254
-1303 207 2286
-1281 205 2263
-1266 203 2254
-1254 203 2249
-1251 203 2260
-1239 202 2255
-1226 201 2248
-1216 201 2245
-1204 200 2239
-1191 199 2232
-1185 199 2239
-1174 198 2233
-1157 197 2218
-1125 192 2173
-1037 179 2019
-989 171 1939
-974 170 1926
-977 171 1946
-963 170 1933
-962 171 1946
-946 169 1928
-940 169 1931
-933 169 1931
-917 167 1914
-915 168 1924
-907 167 1923
-896 166 1915
-888 166 1912
-880 165 1910
-871 165 1905
-862 164 1902
-854 164 1898
-845 163 1894
-837 163 1892
-832 163 1897
-850 167 1953
-821 163 1903
-801 160 1872
-799 161 1883
-784 159 1861
-797 162 1908
-780 160 1885
-756 157 1843
-762 159 1872
-776 163 1923
-751 159 1877
-769 164 1939
-711 153 1808
-720 156 1848
-714 156 1848
-700 154 1830
-703 156 1852
-689 154 1832
-676 152 1813
-685 155 1855
-672 153 1835
-654 151 1803
-670 156 1866
-670 157 1881
-659 156 1869
-621 148 1778
-632 152 1826
-630 152 1837
-618 151 1822
-616 152 1831
-616 153 1851
-589 148 1788
-575 145 1761
-591 151 1829
-588 151 1839
-572 149 1805
-571 150 1821
-559 148 1803
-546 146 1779
-546 147 1796
-541 147 1800
-550 151 1847
-535 149 1817
-511 143 1756
-526 149 1827
-509 146 1788
-499 144 1771
-492 144 1766
-497 147 1805
-463 138 1699
-465 140 1728
-476 145 1791
-459 142 1746
-454 142 1748
-445 140 1735
-446 142 1759
-438 141 1749
-440 143 1777
-427 141 1748
-423 141 1753
-414 140 1736
-419 143 1780
-402 139 1733
-392 138 1711
-395 140 1746
-390 140 1749
-378 138 1719
-384 142 1771
-373 140 1744
-374 142 1772
-362 139 1741
-348 136 1700
-349 138 1727
-341 137 1716
-336 137 1715
-332 137 1719
-326 137 1720
-322 137 1724
-317 137 1724
-312 137 1724
-305 136 1716
-302 137 1727
-295 136 1718
-290 136 1714
-284 136 1712
-282 137 1727
-275 136 1716
-270 136 1721
-264 135 1713
-261 136 1724
-257 137 1731
-253 137 1738
-247 137 1738
-242 137 1734
-236 136 1729
-229 135 1716
-227 137 1738
-219 135 1712
-211 133 1687
-196 127 1613
-191 126 1603
-185 126 1597
-180 125 1595
-176 126 1602
-171 126 1600
-168 127 1613
-161 125 1591
-157 125 1598
-151 124 1586
-148 125 1599
-141 124 1577
-135 122 1553
-134 125 1596
-124 120 1530
-122 123 1568
-120 125 1599
-122 132 1685
-114 128 1636
-103 121 1549
-96 119 1519
-93 120 1537
-87 118 1507
-83 118 1519
-78 118 1512
-74 118 1510
-70 118 1516
-66 120 1537
-61 118 1514
-57 118 1519
-52 117 1509
-50 121 1560
-44 119 1536
-41 122 1565
-37 124 1597
-33 127 1633
-28 127 1632
-24 127 1641
-19 129 1660
-14 127 1633
-10 128 1647
-5 127 1641
0 127 1646
4 129 1661
8 126 1628
13 124 1608
17 125 1609
22 125 1611
27 127 1648
32 125 1622
37 126 1634
40 124 1598
46 126 1624
49 122 1578
54 124 1604
59 123 1590
64 124 1600
68 124 1605
73 124 1610
76 122 1576
81 122 1574
87 124 1602
89 121 1564
96 123 1592
100 123 1588
104 122 1581
110 124 1608
114 123 1593
118 122 1588
124 124 1602
129 123 1601
134 124 1607
139 124 1612
143 124 1609
148 124 1608
150 122 1584
153 121 1567
155 119 1540
160 119 1544
164 119 1542
172 121 1569
176 121 1566
181 121 1574
191 125 1620
193 123 1593
197 122 1584
199 121 1569
203 120 1560
208 121 1568
210 119 1549
213 118 1535
218 118 1537
224 119 1547
226 118 1529
231 118 1536
236 118 1537
240 118 1531
244 118 1531
248 118 1528
253 118 1528
259 118 1535
261 117 1520
265 117 1520
270 117 1521
279 119 1547
283 119 1543
287 119 1540
292 119 1542
296 119 1538
303 120 1553
305 119 1539
311 119 1546
314 119 1537
321 120 1549
312 115 1484
318 115 1489
323 115 1494
322 113 1466
328 114 1472
330 113 1461
334 113 1458
337 113 1453
338 111 1439
339 110 1425
347 112 1442
352 112 1441
355 111 1436
363 112 1450
363 111 1432
367 111 1432
372 111 1432
376 111 1431
383 112 1442
385 111 1431
392 112 1440
393 111 1430
397 111 1426
400 110 1420
411 112 1443
412 111 1432
419 112 1440
421 111 1430
425 112 1431
433 112 1440
441 113 1453
442 112 1441
451 114 1456
463 116 1479
464 115 1467
465 114 1455
467 113 1445
465 112 1425
467 111 1416
475 112 1429
475 111 1413
471 109 1389
481 110 1404
485 110 1403
490 110 1403
488 109 1385
495 109 1389
502 110 1399
507 110 1398
510 110 1395
521 111 1410
531 112 1424
555 116 1476
584 122 1540
589 122 1539
602 123 1561
617 125 1584
619 125 1576
627 125 1582
635 126 1590
641 126 1589
644 126 1583
653 126 1592
676 130 1635
686 131 1646
693 131 1648
699 131 1648
710 132 1660
708 131 1641
722 133 1661
722 132 1646
742 134 1679
750 135 1683
748 133 1666
760 135 1679
764 134 1673
753 131 1637
746 129 1608
758 130 1621
779 133 1653
775 131 1630
776 131 1621
764 128 1584
765 127 1572
781 129 1593
784 129 1587
803 131 1614
819 133 1633
839 135 1660
862 138 1692
870 138 1696
862 136 1667
876 137 1681
875 136 1667
874 135 1652
910 140 1708
931 142 1735
932 142 1724
951 144 1746
948 142 1728
961 143 1738
967 143 1736
969 143 1726
-1298 212 2259
-1272 209 2231
-1265 209 2234
-1260 210 2243
-1246 209 2234
-1244 209 2246
-1240 210 2256
-1225 208 2245
-1226 210 2264
-1196 206 2226
-1197 207 2244
-1173 204 2214
-1161 203 2208
-1166 205 2235
-1124 199 2170
-1025 183 1995
-980 176 1922
-974 176 1926
-972 177 1935
-956 175 1919
-966 178 1953
-949 176 1933
-937 174 1924
-930 174 1925
-920 174 1920
-912 173 1917
-905 173 1918
-894 172 1911
-890 172 1916
-880 171 1911
-870 171 1904
-861 170 1899
-853 169 1897
-845 169 1894
-843 170 1904
-831 169 1894
-825 168 1894
-819 168 1898
-815 169 1904
-810 169 1907
-788 165 1872
-796 168 1907
-761 162 1838
-773 166 1883
-744 161 1828
-762 166 1889
-734 161 1835
-738 163 1861
-730 162 1856
-705 158 1809
-719 162 1862
-709 161 1852
-695 159 1831
-703 162 1868
-694 162 1862
-668 157 1809
-671 159 1832
-685 163 1889
-666 160 1854
-654 159 1838
-636 156 1802
-646 159 1849
-642 160 1856
-641 161 1870
-626 159 1845
-615 157 1829
-602 155 1808
-608 158 1843
-601 158 1842
-581 154 1796
-591 158 1848
-561 151 1772
-569 155 1815
-560 154 1803
-556 154 1809
-539 151 1774
-551 156 1832
-528 151 1775
-527 152 1790
-532 155 1826
-508 149 1762
-513 152 1800
-507 152 1800
-497 151 1784
-492 150 1785
-491 152 1802
-473 148 1759
-467 148 1754
-477 152 1813
-456 147 1753
-454 148 1766
-448 148 1767
-443 148 1768
-433 146 1748
-432 148 1769
-425 147 1760
-423 148 1774
-418 148 1775
-409 147 1760
-398 145 1738
-405 149 1792
-379 141 1699
-388 147 1763
-374 143 1726
-376 146 1757
-358 141 1695
-355 142 1709
-355 144 1733
-347 142 1717
-344 143 1728
-350 148 1785
-319 137 1656
-319 139 1681
-319 141 1707
-314 141 1709
-312 142 1725
-306 142 1721
-298 140 1703
-293 140 1704
-298 145 1761
-281 139 1692
-270 136 1656
-270 138 1684
-268 140 1706
-267 142 1730
-252 137 1667
-252 139 1702
-248 140 1708
-229 132 1609
-225 132 1612
-237 142 1738
-228 139 1705
-227 142 1734
-210 135 1647
-209 137 1675
-198 133 1627
-189 130 1588
-189 133 1633
-175 126 1547
-174 129 1584
-172 131 1606
-165 129 1584
-159 128 1569
-158 131 1606
-148 126 1551
-148 130 1594
-148 134 1644
-134 126 1547
-137 132 1631
-133 134 1648
-131 136 1675
-126 136 1674
-121 136 1676
-117 136 1684
-108 132 1629
-98 125 1545
-91 122 1507
-87 122 1512
-84 124 1530
-80 125 1548
-74 122 1504
-71 125 1541
-65 121 1497
-61 122 1513
-56 122 1508
-54 125 1555
-49 124 1542
-46 128 1584
-43 133 1645
-39 136 1689
-35 137 1703
-30 140 1742
-24 134 1671
-19 133 1652
-15 136 1696
-10 135 1679
-5 133 1658
0 134 1667
4 132 1642
8 131 1633
13 131 1627
18 133 1651
22 131 1631
27 130 1613
32 130 1616
36 129 1610
41 128 1601
45 129 1603
50 129 1614
54 128 1599
59 128 1599
64 129 1614
68 128 1601
73 129 1609
79 131 1630
80 125 1561
85 125 1562
90 126 1569
93 124 1545
98 125 1560
103 126 1570
108 126 1567
111 124 1544
118 127 1583
120 124 1543
123 122 1527
130 125 1557
135 125 1562
141 126 1578
142 123 1541
144 122 1521
149 122 1525
153 121 1517
160 123 1543
163 122 1524
171 125 1562
175 124 1554
178 123 1543
181 122 1528
189 125 1560
189 122 1523
195 123 1536
194 119 1492
203 122 1528
205 121 1510
212 122 1523
217 123 1533
217 120 1496
224 121 1513
228 121 1515
229 119 1487
237 121 1514
239 120 1495
244 120 1503
245 119 1480
250 119 1482
256 120 1496
263 121 1508
265 119 1491
271 120 1500
274 120 1493
276 119 1481
278 117 1465
282 117 1465
291 119 1490
293 118 1477
296 118 1469
301 118 1471
303 117 1462
302 115 1434
310 117 1453
314 116 1449
315 115 1434
322 116 1446
329 117 1456
332 117 1450
332 115 1433
338 116 1437
340 115 1427
343 115 1424
346 114 1418
352 115 1425
356 115 1423
358 114 1412
366 115 1425
368 114 1416
376 115 1430
377 114 1420
380 114 1413
387 115 1421
388 114 1410
391 113 1403
397 114 1408
401 114 1410
403 113 1401
408 113 1400
409 112 1388
416 113 1400
422 114 1404
425 113 1399
428 113 1393
434 113 1399
436 113 1390
443 114 1399
442 112 1383
442 111 1367
453 113 1387
454 112 1377
458 112 1376
463 112 1378
464 111 1366
471 112 1373
472 111 1364
478 112 1368
484 112 1373
486 112 1365
492 112 1368
500 113 1378
500 112 1365
508 113 1374
510 112 1368
519 113 1379
525 113 1382
529 114 1382
537 114 1389
543 115 1393
550 115 1399
550 114 1387
557 115 1393
562 115 1392
565 115 1387
571 115 1392
584 117 1410
600 119 1436
610 120 1450
615 120 1450
614 119 1433
616 118 1427
610 117 1402
613 116 1397
615 116 1389
624 117 1399
626 116 1392
627 115 1383
646 118 1413
645 117 1399
645 116 1389
650 116 1388
663 118 1405
672 119 1412
681 119 1421
683 119 1414
683 118 1402
692 119 1411
711 121 1437
715 121 1435
713 120 1420
716 120 1415
750 125 1471
755 125 1469
762 125 1471
757 123 1451
760 123 1447
770 124 1455
859 137 1611
925 147 1723
940 148 1738
954 150 1751
952 148 1733
957 148 1730
965 149 1732
972 149 1732
-1287 218 2240
-1285 219 2252
-1268 217 2238
-1280 220 2276
-1262 218 2261
-1226 213 2213
-1227 215 2232
-1225 216 2245
-1203 213 2221
-1201 214 2234
-1183 212 2217
-1174 212 2217
-1162 211 2211
-1156 211 2216
-1126 206 2173
-1036 191 2015
-989 184 1940
-975 182 1927
-972 183 1936
-986 186 1978
-945 180 1911
-948 182 1933
-935 180 1920
-933 181 1931
-922 180 1924
-913 179 1919
-901 178 1909
-894 178 1908
-886 177 1908
-880 177 1910
-873 177 1909
-865 177 1907
-853 175 1897
-848 175 1899
-842 175 1903
-832 175 1896
-824 174 1893
-817 174 1892
-815 175 1904
-782 169 1842
-794 172 1886
-752 165 1800
-796 175 1923
-771 171 1879
-778 174 1912
-762 172 1887
-735 167 1837
-760 174 1915
-737 170 1873
-727 169 1866
-728 170 1885
-714 168 1864
-703 167 1853
-709 170 1884
-702 169 1882
-686 167 1857
-665 163 1816
-666 165 1837
-661 165 1841
-652 164 1833
-647 164 1834
-651 166 1862
-629 162 1817
-621 161 1810
-619 162 1824
-624 165 1855
-623 166 1869
-603 162 1828
-591 160 1810
-581 159 1797
-566 157 1770
-576 160 1817
-575 162 1834
-555 158 1790
-578 166 1882
-547 158 1799
-529 155 1760
-539 159 1810
-538 160 1829
-509 153 1748
-493 150 1713
-508 156 1784
-507 157 1799
-492 154 1764
-480 152 1743
-475 152 1743
-480 155 1783
-473 155 1779
-466 154 1770
-453 152 1742
-458 155 1782
-438 150 1728
-450 156 1797
-438 153 1768
-430 152 1757
-421 151 1743
-414 150 1738
-398 146 1694
-402 150 1732
-399 150 1742
-386 147 1708
-392 151 1756
-388 152 1765
-379 150 1746
-368 148 1719
-365 149 1729
-360 149 1734
-362 151 1765
-353 150 1747
-347 150 1745
-346 151 1764
-339 150 1758
-324 146 1707
-325 149 1738
-314 146 1709
-306 144 1689
-302 145 1699
-307 150 1753
-302 150 1757
-283 143 1676
-278 143 1677
-280 146 1717
-277 147 1733
-273 148 1740
-257 142 1670
-256 144 1690
-251 144 1696
-248 145 1704
-243 144 1704
-238 145 1710
-225 140 1652
-226 143 1690
-220 142 1684
-213 141 1669
-211 143 1690
-203 141 1664
-188 133 1579
-185 135 1594
-171 128 1514
-174 134 1585
-170 134 1592
-163 132 1565
-156 130 1541
-148 127 1510
-154 136 1613
-151 137 1631
-145 136 1620
-141 137 1628
-139 140 1662
-136 141 1681
-129 139 1650
-127 142 1689
-118 137 1638
-115 138 1651
-108 136 1620
-101 133 1592
-94 130 1548
-91 132 1573
-84 129 1541
-81 131 1569
-78 133 1593
-73 133 1589
-68 131 1570
-64 132 1575
-60 134 1608
-56 134 1609
-51 133 1593
-47 136 1632
-43 136 1634
-38 136 1633
-33 136 1629
-28 135 1619
-23 135 1615
-19 135 1617
-14 136 1632
-10 136 1637
-5 135 1622
0 135 1622
4 135 1620
8 135 1616
13 134 1606
18 134 1611
22 134 1611
27 135 1619
31 134 1607
36 135 1622
41 134 1615
46 134 1615
50 133 1605
56 136 1638
60 135 1629
64 133 1606
69 134 1611
73 134 1612
78 134 1614
83 134 1615
87 133 1599
92 133 1603
97 134 1618
102 134 1620
106 134 1616
110 133 1605
115 133 1601
120 133 1607
124 132 1596
131 135 1628
132 132 1586
136 131 1576
140 130 1570
146 131 1586
150 131 1585
152 129 1554
160 131 1586
164 131 1578
162 126 1522
172 130 1572
175 129 1556
181 130 1569
184 129 1552
192 131 1583
195 130 1570
195 127 1535
199 127 1526
203 126 1523
208 127 1530
211 126 1522
215 126 1514
218 125 1508
221 124 1495
226 124 1500
232 125 1513
234 124 1492
240 125 1501
241 123 1479
246 123 1484
250 123 1485
253 123 1476
258 123 1478
261 122 1470
268 123 1485
269 122 1466
274 122 1471
277 121 1461
283 122 1469
284 121 1450
290 122 1462
293 121 1456
298 121 1455
302 121 1456
303 120 1438
307 120 1438
311 119 1433
317 120 1444
322 120 1445
324 119 1434
328 120 1434
333 120 1438
335 119 1425
339 119 1425
343 119 1421
349 119 1428
354 120 1432
355 118 1419
360 119 1419
365 119 1423
368 118 1417
373 119 1421
375 118 1409
379 118 1407
384 118 1412
384 117 1395
390 117 1399
395 117 1401
399 118 1402
404 118 1405
403 116 1384
409 117 1390
414 117 1392
418 117 1389
425 118 1400
429 117 1396
431 117 1388
434 116 1383
450 120 1422
432 114 1348
444 116 1373
456 118 1395
455 116 1378
460 117 1381
463 116 1377
468 117 1379
473 117 1379
476 116 1376
481 116 1375
485 117 1376
486 116 1366
487 115 1353
494 116 1362
499 116 1363
504 116 1365
509 116 1365
510 115 1355
520 117 1368
520 116 1358
528 117 1367
533 117 1366
538 117 1367
540 116 1360
546 117 1364
553 117 1369
552 116 1355
554 116 1350
561 116 1355
571 117 1366
575 117 1365
579 117 1364
583 117 1360
586 117 1356
589 117 1353
594 117 1352
599 117 1352
603 117 1351
603 116 1340
611 117 1346
617 117 1349
624 118 1354
622 116 1339
624 116 1333
632 116 1338
639 117 1343
644 117 1342
650 117 1345
649 117 1333
659 117 1342
662 117 1339
675 119 1354
674 118 1341
689 120 1361
689 119 1351
694 119 1350
697 119 1346
706 119 1352
709 119 1347
710 119 1339
820 136 1537
930 153 1731
937 153 1732
954 155 1750
954 154 1737
956 154 1728
966 154 1733
975 155 1736
-1297 227 2257
-1300 229 2278
-1273 225 2247
-1257 224 2235
-1251 224 2241
-1238 223 2234
-1216 220 2210
-1206 220 2210
-1202 220 2218
-1197 220 2226
-1182 219 2215
-1168 217 2204
-1168 219 2222
-1151 217 2206
-1143 217 2207
-1043 199 2029
-990 190 1941
-974 188 1925
-969 188 1930
-948 185 1902
-960 189 1940
-947 187 1929
-942 188 1935
-931 187 1926
-921 186 1921
-913 185 1920
-904 185 1915
-895 184 1911
-887 184 1909
-878 183 1905
-872 183 1907
-862 182 1900
-857 182 1904
-847 181 1898
-843 182 1904
-831 180 1893
-806 176 1851
-812 178 1879
-802 178 1873
-788 176 1855
-767 172 1822
-774 175 1853
-766 174 1849
-767 176 1868
-755 174 1854
-752 175 1863
-750 176 1875
-759 179 1912
-757 180 1926
-734 176 1883
-704 170 1822
-711 173 1857
-699 172 1842
-686 170 1823
-680 169 1823
-679 171 1839
-681 173 1860
-680 174 1875
-661 170 1838
-644 167 1810
-668 175 1892
-637 168 1824
-642 171 1854
-611 164 1781
-628 170 1851
-617 168 1833
-611 168 1836
-598 166 1813
-593 166 1817
-566 160 1750
-592 169 1850
-576 166 1819
-563 164 1795
-552 162 1779
-557 165 1813
-553 166 1820
-533 161 1772
-548 167 1840
-536 165 1822
-520 162 1784
-521 164 1807
-508 161 1781
-498 160 1768
-490 159 1758
-492 161 1786
-489 162 1795
-481 161 1788
-476 161 1788
-470 161 1787
-457 158 1760
-443 155 1727
-439 155 1729
-448 160 1787
-425 154 1717
-437 160 1787
-435 161 1800
-417 157 1751
-418 159 1776
-408 157 1757
-403 157 1760
-392 155 1734
-388 155 1740
-390 158 1774
-380 156 1750
-377 157 1762
-366 154 1735
-369 157 1773
-367 159 1791
-343 151 1701
-344 153 1731
-340 154 1736
-333 153 1724
-329 153 1734
-323 153 1726
-310 149 1688
-305 149 1686
-301 150 1694
-295 149 1685
-302 155 1755
-294 154 1742
-282 150 1697
-287 155 1757
-272 149 1699
-277 155 1764
-274 156 1778
-254 147 1677
-256 152 1729
-242 146 1668
-246 152 1730
-236 148 1694
-229 147 1677
-232 152 1738
-222 149 1702
-215 147 1685
-213 149 1707
-197 141 1614
-189 139 1592
-178 135 1541
-178 138 1575
-179 142 1630
-171 140 1599
-166 139 1597
-161 139 1592
-164 145 1670
-158 144 1655
-154 144 1658
-148 144 1650
-142 142 1634
-142 147 1690
-133 143 1644
-130 145 1664
-126 146 1676
-119 143 1647
-115 144 1657
-109 142 1640
-109 149 1715
-100 143 1651
-94 140 1620
-87 138 1593
-83 139 1604
-78 137 1581
-75 141 1626
-69 138 1598
-67 142 1647
-60 139 1606
-58 144 1671
-51 139 1605
-46 139 1607
-43 143 1658
-37 140 1622
-33 141 1636
-28 140 1626
-24 141 1635
-18 138 1600
-14 138 1601
-9 139 1615
-5 139 1612
0 136 1573
4 138 1596
8 139 1610
13 141 1642
17 136 1578
22 134 1559
27 141 1639
31 134 1556
36 139 1616
39 133 1548
45 136 1581
50 139 1620
56 141 1640
59 138 1600
63 135 1574
66 132 1533
72 137 1588
79 141 1638
82 137 1595
85 134 1559
90 136 1579
91 130 1517
98 134 1555
103 135 1569
108 135 1571
113 135 1576
117 135 1569
122 135 1574
126 135 1573
131 135 1578
135 135 1567
140 135 1573
145 135 1577
148 134 1559
155 136 1583
157 134 1559
163 135 1570
166 134 1560
172 135 1572
176 134 1562
180 134 1559
185 134 1567
189 134 1559
192 133 1548
200 135 1572
204 134 1566
207 133 1553
211 133 1548
218 135 1569
220 133 1548
224 133 1545
227 132 1534
231 131 1531
237 132 1541
242 133 1543
243 131 1525
250 132 1536
253 131 1529
255 130 1514
261 131 1522
269 132 1539
271 131 1526
271 129 1502
279 131 1521
282 130 1512
286 130 1508
291 130 1510
291 128 1488
295 128 1484
297 127 1472
305 128 1491
309 128 1490
309 126 1465
315 127 1474
317 126 1461
322 127 1468
325 126 1461
330 126 1460
333 125 1454
339 126 1461
339 125 1443
344 125 1446
345 123 1429
352 124 1440
354 124 1432
357 123 1427
365 125 1441
367 124 1430
371 124 1428
373 123 1419
379 123 1426
380 122 1413
385 123 1414
386 122 1403
393 122 1409
396 122 1405
402 122 1410
405 122 1407
409 122 1403
412 122 1401
415 121 1396
419 121 1392
423 121 1391
424 120 1381
431 121 1389
434 121 1383
443 122 1398
449 123 1404
441 119 1364
456 122 1395
462 122 1401
457 120 1372
462 120 1374
468 121 1377
474 121 1383
474 120 1368
484 121 1383
481 120 1362
489 120 1372
491 120 1366
496 120 1368
500 120 1364
506 121 1369
512 121 1371
516 121 1371
516 120 1358
520 120 1356
525 120 1358
531 120 1361
535 120 1359
541 121 1363
542 120 1353
546 120 1351
555 121 1363
556 120 1352
556 119 1343
566 121 1355
569 120 1350
573 120 1348
574 119 1339
582 120 1347
582 119 1337
589 120 1340
594 120 1341
598 120 1338
607 121 1348
607 120 1338
614 121 1341
619 121 1343
626 121 1347
629 121 1342
630 120 1334
636 121 1336
642 121 1339
648 121 1341
649 121 1332
652 120 1327
658 121 1328
667 122 1337
669 121 1331
670 120 1322
677 121 1326
688 122 1337
687 121 1326
689 121 1318
694 121 1320
704 122 1328
820 141 1536
920 157 1711
942 160 1741
953 161 1748
958 161 1744
966 161 1746
968 160 1736
968 159 1723
-1306 236 2272
-1298 236 2274
-1281 234 2261
-1273 234 2264
-1266 234 2268
-1248 232 2252
-1241 232 2255
-1213 228 2222
-1199 227 2212
-1195 227 2222
-1177 225 2204
-1175 226 2217
-1169 226 2222
-1155 225 2213
-1137 223 2195
-1056 208 2054
-990 196 1941
-978 195 1931
-971 195 1932
-974 197 1953
-964 196 1948
-959 196 1953
-949 195 1949
-942 195 1948
-931 194 1942
-916 192 1925
-905 191 1916
-899 191 1919
-889 190 1913
-883 190 1916
-871 189 1905
-859 187 1894
-855 188 1900
-843 186 1889
-841 187 1900
-833 187 1897
-824 186 1892
-816 185 1890
-811 185 1894
-787 181 1852
-760 176 1805
-798 186 1910
-785 185 1895
-788 187 1919
-745 178 1830
-763 184 1891
-738 179 1844
-734 179 1850
-748 184 1902
-733 181 1879
-726 181 1877
-718 181 1874
-701 178 1847
-705 180 1875
-695 179 1865
-693 180 1876
-679 178 1854
-668 176 1841
-653 174 1815
-647 173 1816
-647 175 1834
-657 179 1879
-622 171 1797
-648 180 1889
-609 170 1793
-609 172 1812
-606 173 1819
-612 176 1855
-592 171 1812
-591 173 1828
-591 174 1846
-571 170 1803
-571 172 1821
-554 168 1784
-569 174 1851
-556 172 1829
-545 170 1813
-530 167 1781
-527 168 1789
-523 168 1795
-510 166 1771
-504 165 1768
-500 166 1776
-484 162 1737
-497 168 1804
-492 168 1807
-477 165 1772
-474 166 1782
-463 164 1760
-467 167 1796
-461 166 1793
-454 166 1790
-447 165 1782
-440 165 1777
-440 166 1798
-423 162 1751
-417 162 1751
-411 161 1745
-404 161 1740
-400 161 1745
-393 160 1737
-397 164 1778
-374 156 1698
-385 163 1773
-367 158 1716
-374 163 1771
-361 159 1738
-356 159 1737
-357 162 1768
-345 159 1733
-333 156 1699
-343 163 1778
-330 159 1740
-316 154 1690
-312 155 1696
-307 155 1698
-313 160 1759
-302 157 1724
-291 154 1694
-293 158 1731
-281 154 1691
-284 158 1740
-276 157 1721
-272 157 1729
-262 154 1698
-254 153 1682
-247 151 1668
-248 155 1708
-244 155 1715
-234 152 1675
-229 152 1679
-227 154 1702
-222 154 1701
-214 152 1679
-212 153 1696
-198 147 1625
-196 149 1647
-191 149 1650
-184 147 1628
-180 148 1638
-174 146 1622
-163 141 1563
-169 150 1665
-162 148 1647
-163 153 1702
-153 148 1648
-150 150 1667
-144 149 1656
-137 147 1638
-136 150 1674
-133 152 1697
-125 150 1667
-120 149 1663
-116 150 1676
-112 151 1683
-104 147 1641
-100 148 1648
-96 149 1658
-90 146 1633
-86 149 1660
-81 147 1646
-74 144 1610
-71 147 1647
-67 149 1665
-60 144 1607
-57 147 1640
-52 146 1634
-47 144 1614
-43 147 1648
-38 147 1650
-33 146 1640
-28 146 1635
-23 145 1623
-18 141 1584
-14 145 1621
-9 144 1613
-5 143 1604
0 141 1586
4 141 1587
8 144 1613
13 141 1587
17 142 1590
22 144 1614
27 145 1625
31 141 1589
36 143 1604
41 142 1601
45 141 1585
50 142 1596
54 141 1583
59 141 1589
64 143 1607
67 139 1560
73 141 1591
78 143 1613
82 142 1603
85 139 1570
89 138 1552
95 140 1581
100 141 1583
103 139 1568
107 138 1550
113 140 1577
118 140 1581
120 138 1552
126 139 1563
130 139 1562
136 140 1581
140 140 1573
144 139 1562
150 140 1575
148 134 1510
155 136 1533
162 138 1560
166 138 1552
170 138 1553
171 135 1518
180 139 1560
181 135 1525
192 140 1579
194 138 1557
195 136 1535
203 138 1560
202 135 1516
211 137 1548
211 135 1517
226 141 1594
216 132 1491
225 135 1522
228 134 1512
239 138 1555
236 134 1509
247 137 1547
246 134 1509
251 135 1513
266 140 1578
260 135 1513
256 130 1465
257 129 1446
277 136 1532
283 137 1544
281 134 1507
279 131 1474
287 133 1490
294 134 1505
284 127 1428
303 134 1504
309 134 1509
311 133 1496
318 134 1507
319 133 1495
324 133 1497
327 133 1486
332 133 1489
336 133 1489
340 133 1486
344 132 1483
349 132 1483
353 132 1481
355 131 1471
361 132 1477
364 132 1471
369 132 1472
370 131 1460
376 131 1465
378 130 1454
385 131 1463
387 130 1453
392 131 1457
397 131 1457
401 130 1455
400 129 1437
405 129 1438
411 129 1441
412 129 1431
416 128 1427
422 129 1433
427 129 1435
424 127 1409
443 131 1458
430 126 1401
465 135 1499
439 126 1401
453 129 1431
447 126 1396
440 123 1360
457 127 1400
465 127 1410
466 127 1399
492 132 1463
481 128 1416
475 126 1385
493 129 1425
488 127 1397
493 127 1396
496 127 1393
492 124 1367
500 125 1377
514 128 1404
513 126 1387
518 127 1389
519 126 1379
525 126 1381
529 126 1379
530 125 1370
539 126 1381
541 126 1375
547 126 1377
553 127 1380
556 126 1376
557 126 1367
561 126 1366
568 126 1369
572 126 1369
581 127 1377
583 127 1372
585 126 1364
592 127 1371
599 127 1375
602 127 1370
607 127 1369
610 127 1365
618 127 1373
622 127 1370
627 128 1371
636 128 1378
635 127 1366
635 126 1355
644 127 1364
651 128 1367
656 128 1366
660 128 1365
659 127 1352
672 128 1368
668 127 1349
674 127 1350
685 128 1361
687 128 1356
686 127 1344
694 127 1348
693 127 1337
705 128 1349
707 127 1343
711 127 1342
835 149 1565
929 164 1729
934 164 1725
952 166 1746
953 165 1734
960 166 1735
969 166 1737
973 166 1731
-1312 245 2282
-1301 244 2278
-1284 242 2266
-1274 241 2265
-1273 243 2280
-1255 241 2265
-1241 239 2256
-1227 238 2247
-1226 239 2262
-1217 239 2262
-1193 235 2234
-1191 236 2246
-1179 235 2240
-1163 233 2227
-1144 231 2208
-1079 219 2098
-995 204 1951
-974 200 1923
-976 202 1941
-982 205 1969
-985 206 1989
-981 207 1997
-981 208 2013
-974 208 2014
-965 207 2011
-951 206 1998
-934 203 1979
-919 201 1962
-901 199 1938
-897 199 1945
-878 196 1920
-867 195 1910
-864 196 1919
-858 195 1921
-845 194 1909
-841 194 1914
-830 193 1904
-823 193 1904
-812 192 1896
-802 190 1887
-793 190 1882
-802 193 1920
-774 188 1869
-765 187 1863
-765 188 1878
-783 194 1940
-746 186 1864
-754 190 1898
-736 187 1870
-718 184 1842
-717 185 1855
-712 185 1858
-694 182 1828
-709 187 1885
-694 184 1860
-700 188 1895
-674 182 1840
-663 180 1826
-662 182 1841
-664 184 1864
-649 181 1838
-644 181 1841
-636 180 1835
-621 178 1810
-618 178 1818
-613 179 1824
-611 179 1833
-606 179 1836
-586 175 1794
-592 179 1832
-579 176 1807
-578 178 1824
-569 176 1813
-557 174 1795
-571 180 1859
-551 176 1811
-536 173 1782
-525 171 1763
-523 172 1777
-532 177 1827
-510 171 1768
-505 171 1773
-506 173 1794
-502 174 1802
-487 170 1768
-485 171 1780
-483 172 1793
-470 169 1764
-464 169 1762
-466 172 1794
-457 170 1779
-442 167 1740
-435 166 1737
-448 173 1810
-436 170 1784
-425 168 1762
-416 166 1745
-405 164 1721
-411 169 1771
-397 165 1732
-400 168 1770
-381 162 1709
-383 165 1741
-373 163 1716
-373 166 1745
-367 165 1739
-357 163 1718
-355 164 1731
-352 165 1745
-340 161 1707
-346 167 1764
-334 163 1731
-331 164 1742
-323 163 1727
-317 163 1725
-310 162 1715
-312 165 1752
-305 164 1744
-293 160 1706
-294 163 1738
-289 164 1741
-277 159 1697
-276 162 1724
-265 158 1687
-270 164 1747
-257 160 1702
-250 158 1688
-247 159 1699
-233 153 1638
-238 160 1707
-229 157 1679
-233 163 1741
-224 160 1717
-213 156 1666
-211 158 1691
-204 156 1674
-199 156 1672
-194 156 1671
-188 155 1659
-183 155 1661
-179 156 1674
-173 155 1661
-172 158 1697
-166 157 1690
-158 154 1652
-154 155 1666
-151 156 1681
-143 153 1643
-141 156 1685
-132 152 1635
-128 152 1637
-125 154 1657
-121 155 1676
-112 149 1610
-112 156 1682
-105 153 1655
-99 151 1628
-96 154 1664
-88 149 1608
-86 154 1662
-78 148 1600
-75 151 1633
-71 152 1647
-67 152 1649
-61 149 1619
-57 151 1638
-53 153 1654
-47 150 1623
-43 152 1651
-38 153 1656
-33 150 1628
-28 150 1632
-23 150 1628
-19 151 1641
-14 151 1639
-9 150 1626
-5 150 1630
0 147 1600
4 146 1587
8 151 1638
13 149 1617
18 148 1605
22 145 1576
27 146 1586
32 149 1620
36 146 1593
40 146 1587
45 144 1572
49 145 1583
55 149 1621
59 146 1593
63 145 1575
67 144 1573
72 145 1582
75 142 1544
83 149 1619
88 148 1612
91 146 1589
94 143 1563
101 147 1598
104 144 1572
110 147 1601
112 143 1560
118 145 1576
120 141 1542
128 146 1595
132 145 1579
136 144 1572
136 140 1529
146 145 1586
147 142 1550
153 143 1565
157 142 1553
162 143 1558
169 145 1585
168 140 1529
175 143 1556
180 143 1557
184 142 1553
186 141 1533
193 143 1554
199 143 1564
202 142 1552
203 140 1525
211 142 1552
217 143 1560
221 143 1554
219 139 1512
226 140 1529
229 139 1515
235 140 1527
236 138 1505
240 138 1500
249 141 1533
249 138 1502
258 141 1532
260 139 1517
261 137 1492
261 135 1467
274 139 1515
277 139 1511
280 138 1502
291 141 1534
287 137 1490
291 137 1486
303 140 1523
302 138 1500
306 137 1494
307 136 1476
319 139 1512
327 141 1531
321 136 1481
332 139 1511
331 137 1487
333 136 1473
342 138 1493
348 138 1499
350 137 1488
356 138 1495
359 137 1486
362 137 1483
371 139 1500
372 137 1483
368 134 1450
374 135 1457
387 138 1490
392 138 1489
388 135 1458
387 133 1438
405 138 1488
405 136 1472
410 136 1470
409 135 1451
414 135 1453
416 134 1443
425 136 1459
422 133 1432
441 138 1482
436 135 1449
441 135 1452
452 137 1470
449 135 1447
451 134 1437
461 136 1454
454 132 1419
472 136 1459
467 134 1430
465 132 1409
476 133 1427
484 135 1438
477 131 1403
487 133 1421
488 132 1409
490 131 1401
499 133 1415
514 135 1442
507 133 1411
510 132 1403
528 136 1442
513 131 1386
530 134 1419
524 131 1391
530 132 1395
538 133 1403
544 133 1406
557 135 1427
555 133 1410
570 136 1435
556 132 1389
588 138 1455
576 134 1413
571 132 1390
576 132 1390
585 133 1400
609 138 1445
598 134 1406
578 129 1348
608 134 1406
610 134 1399
622 135 1415
607 131 1369
628 135 1405
632 135 1404
615 130 1355
648 136 1416
616 129 1335
642 133 1380
628 129 1339
668 136 1414
645 131 1354
639 129 1332
670 134 1384
659 131 1352
665 131 1354
674 132 1360
695 136 1393
692 134 1375
684 132 1349
663 127 1298
691 131 1342
689 130 1329
722 135 1383
714 133 1357
726 134 1369
855 157 1602
931 170 1731
945 172 1745
948 171 1737
960 172 1747
960 171 1733
972 172 1741
977 172 1738
-1317 253 2290
-1304 252 2284
-1288 250 2272
-1285 251 2283
-1274 250 2282
-1260 249 2273
-1245 247 2262
-1237 247 2265
-1226 246 2261
-1211 245 2251
-1199 244 2245
-1189 243 2244
-1181 243 2244
-1162 240 2225
-1152 240 2223
-1111 232 2159
-1023 216 2004
-981 208 1936
-976 208 1941
-984 211 1972
-989 214 1998
-989 215 2014
-985 215 2022
-984 216 2035
-984 218 2052
-985 219 2069
-995 223 2107
-985 222 2102
-966 219 2077
-944 216 2048
-925 213 2022
-928 215 2044
-931 217 2068
-926 217 2074
-926 219 2091
-913 217 2077
-899 215 2064
-884 213 2045
-859 209 2005
-849 208 1998
-831 205 1972
-817 203 1954
-804 201 1939
-789 199 1921
-783 199 1921
-765 196 1894
-758 195 1894
-746 194 1880
-719 188 1828
-750 198 1923
-734 195 1899
-719 192 1876
-706 190 1858
-690 188 1834
-670 184 1797
-699 193 1891
-681 189 1859
-673 189 1853
-660 187 1836
-660 188 1852
-641 184 1817
-628 182 1798
-637 186 1841
-637 188 1858
-624 186 1837
-618 186 1838
-601 182 1802
-578 177 1753
-589 182 1804
-600 187 1855
-567 178 1772
-561 178 1769
-560 179 1785
-570 184 1835
-554 180 1802
-552 181 1814
-525 174 1744
-548 184 1839
-516 175 1751
-517 177 1775
-519 179 1801
-517 181 1814
-498 176 1768
-501 179 1797
-509 183 1846
-494 180 1813
-471 173 1750
-470 175 1764
-471 177 1791
-463 176 1782
-456 175 1776
-445 173 1753
-430 169 1716
-445 177 1796
-434 175 1775
-421 172 1743
-421 174 1765
-411 172 1747
-417 176 1795
-397 170 1733
-397 172 1754
-394 173 1766
-387 172 1760
-375 169 1728
-377 172 1762
-371 172 1756
-368 173 1771
-354 169 1727
-355 172 1758
-342 167 1717
-336 167 1714
-340 171 1761
-335 172 1762
-315 164 1685
