VERSION 0.7
FIELDS x y z
SIZE 4 4 4
TYPE I I I
COUNT 1 1 1
WIDTH 3162
HEIGHT 1
VIEWPOINT 0.0 0.0 0.0 1.0 0.0 0.0 0.0
POINTS 3162
DATA ascii
-243 -1054 2717
-234 -1052 2712
-226 -1052 2714
-216 -1046 2697
-209 -1049 2707
-200 -1048 2703
-192 -1049 2708
-184 -1049 2708
-175 -1043 2692
-166 -1041 2688
-158 -1038 2679
-151 -1044 2696
-141 -1037 2678
-133 -1036 2674
-125 -1037 2678
-117 -1037 2677
-108 -1034 2670
-100 -1032 2666
-92 -1028 2654
-84 -1027 2652
-75 -1027 2652
-67 -1027 2652
-59 -1025 2647
-51 -1026 2650
-43 -1025 2646
-35 -1026 2648
-27 -1019 2630
-19 -1022 2640
-11 -1024 2643
-3 -1022 2639
4 -1024 2645
12 -1016 2622
20 -1014 2617
28 -1019 2629
36 -1022 2636
44 -1015 2620
51 -1013 2614
59 -1013 2613
67 -1012 2612
75 -1012 2611
83 -1011 2606
90 -1006 2593
98 -1007 2596
106 -1008 2597
114 -1008 2597
122 -1003 2584
130 -1004 2587
137 -1004 2585
145 -1002 2581
153 -1003 2582
160 -999 2572
168 -1001 2575
176 -999 2571
184 -1002 2578
191 -997 2565
199 -996 2561
206 -996 2560
214 -996 2558
221 -994 2552
230 -998 2564
237 -994 2552
244 -991 2543
253 -995 2553
259 -989 2538
267 -989 2536
274 -986 2526
283 -992 2542
290 -989 2532
298 -990 2536
305 -988 2529
312 -986 2522
319 -985 2519
327 -985 2517
335 -986 2520
342 -984 2513
349 -982 2508
357 -982 2507
364 -981 2503
372 -982 2503
380 -983 2504
387 -981 2500
394 -979 2493
402 -980 2494
408 -976 2482
418 -981 2494
425 -980 2490
431 -977 2482
438 -975 2476
445 -975 2474
453 -974 2471
461 -976 2474
468 -976 2471
475 -974 2465
483 -974 2465
490 -974 2463
497 -972 2457
503 -970 2449
510 -968 2444
521 -974 2457
525 -969 2442
536 -975 2456
540 -967 2435
549 -970 2442
556 -969 2437
564 -970 2439
571 -970 2435
577 -967 2427
585 -967 2425
593 -969 2427
601 -969 2427
609 -969 2425
613 -964 2411
621 -965 2412
629 -966 2411
634 -963 2401
645 -967 2409
651 -965 2403
658 -964 2399
666 -966 2401
674 -966 2399
679 -962 2387
689 -965 2394
694 -963 2385
702 -963 2385
708 -962 2379
715 -961 2375
723 -962 2375
732 -964 2377
736 -959 2363
745 -961 2367
753 -962 2366
759 -959 2358
766 -960 2356
776 -962 2360
781 -959 2350
791 -962 2355
797 -961 2350
803 -959 2343
811 -960 2342
817 -958 2336
825 -959 2334
832 -958 2331
842 -961 2336
846 -958 2324
857 -961 2331
864 -961 2328
870 -959 2320
879 -961 2322
887 -962 2322
891 -958 2310
900 -960 2311
903 -954 2296
915 -959 2305
924 -961 2307
925 -955 2288
938 -960 2298
945 -960 2295
952 -959 2290
960 -960 2289
962 -955 2274
974 -960 2282
982 -960 2280
988 -958 2273
993 -956 2265
1001 -956 2263
1008 -957 2260
1017 -958 2260
1022 -955 2251
1032 -958 2254
1038 -957 2249
1050 -961 2255
1057 -960 2250
1062 -958 2241
1067 -957 2235
1074 -956 2229
1046 -924 2152
973 -854 1986
911 -794 1844
890 -770 1785
902 -775 1794
911 -778 1798
911 -773 1783
920 -776 1787
928 -778 1788
923 -768 1764
932 -771 1766
937 -770 1762
944 -771 1761
956 -776 1769
956 -771 1755
963 -771 1753
970 -772 1752
972 -769 1743
981 -771 1744
980 -766 1729
988 -768 1730
995 -769 1729
1003 -770 1730
1002 -765 1715
1017 -772 1727
1019 -769 1717
1020 -765 1705
1038 -774 1722
-2106 -1482 3371
-2084 -1475 3360
-2082 -1482 3383
-2060 -1475 3373
-2043 -1471 3370
-2018 -1462 3354
-2005 -1460 3357
-1982 -1453 3345
-1970 -1452 3350
-1950 -1446 3341
-1924 -1435 3321
-1894 -1421 3296
-1879 -1419 3295
-1859 -1412 3285
-1836 -1403 3270
-1805 -1388 3240
-1795 -1389 3248
-1771 -1379 3229
-1752 -1373 3219
-1739 -1371 3220
-1712 -1358 3195
-1707 -1363 3212
-1696 -1363 3217
-1684 -1362 3220
-1671 -1360 3220
-1653 -1355 3212
-1645 -1357 3222
-1622 -1347 3202
-1610 -1346 3205
-1586 -1335 3183
-1568 -1329 3173
-1537 -1311 3135
-1521 -1306 3127
-1512 -1308 3135
-1497 -1304 3131
-1486 -1303 3133
-1461 -1291 3108
-1420 -1263 3045
-1399 -1253 3025
-1385 -1250 3021
-1367 -1242 3006
-1355 -1241 3007
-1340 -1236 2999
-1322 -1228 2984
-1310 -1227 2983
-1293 -1219 2969
-1275 -1212 2955
-1254 -1201 2932
-1236 -1193 2914
-1226 -1193 2918
-1204 -1180 2891
-1213 -1199 2939
-1212 -1207 2963
-1093 -1098 2697
-921 -933 2294
-882 -901 2218
-1039 -1069 2635
-1153 -1196 2952
-1158 -1211 2991
-1160 -1223 3025
-1147 -1220 3021
-1136 -1218 3019
-1126 -1218 3021
-1114 -1216 3019
-1106 -1218 3026
-1090 -1211 3013
-1075 -1205 3001
-1066 -1206 3006
-1050 -1199 2990
-1042 -1201 2998
-1028 -1195 2987
-1014 -1189 2975
-1005 -1191 2981
-990 -1184 2967
-983 -1187 2977
-972 -1185 2975
-957 -1178 2960
-945 -1175 2955
-931 -1169 2942
-921 -1168 2942
-915 -1172 2955
-903 -1169 2949
-889 -1163 2935
-875 -1157 2922
-863 -1153 2916
-846 -1143 2891
-838 -1143 2895
-825 -1139 2886
-815 -1137 2884
-805 -1135 2881
-792 -1129 2868
-787 -1135 2885
-772 -1128 2867
-764 -1128 2871
-758 -1134 2886
-744 -1125 2866
-737 -1129 2878
-727 -1127 2875
-715 -1123 2866
-703 -1118 2855
-695 -1118 2857
-686 -1118 2859
-675 -1115 2852
-666 -1114 2852
-655 -1111 2846
-645 -1109 2841
-636 -1110 2845
-624 -1103 2830
-613 -1100 2824
-604 -1098 2819
-594 -1097 2819
-585 -1095 2815
-576 -1096 2819
-566 -1094 2813
-559 -1096 2820
-549 -1094 2818
-540 -1093 2815
-530 -1090 2808
-520 -1087 2804
-511 -1087 2804
-504 -1089 2811
-493 -1085 2802
-481 -1079 2785
-477 -1087 2809
-466 -1082 2795
-454 -1074 2778
-446 -1075 2781
-438 -1076 2785
-425 -1067 2761
-419 -1073 2777
-411 -1073 2778
-401 -1071 2774
-393 -1071 2775
-383 -1066 2763
-373 -1063 2757
-364 -1061 2751
-356 -1062 2756
-348 -1062 2756
-338 -1057 2742
-329 -1057 2745
-321 -1057 2746
-312 -1056 2744
-303 -1054 2738
-293 -1049 2725
-286 -1051 2731
-277 -1048 2725
-268 -1046 2719
-260 -1047 2723
-250 -1041 2708
-242 -1042 2711
-234 -1043 2714
-225 -1040 2706
-217 -1040 2707
-208 -1038 2701
-199 -1035 2694
-191 -1034 2692
-183 -1035 2694
-174 -1029 2679
-165 -1025 2670
-158 -1031 2686
-150 -1030 2683
-140 -1022 2662
-133 -1025 2669
-124 -1023 2665
-116 -1022 2662
-108 -1022 2664
-100 -1022 2664
-92 -1021 2659
-84 -1022 2664
-76 -1020 2658
-68 -1021 2660
-60 -1022 2663
-51 -1018 2653
-43 -1017 2649
-35 -1015 2644
-27 -1016 2647
-19 -1011 2635
-11 -1008 2625
-3 -1009 2628
4 -1012 2637
12 -1012 2637
20 -1010 2630
28 -1007 2622
36 -1008 2624
44 -1007 2620
52 -1004 2614
59 -1001 2606
67 -1004 2613
75 -1001 2605
83 -1002 2608
91 -998 2596
99 -1001 2603
106 -999 2598
115 -1002 2605
122 -996 2589
130 -996 2590
137 -993 2581
145 -991 2575
153 -992 2577
161 -994 2581
168 -991 2574
176 -990 2571
183 -990 2568
191 -989 2565
199 -989 2565
206 -986 2558
215 -991 2569
221 -985 2554
229 -985 2553
237 -985 2551
244 -983 2545
251 -979 2535
259 -980 2537
267 -983 2543
274 -981 2537
282 -982 2538
290 -981 2534
297 -980 2532
305 -980 2530
312 -979 2527
320 -978 2522
326 -975 2515
334 -976 2517
343 -978 2519
350 -976 2514
357 -974 2507
364 -973 2504
371 -970 2497
379 -972 2501
386 -971 2497
393 -969 2489
402 -971 2495
409 -970 2490
416 -970 2487
424 -970 2488
429 -964 2470
437 -966 2475
445 -967 2474
451 -964 2466
460 -967 2473
467 -965 2467
476 -967 2470
483 -966 2467
490 -965 2463
498 -967 2466
505 -964 2457
511 -962 2450
518 -961 2447
527 -965 2454
534 -964 2450
541 -962 2444
548 -962 2441
554 -959 2433
562 -958 2430
569 -958 2427
577 -959 2427
584 -959 2426
592 -958 2423
599 -958 2420
606 -958 2418
613 -956 2412
620 -956 2409
627 -955 2405
636 -957 2408
641 -953 2397
648 -954 2397
655 -953 2393
663 -953 2392
671 -954 2392
677 -951 2383
684 -951 2379
693 -954 2386
700 -952 2379
708 -953 2379
715 -953 2376
722 -953 2374
732 -955 2378
736 -951 2365
742 -950 2359
750 -950 2357
759 -952 2360
767 -952 2359
774 -953 2358
782 -953 2357
787 -950 2346
797 -954 2353
800 -948 2338
810 -951 2342
819 -953 2344
825 -951 2336
834 -953 2339
839 -950 2330
848 -952 2332
855 -951 2327
864 -953 2329
868 -950 2318
879 -953 2325
882 -949 2311
892 -951 2315
899 -951 2310
904 -948 2302
913 -950 2303
921 -950 2301
927 -949 2295
935 -950 2295
944 -951 2295
948 -948 2284
956 -949 2283
966 -951 2286
975 -952 2286
980 -950 2278
987 -950 2273
993 -948 2267
1001 -949 2266
1006 -947 2259
1016 -949 2260
1019 -945 2247
1027 -946 2245
1038 -949 2250
1046 -949 2248
1057 -954 2254
1063 -952 2246
1065 -947 2233
1075 -949 2235
1057 -927 2179
992 -864 2026
915 -791 1853
896 -769 1799
898 -766 1789
902 -764 1782
909 -765 1781
914 -764 1776
925 -768 1783
922 -761 1764
938 -770 1780
942 -768 1773
947 -767 1769
955 -769 1770
956 -765 1758
965 -768 1761
965 -762 1746
980 -770 1760
974 -760 1735
988 -766 1746
992 -765 1740
997 -764 1734
1002 -763 1730
1005 -762 1722
1007 -759 1713
1009 -755 1702
1016 -756 1701
1028 -761 1708
-2112 -1474 3384
-2113 -1484 3412
-2071 -1462 3369
-2057 -1461 3372
-2033 -1452 3358
-2017 -1449 3357
-1993 -1440 3343
-1971 -1433 3331
-1950 -1426 3320
-1932 -1421 3316
-1899 -1406 3284
-1873 -1394 3264
-1848 -1384 3245
-1837 -1384 3250
-1817 -1377 3240
-1807 -1378 3247
-1786 -1371 3235
-1761 -1360 3215
-1756 -1365 3230
-1729 -1353 3207
-1717 -1352 3210
-1701 -1348 3205
-1692 -1349 3213
-1676 -1345 3209
-1660 -1341 3203
-1653 -1344 3216
-1639 -1342 3215
-1613 -1329 3188
-1587 -1316 3163
-1552 -1296 3119
-1527 -1284 3094
-1495 -1265 3053
-1486 -1266 3060
-1480 -1270 3073
-1466 -1267 3069
-1456 -1267 3074
-1435 -1258 3056
-1406 -1241 3019
-1399 -1244 3029
-1389 -1244 3034
-1363 -1229 3002
-1351 -1227 3001
-1341 -1227 3005
-1326 -1222 2996
-1309 -1216 2983
-1295 -1212 2979
-1271 -1199 2949
-1249 -1187 2923
-1237 -1185 2921
-1235 -1192 2943
-1226 -1193 2948
-1232 -1208 2988
-1243 -1228 3042
-1169 -1165 2888
-964 -968 2403
-883 -894 2222
-984 -1005 2499
-1124 -1157 2880
-1155 -1198 2988
-1151 -1204 3005
-1147 -1211 3025
-1134 -1207 3019
-1121 -1204 3014
-1112 -1204 3016
-1097 -1199 3006
-1084 -1195 3000
-1079 -1200 3015
-1064 -1194 3004
-1050 -1189 2993
-1040 -1188 2995
-1025 -1182 2981
-1013 -1179 2976
-1004 -1180 2980
-988 -1172 2964
-980 -1174 2972
-968 -1171 2966
-958 -1170 2966
-944 -1165 2955
-931 -1160 2946
-919 -1156 2937
-911 -1158 2944
-900 -1156 2942
-890 -1155 2942
-871 -1142 2912
-858 -1138 2903
-849 -1137 2903
-836 -1132 2892
-828 -1134 2899
-817 -1131 2893
-806 -1128 2889
-796 -1127 2887
-783 -1122 2876
-777 -1126 2889
-765 -1121 2877
-756 -1122 2882
-744 -1116 2870
-733 -1113 2863
-726 -1117 2875
-715 -1114 2869
-702 -1106 2851
-694 -1109 2860
-683 -1105 2850
-672 -1102 2844
-663 -1101 2843
-654 -1101 2845
-642 -1096 2833
-633 -1095 2833
-625 -1097 2840
-614 -1093 2830
-607 -1095 2838
-595 -1090 2826
-584 -1085 2815
-577 -1088 2823
-565 -1083 2812
-559 -1088 2825
-549 -1085 2819
-538 -1080 2809
-529 -1079 2807
-522 -1083 2816
-510 -1077 2803
-501 -1074 2798
-491 -1071 2791
-483 -1074 2798
-474 -1072 2793
-464 -1069 2788
-454 -1066 2782
-447 -1069 2791
-436 -1064 2779
-426 -1061 2770
-418 -1062 2773
-408 -1058 2765
-401 -1060 2771
-391 -1058 2766
-382 -1055 2759
-373 -1053 2754
-364 -1051 2750
-355 -1052 2752
-346 -1050 2750
-338 -1049 2746
-330 -1050 2750
-321 -1049 2748
-312 -1047 2743
-302 -1043 2733
-293 -1041 2728
-285 -1041 2730
-276 -1039 2725
-266 -1033 2709
-258 -1033 2711
-251 -1036 2719
-242 -1035 2717
-234 -1034 2715
-224 -1025 2692
-216 -1029 2702
-208 -1027 2698
-199 -1027 2698
-191 -1025 2693
-183 -1025 2691
-174 -1022 2685
-166 -1023 2688
-158 -1023 2687
-150 -1023 2688
-142 -1026 2695
-133 -1018 2675
-125 -1024 2693
-117 -1019 2678
-108 -1016 2671
-100 -1015 2668
-92 -1013 2663
-84 -1015 2667
-75 -1006 2645
-68 -1013 2663
-59 -1008 2650
-51 -1008 2649
-43 -1005 2643
-35 -1004 2638
-27 -1003 2637
-19 -1000 2629
-11 -1003 2636
-3 -1002 2633
4 -999 2626
12 -1001 2631
20 -1000 2628
28 -999 2626
36 -1001 2629
44 -995 2614
52 -997 2618
59 -995 2612
67 -996 2615
75 -994 2610
83 -994 2610
91 -990 2597
98 -989 2597
106 -988 2591
114 -987 2589
121 -985 2584
130 -990 2595
138 -989 2592
145 -985 2581
153 -984 2578
160 -983 2574
168 -983 2575
176 -985 2579
184 -982 2572
191 -982 2572
199 -981 2566
206 -979 2561
213 -976 2553
221 -978 2557
229 -975 2550
237 -977 2553
243 -971 2538
251 -973 2541
258 -971 2534
267 -974 2542
274 -971 2533
282 -972 2536
290 -974 2539
297 -970 2528
304 -970 2527
312 -970 2525
319 -968 2521
325 -964 2509
335 -971 2526
341 -965 2509
348 -964 2505
356 -965 2507
363 -963 2500
373 -969 2514
379 -964 2502
386 -963 2498
393 -961 2492
401 -963 2496
409 -963 2494
416 -961 2487
423 -960 2483
430 -959 2479
438 -959 2479
446 -962 2484
453 -960 2478
460 -959 2474
464 -952 2455
474 -956 2463
481 -955 2460
489 -956 2460
496 -955 2457
504 -956 2458
511 -955 2454
518 -954 2449
524 -952 2442
532 -951 2440
538 -949 2433
547 -952 2439
556 -954 2442
562 -952 2436
571 -953 2437
577 -951 2429
585 -952 2431
590 -949 2420
600 -952 2426
607 -952 2424
611 -945 2406
619 -946 2407
626 -946 2403
633 -946 2401
640 -945 2397
649 -947 2400
658 -949 2404
665 -948 2400
670 -945 2391
679 -947 2393
683 -943 2381
692 -945 2384
699 -944 2379
704 -941 2370
713 -942 2370
722 -945 2377
728 -942 2367
735 -943 2365
742 -942 2361
751 -944 2364
757 -941 2356
766 -944 2360
772 -942 2353
779 -942 2350
788 -943 2351
795 -943 2348
803 -944 2348
809 -943 2342
816 -942 2337
825 -944 2340
832 -943 2335
839 -942 2331
846 -942 2328
853 -942 2325
861 -942 2324
867 -941 2318
876 -942 2319
882 -941 2313
892 -944 2317
898 -942 2309
906 -943 2311
912 -942 2304
919 -941 2300
924 -939 2291
934 -941 2293
941 -941 2291
949 -941 2288
959 -944 2292
962 -940 2280
969 -940 2276
976 -939 2271
988 -943 2278
987 -935 2257
999 -940 2264
1011 -944 2271
1011 -937 2251
1016 -935 2244
1026 -937 2246
1036 -940 2249
1044 -940 2247
1050 -939 2241
1057 -939 2237
1069 -943 2243
1075 -942 2238
1056 -918 2178
996 -861 2038
919 -788 1864
893 -761 1796
903 -764 1801
911 -766 1802
911 -761 1787
915 -759 1780
923 -760 1781
931 -763 1784
932 -759 1771
935 -756 1762
945 -759 1767
952 -760 1765
960 -762 1767
962 -759 1757
974 -764 1765
977 -761 1756
978 -758 1745
979 -754 1732
987 -755 1734
998 -759 1738
998 -755 1726
1006 -756 1727
1006 -752 1713
1023 -760 1729
1020 -754 1711
1032 -758 1718
-2109 -1460 3384
-2087 -1454 3375
-2072 -1452 3377
-2044 -1440 3356
-2034 -1442 3365
-2009 -1432 3348
-1993 -1429 3347
-1961 -1414 3318
-1938 -1406 3304
-1917 -1399 3293
-1889 -1387 3270
-1871 -1382 3264
-1858 -1380 3266
-1827 -1366 3237
-1814 -1365 3240
-1795 -1359 3231
-1773 -1350 3216
-1761 -1350 3220
-1743 -1344 3211
-1731 -1343 3215
-1719 -1342 3217
-1703 -1338 3212
-1689 -1336 3211
-1678 -1336 3216
-1662 -1332 3212
-1661 -1340 3235
-1628 -1322 3196
-1588 -1298 3143
-1540 -1267 3073
-1503 -1245 3024
-1481 -1235 3004
-1465 -1230 2997
-1471 -1243 3032
-1451 -1235 3018
-1448 -1242 3037
-1442 -1245 3049
-1415 -1230 3016
-1404 -1229 3018
-1396 -1231 3027
-1381 -1227 3020
-1365 -1221 3010
-1350 -1216 3002
-1337 -1214 2999
-1320 -1207 2986
-1302 -1200 2972
-1288 -1196 2966
-1276 -1193 2963
-1266 -1194 2967
-1257 -1194 2973
-1255 -1202 2994
-1247 -1203 3001
-1242 -1208 3017
-1252 -1227 3069
-1222 -1207 3021
-1064 -1060 2655
-954 -958 2402
-933 -945 2372
-1082 -1105 2777
-1148 -1181 2973
-1150 -1194 3008
-1145 -1199 3023
-1133 -1197 3020
-1115 -1188 3001
-1108 -1190 3011
-1097 -1189 3010
-1086 -1188 3009
-1072 -1183 3000
-1062 -1182 3001
-1051 -1181 3001
-1037 -1175 2988
-1023 -1170 2978
-1016 -1173 2989
-1001 -1167 2975
-988 -1163 2968
-973 -1156 2953
-964 -1156 2956
-952 -1153 2951
-944 -1155 2957
-932 -1151 2950
-918 -1146 2939
-907 -1144 2937
-899 -1145 2941
-886 -1141 2933
-872 -1134 2917
-859 -1129 2908
-848 -1126 2902
-836 -1123 2895
-829 -1126 2906
-818 -1123 2901
-805 -1117 2887
-797 -1120 2895
-785 -1115 2886
-776 -1115 2887
-765 -1112 2882
-755 -1111 2881
-743 -1107 2871
-734 -1107 2873
-724 -1104 2869
-715 -1104 2870
-703 -1100 2862
-687 -1089 2834
-683 -1096 2853
-673 -1095 2853
-661 -1089 2838
-653 -1091 2844
-642 -1087 2837
-632 -1084 2830
-623 -1084 2831
-616 -1087 2840
-606 -1085 2837
-595 -1082 2829
-584 -1077 2818
-574 -1074 2812
-568 -1079 2826
-555 -1072 2810
-548 -1075 2820
-538 -1072 2811
-530 -1073 2815
-520 -1071 2813
-512 -1072 2815
-501 -1068 2805
-491 -1064 2795
-482 -1064 2797
-473 -1062 2793
-463 -1058 2785
-454 -1058 2785
-445 -1056 2780
-437 -1057 2784
-428 -1058 2787
-419 -1055 2781
-409 -1052 2774
-400 -1050 2769
-391 -1049 2769
-381 -1045 2757
-373 -1046 2761
-365 -1046 2763
-355 -1041 2751
-346 -1040 2746
-337 -1039 2747
-329 -1040 2750
-320 -1036 2739
-310 -1032 2729
-301 -1029 2723
-292 -1028 2720
-284 -1028 2721
-275 -1024 2710
-268 -1031 2729
-258 -1025 2714
-250 -1024 2712
-242 -1026 2716
-234 -1025 2715
-225 -1024 2712
-217 -1024 2712
-208 -1022 2707
-200 -1022 2709
-191 -1019 2701
-182 -1014 2689
-175 -1018 2699
-166 -1016 2693
-158 -1015 2690
-149 -1011 2681
-141 -1009 2676
-133 -1009 2676
-125 -1010 2680
-117 -1011 2682
-108 -1007 2671
-100 -1007 2671
-92 -1006 2670
-83 -1000 2653
-75 -1001 2655
-67 -1000 2653
-59 -1003 2661
-51 -997 2646
-43 -999 2651
-35 -997 2645
-27 -1002 2659
-19 -996 2642
-11 -996 2643
-3 -991 2629
4 -989 2623
12 -985 2612
20 -992 2631
28 -990 2624
36 -987 2617
44 -986 2614
51 -985 2611
59 -985 2609
67 -984 2608
75 -981 2599
83 -983 2603
90 -978 2590
99 -983 2602
106 -980 2594
114 -980 2593
122 -980 2595
130 -980 2594
137 -978 2588
145 -979 2589
152 -973 2573
160 -974 2576
168 -973 2573
175 -968 2558
183 -970 2564
190 -968 2557
198 -970 2561
206 -972 2566
214 -969 2558
221 -967 2552
229 -967 2550
236 -966 2548
243 -965 2543
251 -962 2535
260 -967 2548
266 -964 2538
274 -964 2539
282 -964 2536
288 -960 2526
296 -960 2526
305 -964 2533
310 -957 2516
319 -959 2520
326 -958 2517
334 -960 2519
341 -956 2508
348 -954 2503
356 -956 2507
363 -955 2502
371 -955 2501
378 -955 2501
385 -953 2494
393 -953 2493
400 -953 2491
406 -949 2481
415 -952 2485
422 -951 2483
429 -950 2478
437 -950 2479
444 -949 2473
452 -949 2473
460 -951 2477
468 -951 2474
474 -948 2464
481 -947 2461
489 -948 2464
495 -945 2453
502 -945 2451
510 -945 2452
519 -947 2455
526 -946 2451
531 -943 2439
540 -944 2441
546 -941 2433
554 -943 2435
561 -941 2430
569 -943 2432
576 -941 2427
583 -942 2425
590 -940 2420
598 -942 2422
606 -942 2420
613 -941 2416
620 -940 2413
626 -938 2405
633 -938 2403
640 -937 2399
649 -939 2402
656 -938 2398
664 -940 2400
669 -936 2389
677 -937 2389
684 -937 2387
691 -936 2383
697 -933 2374
704 -933 2372
716 -939 2384
720 -935 2372
727 -935 2369
733 -932 2361
741 -933 2361
750 -935 2364
758 -935 2362
763 -933 2354
770 -932 2349
778 -933 2349
784 -932 2343
791 -931 2340
801 -934 2344
810 -936 2346
814 -932 2336
824 -935 2341
832 -935 2337
838 -934 2333
846 -934 2331
852 -933 2325
859 -933 2321
867 -933 2320
872 -931 2312
881 -933 2313
889 -933 2313
898 -935 2313
905 -934 2308
910 -932 2302
917 -931 2297
926 -933 2299
932 -931 2291
943 -936 2299
948 -933 2288
952 -930 2278
963 -933 2284
972 -935 2286
978 -933 2278
982 -930 2268
994 -934 2275
1001 -934 2271
1006 -932 2262
1011 -930 2255
1018 -929 2250
1021 -925 2237
1033 -929 2244
1044 -933 2249
1055 -936 2255
1062 -936 2250
1064 -931 2236
1069 -929 2227
1065 -919 2201
1013 -868 2075
933 -794 1895
900 -761 1813
901 -757 1800
906 -755 1794
909 -753 1786
916 -754 1785
924 -755 1785
920 -747 1763
932 -752 1772
940 -754 1774
935 -746 1751
950 -753 1764
957 -753 1763
962 -753 1759
973 -757 1766
973 -752 1750
984 -756 1756
983 -750 1741
989 -750 1738
990 -747 1727
1000 -750 1731
1008 -752 1732
1012 -750 1724
1016 -749 1718
1023 -750 1718
1024 -746 1705
-2105 -1446 3384
-2082 -1438 3371
-2064 -1434 3368
-2047 -1431 3366
-2021 -1420 3347
-2010 -1421 3355
-1977 -1406 3324
-1944 -1390 3294
-1921 -1382 3279
-1906 -1380 3280
-1870 -1361 3242
-1871 -1370 3268
-1837 -1354 3235
-1827 -1354 3241
-1803 -1345 3223
-1796 -1348 3237
-1774 -1340 3222
-1759 -1337 3220
-1746 -1335 3221
-1729 -1331 3215
-1704 -1320 3193
-1696 -1322 3203
-1690 -1326 3217
-1669 -1318 3204
-1655 -1316 3203
-1646 -1317 3210
-1615 -1301 3175
-1536 -1245 3044
-1500 -1225 2998
-1483 -1218 2987
-1470 -1216 2985
-1463 -1218 2995
-1456 -1221 3006
-1441 -1217 3001
-1434 -1220 3011
-1427 -1222 3020
-1415 -1221 3021
-1406 -1221 3025
-1391 -1217 3020
-1376 -1212 3012
-1368 -1214 3020
-1346 -1203 2997
-1333 -1201 2995
-1317 -1194 2983
-1303 -1191 2978
-1287 -1185 2968
-1275 -1183 2964
-1263 -1181 2963
-1253 -1181 2966
-1259 -1195 3006
-1250 -1196 3012
-1256 -1211 3053
-1251 -1216 3069
-1227 -1202 3037
-1130 -1117 2824
-1007 -1003 2540
-889 -894 2264
-991 -1003 2546
-1120 -1144 2905
-1149 -1183 3007
-1145 -1189 3026
-1128 -1181 3010
-1117 -1180 3010
-1110 -1183 3020
-1098 -1181 3017
-1083 -1174 3003
-1072 -1173 3002
-1057 -1167 2989
-1043 -1162 2979
-1036 -1165 2989
-1025 -1163 2988
-1010 -1157 2974
-998 -1154 2971
-989 -1154 2973
-978 -1153 2972
-965 -1149 2964
-953 -1145 2958
-944 -1146 2961
-930 -1140 2949
-918 -1136 2942
-909 -1137 2946
-897 -1133 2938
-884 -1129 2928
-874 -1128 2928
-860 -1121 2913
-847 -1116 2902
-839 -1118 2909
-827 -1114 2901
-815 -1110 2892
-808 -1113 2903
-795 -1107 2890
-785 -1106 2888
-773 -1103 2881
-762 -1100 2875
-753 -1099 2877
-745 -1100 2881
-731 -1094 2865
-723 -1094 2868
-713 -1092 2865
-702 -1089 2857
-692 -1088 2858
-684 -1089 2860
-674 -1087 2857
-662 -1082 2847
-655 -1084 2853
-645 -1083 2852
-633 -1078 2841
-623 -1076 2835
-616 -1079 2846
-606 -1076 2839
-594 -1071 2827
-585 -1071 2828
-578 -1073 2834
-566 -1067 2822
-557 -1066 2820
-549 -1068 2826
-539 -1066 2822
-529 -1062 2812
-517 -1057 2800
-507 -1054 2793
-501 -1059 2809
-490 -1054 2796
-480 -1049 2784
-472 -1051 2790
-462 -1049 2785
-453 -1046 2779
-445 -1049 2787
-436 -1047 2784
-426 -1044 2776
-415 -1037 2759
-409 -1043 2774
-402 -1046 2785
-391 -1040 2770
-381 -1036 2759
-372 -1034 2754
-362 -1031 2747
-353 -1029 2741
-345 -1031 2748
-337 -1030 2746
-328 -1027 2740
-319 -1026 2737
-310 -1025 2736
-302 -1026 2738
-292 -1020 2724
-284 -1019 2721
-276 -1020 2724
-268 -1021 2727
-259 -1020 2726
-251 -1019 2724
-241 -1015 2713
-234 -1019 2723
-224 -1009 2697
-216 -1013 2709
-208 -1012 2707
-199 -1009 2698
-191 -1011 2703
-183 -1009 2699
-174 -1006 2691
-165 -1002 2681
-157 -1005 2688
-149 -1003 2684
-141 -1001 2680
-132 -1000 2677
-125 -1003 2683
-116 -996 2665
-108 -1001 2680
-100 -997 2668
-92 -996 2665
-83 -993 2659
-75 -994 2661
-67 -991 2653
-59 -994 2660
-51 -992 2656
-43 -988 2645
-35 -988 2644
-27 -985 2637
-19 -988 2645
-11 -984 2633
-3 -985 2634
4 -981 2625
12 -984 2632
20 -981 2626
28 -983 2628
36 -982 2626
44 -978 2616
51 -975 2608
59 -975 2607
67 -976 2609
75 -973 2600
82 -969 2591
90 -969 2589
98 -967 2583
106 -973 2599
114 -968 2586
122 -972 2596
129 -970 2589
137 -965 2575
145 -968 2582
153 -969 2587
160 -963 2570
167 -961 2564
175 -964 2570
183 -963 2567
190 -962 2563
198 -960 2558
206 -960 2559
214 -961 2560
220 -957 2547
228 -955 2542
235 -954 2538
243 -957 2544
251 -955 2539
259 -958 2546
267 -959 2550
273 -953 2531
281 -954 2533
288 -951 2525
297 -954 2531
304 -954 2531
310 -949 2517
319 -953 2526
326 -949 2516
333 -948 2510
341 -950 2515
347 -946 2503
356 -949 2510
362 -945 2498
370 -945 2499
376 -942 2488
385 -944 2494
393 -945 2495
402 -948 2501
408 -946 2494
415 -943 2486
422 -942 2482
430 -944 2484
436 -941 2476
443 -940 2471
452 -942 2475
458 -938 2465
466 -940 2468
474 -941 2469
481 -939 2464
486 -934 2449
494 -936 2453
503 -938 2455
509 -935 2447
515 -932 2437
525 -936 2447
532 -936 2445
540 -937 2445
547 -937 2444
554 -935 2438
561 -934 2432
568 -933 2428
575 -933 2427
583 -933 2426
589 -931 2418
598 -933 2423
604 -931 2414
609 -928 2404
618 -929 2407
625 -929 2405
635 -933 2412
640 -930 2403
649 -932 2405
656 -931 2403
663 -931 2399
669 -928 2391
676 -928 2388
684 -929 2388
693 -931 2391
698 -928 2381
706 -929 2381
712 -926 2373
718 -924 2366
727 -926 2368
734 -926 2367
740 -925 2360
749 -927 2364
755 -925 2356
766 -929 2366
771 -926 2355
778 -926 2353
785 -925 2348
793 -925 2346
800 -926 2345
806 -924 2337
815 -926 2341
823 -926 2339
831 -926 2337
835 -923 2326
844 -925 2328
851 -924 2324
861 -927 2329
865 -924 2317
872 -923 2314
882 -926 2319
888 -925 2313
895 -924 2308
902 -924 2304
910 -924 2302
919 -926 2305
925 -924 2297
933 -925 2296
938 -923 2289
948 -925 2291
954 -924 2285
961 -924 2282
971 -926 2285
975 -923 2273
984 -925 2275
990 -923 2269
998 -923 2266
1004 -923 2261
1009 -920 2252
1015 -919 2246
1047 -942 2298
1029 -919 2240
1042 -924 2248
1050 -925 2247
1059 -926 2246
1065 -924 2240
1072 -924 2236
1071 -917 2215
1023 -870 2098
944 -797 1920
892 -748 1799
901 -751 1802
896 -741 1777
909 -747 1788
916 -748 1787
926 -751 1793
933 -752 1792
933 -747 1777
939 -747 1774
943 -745 1767
940 -739 1748
954 -745 1759
966 -750 1768
967 -746 1757
975 -748 1757
978 -745 1748
979 -742 1737
990 -745 1742
989 -740 1728
1016 -756 1761
1005 -743 1728
1002 -737 1710
1013 -741 1716
1020 -741 1714
1021 -738 1703
-2103 -1433 3385
-2071 -1419 3358
-2065 -1423 3373
-2039 -1413 3356
-2014 -1404 3340
-1998 -1401 3339
-1970 -1390 3317
-1941 -1377 3294
-1923 -1372 3288
-1899 -1363 3271
-1880 -1358 3264
-1866 -1356 3265
-1843 -1347 3249
-1820 -1339 3234
-1807 -1337 3236
-1795 -1337 3239
-1772 -1327 3222
-1757 -1324 3220
-1731 -1313 3197
-1733 -1323 3227
-1709 -1313 3207
-1694 -1310 3204
-1684 -1310 3210
-1671 -1309 3211
-1658 -1307 3211
-1640 -1301 3202
-1584 -1265 3118
-1520 -1222 3016
-1492 -1208 2985
-1482 -1207 2988
-1471 -1207 2992
-1463 -1209 3000
-1453 -1209 3004
-1438 -1204 2997
-1439 -1213 3024
-1428 -1213 3026
-1410 -1206 3013
-1399 -1205 3015
-1387 -1203 3014
-1372 -1199 3008
-1358 -1195 3001
-1345 -1192 2998
-1329 -1187 2988
-1319 -1187 2993
-1295 -1174 2964
-1282 -1171 2960
-1268 -1167 2952
-1261 -1170 2963
-1256 -1173 2976
-1252 -1180 2995
-1248 -1184 3010
-1246 -1192 3033
-1228 -1185 3018
-1211 -1177 3001
-1173 -1149 2933
-1050 -1038 2653
-922 -918 2350
-911 -916 2344
-1064 -1077 2762
-1137 -1161 2981
-1141 -1175 3019
-1129 -1172 3015
-1115 -1168 3007
-1106 -1169 3013
-1092 -1164 3003
-1083 -1165 3007
-1067 -1158 2991
-1056 -1157 2992
-1045 -1155 2990
-1034 -1153 2986
-1024 -1153 2989
-1008 -1145 2973
-996 -1143 2969
-986 -1141 2967
-974 -1138 2962
-964 -1138 2963
-951 -1134 2955
-940 -1131 2951
-930 -1131 2952
-916 -1125 2940
-906 -1124 2939
-894 -1120 2931
-887 -1123 2941
-871 -1115 2922
-858 -1110 2912
-848 -1108 2909
-836 -1105 2901
-827 -1105 2903
-815 -1101 2895
-806 -1101 2899
-794 -1098 2891
-783 -1095 2885
-771 -1091 2876
-764 -1092 2883
-754 -1092 2883
-743 -1089 2876
-734 -1088 2877
-723 -1086 2872
-712 -1082 2865
-704 -1084 2872
-693 -1081 2864
-683 -1079 2862
-674 -1079 2862
-663 -1075 2854
-654 -1074 2852
-643 -1070 2844
-634 -1070 2846
-621 -1064 2830
-615 -1069 2845
-604 -1063 2832
-595 -1065 2837
-586 -1063 2834
-576 -1062 2831
-566 -1058 2823
-555 -1055 2815
-548 -1057 2821
-538 -1055 2817
-527 -1049 2805
-518 -1050 2807
-512 -1054 2819
-499 -1045 2797
-491 -1046 2801
-481 -1045 2798
-470 -1039 2784
-462 -1039 2785
-453 -1037 2781
-444 -1037 2782
-435 -1035 2777
-426 -1035 2777
-417 -1034 2774
-408 -1032 2770
-398 -1027 2759
-389 -1028 2762
-380 -1024 2752
-371 -1023 2749
-363 -1023 2752
-355 -1024 2755
-346 -1023 2753
-338 -1024 2755
-328 -1020 2745
-319 -1019 2744
-311 -1018 2741
-302 -1018 2742
-293 -1015 2735
-284 -1013 2729
-275 -1010 2721
-267 -1010 2723
-259 -1010 2724
-250 -1008 2719
-241 -1006 2713
-233 -1005 2710
-223 -1000 2698
-216 -1005 2711
-207 -1001 2702
-198 -998 2695
-190 -999 2697
-182 -998 2693
-174 -997 2690
-166 -997 2690
-157 -993 2681
-148 -989 2670
-140 -991 2677
-132 -991 2675
-124 -989 2670
-116 -992 2680
-108 -989 2671
-99 -987 2665
-91 -986 2664
-83 -987 2665
-75 -982 2652
-67 -986 2663
-59 -983 2654
-51 -981 2650
-43 -981 2650
-35 -979 2645
-27 -978 2642
-19 -975 2634
-11 -975 2632
-3 -972 2624
4 -976 2636
12 -972 2625
20 -969 2616
28 -971 2620
36 -970 2619
44 -969 2615
51 -967 2608
59 -969 2613
67 -969 2614
75 -966 2607
83 -965 2602
90 -963 2597
98 -963 2597
106 -962 2594
114 -960 2588
121 -960 2586
129 -959 2584
137 -962 2592
144 -957 2578
152 -957 2577
160 -954 2569
168 -959 2580
175 -954 2566
183 -955 2569
191 -955 2568
198 -951 2556
205 -951 2557
213 -952 2558
221 -952 2557
229 -952 2556
236 -948 2545
244 -950 2549
251 -948 2543
258 -944 2533
266 -946 2536
273 -945 2533
282 -948 2541
288 -944 2529
296 -944 2527
303 -943 2524
310 -941 2518
318 -942 2521
326 -942 2518
332 -939 2509
341 -941 2513
348 -939 2508
356 -941 2512
362 -938 2502
369 -935 2493
377 -935 2494
385 -937 2497
391 -934 2488
398 -931 2479
408 -937 2494
414 -935 2486
420 -931 2474
430 -936 2486
436 -932 2474
444 -933 2476
452 -934 2477
458 -932 2471
464 -929 2460
471 -927 2456
480 -930 2462
488 -930 2460
495 -931 2460
502 -929 2455
509 -927 2448
516 -928 2448
525 -930 2453
531 -926 2441
538 -926 2438
545 -926 2437
551 -923 2427
560 -925 2431
568 -926 2432
576 -926 2432
581 -923 2422
590 -926 2427
597 -924 2421
607 -928 2430
610 -921 2410
617 -921 2407
625 -922 2407
630 -919 2398
640 -922 2404
648 -923 2404
656 -923 2404
660 -919 2391
670 -922 2396
676 -920 2390
685 -922 2392
690 -919 2382
698 -920 2382
701 -914 2367
713 -921 2381
719 -918 2371
724 -915 2363
732 -916 2362
741 -918 2366
747 -916 2359
755 -917 2359
763 -918 2357
770 -918 2356
775 -914 2345
784 -917 2348
792 -917 2347
800 -917 2346
807 -917 2343
814 -917 2339
821 -916 2335
827 -914 2328
836 -917 2331
845 -918 2333
851 -917 2328
859 -917 2326
864 -915 2318
869 -913 2308
879 -915 2313
888 -917 2313
893 -915 2306
901 -915 2304
909 -916 2303
915 -914 2297
924 -916 2299
931 -916 2295
939 -916 2292
946 -916 2290
953 -916 2287
958 -913 2277
969 -917 2282
974 -915 2275
982 -916 2274
989 -915 2269
993 -912 2258
1003 -914 2261
1010 -914 2258
1017 -914 2254
1031 -919 2264
1030 -912 2243
1039 -914 2244
1051 -917 2250
1059 -918 2249
1063 -915 2238
1072 -917 2238
1067 -906 2210
1033 -871 2121
956 -801 1947
894 -743 1804
897 -741 1796
899 -737 1784
909 -741 1789
912 -738 1781
924 -743 1790
922 -737 1771
928 -737 1769
938 -741 1775
939 -737 1763
945 -736 1759
956 -740 1765
956 -736 1752
971 -743 1766
969 -737 1749
983 -743 1760
982 -738 1744
983 -734 1732
995 -739 1741
998 -736 1731
1006 -738 1733
1009 -736 1725
1008 -731 1709
1016 -733 1710
1027 -736 1715
-2101 -1420 3385
-2075 -1410 3369
-2063 -1410 3374
-2038 -1401 3360
-2009 -1389 3337
-1990 -1384 3330
-1966 -1375 3315
-1935 -1361 3287
-1910 -1352 3271
-1889 -1345 3258
-1881 -1347 3270
-1861 -1341 3260
-1845 -1338 3257
-1826 -1332 3249
-1808 -1327 3241
-1788 -1320 3230
-1777 -1320 3235
-1755 -1312 3222
-1742 -1310 3221
-1723 -1304 3211
-1700 -1295 3194
-1696 -1300 3212
-1690 -1304 3225
-1666 -1294 3206
-1655 -1294 3211
-1640 -1290 3206
-1584 -1255 3123
-1515 -1208 3011
-1487 -1194 2980
-1478 -1195 2986
-1470 -1196 2993
-1464 -1200 3006
-1456 -1201 3013
-1453 -1207 3032
-1433 -1199 3016
-1426 -1201 3026
-1408 -1194 3013
-1398 -1194 3016
-1378 -1186 2999
-1372 -1189 3010
-1354 -1182 2996
-1347 -1184 3006
-1327 -1176 2989
-1310 -1169 2975
-1297 -1166 2971
-1288 -1167 2976
-1271 -1161 2964
-1265 -1164 2976
-1257 -1165 2982
-1249 -1166 2989
-1233 -1161 2978
-1228 -1165 2993
-1212 -1160 2982
-1204 -1161 2989
-1188 -1154 2975
-1110 -1088 2806
-1004 -992 2561
-884 -881 2278
-976 -981 2538
-1107 -1122 2906
-1137 -1161 3011
-1125 -1160 3010
-1110 -1153 2997
-1106 -1159 3015
-1088 -1150 2995
-1083 -1156 3012
-1064 -1145 2987
-1055 -1145 2990
-1044 -1144 2989
-1031 -1141 2984
-1020 -1139 2982
-1005 -1133 2968
-995 -1131 2966
-984 -1130 2967
-972 -1127 2961
-960 -1124 2954
-949 -1122 2952
-936 -1117 2941
-927 -1118 2946
-916 -1115 2942
-905 -1114 2939
-890 -1107 2924
-879 -1104 2919
-868 -1102 2915
-856 -1098 2907
-845 -1096 2904
-835 -1095 2903
-824 -1092 2897
-812 -1088 2889
-804 -1089 2894
-794 -1088 2893
-786 -1090 2899
-775 -1087 2893
-765 -1085 2891
-755 -1083 2888
-742 -1078 2875
-732 -1077 2873
-724 -1078 2879
-713 -1075 2871
-701 -1070 2860
-694 -1073 2871
-682 -1069 2860
-673 -1068 2859
-660 -1062 2845
-651 -1061 2844
-644 -1064 2853
-633 -1060 2844
-625 -1061 2850
-612 -1054 2831
-604 -1056 2839
-595 -1055 2836
-585 -1053 2832
-575 -1051 2828
-566 -1050 2826
-557 -1049 2827
-545 -1043 2811
-536 -1042 2809
-527 -1043 2812
-517 -1039 2803
-507 -1037 2799
-500 -1040 2807
-487 -1031 2784
-480 -1032 2790
-470 -1030 2785
-462 -1031 2789
-453 -1029 2785
-442 -1025 2774
-435 -1028 2784
-426 -1026 2780
-416 -1022 2768
-408 -1025 2777
-398 -1019 2763
-390 -1020 2766
-381 -1019 2764
-372 -1017 2760
-364 -1018 2764
-355 -1017 2760
-345 -1014 2754
-336 -1010 2742
-326 -1006 2733
-319 -1011 2746
-310 -1007 2737
-301 -1006 2734
-292 -1002 2725
-285 -1006 2735
-276 -1004 2730
-266 -1000 2721
-258 -999 2718
-250 -999 2718
-241 -998 2716
-232 -994 2706
-223 -993 2702
-215 -991 2698
-207 -991 2699
-199 -991 2698
-190 -991 2699
-182 -990 2696
-173 -983 2677
-165 -985 2684
-157 -985 2684
-148 -982 2677
-140 -983 2679
-133 -986 2686
-124 -979 2669
-116 -981 2673
-108 -981 2673
-99 -979 2668
-91 -976 2660
-83 -977 2664
-75 -979 2668
-67 -971 2646
-59 -972 2650
-51 -975 2657
-43 -972 2649
-34 -966 2634
-27 -969 2641
-19 -968 2639
-11 -965 2630
-3 -962 2621
4 -965 2631
12 -965 2630
20 -964 2626
28 -963 2622
36 -963 2623
44 -957 2607
51 -959 2612
59 -959 2612
67 -958 2608
75 -954 2598
83 -959 2611
90 -954 2597
98 -957 2603
106 -954 2597
113 -950 2585
121 -951 2586
129 -949 2579
137 -950 2583
144 -948 2578
152 -950 2581
160 -950 2581
167 -947 2572
175 -944 2564
183 -947 2570
190 -945 2564
198 -942 2557
206 -944 2560
212 -938 2544
221 -942 2554
227 -938 2542
236 -943 2555
243 -940 2547
250 -936 2536
257 -935 2531
266 -938 2540
273 -935 2530
280 -934 2526
288 -937 2532
297 -938 2535
303 -933 2521
311 -935 2524
317 -929 2508
325 -932 2515
332 -930 2508
341 -933 2515
347 -928 2501
355 -929 2504
362 -929 2501
369 -927 2496
378 -930 2501
384 -928 2495
392 -927 2493
400 -928 2493
406 -926 2487
413 -924 2479
421 -925 2482
428 -923 2475
435 -922 2470
444 -925 2477
449 -921 2467
458 -923 2470
464 -921 2463
473 -923 2466
479 -920 2458
486 -920 2456
495 -922 2461
501 -918 2449
508 -918 2446
515 -918 2445
522 -917 2439
529 -916 2436
536 -916 2434
544 -917 2435
553 -919 2438
559 -916 2430
567 -917 2430
573 -915 2424
582 -916 2426
588 -914 2419
595 -914 2417
602 -913 2413
609 -913 2410
619 -916 2416
624 -913 2406
630 -911 2400
639 -913 2403
647 -914 2403
656 -916 2406
660 -911 2393
667 -911 2389
674 -911 2387
682 -910 2384
687 -908 2376
696 -910 2379
704 -910 2378
710 -908 2371
720 -912 2377
726 -910 2370
734 -911 2370
739 -908 2361
746 -908 2358
754 -909 2359
763 -910 2359
769 -909 2355
775 -907 2347
785 -910 2353
791 -908 2346
799 -909 2346
804 -906 2336
813 -908 2338
821 -909 2338
825 -905 2325
836 -909 2335
842 -908 2327
851 -909 2329
855 -905 2316
863 -906 2316
871 -907 2316
879 -908 2315
885 -906 2309
893 -907 2306
897 -904 2297
909 -908 2305
917 -909 2305
922 -906 2295
930 -907 2295
937 -907 2291
947 -910 2295
950 -905 2281
957 -905 2277
966 -907 2279
976 -909 2281
984 -910 2280
987 -906 2268
993 -904 2260
1002 -906 2261
1005 -902 2249
1009 -899 2238
1039 -919 2285
1027 -902 2239
1040 -907 2248
1048 -907 2246
1053 -905 2238
1064 -908 2242
1070 -908 2237
1076 -906 2231
1038 -868 2134
963 -799 1962
899 -742 1817
896 -734 1795
901 -734 1792
910 -736 1795
914 -734 1788
916 -731 1777
918 -728 1767
929 -732 1774
942 -737 1784
947 -737 1779
940 -726 1751
960 -737 1775
964 -736 1768
973 -739 1772
975 -735 1760
972 -729 1742
982 -731 1746
990 -733 1746
991 -730 1735
995 -729 1729
999 -727 1722
1004 -726 1717
1011 -727 1716
1024 -732 1726
1022 -727 1710
-2093 -1403 3378
-2072 -1396 3369
-2057 -1395 3370
-2038 -1390 3364
-2015 -1382 3351
-1989 -1372 3332
-1951 -1354 3294
-1923 -1342 3271
-1895 -1330 3248
-1889 -1334 3263
-1871 -1329 3257
-1844 -1318 3234
-1840 -1323 3252
-1817 -1315 3237
-1797 -1308 3226
-1785 -1307 3230
-1762 -1298 3213
-1747 -1295 3210
-1738 -1296 3218
-1720 -1291 3210
-1704 -1287 3205
-1691 -1286 3206
-1680 -1286 3212
-1672 -1288 3222
-1653 -1282 3211
-1631 -1273 3194
-1588 -1248 3134
-1535 -1214 3055
-1493 -1189 2995
-1475 -1183 2983
-1473 -1188 3002
-1463 -1189 3007
-1456 -1191 3017
-1444 -1190 3018
-1444 -1198 3043
-1421 -1187 3020
-1406 -1183 3012
-1393 -1180 3010
-1378 -1176 3002
-1367 -1175 3003
-1353 -1171 2997
-1338 -1167 2990
-1328 -1167 2993
-1317 -1165 2994
-1300 -1159 2982
-1284 -1153 2970
-1283 -1162 2995
-1272 -1161 2996
-1260 -1159 2994
-1245 -1153 2984
-1238 -1155 2993
-1221 -1150 2981
-1208 -1146 2976
-1206 -1153 2996
-1191 -1148 2986
-1159 -1126 2934
-1054 -1033 2693
-925 -914 2385
-895 -891 2329
-1052 -1057 2764
-1126 -1141 2987
-1122 -1146 3003
-1113 -1147 3008
-1099 -1143 3000
-1087 -1140 2997
-1076 -1139 2995
-1066 -1138 2996
-1054 -1135 2991
-1041 -1132 2985
-1031 -1131 2987
-1020 -1129 2983
-1006 -1124 2972
-999 -1127 2983
-982 -1118 2962
-972 -1118 2964
-960 -1115 2958
-948 -1111 2951
-936 -1109 2947
-924 -1105 2938
-913 -1103 2935
-905 -1105 2943
-889 -1096 2923
-875 -1090 2910
-865 -1089 2907
-855 -1088 2907
-846 -1089 2911
-834 -1084 2900
-826 -1085 2906
-815 -1083 2902
-804 -1080 2897
-796 -1082 2904
-786 -1081 2903
-773 -1076 2890
-763 -1074 2887
-754 -1073 2887
-743 -1070 2882
-734 -1071 2884
-723 -1068 2878
-712 -1065 2872
-699 -1059 2858
-692 -1061 2864
-682 -1059 2861
-670 -1054 2850
-662 -1056 2855
-656 -1060 2868
-643 -1054 2854
-631 -1049 2840
-622 -1047 2838
-612 -1045 2834
-602 -1043 2829
-592 -1041 2826
-583 -1041 2827
-575 -1041 2829
-566 -1041 2828
-554 -1035 2814
-545 -1035 2815
-534 -1031 2805
-525 -1030 2803
-516 -1029 2801
-506 -1026 2797
-499 -1028 2802
-487 -1022 2786
-480 -1025 2797
-471 -1024 2793
-462 -1022 2790
-451 -1018 2779
-443 -1018 2781
-435 -1018 2783
-424 -1014 2771
-416 -1015 2775
-406 -1012 2767
-399 -1013 2773
-389 -1010 2763
-380 -1008 2759
-370 -1005 2752
-362 -1006 2755
-353 -1005 2752
-345 -1005 2754
-337 -1006 2756
-327 -999 2740
-318 -998 2738
-309 -997 2735
-299 -991 2720
-292 -994 2727
-284 -996 2735
-275 -992 2723
-266 -990 2718
-257 -989 2716
-249 -988 2715
-240 -987 2712
-232 -987 2713
-223 -984 2704
-215 -983 2701
-207 -983 2702
-198 -982 2699
-190 -982 2699
-181 -978 2688
-173 -979 2692
-165 -980 2694
-157 -977 2686
-148 -975 2682
-140 -974 2680
-132 -976 2683
-124 -971 2670
-115 -968 2663
-107 -968 2663
-99 -968 2664
-91 -966 2658
-83 -965 2655
-75 -967 2660
-67 -964 2652
-59 -965 2655
-50 -959 2639
-43 -962 2645
-34 -958 2636
-27 -958 2636
-19 -958 2634
-11 -958 2635
-3 -956 2630
4 -955 2627
12 -954 2623
20 -955 2627
28 -952 2619
36 -952 2617
44 -952 2618
52 -953 2620
59 -952 2615
67 -952 2616
75 -945 2597
83 -949 2607
90 -946 2598
98 -945 2595
106 -943 2588
114 -943 2589
121 -943 2588
129 -942 2586
137 -942 2585
144 -937 2570
152 -939 2575
160 -939 2575
168 -940 2578
175 -940 2575
183 -938 2569
190 -937 2568
199 -939 2572
205 -932 2553
212 -932 2552
220 -930 2545
228 -932 2549
235 -930 2542
243 -933 2551
250 -929 2540
257 -927 2532
266 -931 2542
272 -925 2526
281 -928 2534
288 -928 2531
295 -927 2528
303 -927 2526
310 -924 2517
318 -924 2518
326 -926 2521
331 -920 2506
340 -924 2513
347 -922 2508
354 -920 2500
361 -920 2499
369 -919 2498
375 -917 2489
384 -918 2492
391 -918 2490
400 -920 2495
407 -919 2492
414 -919 2489
419 -914 2473
428 -915 2476
436 -917 2480
442 -913 2469
449 -913 2468
456 -912 2462
464 -914 2466
473 -915 2468
479 -913 2460
486 -912 2457
493 -911 2454
499 -909 2445
506 -907 2439
516 -912 2451
523 -911 2448
530 -910 2444
535 -905 2428
544 -909 2437
551 -908 2433
559 -908 2431
567 -909 2432
572 -905 2421
580 -906 2420
587 -905 2416
596 -908 2422
602 -906 2416
609 -906 2413
615 -903 2405
622 -902 2399
630 -904 2402
636 -902 2395
645 -903 2397
654 -905 2400
657 -900 2384
667 -902 2389
673 -900 2382
680 -901 2381
686 -899 2375
696 -902 2380
703 -901 2377
711 -902 2377
719 -904 2378
722 -898 2361
730 -898 2359
739 -901 2365
747 -901 2363
753 -899 2356
762 -901 2359
769 -901 2356
777 -901 2355
782 -899 2347
789 -898 2342
797 -900 2344
805 -900 2341
812 -900 2338
817 -897 2330
827 -900 2334
832 -898 2326
841 -900 2328
848 -899 2325
858 -901 2328
861 -897 2313
869 -898 2313
879 -901 2319
886 -900 2313
894 -900 2312
899 -898 2303
906 -898 2302
916 -901 2305
922 -900 2299
929 -899 2294
937 -899 2293
945 -900 2292
948 -896 2279
958 -898 2282
965 -898 2279
973 -899 2276
980 -898 2273
987 -898 2268
996 -899 2270
1000 -897 2260
1007 -896 2256
1013 -895 2250
1016 -891 2237
1038 -904 2265
1038 -897 2246
1049 -901 2252
1059 -903 2253
1060 -898 2238
1068 -898 2235
1071 -895 2223
1053 -874 2168
979 -806 1997
900 -736 1821
899 -730 1804
903 -729 1798
912 -732 1801
914 -728 1789
916 -725 1780
919 -723 1770
928 -725 1774
937 -728 1777
947 -731 1782
946 -726 1766
954 -727 1766
959 -726 1762
966 -727 1761
973 -728 1760
974 -724 1747
980 -724 1745
983 -722 1736
988 -722 1732
993 -721 1727
998 -720 1723
1004 -721 1721
1008 -719 1714
1014 -719 1710
1016 -716 1701
-2093 -1391 3383
-2084 -1393 3392
-2061 -1385 3380
-2039 -1378 3369
-2012 -1368 3350
-1979 -1353 3320
-1942 -1336 3284
-1922 -1330 3274
-1894 -1319 3252
-1882 -1318 3256
-1863 -1312 3247
-1850 -1311 3249
-1837 -1310 3252
-1818 -1304 3242
-1804 -1302 3242
-1786 -1297 3235
-1765 -1289 3222
-1747 -1284 3214
-1734 -1283 3215
-1714 -1276 3204
-1696 -1271 3195
-1691 -1275 3210
-1678 -1274 3212
-1658 -1267 3199
-1657 -1274 3221
-1639 -1268 3212
-1603 -1249 3167
-1558 -1222 3104
-1507 -1190 3026
-1479 -1176 2995
-1467 -1174 2995
-1465 -1180 3015
-1453 -1179 3015
-1450 -1185 3034
-1433 -1179 3024
-1424 -1180 3030
-1406 -1173 3016
-1389 -1167 3005
-1375 -1164 3000
-1364 -1163 3002
-1350 -1159 2996
-1345 -1163 3009
-1327 -1156 2995
-1324 -1162 3014
-1312 -1160 3012
-1304 -1162 3020
-1284 -1152 2999
-1277 -1155 3010
-1266 -1154 3010
-1254 -1152 3010
-1239 -1147 3000
-1228 -1146 2999
-1223 -1151 3016
-1207 -1144 3002
-1198 -1146 3009
-1188 -1145 3009
-1113 -1082 2848
-1008 -987 2602
-892 -882 2325
-968 -965 2548
-1089 -1095 2893
-1117 -1132 2995
-1108 -1133 2999
-1098 -1132 3000
-1087 -1130 2999
-1074 -1127 2992
-1064 -1127 2994
-1052 -1124 2990
-1036 -1117 2974
-1026 -1116 2975
-1013 -1112 2966
-1006 -1115 2976
-992 -1110 2966
-981 -1108 2963
-969 -1105 2958
-958 -1104 2956
-947 -1102 2953
-936 -1099 2948
-925 -1097 2947
-912 -1093 2937
-899 -1088 2926
-889 -1088 2927
-880 -1088 2929
-868 -1083 2920
-857 -1081 2916
-847 -1081 2917
-834 -1075 2905
-827 -1078 2915
-815 -1074 2904
-805 -1073 2905
-796 -1073 2905
-781 -1064 2885
-773 -1067 2893
-762 -1063 2886
-753 -1063 2888
-741 -1060 2879
-732 -1059 2881
-721 -1056 2873
-712 -1055 2872
-703 -1056 2876
-689 -1048 2857
-681 -1049 2859
-671 -1047 2857
-659 -1043 2847
-652 -1045 2855
-641 -1042 2848
-630 -1037 2837
-620 -1036 2834
-613 -1038 2842
-601 -1034 2831
-592 -1032 2828
-582 -1030 2823
-573 -1030 2824
-564 -1029 2822
-554 -1028 2820
-546 -1028 2823
-536 -1025 2815
-526 -1023 2811
-517 -1022 2811
-506 -1017 2798
-498 -1017 2799
-490 -1019 2805
-481 -1018 2804
-470 -1014 2792
-461 -1012 2789
-453 -1014 2794
-443 -1010 2785
-434 -1009 2784
-425 -1007 2778
-415 -1005 2773
-406 -1001 2765
-397 -1002 2766
-389 -1001 2765
-379 -998 2757
-370 -996 2753
-362 -998 2758
-352 -992 2742
-344 -995 2752
-335 -993 2746
-327 -993 2748
-318 -991 2743
-309 -990 2740
-300 -985 2728
-292 -986 2730
-284 -987 2733
-274 -982 2722
-266 -981 2719
-258 -982 2722
-249 -981 2720
-240 -977 2707
-232 -978 2713
-224 -979 2714
-214 -971 2694
-208 -979 2715
-198 -971 2695
-190 -971 2693
-181 -970 2693
-173 -967 2685
-164 -964 2676
-156 -965 2680
-148 -965 2678
-140 -965 2678
-132 -963 2675
-123 -963 2673
-115 -962 2671
-107 -963 2672
-99 -962 2670
-91 -959 2662
-83 -957 2657
-75 -956 2654
-67 -959 2663
-58 -954 2650
-50 -953 2646
-43 -955 2651
-34 -951 2641
-26 -950 2637
-19 -950 2638
-11 -948 2631
-3 -947 2628
4 -949 2633
12 -944 2620
20 -946 2626
28 -945 2622
36 -946 2625
44 -940 2609
52 -944 2618
59 -938 2601
67 -938 2602
75 -938 2601
83 -937 2597
91 -939 2604
98 -937 2596
106 -937 2595
114 -935 2591
121 -931 2579
129 -934 2586
137 -936 2592
144 -931 2578
152 -932 2581
159 -929 2571
167 -929 2571
175 -928 2568
183 -931 2574
190 -926 2561
197 -924 2554
206 -928 2564
213 -924 2553
220 -924 2551
227 -919 2538
235 -923 2547
242 -920 2539
250 -920 2536
258 -923 2544
266 -922 2542
272 -918 2530
279 -916 2524
288 -918 2529
295 -917 2525
302 -916 2522
309 -913 2511
317 -915 2515
324 -914 2512
332 -915 2514
339 -912 2504
347 -915 2512
355 -913 2507
361 -911 2499
369 -912 2501
376 -910 2493
383 -909 2491
391 -911 2493
398 -909 2487
405 -908 2485
411 -905 2474
421 -910 2488
428 -908 2481
435 -907 2475
443 -908 2476
449 -904 2465
456 -904 2463
465 -906 2468
471 -904 2461
479 -906 2465
485 -903 2455
494 -905 2460
499 -901 2446
507 -901 2446
517 -906 2457
522 -902 2445
529 -901 2440
537 -901 2440
544 -900 2435
551 -899 2432
557 -898 2426
566 -901 2433
573 -899 2426
579 -897 2420
586 -896 2414
592 -895 2410
601 -896 2413
609 -897 2413
615 -896 2408
622 -895 2402
630 -895 2401
636 -893 2395
645 -896 2399
651 -894 2394
657 -892 2387
665 -893 2386
675 -896 2392
681 -894 2385
687 -893 2380
695 -894 2381
703 -894 2379
707 -890 2366
717 -893 2373
722 -890 2363
732 -893 2368
737 -891 2359
745 -891 2358
752 -891 2356
760 -892 2356
769 -893 2358
775 -892 2352
783 -892 2351
789 -891 2346
798 -893 2347
806 -894 2348
813 -893 2342
817 -890 2332
824 -889 2328
831 -889 2326
837 -887 2318
848 -892 2327
852 -888 2314
861 -889 2315
869 -890 2316
878 -892 2317
885 -892 2315
891 -890 2306
899 -890 2305
906 -891 2304
913 -890 2299
917 -887 2288
931 -893 2301
936 -891 2292
943 -891 2289
953 -893 2292
956 -889 2280
965 -890 2280
971 -889 2274
979 -890 2274
986 -889 2269
993 -890 2267
1002 -891 2266
1003 -885 2249
1011 -886 2247
1016 -884 2239
1045 -903 2285
1034 -887 2240
1046 -891 2248
1055 -893 2249
1059 -890 2238
1065 -888 2231
1069 -886 2222
1052 -865 2167
997 -815 2037
915 -742 1853
896 -722 1800
899 -719 1791
904 -719 1787
917 -724 1797
917 -720 1784
920 -717 1774
929 -720 1778
932 -718 1770
937 -717 1764
946 -719 1768
955 -722 1770
959 -720 1764
966 -721 1763
964 -715 1745
962 -709 1728
978 -717 1743
995 -725 1760
990 -717 1738
995 -717 1733
1009 -722 1743
1001 -712 1717
1010 -714 1718
1022 -719 1726
1016 -710 1702
-2090 -1378 3382
-2054 -1361 3349
-2048 -1365 3364
-2027 -1359 3355
-2007 -1353 3346
-1980 -1343 3327
-1936 -1321 3277
-1912 -1312 3261
-1896 -1309 3259
-1882 -1306 3259
-1853 -1294 3233
-1840 -1293 3235
-1831 -1294 3244
-1817 -1292 3245
-1791 -1282 3224
-1776 -1279 3221
-1755 -1271 3207
-1743 -1271 3210
-1738 -1275 3226
-1706 -1259 3192
-1697 -1261 3200
-1689 -1263 3211
-1671 -1257 3202
-1664 -1261 3214
-1647 -1256 3207
-1629 -1250 3198
-1606 -1241 3178
-1573 -1223 3136
-1535 -1201 3086
-1493 -1177 3026
-1474 -1170 3013
-1464 -1170 3017
-1457 -1172 3027
-1449 -1173 3034
-1439 -1174 3039
-1429 -1174 3044
-1404 -1161 3014
-1392 -1160 3014
-1379 -1158 3013
-1371 -1159 3021
-1359 -1157 3020
-1353 -1160 3032
-1338 -1156 3024
-1325 -1153 3019
-1319 -1157 3034
-1303 -1152 3023
-1298 -1155 3037
-1285 -1153 3034
-1270 -1148 3025
-1264 -1152 3037
-1246 -1144 3021
-1238 -1145 3027
-1225 -1143 3023
-1213 -1141 3022
-1200 -1137 3015
-1190 -1137 3019
-1164 -1121 2980
-1084 -1053 2801
-966 -946 2520
-898 -888 2366
-1032 -1029 2745
-1111 -1117 2982
-1107 -1122 2999
-1097 -1121 3000
-1083 -1117 2991
-1075 -1118 2998
-1062 -1115 2992
-1050 -1113 2988
-1037 -1108 2980
-1026 -1107 2978
-1017 -1107 2982
-1000 -1099 2963
-992 -1101 2970
-980 -1097 2963
-969 -1095 2960
-956 -1091 2951
-944 -1088 2945
-937 -1091 2956
-921 -1084 2937
-912 -1084 2941
-901 -1081 2935
-889 -1077 2927
-879 -1077 2929
-868 -1074 2924
-856 -1071 2917
-845 -1069 2912
-837 -1070 2917
-826 -1068 2915
-812 -1062 2899
-803 -1061 2899
-794 -1062 2903
-783 -1058 2896
-772 -1056 2891
-763 -1057 2895
-752 -1053 2885
-741 -1050 2881
-734 -1052 2889
-719 -1044 2868
-712 -1047 2877
-699 -1040 2860
-690 -1041 2864
-679 -1038 2857
-669 -1035 2852
-662 -1038 2861
-651 -1035 2853
-642 -1034 2853
-630 -1030 2842
-621 -1030 2843
-609 -1024 2829
-599 -1021 2821
-589 -1018 2816
-583 -1023 2830
-573 -1021 2826
-560 -1014 2807
-555 -1020 2826
-544 -1016 2815
-536 -1016 2817
-526 -1014 2814
-516 -1011 2805
-507 -1010 2805
-497 -1008 2799
-487 -1005 2793
-476 -1000 2780
-471 -1007 2799
-460 -1001 2784
-451 -999 2781
-442 -998 2779
-431 -994 2766
-424 -998 2778
-413 -990 2759
-405 -992 2765
-397 -993 2767
-389 -993 2770
-379 -990 2760
-372 -992 2769
-359 -981 2737
-352 -984 2746
-344 -986 2754
-335 -984 2749
-326 -981 2740
-318 -983 2747
-308 -978 2734
-300 -977 2731
