VERSION 0.7
FIELDS x y z
SIZE 4 4 4
TYPE I I I
COUNT 1 1 1
WIDTH 3363
HEIGHT 1
VIEWPOINT 0.0 0.0 0.0 1.0 0.0 0.0 0.0
POINTS 3363
DATA ascii
-25 -77 321
-48 -148 612
-70 -218 902
-72 -233 964
-68 -230 953
-64 -225 933
-61 -225 932
-60 -230 954
-55 -222 919
-51 -218 904
-48 -215 892
-46 -218 901
-44 -219 909
-41 -218 902
-38 -218 904
-36 -223 924
-33 -223 923
-31 -224 926
-27 -220 910
-25 -221 915
-22 -217 898
-19 -219 905
-17 -220 910
-14 -217 898
-11 -214 884
-9 -218 904
-6 -212 878
-3 -214 885
-1 -215 891
1 -217 898
4 -213 881
6 -220 910
9 -215 889
11 -213 881
14 -212 879
17 -213 879
19 -209 862
22 -214 886
24 -212 878
27 -213 879
30 -216 894
32 -209 863
35 -213 880
38 -215 890
39 -210 866
42 -209 864
46 -220 907
48 -214 883
50 -210 868
52 -211 869
56 -217 893
58 -213 879
63 -221 911
69 -233 962
68 -222 914
70 -219 903
75 -226 932
76 -220 905
78 -219 901
81 -219 902
83 -218 896
85 -215 883
87 -215 884
89 -214 878
92 -215 882
96 -217 893
99 -217 891
102 -220 902
106 -221 907
106 -217 889
104 -207 851
94 -182 748
70 -130 532
36 -61 253
19 -28 117
76 -132 539
115 -199 816
128 -217 889
131 -219 894
125 -204 834
722 -1183 4819
651 -1046 4259
661 -1042 4242
673 -1041 4234
685 -1039 4228
690 -1029 4183
702 -1028 4176
712 -1025 4164
721 -1020 4143
734 -1021 4142
745 -1019 4132
753 -1013 4108
765 -1014 4107
772 -1007 4078
783 -1006 4070
796 -1007 4071
803 -1001 4045
815 -1001 4043
825 -997 4027
831 -991 3998
849 -998 4024
850 -986 3973
861 -984 3964
875 -987 3973
882 -981 3947
890 -978 3931
906 -982 3945
913 -977 3924
925 -977 3922
932 -972 3900
943 -972 3894
947 -964 3860
960 -965 3863
970 -964 3856
973 -955 3818
986 -957 3823
997 -957 3818
1040 -987 3936
1075 -1009 4019
1045 -969 3859
1033 -948 3773
1039 -943 3749
1042 -936 3718
1054 -936 3717
1060 -932 3696
1070 -930 3687
1084 -934 3697
1092 -931 3683
1103 -930 3677
1119 -935 3693
1130 -934 3687
1136 -930 3667
1145 -928 3657
1160 -932 3668
1166 -928 3648
1177 -928 3645
1181 -922 3618
1188 -919 3602
1195 -916 3589
1210 -919 3597
1215 -914 3575
1223 -913 3566
1232 -911 3556
1242 -910 3549
1250 -908 3538
1255 -904 3518
1263 -903 3508
1276 -904 3510
1282 -901 3493
1292 -900 3487
1300 -898 3475
1304 -894 3455
1314 -893 3450
1349 -910 3510
1379 -923 3556
1452 -964 3710
1496 -985 3788
1606 -1050 4031
1679 -1089 4177
1711 -1102 4219
1724 -1102 4215
1718 -1090 4165
1737 -1093 4172
1743 -1089 4152
1758 -1090 4151
1769 -1089 4140
1790 -1094 4155
1799 -1092 4141
1817 -1095 4148
1834 -1098 4151
1842 -1095 4134
1796 -1059 3996
1817 -1065 4010
1818 -1058 3980
1808 -1045 3925
1812 -1040 3900
1825 -1040 3897
1831 -1036 3877
1846 -1038 3878
1861 -1040 3879
1877 -1042 3880
1890 -1042 3876
1930 -1058 3928
2002 -1090 4041
2048 -1108 4103
2081 -1119 4136
2077 -1109 4094
2066 -1097 4042
2079 -1097 4036
2093 -1097 4030
2109 -1099 4030
2164 -1121 4105
2164 -1114 4071
2165 -1107 4042
2182 -1110 4044
2182 -1103 4012
2222 -1116 4055
2209 -1103 4000
2260 -1122 4062
2268 -1120 4046
2294 -1126 4062
2320 -1133 4078
2240 -1087 3908
-1018 -459 1713
-1020 -463 1729
-1007 -459 1720
-959 -440 1651
-918 -424 1593
-879 -408 1537
-870 -406 1532
-873 -410 1548
-837 -395 1495
-884 -420 1592
-841 -402 1526
-897 -432 1639
-883 -428 1627
-813 -396 1508
-837 -410 1566
-831 -410 1566
-818 -406 1554
-764 -382 1463
-678 -341 1309
-829 -419 1612
-882 -449 1728
-875 -448 1727
-869 -448 1730
-875 -454 1755
-879 -459 1776
-873 -459 1779
-868 -459 1782
-860 -458 1780
-880 -472 1836
-888 -479 1867
-882 -480 1871
-881 -483 1884
-873 -481 1881
-874 -485 1900
-865 -484 1895
-856 -482 1891
-851 -483 1896
-831 -475 1866
-800 -460 1812
-756 -438 1728
-750 -438 1729
-738 -434 1715
-728 -431 1705
-725 -433 1714
-720 -433 1716
-710 -430 1706
-711 -434 1725
-702 -432 1718
-698 -433 1722
-696 -435 1733
-728 -458 1827
-761 -483 1928
-771 -494 1972
-769 -496 1984
-760 -494 1978
-756 -496 1985
-752 -497 1993
-747 -498 1999
-742 -499 2003
-737 -500 2009
-729 -499 2006
-706 -487 1961
-692 -482 1942
-705 -495 1996
-707 -501 2021
-700 -500 2021
-700 -504 2039
-696 -507 2050
-686 -504 2040
-691 -512 2075
-680 -509 2064
-667 -504 2044
-622 -474 1927
-598 -460 1870
-581 -452 1838
-574 -450 1832
-568 -450 1834
-562 -450 1835
-562 -455 1854
-565 -461 1883
-576 -475 1941
-570 -476 1944
-566 -476 1948
-578 -492 2013
-587 -505 2066
-616 -536 2195
-643 -565 2316
-636 -565 2318
-628 -565 2317
-624 -567 2329
-619 -569 2336
-609 -566 2328
-583 -549 2258
-559 -532 2188
-562 -542 2230
-555 -541 2228
-547 -540 2226
-536 -536 2211
-527 -534 2201
-522 -535 2209
-522 -542 2239
-526 -553 2283
-519 -553 2287
-514 -554 2293
-507 -555 2296
-501 -556 2300
-496 -558 2309
-488 -557 2308
-482 -557 2309
-466 -547 2267
-461 -549 2277
-458 -554 2299
-433 -531 2206
-152 -190 793
-93 -119 498
-116 -151 630
-212 -278 1156
-263 -350 1455
0 0 0
0 0 0
0 0 0
-444 -631 2627
-446 -645 2687
-439 -647 2693
-422 -634 2640
-363 -556 2315
-302 -472 1968
-292 -465 1939
-288 -468 1953
-284 -471 1964
-314 -531 2215
-333 -575 2399
0 0 0
-55 -103 431
-79 -148 620
-71 -137 576
-60 -119 501
-44 -91 384
-41 -87 366
-59 -127 533
-51 -113 474
-29 -67 284
-38 -91 381
-39 -94 397
-32 -81 343
-31 -81 341
-28 -76 322
-30 -84 355
-27 -78 330
-33 -99 415
-43 -131 552
-66 -205 860
-71 -227 950
-68 -226 948
-65 -224 941
-61 -222 933
-58 -222 932
-57 -228 956
-53 -222 931
-50 -220 924
-46 -217 912
-43 -215 903
-42 -223 935
-38 -216 905
-36 -219 920
-32 -214 899
-31 -221 929
-28 -219 918
-25 -215 903
-22 -218 916
-19 -215 903
-16 -210 879
-14 -216 905
-11 -213 895
-8 -213 894
-6 -214 896
-3 -213 892
-1 -211 885
1 -216 906
4 -214 899
6 -211 884
9 -214 898
12 -214 898
14 -208 871
17 -209 878
20 -215 899
22 -210 878
24 -209 874
27 -212 887
30 -210 879
32 -207 868
34 -206 861
37 -208 870
40 -209 876
42 -206 864
45 -210 880
49 -217 908
52 -217 909
52 -208 870
57 -215 896
60 -218 909
62 -217 905
65 -217 908
67 -215 898
70 -215 897
74 -219 912
77 -221 922
78 -215 895
79 -212 884
82 -213 889
84 -212 882
90 -220 915
90 -213 888
93 -214 890
95 -211 878
99 -215 893
98 -208 866
106 -218 906
99 -199 828
98 -191 794
80 -151 627
55 -100 416
610 -1145 4740
605 -1110 4593
659 -1183 4890
109 -186 772
129 -217 898
130 -214 888
124 -201 830
688 -1113 4591
650 -1031 4254
655 -1020 4204
670 -1024 4219
682 -1023 4212
693 -1021 4204
704 -1018 4191
715 -1017 4182
721 -1007 4141
732 -1006 4133
744 -1006 4131
755 -1004 4121
762 -997 4091
773 -995 4082
785 -995 4079
792 -989 4052
810 -997 4082
815 -988 4042
827 -988 4042
837 -986 4028
842 -978 3994
855 -979 3995
863 -975 3977
874 -974 3971
883 -971 3956
892 -967 3939
902 -966 3931
912 -964 3919
919 -959 3898
932 -960 3901
940 -957 3886
949 -954 3869
960 -954 3867
966 -948 3841
972 -943 3817
986 -945 3823
996 -944 3815
1029 -964 3895
1072 -993 4009
1039 -953 3841
1031 -934 3764
1039 -931 3749
1044 -926 3727
1046 -918 3691
1061 -921 3700
1073 -922 3700
1085 -923 3700
1091 -919 3682
1107 -923 3695
1119 -923 3693
1123 -917 3666
1133 -917 3661
1147 -919 3665
1155 -917 3655
1161 -913 3635
1171 -912 3628
1183 -912 3628
1186 -906 3599
1198 -907 3599
1203 -903 3579
1217 -905 3586
1223 -902 3568
1231 -900 3556
1243 -900 3553
1252 -899 3546
1259 -896 3531
1268 -895 3523
1274 -892 3507
1282 -890 3495
1293 -890 3491
1300 -887 3477
1306 -884 3462
1315 -883 3454
1340 -893 3487
1391 -920 3588
1433 -940 3664
1501 -977 3802
1605 -1037 4032
1658 -1063 4128
1689 -1074 4168
1704 -1076 4169
1717 -1076 4164
1719 -1069 4132
1733 -1070 4130
1762 -1080 4164
1759 -1070 4120
1779 -1074 4132
1774 -1063 4085
1794 -1068 4097
1834 -1084 4154
1844 -1082 4141
1814 -1057 4040
1819 -1053 4016
1829 -1051 4005
1822 -1040 3958
1813 -1028 3907
1822 -1026 3894
1831 -1024 3882
1837 -1021 3862
1853 -1023 3865
1862 -1021 3853
1887 -1028 3874
1927 -1043 3923
1982 -1066 4004
2016 -1077 4041
2038 -1083 4054
2069 -1092 4083
2064 -1082 4041
2072 -1080 4025
2072 -1073 3993
2107 -1085 4030
2119 -1084 4021
2133 -1085 4018
2143 -1083 4004
2155 -1082 3996
2176 -1087 4005
2178 -1081 3977
2243 -1107 4066
2235 -1096 4020
2265 -1105 4044
2273 -1102 4027
2286 -1103 4021
2252 -1079 3930
-994 -443 1674
-992 -444 1684
-979 -441 1675
-959 -434 1652
-919 -419 1595
-885 -406 1547
-874 -403 1540
-869 -403 1543
-866 -404 1549
-890 -418 1604
-868 -410 1577
-843 -400 1542
-861 -412 1587
-871 -419 1619
-822 -398 1539
-829 -404 1563
-815 -399 1549
-794 -392 1521
-812 -403 1567
-867 -433 1687
-883 -444 1731
-876 -443 1732
-867 -441 1727
-873 -447 1752
-882 -455 1784
-871 -452 1775
-860 -449 1767
-863 -454 1788
-868 -460 1813
-881 -470 1856
-882 -474 1872
-880 -476 1882
-873 -475 1882
-872 -478 1896
-863 -476 1892
-858 -477 1897
-850 -476 1895
-831 -469 1868
-786 -447 1782
-752 -431 1719
-737 -425 1700
-735 -427 1708
-731 -428 1714
-723 -426 1709
-722 -429 1722
-716 -429 1723
-709 -428 1721
-705 -429 1726
-699 -428 1726
-692 -427 1723
-733 -456 1843
-776 -487 1968
-773 -488 1977
-770 -491 1988
-767 -492 1997
-762 -493 2002
-758 -495 2010
-753 -496 2015
-741 -492 2004
-739 -495 2015
-729 -492 2008
-705 -480 1959
-699 -480 1960
-705 -489 1997
-707 -495 2024
-705 -497 2036
-696 -495 2030
-691 -496 2035
-689 -499 2049
-683 -500 2052
-676 -499 2050
-641 -478 1966
-600 -452 1860
-584 -444 1829
-577 -443 1826
-571 -442 1825
-564 -441 1822
-559 -442 1827
-557 -445 1838
-554 -447 1849
-568 -462 1914
-568 -468 1936
-572 -476 1970
-585 -492 2038
-597 -507 2104
-603 -517 2148
-617 -536 2224
-629 -552 2293
-622 -552 2295
-618 -555 2308
-616 -559 2327
-604 -555 2310
-579 -538 2243
-566 -532 2218
-561 -533 2225
-554 -533 2226
-543 -530 2212
-535 -528 2207
-529 -528 2208
-526 -532 2225
-529 -542 2270
-528 -548 2294
-518 -546 2285
-512 -546 2289
-508 -549 2302
-503 -551 2309
-493 -548 2298
-486 -548 2300
-479 -548 2300
-471 -547 2296
-458 -539 2263
-454 -542 2280
-427 -518 2178
-156 -193 814
-86 -109 463
-166 -212 896
-261 -338 1423
-288 -379 1598
-87 -118 500
-101 -139 590
0 0 0
-443 -623 2625
-444 -634 2676
-435 -633 2672
-416 -617 2604
-352 -531 2244
-300 -463 1955
-293 -461 1947
-285 -457 1931
-268 -439 1858
-138 -232 982
-36 -65 277
-22 -41 177
-32 -61 262
-37 -71 304
-34 -67 286
-38 -76 326
-29 -61 263
-14 -33 142
0 0 0
0 0 0
0 0 0
-28 -68 289
-34 -82 350
-29 -73 311
-30 -77 330
-29 -79 336
-22 -63 270
-29 -83 356
-32 -95 407
-38 -114 487
-68 -209 886
-72 -228 968
-69 -226 961
-65 -222 943
-62 -221 938
-59 -220 936
-55 -217 921
-54 -222 942
-50 -218 925
-47 -216 919
-44 -218 925
-41 -214 907
-39 -216 920
-35 -214 909
-33 -214 911
-30 -214 911
-28 -216 917
-25 -216 919
-22 -217 924
-20 -215 915
-17 -220 935
-14 -218 928
-11 -213 907
-9 -212 901
-6 -212 903
-3 -208 884
-1 -210 891
1 -216 916
4 -212 900
6 -209 889
9 -211 896
12 -209 888
14 -209 886
17 -211 895
19 -208 884
22 -204 868
24 -205 871
27 -207 877
30 -209 885
32 -208 881
35 -207 878
37 -207 877
40 -206 875
42 -207 878
46 -213 903
49 -212 899
52 -214 906
53 -209 883
57 -213 901
60 -214 907
61 -209 883
64 -210 889
65 -204 865
70 -214 904
71 -209 881
74 -210 887
78 -212 894
80 -210 887
84 -214 902
84 -207 872
89 -213 897
92 -214 901
94 -212 894
94 -208 877
96 -206 867
98 -205 862
104 -212 891
98 -194 816
82 -158 664
69 -129 544
28 -47 200
577 -1068 4479
582 -1054 4416
631 -1119 4688
105 -177 744
129 -214 899
136 -221 928
105 -165 694
651 -1039 4345
650 -1019 4257
662 -1017 4249
671 -1012 4225
683 -1011 4218
690 -1003 4184
703 -1005 4189
713 -1000 4168
721 -994 4142
734 -996 4146
742 -990 4121
751 -987 4103
764 -987 4103
775 -986 4096
788 -987 4097
795 -981 4072
801 -974 4039
817 -978 4053
824 -972 4028
830 -965 3997
844 -968 4004
854 -965 3992
866 -966 3994
872 -960 3964
882 -958 3953
888 -951 3923
900 -952 3923
908 -948 3907
920 -948 3905
931 -948 3899
940 -945 3887
950 -944 3879
958 -940 3861
968 -938 3851
976 -935 3835
981 -929 3806
996 -932 3817
1035 -958 3919
1084 -993 4058
1044 -945 3862
1028 -920 3755
1045 -926 3775
1044 -915 3728
1049 -910 3704
1059 -908 3695
1068 -907 3687
1079 -907 3683
1092 -908 3687
1103 -908 3683
1117 -910 3687
1127 -909 3682
1137 -908 3674
1142 -904 3652
1151 -902 3643
1164 -904 3647
1165 -896 3612
1178 -898 3615
1189 -898 3612
1196 -894 3595
1205 -893 3586
1213 -891 3574
1225 -892 3575
1231 -889 3558
1241 -888 3550
1247 -885 3535
1257 -884 3529
1271 -886 3532
1272 -880 3504
1279 -877 3490
1287 -875 3479
1299 -876 3479
1311 -877 3477
1317 -873 3461
1339 -881 3488
1390 -907 3587
1436 -930 3673
1493 -960 3785
1590 -1014 3996
1653 -1047 4119
1689 -1061 4171
1707 -1065 4179
1721 -1065 4176
1715 -1053 4125
1729 -1055 4124
1746 -1057 4129
1751 -1052 4105
1776 -1059 4127
1794 -1063 4135
1797 -1057 4107
1813 -1059 4109
1840 -1067 4134
1797 -1034 4004
1809 -1034 3997
1807 -1026 3959
1819 -1026 3955
1806 -1011 3893
1819 -1012 3890
1822 -1007 3865
1850 -1016 3893
1849 -1008 3860
1863 -1009 3856
1886 -1015 3874
1923 -1028 3919
1966 -1044 3974
2002 -1057 4016
2027 -1064 4035
2033 -1060 4013
2065 -1069 4045
2076 -1069 4035
2086 -1067 4023
2092 -1064 4004
2123 -1073 4032
2127 -1068 4008
2153 -1075 4026
2166 -1075 4021
2167 -1069 3991
2196 -1077 4014
2203 -1074 3995
2207 -1070 3973
2232 -1075 3987
2270 -1088 4025
2277 -1085 4007
2233 -1058 3901
-976 -429 1645
-978 -433 1661
-968 -430 1656
-959 -429 1654
-931 -419 1617
-890 -403 1557
-874 -398 1542
-867 -397 1540
-849 -391 1520
-808 -375 1457
-850 -396 1545
-850 -399 1557
-852 -402 1571
-856 -406 1591
-845 -404 1582
-827 -398 1561
-823 -398 1565
-815 -397 1562
-850 -417 1643
-884 -436 1721
-876 -435 1718
-878 -439 1736
-870 -438 1734
-875 -443 1758
-888 -452 1798
-871 -447 1777
-862 -445 1772
-852 -443 1766
-868 -454 1813
-873 -460 1840
-872 -462 1852
-874 -467 1871
-872 -469 1882
-869 -471 1891
-863 -470 1893
-857 -471 1896
-845 -467 1885
-824 -459 1854
-785 -441 1781
-752 -425 1720
-740 -421 1707
-741 -425 1724
-733 -424 1720
-724 -421 1712
-718 -421 1713
-717 -424 1726
-706 -421 1715
-705 -423 1728
-697 -422 1724
-696 -424 1735
-741 -455 1863
-772 -478 1960
-775 -484 1985
-773 -486 1997
-763 -484 1989
-759 -485 1997
-761 -490 2019
-755 -491 2023
-743 -487 2010
-732 -484 1998
-719 -479 1981
-703 -473 1956
-694 -471 1948
-705 -483 2000
-706 -487 2020
-704 -491 2036
-701 -493 2047
-697 -494 2054
-689 -493 2051
-688 -497 2069
-675 -492 2051
-644 -474 1976
-599 -445 1857
-580 -436 1818
-576 -436 1822
-569 -435 1820
-562 -434 1818
-559 -436 1827
-553 -436 1826
-551 -439 1841
-566 -456 1911
-569 -463 1942
-575 -472 1984
-596 -495 2080
-595 -499 2099
-594 -504 2120
-596 -511 2150
-596 -517 2176
-599 -525 2211
-599 -531 2240
-595 -533 2249
-585 -531 2239
-564 -517 2184
-561 -521 2201
-556 -522 2208
-552 -525 2221
-543 -523 2212
-537 -523 2214
-533 -526 2227
-527 -527 2232
-529 -535 2269
-527 -540 2290
-519 -539 2288
-514 -541 2297
-506 -540 2295
-502 -543 2309
-493 -541 2299
-490 -545 2319
-479 -541 2302
-473 -542 2306
-458 -533 2268
-447 -528 2247
-434 -520 2217
0 0 0
-82 -103 443
-136 -173 739
-194 -249 1062
-164 -214 913
-87 -116 499
-77 -105 450
0 0 0
-453 -628 2682
-449 -634 2709
-441 -635 2712
-409 -600 2563
-337 -504 2155
-299 -455 1947
-292 -454 1943
-282 -447 1914
-269 -436 1867
-110 -184 790
-16 -30 133
-640 -1098 4701
0 0 0
-434 -780 3341
-584 -1071 4588
-3 -11 49
0 0 0
-338 -669 2868
-340 -690 2957
0 0 0
-344 -735 3153
0 0 0
-488 -1098 4712
-6 -19 86
0 0 0
-25 -68 294
-28 -76 329
-24 -70 303
-28 -82 354
-42 -124 534
-79 -236 1016
-77 -240 1033
-70 -227 978
-66 -223 961
-63 -223 960
-60 -221 951
-57 -220 947
-53 -216 931
-50 -216 931
-46 -211 907
-43 -211 908
-42 -218 939
-39 -214 924
-36 -214 920
-33 -212 913
-30 -210 906
-27 -211 909
-25 -210 906
-22 -212 915
-19 -212 915
-16 -209 898
-14 -213 917
-11 -209 899
-9 -209 901
-6 -209 901
-3 -205 883
-1 -208 897
1 -209 898
4 -208 896
6 -212 912
9 -205 881
11 -204 877
14 -209 900
17 -208 893
19 -207 888
22 -203 874
25 -208 893
27 -205 882
29 -203 874
32 -207 890
34 -202 868
38 -206 884
40 -205 882
43 -205 879
45 -205 878
49 -211 905
49 -200 856
53 -206 882
56 -206 885
60 -212 908
62 -210 901
65 -211 905
65 -204 873
69 -207 887
72 -209 894
73 -205 876
77 -208 890
81 -210 901
84 -211 903
86 -210 900
87 -206 881
89 -204 871
93 -207 886
95 -208 887
97 -206 880
103 -213 910
105 -211 900
108 -212 903
77 -146 623
43 -76 327
603 -1129 4799
574 -1049 4456
581 -1038 4408
658 -1151 4885
112 -186 792
131 -215 914
128 -206 875
687 -1106 4685
646 -1019 4317
652 -1008 4267
662 -1004 4248
672 -1000 4231
684 -1001 4231
690 -991 4186
703 -992 4190
714 -990 4179
722 -985 4154
734 -984 4148
744 -980 4132
753 -977 4115
765 -976 4111
776 -975 4104
786 -972 4089
794 -967 4066
804 -965 4054
811 -959 4028
825 -962 4035
832 -956 4009
841 -953 3995
852 -951 3984
860 -947 3967
873 -949 3970
880 -943 3945
889 -941 3931
900 -940 3925
912 -941 3927
923 -940 3919
931 -936 3902
940 -933 3889
950 -931 3877
953 -924 3842
965 -924 3843
972 -919 3819
987 -923 3831
997 -922 3823
1028 -940 3894
1086 -982 4066
1055 -943 3903
1029 -909 3761
1032 -903 3731
1057 -914 3775
1060 -907 3744
1061 -898 3704
1069 -896 3691
1078 -894 3682
1088 -894 3676
1105 -899 3693
1116 -898 3688
1124 -896 3674
1139 -899 3685
1143 -893 3658
1153 -893 3653
1161 -890 3639
1173 -891 3637
1180 -888 3623
1183 -882 3595
1194 -882 3591
1204 -882 3587
1211 -878 3570
1220 -878 3563
1230 -877 3557
1235 -873 3536
1248 -874 3540
1259 -874 3536
1268 -873 3528
1266 -865 3489
1276 -864 3481
1293 -868 3496
1295 -862 3468
1302 -860 3457
1313 -860 3452
1341 -871 3494
1377 -888 3555
1428 -913 3654
1497 -950 3798
1598 -1007 4018
1658 -1037 4132
1684 -1045 4162
1698 -1046 4160
1703 -1041 4136
1712 -1039 4122
1725 -1039 4115
1748 -1045 4134
1756 -1042 4118
1778 -1047 4134
1777 -1040 4098
1803 -1047 4123
1809 -1043 4101
1842 -1055 4142
1802 -1024 4017
1811 -1022 4004
1808 -1014 3965
1819 -1013 3957
1811 -1002 3907
1813 -996 3879
1821 -994 3865
1840 -997 3874
1854 -999 3873
1867 -999 3868
1892 -1006 3888
1918 -1013 3912
1991 -1045 4028
2030 -1058 4074
2040 -1057 4062
2053 -1057 4057
2085 -1067 4087
2090 -1063 4066
2083 -1052 4020
2115 -1062 4052
2124 -1060 4036
2128 -1056 4013
2127 -1049 3981
2148 -1053 3989
2176 -1060 4010
2199 -1065 4023
2205 -1062 4003
2240 -1072 4035
2231 -1062 3989
2256 -1067 4003
2259 -1063 3978
2240 -1048 3915
-970 -421 1637
-964 -421 1640
-963 -423 1650
-952 -420 1642
-923 -410 1606
-883 -395 1548
-869 -391 1533
-873 -395 1553
-869 -395 1557
-820 -375 1480
-846 -390 1540
-831 -385 1523
-835 -389 1543
-839 -394 1562
-867 -409 1626
-831 -394 1570
-818 -391 1558
-828 -398 1589
-857 -414 1656
-882 -429 1718
-879 -431 1726
-868 -428 1718
-874 -434 1743
-877 -438 1762
-886 -446 1796
-872 -441 1781
-861 -439 1773
-848 -435 1760
-850 -439 1777
-851 -443 1795
-854 -447 1815
-854 -450 1830
-850 -451 1837
-848 -453 1847
-843 -454 1852
-838 -454 1855
-827 -452 1847
-810 -446 1824
-774 -429 1758
-746 -416 1708
-741 -416 1710
-736 -417 1715
-727 -415 1708
-717 -412 1698
-714 -414 1707
-706 -412 1702
-708 -416 1721
-702 -416 1721
-696 -415 1721
-698 -420 1742
-746 -453 1878
-774 -473 1966
-777 -479 1991
-771 -479 1992
-766 -480 1999
-759 -480 1999
-754 -480 2004
-748 -480 2005
-726 -470 1966
-709 -463 1936
-699 -460 1927
-682 -453 1899
-681 -456 1914
-683 -462 1938
-683 -466 1957
-698 -480 2018
-703 -488 2052
-700 -490 2064
-693 -490 2064
-688 -491 2070
-677 -488 2059
-641 -466 1967
-592 -435 1838
-584 -433 1831
-580 -434 1837
-573 -433 1833
-564 -430 1823
-559 -431 1829
-558 -434 1843
-552 -434 1845
-568 -451 1918
-572 -459 1953
-586 -475 2023
-600 -492 2095
-600 -497 2118
-598 -500 2133
-592 -501 2137
-591 -505 2158
-583 -504 2153
-581 -508 2171
-573 -508 2170
-565 -506 2163
-557 -505 2161
-552 -506 2166
-547 -508 2175
-543 -510 2186
-537 -510 2188
-535 -515 2209
-531 -517 2221
-524 -517 2221
-522 -522 2242
-523 -530 2277
-516 -529 2277
-512 -532 2288
-506 -533 2294
-500 -534 2301
-494 -535 2305
-489 -537 2313
-482 -537 2316
-474 -536 2310
-463 -532 2294
-447 -520 2246
-405 -479 2068
-157 -189 819
-106 -130 565
-124 -155 670
-139 -176 763
-111 -144 624
-44 -59 257
-63 -85 370
0 0 0
-460 -629 2725
-459 -640 2773
0 0 0
0 0 0
-265 -391 1694
-293 -441 1914
-292 -447 1941
-286 -448 1943
-253 -404 1754
-77 -128 560
0 0 0
-413 -700 3038
-395 -685 2973
-386 -685 2975
-379 -689 2991
-378 -702 3048
-354 -674 2929
-341 -665 2889
0 0 0
0 0 0
-332 -701 3047
-314 -682 2965
-306 -682 2964
-286 -656 2854
-270 -639 2780
-20 -55 243
-26 -70 309
-28 -80 351
0 0 0
0 0 0
-181 -524 2282
-129 -390 1698
-75 -241 1050
-67 -224 975
-62 -218 949
-59 -215 937
-57 -217 949
-54 -218 953
-53 -227 992
-47 -212 924
-45 -215 936
-41 -212 924
-38 -209 911
-36 -210 917
-33 -208 907
-30 -211 919
-28 -211 921
-25 -212 927
-22 -210 918
-19 -207 902
-16 -206 900
-14 -210 916
-11 -209 912
-8 -206 898
-6 -206 898
-3 -209 913
-1 -205 893
1 -211 919
4 -202 883
6 -206 896
9 -205 894
12 -205 893
14 -201 876
17 -202 879
19 -199 869
22 -202 879
25 -205 893
27 -201 874
29 -199 865
32 -199 868
35 -202 878
38 -204 886
40 -203 881
42 -202 877
46 -205 893
48 -206 894
51 -203 884
51 -197 855
56 -204 887
59 -207 899
62 -208 903
64 -206 893
68 -210 914
70 -207 899
71 -201 874
76 -209 908
78 -207 897
82 -211 913
83 -206 895
84 -203 881
86 -202 873
91 -206 891
92 -203 879
97 -208 900
99 -207 894
102 -207 897
102 -203 877
111 -216 933
83 -156 675
3 0 -1
574 -1062 4571
566 -1022 4399
590 -1042 4482
56 -91 393
122 -201 866
130 -211 908
83 -130 561
643 -1021 4385
646 -1006 4315
654 -998 4281
662 -991 4249
668 -983 4212
683 -986 4222
688 -976 4178
704 -981 4197
712 -975 4169
720 -969 4144
733 -970 4144
747 -973 4154
755 -967 4126
764 -962 4106
774 -960 4093
784 -957 4079
796 -957 4077
806 -955 4066
817 -953 4056
820 -944 4015
833 -944 4014
843 -942 4003
852 -940 3990
864 -939 3985
873 -937 3972
881 -933 3953
887 -926 3922
898 -926 3920
904 -920 3892
922 -927 3917
926 -920 3884
940 -922 3890
951 -921 3885
957 -915 3858
958 -906 3817
974 -910 3829
982 -907 3815
993 -907 3810
1034 -934 3921
1081 -965 4051
1049 -926 3882
1027 -897 3757
1038 -897 3755
1044 -892 3732
1053 -890 3719
1057 -884 3693
1068 -884 3688
1078 -883 3684
1092 -886 3691
1105 -887 3692
1116 -887 3688
1124 -885 3676
1134 -884 3669
1145 -884 3668
1153 -881 3654
1161 -879 3641
1171 -878 3635
1176 -874 3612
1187 -874 3610
1195 -872 3597
1204 -870 3587
1212 -868 3575
1220 -867 3565
1233 -868 3567
1240 -865 3552
1245 -861 3533
1255 -861 3528
1266 -861 3524
1269 -855 3497
1282 -857 3502
1290 -855 3490
1293 -850 3465
1305 -851 3465
1312 -849 3452
1338 -859 3488
1371 -873 3544
1428 -902 3658
1465 -919 3720
1583 -985 3983
1655 -1022 4129
1680 -1029 4153
1698 -1033 4162
1710 -1032 4156
1723 -1032 4149
1728 -1027 4125
1737 -1026 4113
1751 -1026 4110
1765 -1027 4108
1776 -1026 4098
1795 -1029 4107
1808 -1030 4102
1842 -1042 4145
1804 -1013 4026
1812 -1010 4009
1815 -1005 3983
1816 -999 3952
1800 -983 3886
1806 -980 3868
1823 -982 3872
1833 -981 3862
1850 -984 3866
1868 -987 3873
1879 -986 3865
1928 -1005 3933
1998 -1035 4044
2060 -1061 4137
2099 -1074 4184
2085 -1060 4124
2101 -1062 4123
2110 -1059 4107
2129 -1063 4113
2153 -1068 4126
2158 -1064 4103
2168 -1062 4092
2169 -1056 4061
2178 -1054 4049
2191 -1054 4040
2213 -1059 4051
2219 -1055 4030
2231 -1055 4022
2243 -1054 4013
2241 -1047 3980
2276 -1057 4011
2254 -1041 3943
-966 -414 1632
-967 -417 1645
-963 -417 1651
-947 -413 1636
-923 -405 1607
-880 -388 1543
-871 -387 1539
-846 -378 1506
-842 -378 1509
-833 -376 1505
-858 -390 1562
-834 -381 1529
-849 -391 1570
-859 -398 1600
-803 -374 1507
-837 -392 1582
-826 -390 1575
-837 -397 1607
-863 -412 1671
-884 -425 1723
-881 -426 1732
-874 -426 1731
-872 -427 1740
-874 -431 1758
-889 -441 1803
-869 -434 1776
-856 -431 1763
-848 -430 1762
-843 -430 1765
-840 -431 1773
-837 -432 1780
-834 -434 1789
-833 -437 1802
-826 -436 1801
-821 -436 1805
-816 -437 1808
-807 -435 1804
-796 -432 1794
-768 -420 1745
-743 -409 1702
-742 -412 1714
-735 -411 1713
-727 -410 1709
-719 -408 1704
-715 -409 1710
-715 -412 1724
-712 -413 1732
-704 -412 1728
-695 -410 1720
-700 -416 1747
-748 -448 1885
-779 -470 1979
-774 -471 1984
-774 -475 2003
-769 -475 2007
-760 -474 2002
-750 -472 1995
-744 -472 1996
-718 -459 1944
-698 -450 1908
-684 -445 1889
-683 -448 1902
-677 -448 1905
-670 -447 1903
-672 -452 1926
-681 -462 1971
-700 -480 2046
-700 -484 2066
-694 -484 2070
-689 -485 2076
-678 -482 2062
-643 -462 1976
-600 -435 1864
-586 -429 1839
-580 -428 1837
-574 -428 1840
-567 -427 1835
-560 -426 1832
-561 -431 1856
-556 -432 1860
-563 -441 1902
-574 -455 1960
-585 -468 2020
-603 -488 2106
-603 -493 2131
-599 -495 2140
-594 -496 2146
-586 -495 2140
-583 -498 2158
-578 -499 2162
-571 -499 2162
-563 -498 2157
-556 -497 2158
-550 -498 2160
-546 -500 2172
-540 -501 2175
-536 -503 2188
-530 -504 2192
-526 -506 2202
-519 -505 2200
-518 -511 2228
-520 -520 2264
-516 -523 2279
-513 -527 2297
-506 -526 2296
-501 -528 2305
-492 -526 2298
-486 -527 2304
-480 -528 2307
-473 -528 2308
-466 -528 2310
-444 -511 2235
-303 -354 1552
-115 -138 607
-108 -131 578
-182 -223 980
-276 -343 1506
-154 -197 863
-77 -101 447
-96 -128 562
-74 -100 443
-59 -82 361
-30 -43 193
-38 -56 248
-56 -82 365
-191 -280 1231
-296 -440 1932
-292 -443 1947
-282 -436 1919
-258 -406 1787
0 0 0
-420 -689 3030
-401 -672 2955
-391 -669 2943
-384 -672 2959
-377 -675 2973
-366 -672 2959
-348 -654 2879
-347 -668 2942
-353 -697 3069
-324 -658 2898
-315 -656 2891
-303 -649 2861
-289 -638 2811
-282 -639 2816
-268 -627 2766
0 0 0
-31 -82 364
0 0 0
-210 -559 2465
-210 -579 2554
-179 -514 2266
-129 -386 1703
-74 -233 1028
-66 -219 968
-63 -218 965
-59 -214 949
-57 -216 953
-54 -215 953
-51 -214 946
-48 -214 946
-45 -215 950
-42 -209 927
-38 -207 915
-36 -211 932
-33 -209 926
-30 -206 911
-27 -206 913
-25 -208 919
-22 -208 920
-19 -206 911
-16 -202 894
-14 -206 909
-11 -204 902
-8 -204 901
-6 -203 898
-3 -201 887
-1 -206 908
1 -201 889
4 -203 897
6 -203 899
9 -201 890
12 -203 897
14 -203 897
17 -201 890
20 -205 906
22 -198 875
24 -199 880
27 -202 892
29 -198 872
32 -201 887
35 -203 896
37 -199 876
40 -201 887
43 -202 890
46 -203 894
48 -202 888
51 -202 891
54 -205 903
56 -203 892
57 -197 866
61 -200 882
64 -203 894
66 -201 883
71 -208 913
70 -198 871
76 -206 904
78 -205 900
80 -203 890
83 -203 893
85 -202 886
87 -202 887
92 -205 902
93 -204 894
96 -204 896
100 -206 904
103 -208 912
101 -197 864
110 -211 922
83 -154 673
576 -1076 4696
561 -1024 4466
567 -1011 4408
604 -1054 4594
93 -154 674
126 -206 900
126 -202 881
695 -1113 4843
635 -995 4331
644 -990 4306
653 -984 4276
661 -978 4248
672 -975 4234
679 -967 4198
691 -967 4196
705 -970 4205
714 -964 4180
721 -958 4152
733 -958 4149
742 -953 4127
755 -955 4131
764 -951 4111
772 -946 4087
786 -948 4093
791 -940 4057
802 -938 4046
811 -934 4028
821 -933 4021
831 -931 4009
846 -934 4021
852 -927 3989
861 -925 3976
870 -921 3959
880 -920 3951
891 -919 3945
902 -918 3937
904 -908 3893
918 -911 3902
927 -908 3887
938 -907 3881
949 -907 3879
956 -903 3858
961 -897 3829
971 -896 3820
984 -898 3826
996 -898 3825
1019 -908 3866
1072 -945 4020
1047 -912 3878
1026 -884 3756
1035 -882 3745
1040 -877 3718
1048 -874 3705
1060 -875 3705
1068 -873 3691
1081 -874 3694
1092 -874 3692
1103 -874 3689
1114 -874 3685
1125 -874 3680
1136 -874 3678
1141 -869 3656
1149 -867 3644
1163 -869 3649
1166 -863 3621
1181 -866 3630
1188 -864 3615
1195 -861 3600
1205 -860 3592
1212 -857 3577
1220 -855 3567
1226 -852 3550
1238 -853 3549
1246 -851 3537
1251 -847 3518
1261 -847 3513
1271 -846 3507
1284 -848 3510
1286 -842 3482
1292 -839 3465
1302 -838 3460
1310 -837 3449
1323 -838 3452
1374 -864 3553
1421 -886 3641
1481 -916 3761
1583 -972 3985
1657 -1010 4135
1676 -1014 4146
1696 -1019 4160
1706 -1017 4148
1710 -1011 4120
1722 -1011 4114
1740 -1014 4122
1753 -1014 4116
1779 -1022 4142
1769 -1009 4085
1786 -1011 4089
1805 -1015 4099
1839 -1027 4141
1814 -1006 4050
1806 -994 3999
1825 -998 4007
1807 -981 3936
1806 -974 3901
1816 -973 3892
1831 -974 3892
1828 -966 3855
1851 -972 3871
1866 -973 3870
1892 -981 3895
1919 -988 3918
1997 -1022 4045
2077 -1056 4174
2127 -1075 4241
2140 -1075 4235
2164 -1080 4248
2150 -1066 4189
2180 -1074 4214
2190 -1073 4201
2198 -1070 4184
2189 -1059 4134
2201 -1059 4126
2227 -1065 4142
2238 -1063 4131
2271 -1073 4160
2250 -1056 4090
2287 -1068 4127
2259 -1048 4044
2303 -1063 4093
2300 -1055 4057
2255 -1029 3948
-968 -409 1637
-962 -409 1638
-962 -411 1650
-952 -410 1646
-914 -396 1592
-878 -382 1540
-868 -380 1534
-900 -397 1603
-880 -390 1579
-839 -374 1517
-864 -387 1574
-847 -382 1554
-852 -387 1577
-853 -390 1590
-825 -379 1549
-826 -382 1563
-818 -381 1559
-844 -395 1621
-871 -411 1687
-879 -417 1715
-885 -423 1741
-870 -418 1725
-879 -425 1755
-887 -432 1787
-885 -433 1795
-867 -428 1774
-855 -425 1764
-845 -422 1756
-841 -423 1761
-836 -423 1765
-833 -425 1774
-830 -426 1780
-823 -426 1781
-821 -428 1791
-813 -427 1789
-812 -429 1800
-804 -428 1798
-791 -424 1783
-767 -414 1744
-752 -409 1724
-737 -404 1704
-739 -408 1724
-722 -401 1697
-712 -399 1689
-715 -403 1711
-713 -405 1720
-705 -404 1716
-698 -403 1714
-701 -408 1737
-704 -412 1758
-752 -445 1896
-777 -463 1977
-777 -467 1994
-771 -467 1997
-765 -467 1997
-759 -467 2002
-755 -468 2009
-735 -460 1975
-709 -447 1921
-690 -439 1889
-686 -440 1893
-677 -438 1886
-671 -438 1889
-667 -439 1896
-666 -443 1912
-683 -458 1979
-699 -473 2046
-698 -476 2060
-693 -477 2068
-688 -478 2072
-672 -471 2044
-632 -448 1944
-596 -426 1852
-589 -425 1849
-582 -424 1846
-574 -423 1841
-566 -420 1832
-558 -419 1828
-559 -424 1849
-554 -424 1853
-558 -432 1886
-556 -435 1902
-573 -452 1979
-591 -472 2066
-602 -486 2129
-600 -490 2146
-596 -492 2155
-591 -493 2161
-584 -493 2162
-575 -490 2152
-572 -493 2167
-564 -492 2165
-558 -493 2168
-554 -495 2180
-548 -495 2179
-542 -496 2184
-536 -497 2190
-533 -499 2202
-527 -501 2209
-517 -497 2193
-517 -504 2223
-521 -514 2269
-516 -516 2278
-511 -517 2287
-504 -517 2289
-500 -520 2303
-490 -518 2291
-486 -520 2304
-480 -522 2310
-474 -522 2313
-466 -522 2312
-451 -512 2272
-373 -430 1907
-91 -109 484
-125 -149 666
-231 -280 1243
-284 -349 1551
-86 -109 489
-80 -103 459
-60 -80 358
-56 -76 340
-45 -62 278
-45 -64 286
-13 -21 95
0 0 0
-410 -589 2623
-312 -458 2040
-292 -437 1947
-286 -436 1943
-280 -436 1945
-409 -649 2892
-409 -662 2952
-399 -659 2940
-390 -660 2944
-383 -662 2955
-374 -662 2954
-362 -656 2926
-348 -647 2886
-354 -673 3004
-328 -640 2856
-316 -633 2826
-310 -639 2852
-296 -627 2801
-288 -626 2798
-280 -628 2806
-271 -626 2795
-256 -610 2725
-18 -50 228
-31 -84 380
0 0 0
-45 -127 569
-31 -94 421
-58 -175 784
-65 -204 914
-66 -215 962
-63 -215 963
-60 -213 954
-57 -212 949
-54 -213 957
-51 -211 945
-49 -215 963
-45 -210 944
-42 -210 941
-39 -209 938
-36 -208 932
-33 -203 909
-31 -209 937
-28 -204 917
-25 -208 933
-22 -207 927
-19 -199 894
-16 -199 894
-14 -204 913
-11 -205 919
-9 -202 906
-6 -199 893
-3 -201 902
0 -198 888
1 -206 923
4 -200 896
6 -199 890
9 -197 884
12 -204 916
14 -196 879
17 -201 898
19 -195 874
23 -204 911
24 -197 880
27 -198 888
29 -193 862
32 -198 885
35 -200 893
37 -195 874
41 -203 906
42 -196 877
45 -197 881
48 -198 886
50 -195 871
53 -197 880
55 -195 871
58 -196 877
62 -202 903
63 -196 873
65 -196 873
68 -196 875
71 -196 876
73 -196 873
78 -202 900
79 -198 882
82 -200 888
86 -203 904
89 -202 900
91 -201 894
93 -201 895
96 -201 893
96 -194 864
100 -198 880
104 -202 895
107 -202 896
75 -135 602
567 -1046 4628
558 -1005 4445
565 -994 4394
626 -1078 4761
109 -178 791
128 -206 914
109 -171 756
644 -1018 4490
635 -983 4336
643 -976 4302
657 -978 4309
662 -966 4255
672 -963 4238
680 -956 4205
689 -952 4188
699 -949 4171
715 -954 4190
720 -945 4148
733 -945 4147
744 -944 4141
751 -937 4110
761 -934 4093
773 -935 4094
779 -927 4057
795 -932 4077
802 -926 4051
810 -922 4030
822 -921 4024
831 -919 4012
842 -917 4001
851 -914 3986
860 -911 3970
870 -910 3962
878 -905 3941
888 -904 3931
899 -904 3929
906 -899 3904
916 -898 3896
930 -900 3905
935 -893 3874
951 -898 3889
955 -891 3856
962 -886 3833
972 -885 3825
983 -885 3823
996 -886 3827
1025 -901 3889
1089 -947 4084
1053 -906 3902
1028 -875 3765
1039 -874 3760
1038 -864 3715
1054 -868 3727
1060 -864 3708
1071 -864 3705
1078 -861 3688
1092 -863 3695
1102 -862 3686
1117 -865 3698
1125 -863 3684
1131 -859 3664
1141 -858 3659
1153 -859 3656
1157 -854 3632
1166 -853 3624
1174 -850 3611
1184 -849 3602
1195 -850 3602
1202 -847 3586
1214 -847 3585
1221 -845 3570
1233 -845 3570
1239 -842 3554
1243 -838 3531
1252 -837 3522
1262 -836 3516
1268 -833 3500
1280 -834 3499
1280 -827 3466
1295 -830 3475
1305 -830 3471
1312 -827 3457
1326 -829 3461
1366 -848 3534
1414 -871 3625
1480 -904 3762
1570 -952 3955
1651 -994 4123
1685 -1007 4172
1694 -1004 4156
1700 -1000 4135
1717 -1003 4140
1728 -1002 4132
1743 -1003 4132
1750 -1000 4113
1767 -1002 4116
1791 -1008 4138
1799 -1005 4120
1802 -1000 4094
1823 -1005 4107
1805 -988 4032
1803 -980 3995
1807 -975 3971
1825 -978 3976
1808 -962 3907
1806 -955 3873
1822 -957 3874
1840 -960 3882
1855 -961 3881
1868 -962 3877
1882 -963 3877
1904 -968 3890
1990 -1005 4034
2074 -1041 4172
2123 -1059 4237
2152 -1067 4261
2163 -1065 4249
2186 -1070 4261
2205 -1072 4264
2216 -1071 4253
2237 -1075 4261
2254 -1077 4261
2257 -1072 4233
2289 -1080 4261
2303 -1080 4254
2287 -1066 4192
2304 -1068 4191
2318 -1068 4186
2326 -1066 4168
2327 -1060 4138
2351 -1065 4150
2284 -1029 4002
-956 -399 1617
-955 -401 1628
-954 -403 1639
-933 -396 1614
-889 -380 1550
-877 -377 1540
-867 -375 1535
-854 -371 1523
-848 -371 1523
-880 -387 1593
-865 -383 1576
-832 -371 1529
-827 -371 1531
-835 -376 1557
-826 -375 1553
-827 -377 1565
-823 -378 1571
-838 -387 1612
-867 -403 1681
-874 -409 1708
-874 -412 1721
-876 -415 1738
-884 -422 1767
-892 -428 1797
-876 -424 1780
-869 -423 1779
-853 -418 1761
-847 -418 1762
-841 -417 1762
-839 -420 1774
-828 -417 1764
-831 -421 1784
-824 -420 1784
-818 -421 1787
-815 -422 1794
-805 -420 1787
-803 -422 1798
-787 -416 1776
-765 -407 1741
-746 -400 1712
-738 -399 1707
-727 -396 1696
-723 -397 1702
-715 -395 1697
-711 -396 1702
-708 -397 1710
-706 -399 1719
-702 -400 1724
-693 -398 1717
-700 -405 1751
-753 -439 1899
-777 -456 1976
-775 -459 1990
-771 -460 1997
-767 -462 2005
-757 -460 1998
-753 -461 2005
-734 -453 1972
-708 -441 1920
-692 -434 1895
-685 -434 1893
-680 -434 1897
-675 -435 1902
-665 -432 1891
-667 -437 1914
-681 -450 1973
-702 -469 2056
-696 -469 2059
-691 -469 2061
-686 -470 2067
-664 -460 2022
-610 -426 1876
-592 -417 1839
-582 -414 1827
-576 -415 1830
-568 -413 1822
-562 -412 1820
-564 -418 1847
-552 -413 1827
-544 -411 1822
-549 -419 1857
-561 -433 1920
-564 -440 1952
-589 -465 2061
-604 -481 2135
-598 -481 2139
-598 -487 2164
-590 -485 2159
-585 -487 2167
-580 -488 2172
-572 -487 2171
-566 -487 2171
-559 -487 2173
-554 -489 2180
-548 -489 2184
-545 -492 2198
-541 -495 2211
-533 -494 2207
-527 -494 2210
-519 -492 2203
-518 -498 2231
-520 -506 2266
-517 -511 2288
-508 -508 2278
-505 -512 2295
-498 -512 2296
-491 -511 2294
-486 -513 2304
-481 -516 2318
-473 -514 2309
-465 -513 2305
-438 -491 2206
-219 -250 1124
-99 -116 525
-155 -183 827
-229 -274 1234
-215 -262 1181
-79 -98 446
-79 -101 456
-69 -90 407
-39 -52 239
-20 -29 132
-17 -26 119
0 0 0
-495 -688 3106
-457 -647 2921
-343 -496 2241
-296 -436 1971
-286 -430 1946
-297 -457 2064
-406 -635 2871
-406 -649 2932
-396 -647 2925
-390 -651 2944
-380 -648 2933
-372 -650 2941
-363 -649 2938
-345 -632 2861
-340 -639 2892
-327 -630 2854
-318 -629 2849
-307 -624 2827
-299 -623 2823
-289 -621 2813
-280 -619 2803
-271 -617 2795
-256 -602 2728
-29 -77 350
-25 -68 310
-22 -63 289
-26 -77 353
-31 -91 418
-36 -110 503
-50 -156 710
-61 -195 889
-62 -207 941
-60 -210 953
-55 -205 932
-54 -210 954
-51 -209 949
-48 -210 956
-46 -211 958
-42 -207 940
-39 -203 923
-35 -201 912
-34 -209 950
-31 -206 938
-28 -203 923
-25 -201 913
-22 -202 918
-20 -206 935
-17 -200 909
-13 -195 886
-11 -196 893
-8 -198 901
-6 -201 912
-3 -200 907
-1 -199 902
1 -198 899
4 -198 901
6 -200 908
9 -196 888
11 -193 877
14 -195 886
17 -194 880
19 -196 890
22 -194 881
25 -196 890
27 -193 878
30 -196 888
33 -198 896
35 -196 889
37 -192 873
40 -194 881
43 -194 880
45 -194 881
48 -197 891
50 -194 881
53 -195 884
55 -192 868
58 -194 877
60 -193 874
64 -198 894
67 -198 898
68 -194 877
71 -194 878
75 -198 893
78 -200 902
82 -202 913
83 -198 894
85 -197 888
88 -199 898
88 -192 867
90 -190 857
96 -198 892
96 -193 869
100 -196 883
102 -195 879
106 -198 890
78 -141 634
559 -1017 4559
556 -988 4431
573 -994 4455
20 -27 126
113 -184 824
123 -195 874
13 -15 69
627 -978 4373
632 -966 4317
645 -966 4314
654 -961 4290
662 -954 4257
670 -947 4224
680 -944 4209
690 -941 4194
704 -943 4201
711 -936 4169
719 -931 4143
730 -929 4135
742 -928 4128
750 -924 4106
760 -920 4089
773 -922 4093
784 -921 4089
794 -918 4072
802 -914 4052
810 -909 4028
816 -902 3996
833 -909 4021
841 -905 4002
853 -904 3997
860 -899 3972
869 -896 3958
882 -898 3961
893 -897 3955
897 -889 3919
907 -888 3912
913 -883 3885
923 -882 3877
937 -884 3884
943 -878 3858
952 -876 3846
961 -874 3832
971 -872 3822
985 -875 3832
994 -873 3820
1020 -886 3873
1080 -927 4051
1053 -894 3903
1031 -865 3776
1037 -861 3756
1038 -853 3715
1046 -850 3700
1057 -850 3698
1068 -850 3695
1076 -847 3680
1090 -850 3688
1099 -849 3679
1117 -854 3698
1121 -849 3674
1135 -851 3678
1141 -847 3660
1150 -845 3649
1164 -848 3657
1168 -842 3630
1177 -841 3621
1185 -839 3607
1194 -838 3599
1203 -836 3590
1208 -832 3570
1219 -832 3566
1229 -832 3562
1238 -831 3553
1242 -826 3530
1252 -826 3524
1257 -822 3505
1269 -823 3505
1277 -821 3493
1284 -819 3481
1290 -816 3464
1296 -813 3448
1308 -814 3448
1325 -818 3460
1362 -834 3525
1398 -850 3587
1489 -898 3787
1583 -948 3991
1647 -978 4115
1674 -987 4146
1699 -994 4171
1699 -987 4136
1715 -989 4139
1719 -983 4111
1738 -987 4122
1762 -993 4143
1766 -988 4117
1778 -988 4110
1783 -984 4087
1802 -987 4095
1834 -997 4134
1820 -983 4069
1810 -971 4012
1815 -967 3990
1813 -959 3954
1811 -952 3917
1817 -949 3899
1828 -948 3890
1838 -946 3879
1844 -944 3862
1865 -948 3873
1872 -945 3857
1906 -956 3898
1985 -990 4026
2081 -1031 4189
2141 -1054 4276
2176 -1064 4311
2192 -1066 4310
2207 -1066 4305
2229 -1070 4314
2234 -1066 4291
2245 -1065 4279
2266 -1068 4285
2282 -1069 4283
2300 -1071 4283
2305 -1067 4260
2321 -1068 4258
2330 -1066 4242
2328 -1059 4206
2359 -1067 4231
2365 -1064 4210
2373 -1061 4192
2334 -1038 4092
-936 -385 1584
-924 -383 1577
-935 -389 1606
-914 -383 1582
-882 -371 1538
-871 -369 1531
-868 -370 1536
-875 -375 1561
-845 -365 1519
-902 -391 1633
-855 -373 1559
-831 -365 1527
-863 -381 1599
-826 -367 1542
-814 -364 1531
-829 -373 1572
-826 -374 1577
-835 -380 1606
-853 -391 1654
-859 -396 1678
-866 -403 1706
-885 -414 1757
-893 -420 1786
-885 -419 1785
-875 -417 1777
-849 -408 1740
-847 -410 1750
-843 -410 1755
-840 -412 1763
-832 -410 1760
-831 -412 1771
-823 -412 1769
-821 -413 1779
-819 -415 1789
-811 -414 1786
-813 -418 1806
-798 -413 1787
-783 -408 1767
-766 -402 1744
-744 -394 1709
-735 -392 1702
-732 -393 1708
-721 -390 1698
-721 -393 1712
-718 -395 1721
-710 -393 1714
-704 -393 1716
-698 -392 1716
-693 -392 1718
-704 -402 1762
-750 -431 1892
-775 -449 1973
-771 -451 1981
-769 -453 1994
-764 -454 1999
-756 -453 1995
-751 -453 2000
-733 -446 1971
-709 -435 1924
-700 -434 1919
-690 -431 1909
-681 -429 1900
-675 -429 1903
-672 -431 1911
-669 -432 1921
-691 -451 2004
-698 -460 2044
-697 -463 2061
-694 -465 2073
-681 -461 2056
-657 -449 2002
-602 -415 1854
-586 -408 1823
-576 -405 1811
-570 -404 1810
-569 -408 1825
-557 -403 1806
-557 -407 1825
-549 -405 1818
-542 -405 1817
-558 -420 1888
-554 -422 1897
-566 -436 1959
-592 -461 2073
-606 -476 2144
-601 -478 2152
-593 -477 2148
-591 -480 2165
-584 -479 2163
-578 -480 2169
-570 -479 2165
-566 -481 2176
-562 -483 2185
-557 -485 2194
-550 -484 2190
-545 -485 2198
-539 -486 2201
-531 -485 2198
-526 -486 2205
-519 -486 2204
-519 -492 2236
-520 -500 2270
-517 -503 2285
-511 -504 2290
-504 -504 2293
-499 -506 2302
-489 -503 2289
-486 -506 2305
-480 -507 2310
-476 -511 2327
-461 -502 2286
-415 -459 2093
-134 -152 696
-97 -112 512
-192 -224 1023
-295 -348 1589
-270 -324 1480
-90 -111 512
-105 -131 602
-80 -102 470
-40 -53 247
-32 -44 204
-805 -1063 4859
-552 -742 3396
-486 -667 3051
-456 -637 2918
-352 -501 2297
-299 -436 1996
-289 -429 1966
-299 -452 2073
-395 -610 2795
-405 -639 2927
-394 -634 2909
-387 -637 2921
-379 -638 2925
-372 -641 2939
-357 -630 2891
-345 -623 2859
-335 -620 2845
-329 -625 2869
-314 -612 2810
-309 -619 2843
-300 -617 2833
-293 -621 2852
-283 -616 2832
-271 -610 2802
0 0 0
-33 -84 387
-25 -67 312
-26 -72 336
-30 -85 395
-25 -74 343
-24 -74 342
-32 -102 471
-49 -157 724
-60 -198 913
-61 -212 976
-56 -206 949
-55 -210 967
-51 -206 951
-48 -207 954
-45 -205 944
-43 -209 962
-39 -200 924
-36 -201 929
-33 -198 914
-31 -204 942
-29 -209 962
-26 -205 946
-23 -203 935
-19 -194 895
-16 -196 901
-14 -199 919
-11 -196 901
-8 -194 892
-6 -194 896
-3 -193 890
0 -192 883
1 -193 887
4 -197 908
6 -199 915
9 -193 888
12 -193 891
14 -193 888
17 -195 899
19 -191 878
22 -194 891
24 -189 869
27 -190 875
30 -193 889
32 -190 876
35 -190 874
38 -194 890
40 -191 880
43 -191 880
46 -193 888
48 -192 884
51 -192 884
54 -196 902
56 -195 896
59 -196 899
61 -193 887
63 -192 883
66 -193 887
68 -191 876
71 -192 882
76 -198 905
77 -194 888
79 -194 886
81 -190 872
85 -194 888
87 -193 885
91 -195 894
92 -193 881
95 -194 887
98 -194 888
101 -195 889
102 -191 873
102 -188 856
93 -166 758
582 -1045 4750
585 -1026 4663
611 -1047 4759
69 -111 506
112 -179 814
89 -138 628
630 -988 4483
624 -959 4347
634 -955 4329
641 -947 4292
653 -946 4286
660 -938 4245
668 -932 4214
681 -932 4215
688 -926 4185
698 -923 4169
710 -922 4165
716 -914 4124
734 -921 4155
742 -916 4131
753 -915 4124
764 -913 4113
772 -909 4090
784 -908 4086
791 -903 4061
802 -901 4051
813 -901 4047
823 -899 4034
832 -895 4017
838 -889 3988
850 -889 3984
863 -891 3989
870 -886 3966
878 -882 3944
890 -883 3946
898 -878 3924
904 -873 3897
919 -876 3909
928 -874 3897
935 -870 3875
942 -865 3853
956 -868 3863
965 -865 3849
974 -864 3839
980 -859 3815
994 -861 3823
1022 -876 3882
1085 -919 4073
1077 -902 3995
1030 -854 3776
1032 -846 3739
1040 -843 3724
1050 -842 3716
1056 -838 3696
1064 -836 3683
1076 -837 3685
1090 -839 3689
1103 -841 3695
1110 -838 3679
1120 -836 3670
1131 -836 3667
1144 -838 3671
1150 -835 3653
1161 -835 3650
1171 -833 3641
1178 -831 3628
1182 -826 3601
1192 -825 3595
1201 -824 3588
1205 -819 3563
1217 -820 3564
1223 -817 3546
1237 -819 3551
1242 -815 3530
1258 -819 3544
1255 -810 3500
1266 -810 3498
1275 -809 3490
1285 -809 3486
1291 -806 3469
1301 -805 3462
1310 -805 3456
1322 -805 3454
1360 -822 3524
1407 -844 3612
1447 -861 3681
1573 -929 3967
1653 -969 4132
1685 -980 4176
1696 -979 4166
1710 -980 4165
1712 -974 4134
1722 -972 4122
1737 -973 4121
1759 -979 4138
1775 -981 4142
1773 -972 4101
1784 -971 4092
1802 -974 4098
1835 -985 4138
1816 -968 4063
1786 -945 3962
1822 -958 4009
1806 -943 3941
1809 -938 3914
1812 -934 3891
1825 -934 3885
1838 -934 3883
1848 -933 3872
1866 -936 3879
1877 -935 3870
1906 -944 3899
1979 -974 4016
2096 -1025 4222
2163 -1051 4323
2197 -1061 4355
2202 -1057 4332
2218 -1058 4330
2232 -1058 4324
2258 -1064 4341
2257 -1056 4304
2275 -1058 4306
2287 -1057 4294
2290 -1053 4268
2315 -1058 4283
2315 -1052 4250
2321 -1048 4228
2338 -1049 4226
2355 -1051 4225
2379 -1056 4237
2385 -1052 4217
2348 -1030 4120
-724 -294 1226
-713 -291 1217
-752 -309 1294
-839 -346 1453
-873 -363 1524
-873 -365 1534
-868 -365 1538
-850 -359 1517
-830 -353 1493
-850 -364 1539
-879 -379 1605
-835 -362 1536
-830 -362 1538
-819 -359 1531
-844 -372 1588
-828 -368 1571
-822 -367 1572
-837 -376 1612
-845 -382 1640
-846 -385 1655
-859 -394 1693
-894 -412 1776
-903 -419 1807
-875 -409 1765
-859 -404 1747
-847 -401 1736
-836 -399 1728
-831 -399 1731
-828 -400 1738
-830 -404 1756
-827 -405 1764
-828 -408 1780
-820 -407 1778
-819 -409 1789
-810 -408 1785
-801 -406 1780
-801 -409 1795
-780 -401 1763
-753 -390 1715
-735 -384 1690
-735 -387 1704
-728 -386 1701
-725 -387 1708
-712 -383 1692
-713 -386 1709
-709 -387 1713
-703 -387 1714
-698 -387 1717
-694 -388 1722
-705 -397 1764
-754 -428 1904
-768 -439 1956
-761 -439 1955
-757 -440 1963
-759 -445 1988
-756 -447 1997
-749 -446 1995
-734 -441 1974
-710 -430 1929
-695 -424 1904
-691 -426 1912
-683 -425 1909
-676 -424 1906
-670 -424 1907
-670 -428 1927
-687 -442 1994
-695 -452 2038
-694 -455 2053
-694 -459 2074
-681 -454 2055
-656 -442 1999
-589 -401 1815
-576 -395 1793
-573 -397 1801
-565 -395 1795
-558 -394 1791
-556 -397 1805
-544 -393 1786
-536 -390 1777
-543 -399 1819
-554 -412 1877
-554 -416 1899
-567 -431 1965
-597 -458 2089
-605 -469 2140
-605 -474 2167
-596 -472 2159
-589 -471 2157
-583 -472 2162
-581 -476 2179
-573 -475 2176
-567 -475 2179
-561 -476 2182
-556 -477 2189
-550 -477 2193
-546 -480 2205
-540 -480 2206
-535 -482 2215
-526 -480 2209
-518 -478 2201
-518 -484 2230
-521 -494 2274
-515 -495 2280
-510 -497 2290
-503 -496 2287
-496 -496 2290
-490 -497 2292
-485 -499 2305
-482 -503 2322
-471 -498 2304
-460 -494 2285
-431 -470 2173
-146 -162 754
-116 -131 611
-229 -263 1218
-262 -305 1413
-159 -189 877
-77 -93 436
-66 -82 383
-76 -96 447
-34 -45 213
-19 -26 126
0 0 0
0 0 0
-520 -703 3263
-467 -644 2991
-369 -519 2412
-302 -433 2014
-289 -424 1970
-294 -439 2042
-393 -599 2783
-406 -631 2933
-394 -626 2912
-387 -629 2927
-379 -630 2929
-371 -631 2935
-359 -625 2907
-348 -622 2893
-337 -616 2869
-332 -622 2895
-320 -616 2868
-313 -620 2885
-303 -615 2863
-304 -634 2955
-291 -626 2916
-12 -32 154
-20 -51 240
-23 -60 283
-25 -65 308
-30 -81 378
-18 -53 252
-33 -94 443
-25 -78 368
-27 -87 407
-31 -101 473
-51 -170 795
-61 -208 974
-57 -203 951
-54 -205 958
-51 -203 949
-49 -208 972
-45 -202 945
-42 -199 930
-39 -199 931
-36 -199 932
-33 -200 934
-30 -195 912
-28 -197 923
-25 -197 921
-22 -195 914
-20 -197 923
-17 -196 917
-14 -194 907
-11 -195 911
-8 -192 897
-6 -193 900
-3 -193 900
0 -191 890
1 -189 882
4 -189 882
6 -194 905
9 -189 881
12 -190 887
14 -189 881
16 -186 868
19 -191 890
22 -189 882
25 -193 900
27 -188 878
30 -192 895
32 -188 877
35 -189 882
38 -190 886
40 -191 889
43 -191 891
46 -191 892
48 -191 888
51 -191 890
54 -191 891
56 -191 888
58 -188 877
61 -191 891
64 -190 885
66 -189 878
69 -189 881
70 -187 870
75 -192 894
76 -190 882
80 -191 888
82 -190 882
84 -190 881
88 -192 890
88 -187 869
92 -191 884
94 -189 876
98 -191 886
96 -183 849
102 -190 879
102 -185 858
104 -184 850
52 -86 399
61 -99 461
75 -122 563
99 -158 733
93 -146 675
650 -1028 4732
614 -951 4374
623 -945 4344
634 -942 4331
640 -933 4288
649 -928 4261
661 -926 4251
665 -915 4199
678 -915 4198
690 -915 4195
697 -909 4164
709 -908 4160
717 -903 4135
732 -907 4150
743 -905 4140
754 -904 4130
763 -900 4109
774 -899 4104
783 -896 4087
792 -891 4065
801 -888 4048
813 -888 4045
824 -887 4040
828 -880 4002
838 -878 3991
845 -872 3963
857 -873 3965
868 -871 3955
880 -872 3955
887 -868 3935
900 -869 3937
905 -863 3907
917 -863 3904
928 -862 3900
932 -855 3866
945 -856 3868
952 -853 3850
962 -852 3842
969 -848 3820
982 -849 3823
996 -851 3830
1017 -860 3865
1084 -906 4070
1065 -880 3951
1045 -854 3833
1029 -832 3730
1038 -831 3721
1047 -828 3708
1059 -830 3711
1068 -828 3698
1076 -826 3686
1091 -829 3697
1098 -825 3679
1107 -824 3668
1116 -823 3661
1131 -825 3670
1140 -824 3661
1147 -821 3644
1159 -821 3643
1168 -820 3633
1172 -815 3608
1184 -816 3611
1192 -814 3598
1200 -812 3586
1208 -810 3573
1213 -807 3554
1225 -808 3554
1238 -809 3557
1244 -806 3539
1253 -805 3532
1252 -797 3495
1266 -800 3501
1278 -800 3499
1280 -795 3474
1298 -799 3488
1295 -791 3448
1307 -792 3450
1329 -799 3474
1360 -811 3525
1412 -836 3627
1453 -853 3700
1576 -918 3977
1646 -952 4117
1676 -962 4157
1681 -957 4131
1701 -962 4145
1722 -966 4160
1734 -966 4154
1741 -963 4134
1760 -966 4144
1761 -960 4110
1780 -963 4121
1792 -963 4113
1800 -960 4096
1827 -968 4124
1814 -954 4059
1795 -937 3984
1819 -943 4003
1818 -937 3970
1807 -925 3913
1812 -921 3892
1827 -922 3893
1822 -914 3851
1847 -920 3873
1862 -922 3874
1868 -919 3855
1906 -931 3901
1992 -967 4046
2092 -1009 4216
2181 -1045 4360
2191 -1044 4348
2219 -1051 4369
2228 -1048 4352
2241 -1048 4344
2254 -1047 4334
2263 -1045 4318
2254 -1035 4268
2274 -1038 4273
2282 -1035 4255
