VERSION 0.7
FIELDS x y z
SIZE 4 4 4
TYPE I I I
COUNT 1 1 1
WIDTH 4030
HEIGHT 1
VIEWPOINT 0.0 0.0 0.0 1.0 0.0 0.0 0.0
POINTS 4030
DATA ascii
16 107 551
18 108 557
20 109 562
21 108 556
23 107 548
23 103 527
26 109 559
27 106 546
30 112 576
30 103 531
32 106 542
30 93 478
31 93 476
34 97 494
33 91 465
35 93 476
36 92 471
38 91 468
39 92 470
38 87 445
41 91 464
42 89 454
43 88 452
43 85 431
45 86 440
46 86 437
46 84 430
47 84 429
48 83 422
51 87 442
52 86 438
56 90 460
58 91 467
63 97 498
67 100 512
0 0 0
68 98 501
67 94 479
0 0 0
0 0 0
0 0 0
70 91 462
68 85 435
69 85 434
71 86 437
72 86 437
71 83 423
72 83 419
74 84 425
73 81 412
74 81 412
75 80 408
77 82 414
79 83 418
82 84 427
83 83 423
86 85 432
88 86 436
92 89 453
94 90 456
97 91 461
88 81 409
98 90 454
88 79 399
97 86 435
110 97 490
120 104 525
102 87 441
111 93 473
118 98 496
103 85 429
103 83 419
102 82 412
115 91 458
111 87 437
115 89 449
106 81 405
115 87 438
114 85 427
117 86 433
111 81 404
0 0 0
121 87 434
115 81 407
126 88 442
131 90 452
125 85 428
119 81 402
133 89 445
134 89 442
173 113 570
142 92 461
143 92 460
145 92 461
230 145 730
187 117 585
160 99 495
151 93 461
153 93 461
154 93 461
154 92 457
156 92 458
159 93 461
151 87 433
155 89 440
161 92 453
158 89 441
161 90 445
156 87 427
167 92 452
164 90 441
166 90 442
167 90 441
162 86 424
161 85 416
133 70 339
113 59 285
96 50 238
81 41 197
82 42 197
71 36 168
66 33 154
76 38 177
75 37 172
66 32 149
69 33 155
67 32 150
62 29 135
57 27 124
83 39 184
87 41 190
90 42 195
93 43 201
99 45 213
114 52 245
148 66 317
169 76 362
184 82 392
202 89 427
227 100 478
243 106 508
250 108 518
257 110 529
245 105 499
247 105 500
250 105 502
254 106 506
265 110 524
277 114 543
266 109 518
263 107 508
264 107 506
246 99 468
239 96 449
225 89 419
207 82 382
196 77 359
184 72 334
175 68 314
140 54 247
106 41 183
151 58 264
206 78 361
216 81 375
251 94 436
261 97 450
-2260 869 3872
-2254 872 3891
-2253 876 3917
-2258 883 3954
-2250 885 3970
-2231 883 3967
0 0 0
0 0 0
-588 238 1069
-666 271 1221
-613 251 1133
-633 261 1177
-628 261 1178
-586 244 1106
-433 182 823
-314 134 603
-204 88 394
-143 63 279
-129 58 255
-120 54 239
-101 46 202
-93 43 188
-102 47 208
-119 55 244
-133 61 274
-198 91 412
-495 224 1035
-585 266 1232
-595 273 1264
-584 269 1250
-585 272 1262
-577 270 1256
-589 277 1292
-600 285 1328
-582 278 1298
-582 280 1309
-585 283 1327
-573 279 1311
-546 268 1260
-574 284 1334
-570 284 1336
-567 284 1340
-557 282 1329
-583 297 1404
-552 283 1340
-569 294 1393
-529 275 1306
-547 287 1364
-547 289 1374
-542 289 1374
-537 288 1373
-534 289 1380
-533 290 1387
-529 291 1390
-525 291 1392
-519 290 1391
-513 289 1386
-518 294 1412
-509 291 1400
-505 292 1404
-501 291 1405
-500 293 1415
-497 294 1422
-493 294 1423
-487 293 1418
-483 293 1421
-482 295 1432
-475 294 1427
-473 295 1436
-472 297 1445
-468 297 1448
-464 297 1449
-462 299 1458
-460 300 1467
-455 300 1467
-450 300 1468
-446 300 1469
-445 302 1481
-445 306 1498
-440 305 1497
-436 305 1500
-432 306 1502
-423 303 1488
-422 305 1503
-420 307 1511
-419 309 1523
-412 308 1517
-405 306 1510
-404 308 1524
-398 307 1519
-378 295 1459
-384 303 1502
-377 301 1493
-379 306 1517
-360 295 1461
-357 296 1468
-351 295 1463
-353 300 1490
-337 290 1440
-345 301 1496
-324 286 1423
-321 287 1430
-334 302 1509
-321 295 1470
-319 296 1479
-313 295 1474
-309 295 1475
-302 292 1462
-294 289 1447
-290 289 1448
-266 270 1351
-174 180 901
-152 160 799
-143 154 767
-139 152 758
-136 151 754
-137 155 772
-130 150 747
-128 149 746
-125 148 742
-120 145 725
-120 148 738
-115 145 724
-115 147 734
-111 145 724
-108 143 718
-104 141 707
-102 142 709
-100 141 708
-96 139 698
-96 142 713
-92 139 697
-87 134 672
-88 140 702
-83 134 675
-84 140 701
-84 142 715
-82 143 721
-77 137 691
-74 136 684
-72 136 684
-70 137 689
-66 132 662
-64 131 661
-62 132 667
-59 131 659
-57 131 658
-56 132 665
-54 132 668
-54 137 690
-51 133 672
-49 134 677
-47 134 676
-45 134 678
-44 137 693
-43 140 708
-43 147 745
-39 139 701
-37 140 710
-35 140 707
-31 132 669
-27 126 636
-27 131 664
-24 128 647
-23 131 663
-21 134 681
-20 136 688
-17 132 671
-15 135 683
-14 137 693
-11 127 644
-9 126 637
-7 129 653
-5 127 643
-3 122 617
-1 126 640
0 131 662
2 127 642
3 125 632
5 124 628
7 124 627
9 123 623
11 121 611
12 118 599
14 119 604
15 112 568
17 113 573
18 109 553
20 109 553
21 109 549
23 109 551
24 109 551
26 108 547
29 116 585
27 102 514
30 106 536
30 100 504
30 95 479
32 96 486
34 98 495
34 95 480
36 95 480
37 94 473
38 93 467
38 91 458
40 91 457
41 91 458
40 86 434
44 91 459
44 89 446
44 86 430
46 87 436
47 86 434
50 90 452
51 89 446
52 90 451
56 93 469
56 91 458
62 98 495
63 99 497
66 101 509
62 92 464
67 98 493
71 101 507
0 0 0
0 0 0
0 0 0
0 0 0
0 0 0
0 0 0
0 0 0
0 0 0
0 0 0
0 0 0
78 90 453
77 87 435
77 86 429
78 85 426
80 86 430
82 87 435
82 85 425
85 87 437
88 89 447
85 85 424
89 87 433
92 89 444
89 85 423
100 94 468
101 94 469
104 95 475
105 95 472
106 95 472
109 96 478
96 83 414
92 79 390
111 94 466
121 101 505
104 86 425
123 100 497
119 95 475
117 93 462
108 85 421
137 107 531
127 97 482
119 90 445
122 91 451
116 86 423
112 82 406
115 83 410
118 85 417
145 103 509
127 89 438
128 89 439
121 83 410
124 84 414
160 108 534
164 109 541
171 113 556
135 88 431
142 92 453
210 135 665
186 118 584
154 97 474
153 95 465
152 93 458
154 94 460
155 94 457
155 93 454
157 93 455
157 92 451
155 91 442
160 92 450
164 94 459
160 91 443
161 91 441
165 92 448
163 90 438
163 89 433
160 87 422
156 84 406
121 65 310
108 57 272
97 51 242
86 45 210
80 41 192
74 38 177
68 35 161
60 30 138
60 30 136
60 30 136
84 41 193
66 32 147
82 40 186
40 19 84
46 22 97
68 32 147
77 37 168
92 43 200
102 48 222
120 56 261
138 64 298
188 86 407
204 93 439
211 95 449
233 105 495
254 113 535
255 113 533
268 118 556
282 123 580
280 122 573
283 122 573
260 111 522
270 115 538
289 122 572
283 119 555
273 114 532
252 104 486
231 95 442
218 89 413
203 83 380
192 77 356
183 74 337
149 59 270
119 47 211
142 56 253
154 60 273
207 81 368
234 91 414
244 94 428
248 95 433
263 100 456
253 96 435
-2270 886 3887
-2259 887 3896
-2271 896 3946
-2240 889 3921
-2248 897 3965
-2332 936 4144
-5 5 10
0 0 0
-578 238 1050
-632 261 1157
-614 255 1133
-607 254 1129
-626 264 1173
-607 257 1146
-471 201 896
-338 146 648
-228 100 442
-158 70 307
-125 56 246
-119 54 237
-110 51 220
-95 44 191
-103 48 209
-108 51 222
-128 60 264
-159 74 331
-417 192 871
-585 270 1231
-587 273 1246
-589 276 1260
-572 270 1234
-577 274 1256
-586 280 1286
-591 284 1306
-633 306 1411
-600 293 1350
-585 287 1326
-571 282 1304
-548 273 1264
-567 285 1319
-579 292 1357
-573 292 1354
-567 291 1353
-566 292 1361
-563 293 1366
-556 291 1361
-553 292 1364
-547 291 1362
-548 294 1376
-540 292 1368
-545 297 1393
-538 295 1387
-535 296 1392
-529 295 1389
-524 295 1390
-521 295 1395
-521 298 1408
-518 298 1411
-513 298 1410
-510 298 1416
-510 301 1430
-505 300 1428
-499 300 1425
-493 298 1421
-519 317 1510
-502 309 1476
-492 306 1461
-493 309 1480
-488 309 1480
-479 306 1466
-469 303 1452
-480 312 1498
-469 308 1482
-452 300 1442
-485 325 1563
-462 312 1503
-448 306 1473
-436 301 1452
-430 299 1446
-462 325 1571
-436 310 1500
-433 311 1504
-413 300 1451
-430 316 1530
-403 299 1449
-404 303 1470
-421 319 1551
-395 303 1472
-392 304 1477
-397 311 1515
-391 309 1508
-385 308 1505
-382 310 1512
-366 300 1467
-379 315 1539
-354 297 1454
-351 299 1462
-350 301 1476
-342 299 1463
-337 298 1459
-340 304 1491
-329 299 1466
-339 312 1531
-323 300 1476
-317 299 1470
-312 299 1471
-306 297 1463
-300 295 1454
-297 297 1463
-291 295 1455
-279 287 1417
-188 197 971
-156 168 824
-145 158 775
-141 157 770
-137 154 759
-130 150 736
-130 152 747
-127 151 743
-123 149 732
-120 147 725
-119 149 732
-116 147 726
-116 150 740
-109 144 712
-107 145 713
-102 141 693
-106 149 737
-104 149 734
-99 145 715
-95 142 703
-93 142 704
-89 139 688
-87 139 689
-88 145 716
-81 137 677
-79 137 676
-77 136 675
-79 143 711
-74 139 687
-71 136 674
-69 137 677
-65 133 659
-64 135 668
-63 136 676
-61 137 678
-60 138 687
-60 142 708
-56 139 691
-55 140 696
-51 137 680
-50 138 688
-48 138 687
-46 138 686
-44 137 684
-45 147 734
-40 139 694
-37 136 675
-37 141 704
-34 137 685
-32 138 690
-29 133 663
-27 135 672
-26 140 697
-24 139 695
-20 131 654
-18 128 640
-17 132 659
-16 141 705
-13 129 644
-11 133 664
-9 132 661
-7 127 636
-5 129 642
-4 137 684
-1 127 634
0 125 621
2 134 671
3 124 620
5 125 625
7 123 612
9 124 617
11 125 626
13 125 622
14 122 611
15 118 586
17 116 580
19 116 578
21 121 604
22 113 565
23 111 554
24 110 546
24 102 510
30 120 599
30 113 565
30 107 531
30 101 503
31 99 493
32 98 489
33 97 482
33 94 467
35 94 466
36 93 462
39 97 483
40 96 476
39 91 452
41 92 455
42 91 451
44 93 462
45 93 461
45 90 443
47 91 453
49 92 456
50 91 450
52 93 461
55 96 474
58 99 492
58 95 472
56 90 446
58 92 454
64 98 488
65 99 489
68 100 496
67 96 476
77 110 545
76 106 524
0 0 0
0 0 0
0 0 0
0 0 0
0 0 0
74 91 448
73 88 434
75 89 439
76 88 435
77 89 438
0 0 0
0 0 0
0 0 0
0 0 0
0 0 0
0 0 0
0 0 0
94 95 467
89 89 436
93 91 449
92 89 437
92 88 431
100 94 464
94 87 426
105 96 473
102 92 451
106 95 465
104 91 447
115 100 490
114 98 479
114 96 473
108 90 442
108 89 435
114 93 454
122 99 483
131 105 512
128 101 495
112 87 425
118 91 441
126 96 469
122 91 446
120 90 436
117 86 418
113 82 399
117 84 408
126 90 436
125 88 427
135 94 459
110 76 367
144 98 477
139 94 457
139 93 449
141 93 452
152 100 484
182 118 574
186 120 583
191 122 591
170 108 520
146 92 441
147 91 438
154 94 455
145 88 423
154 93 445
150 90 431
152 90 431
154 90 432
158 92 439
159 92 440
155 89 423
164 93 444
162 91 434
159 89 424
149 83 393
118 64 303
104 57 266
92 50 231
86 46 212
80 42 195
74 39 179
72 38 173
67 34 156
69 35 161
73 37 168
78 40 181
31 15 63
88 44 201
60 30 133
85 42 190
81 39 178
78 38 171
89 43 195
100 48 217
116 55 252
138 65 301
160 75 348
195 91 423
214 99 459
235 108 502
244 111 517
250 113 525
260 117 542
261 116 540
271 120 558
274 121 559
280 122 568
275 119 552
258 111 513
279 119 551
246 105 482
235 100 456
220 92 423
199 83 379
186 77 350
165 68 307
145 59 266
131 53 238
138 56 249
176 71 319
204 82 367
235 93 421
238 94 423
250 98 442
253 99 445
259 101 452
261 101 451
260 100 447
-2266 897 3877
-2264 901 3902
-2265 907 3934
-2267 913 3965
-2304 933 4061
-2308 940 4098
-2308 945 4129
-96 42 174
-433 181 786
-533 224 976
-590 249 1089
-607 258 1128
-589 252 1104
-626 269 1181
-502 217 954
-376 164 720
-256 113 495
-172 77 335
-131 60 258
-120 56 239
-111 52 222
-95 45 192
-91 43 185
-102 49 209
-119 57 245
-133 64 277
-334 157 697
-563 264 1186
-593 280 1258
-588 279 1258
-586 280 1263
-574 276 1248
-591 286 1294
-594 290 1314
-596 293 1327
-568 281 1275
-586 292 1327
-584 293 1333
-572 289 1317
-571 291 1328
-574 294 1345
-576 298 1362
-569 296 1357
-569 298 1369
-564 297 1366
-559 297 1368
-557 298 1374
-554 299 1379
-571 310 1433
-551 302 1395
-541 299 1383
-555 309 1430
-536 301 1394
-523 296 1374
-516 295 1368
-545 313 1457
-513 297 1384
-528 308 1439
-506 298 1391
-517 307 1434
-513 307 1437
-499 301 1411
-514 313 1469
-491 302 1415
-501 311 1459
-498 311 1463
-480 303 1425
-483 308 1449
-466 300 1413
-482 313 1476
-468 306 1447
-469 310 1465
-466 311 1470
-488 328 1554
-459 312 1479
-460 316 1498
-459 318 1510
-447 313 1487
-423 299 1422
-422 302 1435
-434 313 1491
-424 309 1472
-419 309 1474
-410 305 1457
-431 324 1550
-418 318 1521
-409 315 1506
-411 320 1531
-402 316 1514
-397 315 1512
-377 303 1453
-389 316 1520
-383 315 1515
-372 309 1489
-377 317 1527
-364 311 1497
-360 311 1498
-370 323 1561
-344 305 1471
-342 306 1480
-338 307 1484
-327 301 1455
-334 311 1505
-326 308 1492
-317 303 1470
-309 300 1456
-305 300 1456
-302 302 1465
-297 301 1460
-296 304 1479
-291 303 1475
-201 214 1036
-150 164 793
-144 159 770
-143 161 779
-136 156 755
-132 154 746
-128 151 732
-128 154 744
-122 149 725
-123 153 744
-120 152 737
-117 151 732
-112 147 714
-109 146 709
-106 146 708
-108 151 735
-105 150 731
-100 146 712
-95 141 686
-93 142 692
-92 142 693
-91 145 705
-87 141 687
-86 143 696
-84 143 697
-83 145 706
-77 138 675
-77 141 689
-74 139 680
-70 136 662
-71 142 692
-67 139 677
-63 133 651
-64 140 683
-64 144 705
-61 142 693
-58 139 682
-56 140 685
-53 139 681
-50 134 657
-50 141 690
-49 143 700
-45 138 676
-45 145 709
-41 137 672
-39 137 670
-37 138 678
-36 139 683
-31 130 639
-32 140 686
-29 137 672
-28 141 692
-25 136 666
-25 144 709
-22 144 706
-21 145 715
-18 140 689
-16 143 705
-14 147 722
-12 143 703
-10 143 704
-8 150 736
-5 138 678
-3 132 647
-1 135 664
0 135 662
2 123 602
3 128 628
5 128 631
7 130 641
9 133 655
11 135 663
13 126 620
14 122 598
15 115 566
17 117 576
19 118 579
20 117 575
22 117 574
22 108 527
25 117 573
25 107 523
26 107 524
30 113 557
29 104 511
30 102 501
30 99 485
32 99 486
33 98 481
34 96 470
33 91 443
36 96 467
37 94 461
38 94 460
40 95 464
40 92 448
43 94 461
44 94 457
46 97 473
49 98 480
49 97 473
50 95 466
54 101 496
55 100 487
57 100 488
56 97 472
59 99 484
65 106 520
57 91 444
64 101 491
65 100 488
64 96 466
69 102 497
65 93 453
65 91 445
66 90 438
78 106 517
70 93 453
71 92 446
73 93 452
75 94 455
71 87 422
74 89 430
75 89 433
78 91 440
75 86 418
78 88 428
80 88 429
80 88 425
0 0 0
0 0 0
0 0 0
88 90 437
86 87 420
87 86 418
95 93 449
95 92 446
100 95 460
92 87 418
102 95 460
104 95 459
106 95 461
110 98 475
104 91 441
102 89 429
114 98 475
109 92 443
106 89 427
108 90 431
115 94 453
117 94 454
130 104 500
121 96 460
122 95 457
115 89 426
135 103 495
117 88 423
125 93 446
118 87 415
121 88 423
127 92 438
130 93 443
133 94 450
129 91 433
130 90 428
132 91 433
137 93 443
138 93 442
134 89 423
147 97 463
156 102 485
182 118 564
199 128 610
183 116 554
157 99 469
152 95 448
150 93 440
151 92 437
150 91 430
152 91 431
156 93 438
153 90 426
163 95 449
154 89 420
161 93 436
159 91 426
145 82 383
121 68 314
101 56 258
90 49 227
83 45 207
78 42 192
72 39 174
67 36 160
80 42 190
72 38 170
61 32 140
52 27 118
54 28 121
63 32 141
53 27 117
73 37 164
68 34 151
93 46 208
90 44 199
97 47 213
109 53 239
124 59 270
139 66 302
162 77 352
191 90 412
200 94 429
219 102 466
227 105 480
238 109 501
240 109 500
232 105 480
229 103 469
239 107 486
247 109 498
246 109 493
236 103 469
232 101 457
208 90 406
191 82 368
170 72 324
147 62 276
124 52 231
126 53 232
147 61 270
172 71 315
220 90 403
234 96 426
247 100 446
259 104 465
249 100 443
249 99 440
258 102 454
256 101 447
241 95 417
259 101 445
-2264 909 3871
-2266 915 3903
-2267 921 3934
-2272 928 3972
-2295 943 4043
-2307 953 4093
-2345 974 4191
0 0 0
-410 174 744
-574 245 1050
-542 232 999
-590 254 1096
-580 252 1086
-568 248 1071
-517 227 983
-402 178 771
-271 122 524
-185 84 360
-140 65 274
-120 56 238
-110 52 219
-96 46 193
-92 44 186
-101 49 206
-113 55 233
-132 64 275
-249 119 521
-537 256 1129
-586 281 1243
-583 281 1246
-577 280 1244
-573 280 1245
-589 289 1290
-597 295 1318
-592 295 1319
-573 288 1287
-589 298 1333
-586 298 1338
-581 298 1337
-582 301 1352
-581 302 1361
-579 303 1368
-573 302 1364
-548 292 1318
-566 303 1371
-580 313 1417
-577 313 1423
-529 290 1317
-578 319 1451
-558 310 1413
-557 312 1424
-561 317 1446
-534 304 1388
-496 285 1302
-541 313 1432
-526 307 1405
-507 298 1369
-516 306 1406
-535 320 1470
-517 311 1434
-493 299 1379
-520 319 1471
-460 285 1314
-492 307 1418
-505 318 1471
-475 301 1395
-488 312 1448
-485 313 1454
-496 323 1501
-480 316 1469
-490 325 1512
-487 326 1521
-458 310 1446
-453 309 1443
-443 305 1426
-437 304 1422
-463 325 1522
-437 311 1454
-450 322 1511
-433 313 1470
-440 322 1513
-441 326 1533
-428 320 1504
-423 320 1504
-415 317 1493
-420 323 1525
-387 302 1424
-372 294 1386
-401 320 1510
-396 320 1510
-392 320 1513
-390 322 1523
-385 322 1524
-380 321 1522
-374 320 1516
-373 323 1531
-355 311 1478
-356 316 1501
-349 314 1492
-328 298 1420
-336 309 1472
-331 309 1474
-326 308 1468
-324 310 1479
-317 308 1469
-312 307 1467
-304 304 1451
-300 304 1451
-296 304 1456
-294 306 1465
-291 308 1477
-204 221 1055
-147 162 773
-141 158 753
-140 160 762
-136 157 751
-131 155 739
-130 156 743
-128 157 749
-122 152 726
-122 154 736
-120 155 739
-116 152 727
-110 147 702
-109 149 713
-106 147 704
-105 149 713
-102 147 706
-101 149 716
-98 149 712
-95 146 701
-90 142 680
-89 144 690
-89 146 702
-86 145 697
-83 144 689
-82 146 701
-79 143 689
-76 142 680
-72 138 663
-70 139 668
-71 145 697
-65 137 658
-65 141 680
-64 143 688
-62 142 684
-58 138 664
-57 140 675
-54 137 660
-54 141 682
-52 143 689
-50 143 689
-48 143 690
-49 150 726
-42 135 653
-43 146 704
-41 147 712
-39 147 709
-35 141 682
-34 143 694
-32 143 694
-30 143 694
-28 144 697
-28 154 746
-24 146 707
-24 157 763
-20 147 711
-18 142 687
-17 155 750
-14 145 701
-12 144 700
-9 141 682
-8 148 718
-6 154 746
-3 124 599
-1 142 688
0 142 691
2 142 689
3 135 652
5 133 644
8 139 676
9 126 608
11 134 649
13 133 645
14 124 600
15 120 582
18 128 622
19 125 608
20 118 572
23 123 595
25 128 620
25 119 577
26 112 543
29 122 590
28 109 527
30 110 530
31 107 518
32 105 509
32 102 490
32 96 464
35 101 486
35 97 467
38 102 491
38 99 477
40 99 478
41 99 478
43 101 485
45 100 483
45 97 469
46 97 466
49 100 482
49 99 475
53 103 498
55 105 505
54 98 473
56 100 479
61 106 510
66 113 544
62 104 499
65 105 508
67 106 512
70 108 522
64 98 470
69 103 493
70 102 492
68 96 462
70 97 467
69 94 453
73 98 473
70 92 440
68 88 421
66 84 401
69 86 411
66 80 384
70 83 398
75 88 421
71 82 392
72 82 393
75 84 402
78 87 414
81 88 419
83 89 423
85 90 429
84 87 417
94 97 463
91 92 438
89 89 424
90 88 420
96 93 445
102 98 467
99 93 445
100 93 442
99 91 432
101 91 435
107 96 456
106 93 443
116 101 482
110 95 451
106 90 426
112 94 446
120 99 471
113 92 438
124 101 479
124 99 470
125 99 468
122 96 453
111 85 403
126 97 457
113 85 401
120 90 422
122 90 425
120 88 412
117 85 398
121 87 407
119 84 396
124 87 408
122 85 399
127 88 411
133 91 425
132 89 419
138 92 432
135 90 419
153 101 471
180 117 551
200 129 605
195 125 585
169 107 501
150 94 440
149 92 430
152 93 435
153 93 434
158 95 443
156 93 434
158 94 437
157 92 428
155 91 420
141 82 378
111 64 291
102 58 264
90 50 228
83 46 208
77 42 190
99 54 245
63 34 152
65 35 155
68 36 161
60 32 139
56 29 128
51 27 115
59 31 133
61 32 138
56 29 124
75 38 168
79 40 175
83 42 183
89 45 197
102 51 225
115 57 253
128 63 280
144 70 313
157 76 340
173 83 372
185 88 396
190 90 403
190 89 400
197 92 412
200 92 415
196 90 402
194 89 396
202 92 410
207 93 416
206 92 410
201 89 397
195 86 381
184 81 356
144 63 275
136 59 257
150 65 283
172 74 323
203 86 380
213 90 395
222 93 411
232 97 425
239 99 435
253 104 457
252 103 453
258 105 460
253 103 448
253 102 444
259 104 451
257 102 444
274 108 470
-2271 925 3881
-2275 932 3915
-2254 928 3908
-2278 943 3980
-2334 972 4108
0 0 0
0 0 0
-220 96 397
-477 205 865
-601 260 1099
-576 250 1061
-651 284 1208
-639 281 1195
-613 271 1155
-530 236 1007
-418 188 799
-283 129 547
-188 87 366
-147 69 289
-119 57 236
-113 54 227
-91 44 184
-91 45 185
-98 48 202
-112 55 231
-127 62 264
-185 91 387
-497 240 1046
-586 284 1241
-584 286 1249
-584 288 1259
-586 290 1273
-586 292 1283
-594 298 1312
-609 308 1356
-596 303 1337
-587 301 1329
-585 302 1334
-586 305 1348
-584 306 1355
-580 306 1358
-580 308 1368
-578 309 1375
-574 309 1379
-577 313 1398
-563 308 1376
-548 302 1351
-563 313 1400
-563 315 1412
-567 320 1435
-538 306 1373
-534 306 1375
-535 309 1391
-546 318 1432
-533 312 1410
-508 300 1357
-521 311 1406
-531 319 1446
-501 304 1376
-511 313 1418
-496 306 1388
-504 313 1423
-502 315 1432
-484 306 1394
-468 299 1361
-510 328 1497
-501 325 1485
-472 309 1414
-492 325 1488
-479 320 1465
-489 329 1509
-455 309 1418
-463 318 1460
-472 327 1504
-463 324 1491
-445 314 1448
-452 322 1485
-445 321 1479
-459 334 1542
-430 316 1459
-442 328 1519
-444 333 1541
-426 323 1494
-425 325 1508
-401 311 1442
-413 323 1502
-409 324 1504
-407 325 1513
-403 325 1515
-399 326 1519
-394 326 1519
-390 326 1520
-386 327 1526
-380 325 1520
-377 327 1529
-369 323 1512
-363 323 1511
-345 310 1452
-356 324 1517
-340 314 1472
-342 319 1499
-332 314 1474
-326 313 1468
-320 311 1461
-315 310 1459
-309 309 1454
-304 308 1449
-299 307 1446
-293 306 1441
-289 305 1440
-275 296 1395
-194 212 1000
-144 162 760
-146 166 780
-139 161 757
-134 158 743
-132 158 742
-131 160 753
-128 159 748
-122 154 725
-121 156 734
-118 154 728
-119 158 745
-113 153 723
-109 150 708
-108 153 722
-106 152 719
-102 150 710
-96 144 682
-96 147 696
-93 145 687
-90 144 682
-90 148 698
-89 149 707
-85 145 687
-82 144 684
-80 145 687
-78 145 687
-75 143 676
-72 141 669
-71 142 675
-66 137 649
-67 142 673
-65 143 676
-64 144 686
-62 145 689
-59 143 678
-57 142 677
-55 143 679
-54 145 692
-53 148 703
-51 146 697
-48 145 689
-47 149 709
-44 145 690
-43 149 709
-42 151 721
-37 143 679
-36 146 695
-35 150 715
-33 148 704
-33 156 747
-30 153 733
-28 157 751
-26 154 735
-23 152 726
-20 144 685
-17 140 668
-15 136 648
-12 134 639
-11 135 646
-9 138 656
-7 138 656
-5 136 647
-3 133 635
-1 137 655
0 141 673
2 143 683
4 137 656
5 139 664
7 140 671
10 144 686
12 144 686
13 137 653
15 135 645
16 127 605
18 133 636
20 131 624
20 121 579
21 117 559
24 122 580
25 120 572
27 120 574
31 129 617
28 109 519
29 109 519
30 104 497
29 97 458
32 102 485
33 102 487
35 103 491
35 100 473
36 98 466
39 102 484
40 100 473
42 102 483
44 103 488
44 100 476
47 103 490
48 104 494
48 100 473
49 99 470
52 102 484
52 99 470
55 102 486
57 104 493
59 104 496
60 104 495
62 105 496
61 100 475
67 108 512
66 105 496
67 103 491
73 110 523
56 83 389
69 100 474
72 102 483
72 100 473
71 97 457
67 90 422
67 87 410
64 81 383
70 89 417
74 91 430
69 84 395
68 81 382
70 82 385
73 85 399
70 79 371
72 81 380
74 81 382
78 85 397
84 90 423
87 92 432
90 94 442
89 91 426
88 89 419
87 87 407
92 90 424
94 91 426
99 95 446
96 90 423
100 93 436
108 99 465
98 89 414
109 98 459
108 96 447
116 102 476
113 97 456
112 95 445
112 94 440
108 90 419
119 98 458
126 102 478
124 99 463
108 86 400
119 94 436
120 93 434
121 93 433
112 85 395
115 87 402
122 90 419
120 88 407
121 88 406
122 88 408
122 87 403
124 87 403
123 86 397
130 90 416
131 90 415
128 87 399
137 92 425
143 95 438
160 106 488
181 119 549
197 128 592
205 132 611
177 113 520
147 93 425
150 94 429
147 91 418
153 94 428
148 90 412
149 90 409
154 92 420
128 76 344
105 62 278
97 56 253
88 51 225
80 45 201
78 44 195
44 24 103
65 36 158
70 39 169
35 19 79
61 33 143
53 29 123
64 34 148
88 47 206
71 38 163
66 35 150
60 31 134
84 44 190
86 44 192
89 45 198
104 53 232
113 57 250
125 63 276
147 73 322
158 78 345
173 84 374
183 89 395
186 89 397
183 88 388
189 90 397
191 90 400
196 92 405
189 88 389
199 92 405
198 91 400
221 101 444
217 98 432
209 94 413
194 87 379
191 85 372
184 82 355
193 85 368
191 84 363
212 92 400
241 104 453
242 104 450
242 103 447
245 104 450
249 105 454
248 104 448
240 100 429
242 100 431
242 99 426
247 101 432
254 103 442
264 107 457
273 110 469
-2299 950 3926
-2287 950 3934
-2299 960 3984
-2323 976 4057
-5 5 9
0 0 0
-397 172 710
-500 217 900
-608 265 1102
-677 296 1237
-618 272 1137
-709 313 1314
-664 296 1241
-621 278 1169
-606 273 1149
-449 204 859
-319 147 616
-206 96 400
-146 69 286
-125 60 247
-117 57 233
-101 50 203
-87 43 176
-95 47 194
-112 56 231
-136 67 281
-152 76 317
-443 217 932
-574 282 1215
-582 289 1243
-578 288 1244
-579 291 1257
-585 296 1279
-598 305 1320
-631 323 1403
-602 310 1349
-587 305 1327
-585 306 1335
-581 306 1336
-583 310 1353
-584 313 1367
-580 313 1369
-578 314 1376
-550 301 1321
-588 323 1422
-542 301 1323
-557 312 1373
-554 312 1376
-558 317 1399
-557 318 1408
-530 305 1351
-539 313 1388
-540 316 1403
-544 321 1425
-527 314 1395
-540 324 1442
-525 317 1415
-508 310 1382
-537 330 1473
-516 320 1431
-507 317 1417
-517 326 1459
-489 311 1394
-498 319 1434
-515 333 1496
-512 334 1504
-491 324 1457
-470 312 1406
-481 323 1456
-456 309 1395
-486 332 1501
-462 319 1441
-490 341 1543
-471 330 1498
-481 341 1546
-458 328 1488
-462 334 1519
-430 314 1428
-439 324 1475
-437 326 1483
-432 325 1482
-428 325 1484
-432 332 1516
-423 328 1501
-415 326 1490
-411 326 1493
-407 327 1497
-405 328 1504
-401 328 1507
-395 327 1504
-392 329 1511
-387 328 1510
-384 330 1517
-379 329 1517
-374 329 1515
-369 329 1515
-361 325 1499
-356 325 1499
-346 320 1477
-348 325 1505
-337 319 1477
-322 309 1429
-326 317 1467
-321 316 1465
-316 316 1464
-309 313 1451
-305 313 1455
-297 310 1439
-295 312 1450
-293 314 1461
-281 306 1422
-216 240 1114
-151 172 796
-143 166 766
-139 163 756
-134 160 741
-132 160 743
-126 155 720
-124 156 725
-127 162 752
-121 157 729
-116 154 716
-116 157 727
-112 154 718
-111 156 723
-103 147 683
-103 151 701
-101 150 698
-98 149 693
-97 150 701
-95 151 702
-92 150 699
-88 146 679
-85 144 673
-86 149 695
-84 149 695
-80 146 680
-75 142 661
-76 145 679
-73 145 677
-70 143 669
-69 145 677
-66 143 668
-66 146 685
-62 143 669
-60 141 661
-59 144 676
-57 145 678
-54 143 668
-55 149 697
-54 151 706
-50 147 691
-49 149 701
-50 157 739
-47 155 728
-44 153 716
-46 166 779
-40 155 728
-38 155 731
-37 157 739
-34 155 730
-32 156 734
-29 152 714
-26 149 700
-23 144 679
-21 142 665
-18 136 640
-16 132 621
-14 132 622
-11 126 594
-10 128 603
-8 134 628
-6 132 620
-5 130 613
-2 124 583
-1 126 590
0 130 612
2 132 621
3 134 632
5 133 627
7 137 643
10 145 684
12 145 685
14 145 684
15 139 655
17 137 643
18 129 606
19 129 606
21 127 597
23 131 617
23 119 561
25 121 567
27 123 579
29 124 585
30 121 566
29 110 515
30 107 500
32 109 510
32 105 493
33 103 480
35 105 493
37 106 499
38 103 484
39 103 483
40 101 475
43 107 503
44 106 496
46 107 502
47 105 493
47 102 476
47 98 460
52 106 498
50 99 463
52 101 473
55 104 489
57 105 490
55 99 464
61 107 501
64 109 512
63 105 489
67 110 513
66 106 496
68 106 494
57 86 399
72 107 501
72 105 492
70 101 470
69 97 453
66 91 425
62 83 387
67 89 414
66 86 400
71 91 424
67 85 392
69 85 392
69 84 390
74 89 411
75 88 408
78 90 416
79 90 419
79 88 409
76 84 389
78 85 393
82 87 403
84 89 411
88 92 424
95 97 450
91 91 422
92 92 423
106 104 482
97 94 436
97 93 429
102 96 446
105 98 452
106 98 451
99 90 414
107 95 440
106 94 432
114 100 460
103 89 409
107 91 420
121 102 469
110 92 420
108 89 409
114 93 425
100 81 368
105 84 383
118 93 425
127 99 452
109 83 381
135 103 473
117 88 401
126 94 430
120 89 404
120 87 398
122 88 400
121 86 393
122 87 394
125 87 397
129 90 407
127 87 397
136 93 421
139 94 425
149 100 453
163 108 490
178 117 533
192 125 569
203 131 595
185 118 537
150 95 430
145 91 411
150 94 422
151 93 420
149 91 409
120 73 325
101 61 269
87 51 226
86 51 223
76 44 193
75 44 190
56 32 136
65 37 160
34 19 76
55 31 131
64 36 153
63 35 148
71 39 166
53 29 120
77 42 180
55 29 123
67 36 151
44 23 95
85 45 192
91 47 203
101 52 227
110 56 244
122 62 270
136 69 299
153 77 335
173 86 378
177 88 384
192 94 413
185 90 394
186 90 393
188 91 395
185 88 385
189 90 391
191 90 392
191 89 388
196 91 396
201 93 402
214 98 425
203 93 401
203 92 397
204 92 397
207 93 398
216 96 414
228 101 434
236 104 446
232 101 435
237 103 441
239 103 440
238 102 436
237 101 432
244 104 441
248 104 444
248 104 441
251 105 443
241 100 421
267 110 465
272 111 470
277 113 476
-2371 993 4046
-2392 1007 4112
-2390 1012 4139
-2452 1044 4277
0 0 0
-701 303 1241
-584 255 1042
-685 300 1232
-682 301 1236
-644 286 1176
-652 291 1199
-658 295 1219
-674 304 1258
-635 288 1195
-598 273 1134
-472 218 903
-319 149 615
-217 102 421
-155 75 304
-126 62 250
-116 57 231
-104 52 210
-93 47 189
-99 50 202
-105 53 216
-125 63 260
-156 79 327
-364 182 766
-561 280 1189
-580 292 1238
-578 292 1243
-574 293 1246
-591 303 1292
-594 306 1309
-600 312 1334
-561 294 1258
-590 311 1334
-588 312 1339
-586 313 1347
-589 317 1365
-584 317 1366
-582 318 1372
-579 318 1377
-571 317 1370
-567 317 1372
-520 293 1270
-572 324 1409
-566 323 1406
-565 325 1416
-549 319 1389
-561 328 1430
-556 327 1431
-532 316 1382
-538 322 1409
-537 324 1421
-559 339 1491
-537 329 1446
-501 309 1361
-507 316 1391
-512 322 1418
-512 324 1432
-530 339 1498
-494 319 1409
-481 313 1384
-477 313 1386
-498 329 1461
-524 350 1554
-510 343 1525
-482 328 1459
-473 325 1445
-469 325 1448
-468 327 1458
-467 329 1470
-444 316 1412
-455 327 1464
-451 327 1465
-447 328 1470
-442 328 1469
-442 330 1483
-437 330 1483
-432 330 1483
-428 330 1484
-423 330 1485
-420 331 1491
-413 328 1481
-410 330 1487
-402 327 1475
-399 328 1484
-395 329 1487
-391 329 1490
-385 327 1483
-384 330 1496
-382 332 1508
-371 326 1481
-358 319 1451
-356 322 1461
-348 317 1444
-349 323 1470
-348 326 1486
-344 326 1485
-340 327 1489
-335 326 1489
-325 321 1466
-322 321 1468
-317 321 1466
-312 321 1467
-304 317 1450
-300 317 1452
-301 322 1476
-301 328 1502
-292 323 1480
-252 283 1297
-162 187 852
-142 166 758
-137 164 748
-135 163 746
-128 158 721
-132 165 753
-126 160 733
-123 159 728
-122 161 738
-123 165 756
-113 155 708
-112 157 719
-111 158 723
-107 155 709
-105 156 716
-100 151 691
-97 150 688
-96 152 696
-94 151 695
-93 153 703
-90 152 698
-86 148 681
-85 150 692
-81 147 678
-80 149 684
-77 146 671
-73 142 654
-71 143 660
-69 142 656
-67 142 655
-68 148 681
-67 150 691
-66 153 705
-61 147 679
-60 148 684
-57 145 671
-56 149 688
-54 150 693
-51 146 672
-51 151 697
-50 154 713
-47 151 699
-51 172 797
-44 155 718
-42 157 728
-39 153 711
-37 152 702
-33 147 680
-31 144 669
-28 142 660
-26 139 643
-24 138 638
-21 134 621
-19 132 609
-16 127 587
-14 126 583
-13 127 589
-11 129 596
-10 133 616
-8 135 626
-7 135 627
-4 132 610
-2 126 583
0 116 535
0 127 590
2 132 614
3 128 593
5 134 623
7 133 618
9 135 626
11 134 624
13 133 615
14 132 614
16 133 619
18 135 627
20 131 607
21 131 608
23 132 613
27 143 664
26 127 589
26 120 553
25 108 497
31 125 578
33 127 588
30 110 508
32 110 507
33 108 499
33 103 478
34 102 472
36 105 483
36 101 468
38 103 477
40 105 485
43 108 500
43 105 483
44 104 478
45 103 473
47 103 474
48 102 469
52 108 497
52 105 484
52 102 471
54 102 472
54 101 467
53 95 438
57 102 469
59 103 473
65 109 504
67 111 514
67 108 497
68 108 499
72 112 517
75 114 525
73 109 503
70 102 467
62 89 406
67 93 426
65 89 408
60 80 365
70 92 420
68 88 402
68 86 393
70 87 398
69 84 386
72 87 398
78 93 424
70 82 375
78 90 411
79 90 409
71 79 358
84 92 421
84 91 416
82 88 400
88 93 423
89 92 419
91 93 426
94 95 434
92 92 418
85 83 376
87 84 384
96 91 416
98 92 419
100 93 423
104 96 436
105 95 432
102 92 417
113 100 455
110 97 439
108 94 424
110 94 425
108 91 413
114 95 432
117 96 436
121 99 447
106 85 384
121 97 438
124 98 442
136 107 482
118 91 410
112 85 384
153 116 523
113 85 380
118 87 391
124 91 408
121 88 393
126 90 405
126 90 403
128 90 403
126 88 392
132 91 407
139 95 426
144 98 438
152 102 456
162 108 482
175 115 516
189 123 554
202 131 587
193 124 556
158 101 449
148 93 415
139 87 385
108 67 293
96 59 257
85 52 225
77 46 199
73 43 186
67 40 169
57 33 140
62 36 153
53 30 127
67 38 163
54 31 128
47 26 108
57 32 132
51 28 117
74 41 173
62 34 142
64 35 146
61 33 136
78 42 177
93 49 210
102 54 231
107 56 239
126 65 281
133 68 294
151 78 335
166 85 366
172 87 375
178 89 385
182 91 392
187 92 398
186 91 393
185 91 389
194 94 404
188 91 389
187 89 382
196 93 399
209 99 423
213 100 427
197 92 392
203 94 400
205 94 401
204 93 397
205 93 396
210 95 401
226 101 429
228 102 430
236 105 443
233 103 433
243 106 449
239 104 437
245 106 446
245 105 441
242 103 433
240 102 425
254 107 447
261 109 457
267 112 465
272 113 469
282 116 484
-2492 1057 4250
-7 6 13
0 2 -1
-199 88 347
-707 308 1241
-702 308 1243
-725 320 1292
-709 315 1273
-734 328 1329
-686 308 1252
-681 308 1253
-718 326 1330
-671 307 1253
-674 310 1268
-614 284 1163
-487 228 931
-336 159 647
-203 98 395
-156 76 306
-124 61 246
-114 57 227
-99 50 198
-88 45 179
-91 47 185
-104 54 215
-128 65 265
-152 78 317
-316 160 663
-547 277 1157
-584 297 1245
-584 300 1256
-572 295 1239
-586 304 1280
-597 312 1315
-603 317 1339
-598 317 1341
-593 317 1341
-589 317 1343
-587 318 1349
-588 321 1363
-580 319 1355
-586 324 1381
-577 322 1372
-571 321 1370
-562 318 1360
-578 329 1409
-545 313 1342
-554 320 1374
-579 338 1450
-537 316 1357
-533 315 1357
-534 319 1375
-551 331 1430
-557 338 1460
-521 318 1376
-528 325 1408
-525 326 1413
-541 339 1470
-494 312 1356
-497 317 1376
-520 334 1454
-511 331 1442
-502 328 1429
-505 333 1452
-513 341 1489
-469 315 1375
-482 326 1427
-482 329 1444
-480 331 1450
-475 330 1449
-473 332 1458
-464 329 1446
-461 330 1451
-456 329 1451
-452 329 1452
-450 331 1463
-446 331 1463
-440 330 1460
-437 331 1466
-432 331 1464
-426 330 1462
-421 329 1459
-417 329 1461
-408 326 1447
-403 325 1445
-400 326 1451
-395 326 1450
-387 323 1439
-387 326 1453
-386 329 1468
-378 326 1454
-374 327 1460
-370 327 1461
-368 329 1470
-368 332 1489
-360 329 1476
-359 332 1489
-354 332 1490
-352 334 1498
-351 338 1517
-345 336 1512
-340 335 1510
-331 331 1488
-318 322 1451
-311 320 1442
-310 323 1455
-308 325 1467
-304 326 1472
-304 330 1492
-305 337 1522
-295 330 1491
-270 307 1388
-168 196 883
-141 168 756
-138 167 751
-133 163 733
-129 161 724
-129 164 737
-127 164 737
-123 161 728
-121 162 731
-118 160 724
-114 158 712
-113 159 719
-111 159 721
-111 164 741
-101 151 684
-98 150 679
-97 152 687
-95 152 689
-95 154 699
-90 150 681
-89 152 691
-87 152 688
-84 150 681
-81 148 673
-79 149 676
-74 143 648
-74 146 663
-73 149 679
-69 145 657
-68 147 666
-68 151 687
-66 151 686
-65 152 690
-60 147 669
-58 147 669
-57 148 675
-54 145 661
-54 150 684
-55 159 726
-54 163 745
-46 144 655
-46 152 694
-43 148 673
-39 141 645
-36 136 619
-33 133 607
-30 130 591
-29 131 598
-26 128 581
-24 127 577
-23 127 576
-21 127 579
-19 123 562
-17 123 563
-15 123 562
-14 125 569
-12 124 566
-11 126 574
-9 129 587
-7 126 573
-6 125 571
-4 124 566
-2 120 545
0 116 530
0 113 517
2 119 544
3 123 563
5 127 580
7 125 569
9 129 588
10 124 568
12 126 574
13 124 566
15 124 567
17 122 558
18 124 567
20 124 569
22 127 581
24 126 578
25 121 552
24 112 511
29 129 589
31 130 592
27 103 469
34 125 571
34 120 547
32 108 492
34 110 501
35 106 482
36 105 476
37 104 473
38 104 475
40 105 479
43 108 493
44 108 492
46 109 495
47 107 487
49 108 493
49 107 487
49 104 471
51 103 470
54 108 490
57 110 501
54 102 462
59 108 492
51 92 416
59 104 471
64 110 498
67 112 509
66 109 496
57 91 410
70 110 502
71 109 496
67 100 455
65 95 430
66 96 433
65 92 414
67 93 420
62 84 380
69 92 417
67 88 398
67 87 390
67 85 384
69 86 386
70 86 385
71 85 383
76 90 406
74 86 387
78 89 401
76 86 389
74 82 369
86 94 424
84 90 407
87 93 419
88 93 417
88 91 409
92 94 424
92 92 415
95 95 424
95 93 416
102 99 444
106 101 455
102 96 431
108 101 454
108 100 447
104 94 422
108 97 435
113 100 449
109 95 425
110 95 426
117 101 449
123 104 464
116 97 434
124 103 459
119 97 433
115 93 415
140 112 502
104 82 363
134 105 468
143 111 496
139 107 475
145 110 492
117 88 388
101 75 330
121 89 395
122 89 392
115 83 365
141 100 445
130 92 405
132 92 406
134 93 411
140 96 424
141 96 423
148 100 439
158 106 467
166 110 484
180 118 522
190 124 547
176 114 501
133 85 370
98 62 267
86 54 232
81 51 216
80 49 209
73 45 189
58 35 147
71 43 181
42 25 100
75 44 187
66 39 162
61 36 148
41 23 94
54 31 125
50 28 116
67 38 157
70 39 161
75 42 174
57 31 127
80 44 182
88 48 199
95 51 215
111 59 250
118 63 265
130 69 291
148 77 329
167 87 370
184 95 406
187 96 409
182 93 395
187 95 403
183 92 391
193 96 408
182 90 382
189 93 393
182 89 376
190 92 390
196 94 398
235 113 476
209 99 418
200 94 396
186 87 365
202 94 395
205 95 397
209 96 403
213 97 407
226 103 429
227 103 428
222 100 415
235 105 436
230 102 424
236 104 431
246 108 447
244 106 440
240 104 430
250 107 443
247 106 435
262 112 459
262 111 456
271 114 467
269 113 461
-27 14 45
-2471 1068 4241
-29 15 50
-152 69 266
-635 281 1114
-714 318 1264
-797 356 1421
-762 343 1369
-743 336 1343
-743 338 1355
-720 329 1322
-683 315 1264
-688 319 1284
-699 326 1314
-627 294 1188
-513 243 979
-347 166 668
-222 108 431
-167 82 327
-123 62 243
-114 58 227
-108 55 217
-91 47 184
-94 49 192
-97 51 200
-123 64 255
-157 82 328
-288 148 605
-529 271 1118
-590 305 1258
-587 305 1262
-574 300 1243
-581 306 1269
-594 315 1308
-592 316 1314
-579 311 1297
-591 320 1334
-587 320 1335
-591 324 1356
-586 324 1357
-582 324 1358
-580 325 1366
-577 326 1369
-594 338 1422
-576 330 1393
-559 323 1362
-565 329 1388
-546 320 1354
-580 342 1451
-537 320 1355
-552 331 1406
-517 313 1329
-563 343 1461
-521 320 1365
-528 327 1396
-506 316 1349
-524 330 1411
-520 330 1411
-515 330 1412
-512 330 1416
-505 329 1411
-503 330 1419
-497 329 1415
-495 331 1423
-489 329 1418
-485 330 1423
-482 330 1426
-481 333 1437
-473 330 1429
-467 329 1425
-465 331 1433
-460 330 1432
-453 328 1424
-451 330 1435
-444 328 1425
-440 328 1428
-438 330 1436
-428 326 1420
-426 328 1430
-425 330 1440
-417 327 1430
-415 329 1440
-415 332 1453
-407 329 1442
-405 331 1451
-403 333 1462
-400 335 1470
-399 337 1482
-393 335 1475
-391 337 1486
-386 337 1485
-386 341 1503
-378 338 1490
-373 338 1490
-369 338 1494
-368 341 1509
-362 340 1504
-355 337 1492
-355 341 1511
-350 341 1513
-349 344 1526
-340 340 1508
-331 336 1490
-305 314 1394
-280 292 1296
-298 315 1401
-303 325 1446
-308 334 1487
-310 341 1519
-304 340 1516
-293 332 1482
-281 323 1443
-176 208 923
-142 171 759
-138 169 748
-134 167 740
-132 166 740
-127 164 728
-128 167 743
-124 165 734
-123 167 743
-118 162 723
-115 162 722
-109 156 695
-109 159 708
-106 158 704
-98 150 668
-99 153 683
-96 153 681
-96 155 694
-94 155 693
-88 149 667
-91 157 701
-85 151 675
-83 151 674
-79 147 659
-79 151 678
-78 152 680
-73 147 660
-71 147 659
-70 148 662
-68 148 662
-68 154 689
-65 150 671
-63 149 669
-60 147 661
-59 150 672
-57 150 674
-55 151 680
-56 159 717
-51 149 668
-52 158 709
-47 151 678
-40 135 605
-34 120 538
-31 118 528
-29 116 520
-27 112 504
-26 115 516
-24 112 502
-22 112 500
-21 114 510
-19 109 488
-18 110 493
-15 106 477
-14 108 485
-13 109 487
-12 110 494
-10 112 502
-9 111 498
-7 110 492
-6 111 500
-5 114 512
-3 115 519
-2 115 517
0 109 488
0 106 474
2 105 471
3 112 505
5 114 511
6 117 525
8 114 513
10 119 535
11 117 528
13 117 529
14 120 538
16 116 524
17 118 532
19 120 539
21 119 535
22 118 532
24 118 530
25 114 515
24 105 471
28 115 519
30 119 533
33 125 561
33 119 535
34 116 523
35 112 504
35 110 494
37 110 493
38 110 493
39 107 482
40 106 478
41 106 478
46 114 512
45 108 485
47 110 492
46 103 463
43 94 420
53 114 513
49 101 453
55 110 495
55 109 489
53 101 451
53 99 442
62 113 505
60 108 482
55 96 427
49 82 365
58 96 428
51 82 365
57 91 405
60 92 412
58 87 389
62 92 412
64 93 416
65 94 418
65 91 407
66 91 405
70 95 424
69 91 405
71 93 415
69 88 392
69 87 388
72 89 394
75 91 406
72 86 381
79 93 415
76 88 390
73 84 372
76 85 378
77 86 379
80 87 386
87 94 416
85 90 400
86 90 401
89 92 408
90 92 407
93 94 415
96 96 423
96 94 415
98 95 418
117 112 497
103 97 430
99 92 408
107 99 437
104 94 416
109 98 430
108 96 425
107 94 413
104 90 396
111 95 417
118 100 439
111 93 409
118 98 431
116 95 416
118 96 419
116 93 409
133 105 463
114 90 392
127 99 434
149 115 505
126 96 419
127 96 418
127 95 415
131 96 420
127 93 405
127 92 400
135 97 420
131 93 403
132 93 403
130 90 392
141 98 424
142 97 421
146 99 428
146 98 425
152 101 440
163 108 467
148 97 418
118 77 329
89 57 241
77 49 206
73 46 191
82 51 216
99 61 260
73 45 187
57 35 143
72 44 181
66 40 164
57 34 138
49 29 116
81 47 196
59 34 139
51 29 117
68 39 158
56 32 127
73 41 169
78 44 180
88 49 203
93 51 213
106 58 240
114 62 258
127 69 287
138 74 309
150 80 335
165 87 366
187 98 413
188 98 412
180 93 390
190 97 408
191 97 407
189 96 401
188 95 395
198 99 412
191 94 393
188 92 384
196 96 399
202 98 407
202 97 404
200 96 396
181 86 356
206 97 402
212 100 412
211 98 406
219 101 418
217 100 411
223 102 420
227 103 424
228 103 422
233 105 428
226 101 413
222 99 402
233 103 419
240 105 429
254 111 451
257 111 453
257 111 449
259 111 450
264 113 455
269 114 460
-73 34 124
-31 16 54
-34 18 60
-173 79 301
-559 251 982
-752 339 1329
-759 344 1351
-738 336 1324
-760 348 1373
-758 350 1382
-759 352 1392
-739 345 1366
-721 338 1344
-715 338 1343
-652 310 1235
-545 261 1040
-390 189 749
-254 125 493
-173 86 339
-129 65 255
-113 58 225
-109 56 218
-90 48 183
-89 47 181
-99 53 204
-120 63 249
-144 76 301
-259 135 544
-500 260 1056
-579 303 1234
-576 303 1236
-579 307 1254
-580 310 1266
-590 317 1298
-584 316 1296
-585 319 1310
-587 322 1325
-589 325 1340
-586 326 1345
-585 328 1354
-585 330 1365
-583 331 1372
-579 331 1375
-574 331 1374
-567 330 1370
-564 330 1374
-558 329 1372
-554 329 1373
-552 331 1381
-547 330 1379
-542 330 1380
-541 332 1390
-533 329 1381
-533 332 1394
-529 332 1396
-523 331 1394
-518 330 1392
-518 333 1405
-510 331 1397
-501 328 1385
-502 331 1400
-498 331 1403
-495 332 1408
-484 328 1391
-484 331 1405
-481 331 1409
-472 328 1398
-470 330 1405
-462 327 1394
-462 330 1408
-460 332 1418
-454 330 1412
-453 333 1425
-449 333 1428
-447 335 1436
-441 334 1433
-437 333 1432
-437 337 1448
-432 336 1447
-430 338 1458
-427 339 1464
-418 336 1449
-417 338 1460
-415 340 1470
-409 339 1467
-407 341 1475
-402 341 1476
-400 343 1486
-397 343 1489
-394 345 1498
-388 343 1492
-382 343 1490
-380 345 1500
-375 344 1497
-372 345 1503
-368 345 1506
-364 346 1508
-358 344 1503
-351 342 1495
-349 345 1507
-347 347 1518
-342 347 1518
-333 342 1496
-310 323 1415
-292 309 1353
-303 325 1425
-300 326 1429
-304 335 1470
-309 345 1514
-304 344 1512
-293 337 1481
-282 330 1451
-196 234 1026
-153 187 818
-142 176 770
-134 169 739
-132 170 745
-130 169 741
-124 165 725
-123 166 728
-121 167 732
-119 167 732
-109 156 685
-113 164 723
-109 162 712
-105 158 695
-101 156 688
-99 156 685
-99 159 701
-95 157 690
-95 159 701
-95 163 718
-86 151 664
-87 156 688
-83 153 675
-79 150 661
-77 150 660
-77 154 678
-73 149 660
-71 148 653
-69 148 653
-67 148 656
-69 157 694
-65 152 673
-63 151 669
-62 154 681
-58 150 664
-57 152 673
-57 158 701
-56 160 709
-53 159 704
-48 149 661
-39 129 570
-33 114 504
-28 104 460
-27 103 456
-25 102 451
-23 101 445
-22 100 441
-21 101 444
-19 99 437
-18 98 433
-16 96 424
-15 96 425
-14 98 432
-13 100 440
-11 97 429
-10 97 428
-9 99 436
-8 101 444
-6 98 432
-5 100 443
-4 101 447
-3 106 469
-1 107 475
0 110 486
0 106 469
2 103 458
3 102 449
5 106 469
6 109 481
8 110 487
9 109 483
11 111 493
12 113 500
14 114 503
16 116 516
17 115 510
18 112 496
19 112 496
21 114 505
22 109 481
23 107 474
24 105 465
25 106 468
29 115 510
27 100 444
29 104 461
35 121 537
36 118 525
37 116 513
39 117 518
41 119 526
40 113 500
41 111 491
41 108 478
41 103 457
49 119 530
49 116 512
48 110 487
49 110 487
50 108 476
57 120 533
55 112 495
55 110 485
55 107 475
61 116 512
60 111 489
62 111 491
57 100 440
63 108 479
57 96 424
54 89 390
53 85 374
53 82 361
54 82 361
55 82 361
56 82 360
60 87 382
65 92 404
66 92 404
67 92 406
64 87 380
70 92 406
69 90 394
70 89 389
69 87 381
72 89 389
69 83 364
74 89 390
76 89 390
75 87 381
79 91 397
80 90 393
79 87 381
87 95 414
83 89 388
84 89 389
88 93 405
88 91 397
90 92 400
94 95 412
94 94 408
93 91 397
96 93 404
101 96 420
112 106 461
103 96 416
100 93 402
109 99 431
104 94 407
105 93 405
108 95 413
113 99 428
110 94 408
121 103 447
119 100 434
107 89 385
121 99 430
135 110 478
117 94 406
119 95 408
119 93 403
119 93 399
129 99 429
130 99 429
129 98 421
129 97 415
122 90 388
123 90 385
135 98 423
133 96 411
131 93 400
137 96 413
135 94 404
142 98 421
141 97 415
142 97 414
140 95 404
124 83 353
107 71 300
100 65 275
88 57 237
69 44 183
90 57 239
62 39 161
69 43 177
56 35 140
85 52 217
75 46 189
59 35 144
64 38 155
65 39 157
64 38 152
57 34 135
73 42 172
86 50 205
76 44 178
84 48 195
90 51 208
98 55 226
105 59 241
117 65 266
127 70 289
142 77 320
155 84 348
173 93 386
182 97 405
181 96 397
184 97 402
181 95 393
186 96 399
184 95 392
187 96 395
187 95 393
198 100 412
186 93 384
200 100 410
198 98 402
205 101 413
212 103 423
216 105 429
209 101 411
200 96 390
201 96 389
200 95 385
207 97 395
215 100 407
219 102 413
222 103 415
223 102 413
231 105 425
239 108 436
236 106 428
247 111 445
248 110 443
254 112 450
256 113 452
261 114 457
279 121 485
275 119 474
288 124 494
-43 22 74
-37 19 64
-49 24 84
-119 56 207
-563 256 987
-748 341 1321
-755 347 1344
-774 357 1388
-747 347 1350
-786 367 1431
-776 364 1423
-756 357 1396
-716 341 1334
-702 336 1317
-639 308 1209
-569 276 1084
-418 205 803
-282 140 547
-186 94 364
-139 71 274
-117 60 232
-106 55 212
-96 51 194
-89 48 181
-98 52 201
-108 58 223
-141 75 295
-239 126 501
-462 244 976
-576 305 1226
-574 306 1232
-576 309 1246
-574 310 1252
-589 320 1295
-623 341 1381
-601 332 1344
-589 327 1329
-587 328 1335
-581 327 1332
-585 332 1352
-582 332 1357
-575 331 1352
-573 332 1359
-570 333 1364
-567 334 1368
-558 331 1358
-557 333 1368
-552 332 1367
-543 329 1356
-541 330 1363
-538 332 1370
-531 330 1364
-528 331 1369
-528 333 1380
-518 329 1366
-509 327 1356
-511 330 1372
-502 327 1362
-509 334 1393
-502 332 1386
-495 331 1382
-489 330 1378
-487 331 1386
-487 334 1400
-483 334 1401
-478 334 1401
-476 335 1409
-477 339 1425
-470 337 1419
-465 336 1416
-466 341 1436
-461 340 1433
-459 341 1442
-455 342 1445
-451 342 1448
-450 344 1458
-443 343 1452
-439 343 1454
-434 342 1454
-432 344 1463
-428 344 1465
-419 341 1450
-423 348 1483
-414 344 1465
-414 348 1483
-408 347 1480
-402 345 1475
-400 347 1483
-399 350 1496
-393 349 1494
-388 348 1490
-385 349 1497
-379 348 1493
-377 350 1504
-371 349 1499
-368 350 1505
-361 347 1495
-361 352 1516
-355 351 1513
-349 349 1507
-345 350 1510
-341 350 1510
-335 348 1505
-317 335 1447
-314 336 1454
-316 343 1484
-317 348 1506
-313 349 1511
-311 352 1525
-304 348 1512
-296 345 1496
-282 334 1448
-227 274 1188
-157 193 835
-139 175 755
-133 171 737
-133 173 750
-125 165 714
-125 169 729
-125 171 740
-121 169 733
-118 168 726
-115 166 719
-115 169 735
-109 164 711
-107 163 709
-102 159 692
-101 161 700
-99 161 698
-96 160 694
-93 158 688
-90 156 679
-92 163 708
-84 152 662
-84 156 681
-81 155 673
-78 154 669
-77 154 672
-75 154 671
-70 150 651
-69 150 653
-69 155 674
-64 148 646
-63 149 650
-63 153 670
-62 158 690
-60 156 683
-59 160 701
-57 159 697
-56 161 706
-49 148 646
-41 132 575
-35 118 514
-28 101 440
-27 100 436
-24 97 420
-23 96 418
-22 96 417
-20 95 413
-19 95 412
-17 92 400
-16 91 396
-15 94 407
-14 95 413
-13 93 403
-11 92 399
-10 93 404
-9 94 410
-8 95 412
-7 96 416
-6 95 415
-5 99 430
-3 98 425
-2 99 430
-1 101 439
0 107 466
0 109 477
2 105 460
3 100 437
5 101 439
6 101 440
7 106 465
9 105 460
10 107 468
12 108 471
13 112 488
15 111 486
16 111 487
18 110 481
19 111 487
19 105 457
21 106 464
22 104 456
23 104 452
24 101 441
25 100 438
26 99 432
30 110 482
33 116 507
35 117 513
37 118 518
39 121 527
39 114 497
39 112 487
40 110 479
41 108 469
45 116 506
45 112 488
49 118 514
42 98 426
50 113 492
52 113 495
54 116 508
55 114 500
55 111 486
56 110 479
62 119 521
65 123 535
64 117 509
67 120 523
64 112 487
72 122 534
60 100 433
54 88 382
53 84 362
43 66 282
56 86 370
54 81 348
47 69 296
58 83 361
61 87 374
65 90 390
69 94 406
67 89 386
71 94 405
64 83 359
74 94 407
72 90 389
74 91 392
78 95 412
74 88 381
78 92 397
80 92 398
79 90 387
79 88 380
82 91 394
81 89 383
83 90 386
87 92 397
90 94 406
87 90 386
89 91 392
95 95 410
95 94 404
95 93 400
98 95 410
101 97 416
103 97 418
108 101 433
100 93 397
101 92 396
104 94 402
105 93 399
108 95 408
109 95 405
118 101 433
123 105 449
124 104 445
122 102 435
114 94 399
127 103 441
135 109 466
118 94 400
129 102 434
118 92 392
128 99 422
128 98 417
131 99 422
126 94 399
120 89 376
121 89 375
130 95 401
131 94 399
131 94 396
127 90 380
119 83 351
140 97 410
130 89 375
114 77 324
100 67 281
92 62 255
95 63 261
74 49 199
74 48 197
60 38 154
57 37 147
63 40 161
41 26 100
65 41 164
63 39 157
47 29 113
45 27 107
54 33 129
38 22 86
47 28 107
77 45 183
75 44 175
84 49 197
95 55 222
100 57 233
112 64 259
122 69 280
137 77 313
147 82 335
156 86 353
174 95 391
181 98 404
178 96 394
178 95 390
179 95 389
184 97 397
179 94 383
191 100 406
192 100 407
190 98 398
192 98 399
201 102 414
193 98 395
200 100 405
196 98 394
196 97 391
198 97 392
202 99 397
185 90 359
199 96 385
207 99 399
217 103 414
217 103 411
220 104 414
227 106 423
236 110 438
244 112 448
235 108 429
248 113 449
