VERSION 0.7
FIELDS x y z
SIZE 4 4 4
TYPE I I I
COUNT 1 1 1
WIDTH 3246
HEIGHT 1
VIEWPOINT 0.0 0.0 0.0 1.0 0.0 0.0 0.0
POINTS 3246
DATA ascii
923 -634 1871
902 -615 1814
897 -608 1790
905 -609 1791
911 -610 1790
917 -610 1787
921 -608 1780
928 -609 1779
932 -608 1773
931 -603 1757
937 -604 1756
952 -609 1768
953 -606 1757
961 -608 1758
967 -608 1756
969 -606 1746
977 -607 1747
985 -609 1748
983 -604 1731
994 -607 1737
1004 -610 1741
1004 -606 1729
1006 -603 1718
-2020 -1139 3335
-1999 -1133 3326
-1978 -1128 3315
-1953 -1120 3298
-1935 -1116 3291
-1916 -1112 3285
-1909 -1114 3296
-1880 -1103 3270
-1860 -1098 3261
-1844 -1095 3258
-1832 -1095 3261
-1807 -1086 3242
-1787 -1081 3230
-1774 -1080 3232
-1758 -1077 3227
-1739 -1072 3217
-1722 -1067 3210
-1715 -1070 3222
-1694 -1063 3207
-1681 -1062 3207
-1661 -1056 3195
-1651 -1056 3199
-1634 -1052 3191
-1615 -1047 3180
-1599 -1043 3174
-1587 -1042 3175
-1570 -1038 3165
-1553 -1033 3156
-1538 -1030 3151
-1524 -1028 3147
-1507 -1024 3139
-1493 -1020 3133
-1479 -1018 3131
-1465 -1015 3126
-1447 -1010 3113
-1434 -1008 3112
-1420 -1005 3107
-1406 -1002 3101
-1392 -1000 3097
-1376 -996 3088
-1363 -993 3083
-1350 -991 3080
-1342 -992 3089
-1325 -987 3076
-1311 -984 3069
-1302 -985 3075
-1287 -980 3065
-1274 -978 3061
-1261 -976 3058
-1249 -974 3054
-1236 -971 3050
-1223 -969 3045
-1210 -966 3040
-1194 -961 3026
-1183 -960 3027
-1171 -958 3024
-1162 -959 3028
-1147 -954 3016
-1136 -953 3017
-1121 -948 3004
-1109 -946 2999
-1099 -945 3000
-1091 -946 3006
-1075 -940 2991
-1058 -934 2974
-1054 -939 2992
-1039 -934 2979
-1021 -926 2954
-987 -903 2885
-836 -773 2470
-859 -801 2564
-942 -887 2839
-961 -913 2925
-960 -921 2953
-950 -920 2952
-935 -914 2936
-924 -913 2934
-914 -911 2931
-905 -911 2933
-893 -908 2926
-881 -905 2918
-869 -903 2912
-860 -903 2914
-850 -901 2911
-839 -899 2905
-832 -901 2914
-818 -896 2901
-807 -894 2895
-800 -895 2901
-787 -891 2889
-774 -886 2874
-768 -890 2890
-758 -888 2884
-747 -886 2881
-737 -885 2878
-728 -884 2876
-716 -880 2865
-704 -875 2853
-694 -875 2852
-686 -875 2855
-676 -873 2850
-667 -873 2850
-657 -872 2848
-647 -869 2841
-637 -868 2840
-628 -867 2837
-617 -864 2827
-609 -865 2832
-599 -863 2827
-590 -863 2827
-581 -861 2823
-571 -859 2817
-560 -856 2808
-553 -857 2815
-544 -857 2813
-532 -851 2798
-525 -854 2809
-514 -849 2792
-505 -848 2791
-497 -849 2794
-487 -847 2789
-479 -847 2789
-469 -844 2781
-461 -846 2787
-451 -843 2779
-442 -840 2770
-434 -841 2775
-425 -841 2774
-415 -838 2764
-406 -835 2755
-397 -835 2756
-390 -837 2763
-380 -832 2749
-373 -835 2759
-363 -832 2748
-353 -828 2736
-345 -827 2736
-337 -827 2736
-328 -827 2737
-319 -824 2726
-311 -825 2732
-302 -824 2726
-294 -821 2720
-285 -821 2719
-276 -819 2712
-268 -819 2713
-260 -818 2709
-252 -818 2711
-243 -817 2707
-235 -816 2705
-226 -812 2693
-218 -812 2693
-210 -814 2698
-202 -814 2698
-193 -809 2683
-186 -814 2700
-178 -812 2694
-170 -811 2690
-161 -810 2688
-153 -810 2687
-145 -807 2677
-137 -806 2673
-129 -804 2668
-120 -803 2663
-113 -805 2669
-105 -803 2665
-96 -801 2659
-88 -801 2657
-80 -799 2651
-72 -797 2644
-64 -796 2641
-57 -797 2643
-49 -795 2637
-41 -797 2643
-33 -794 2635
-25 -795 2638
-17 -792 2627
-9 -791 2623
-2 -791 2624
5 -792 2625
13 -791 2622
21 -790 2620
28 -788 2613
36 -789 2617
44 -785 2601
51 -784 2598
60 -790 2617
67 -781 2588
74 -783 2594
82 -783 2595
90 -783 2593
98 -783 2592
105 -781 2585
113 -782 2588
120 -779 2579
128 -779 2578
135 -778 2575
143 -777 2571
150 -777 2569
158 -776 2567
166 -778 2570
173 -776 2565
180 -773 2554
188 -774 2557
195 -774 2554
203 -774 2553
209 -770 2542
217 -770 2539
225 -770 2541
232 -771 2541
239 -769 2535
247 -769 2533
254 -768 2531
261 -766 2523
269 -769 2531
278 -771 2537
283 -765 2518
291 -765 2516
299 -766 2519
305 -764 2510
312 -763 2506
320 -765 2512
327 -764 2507
334 -762 2500
341 -761 2497
349 -762 2497
356 -761 2493
363 -760 2490
370 -759 2485
378 -761 2490
385 -758 2482
392 -759 2483
398 -756 2471
406 -758 2475
414 -758 2475
420 -755 2466
427 -755 2462
435 -755 2462
442 -756 2463
448 -753 2452
457 -755 2459
463 -753 2451
471 -754 2451
479 -756 2457
483 -750 2436
492 -753 2444
499 -753 2443
505 -751 2435
513 -752 2437
521 -752 2434
527 -751 2431
533 -748 2421
540 -748 2420
549 -751 2425
555 -749 2418
562 -748 2414
569 -748 2412
577 -748 2411
584 -748 2408
590 -747 2404
598 -748 2404
606 -748 2404
610 -745 2392
619 -747 2397
625 -745 2390
635 -748 2396
641 -747 2391
649 -747 2391
655 -747 2387
660 -743 2374
670 -746 2381
674 -743 2370
683 -745 2373
689 -744 2368
697 -744 2367
706 -747 2373
712 -745 2365
717 -743 2358
725 -744 2358
732 -743 2354
740 -745 2356
748 -744 2353
754 -743 2347
760 -742 2342
767 -742 2340
776 -744 2343
785 -745 2345
788 -742 2332
796 -742 2330
804 -743 2330
810 -742 2326
818 -743 2325
825 -742 2322
833 -743 2321
837 -740 2310
846 -742 2315
855 -744 2315
864 -745 2317
868 -742 2307
873 -741 2299
882 -742 2301
888 -741 2294
899 -744 2301
904 -742 2294
909 -741 2286
919 -743 2290
927 -744 2290
931 -741 2278
942 -744 2285
946 -742 2275
955 -743 2277
960 -741 2268
967 -741 2265
975 -742 2264
980 -740 2255
990 -742 2259
998 -743 2257
1004 -742 2252
1009 -740 2244
1018 -742 2246
1018 -736 2227
1027 -738 2228
1042 -743 2242
1052 -745 2244
1058 -744 2238
1061 -742 2227
1070 -743 2228
1067 -736 2202
1011 -693 2070
921 -626 1869
895 -605 1802
899 -603 1795
907 -605 1798
908 -602 1786
914 -601 1781
923 -604 1786
920 -598 1765
930 -601 1771
942 -605 1779
943 -602 1769
944 -599 1756
955 -602 1762
963 -603 1763
962 -599 1748
969 -600 1747
978 -602 1751
984 -602 1747
988 -601 1740
990 -598 1731
997 -599 1730
1001 -598 1724
1005 -597 1718
-2019 -1127 3338
-1997 -1121 3326
-1979 -1117 3320
-1948 -1106 3293
-1938 -1107 3300
-1916 -1101 3288
-1890 -1092 3267
-1875 -1090 3266
-1852 -1082 3250
-1835 -1079 3245
-1817 -1075 3238
-1802 -1072 3235
-1792 -1073 3242
-1779 -1072 3243
-1765 -1070 3243
-1739 -1060 3219
-1729 -1061 3226
-1708 -1055 3212
-1691 -1051 3204
-1679 -1050 3207
-1666 -1049 3207
-1649 -1045 3200
-1628 -1038 3182
-1615 -1036 3183
-1595 -1030 3169
-1580 -1027 3163
-1565 -1024 3159
-1549 -1021 3152
-1539 -1021 3157
-1523 -1017 3148
-1508 -1014 3144
-1493 -1011 3138
-1479 -1008 3133
-1462 -1003 3123
-1447 -1000 3116
-1433 -997 3111
-1421 -996 3112
-1408 -994 3109
-1390 -988 3096
-1372 -982 3080
-1365 -985 3091
-1349 -980 3081
-1337 -979 3081
-1326 -978 3081
-1313 -975 3076
-1297 -971 3066
-1288 -971 3070
-1271 -966 3058
-1259 -964 3054
-1243 -960 3043
-1233 -960 3047
-1221 -957 3043
-1208 -955 3038
-1192 -950 3026
-1178 -947 3018
-1170 -948 3024
-1156 -944 3015
-1146 -944 3018
-1135 -942 3015
-1118 -936 2999
-1110 -938 3006
-1097 -934 2997
-1090 -936 3007
-1074 -931 2992
-1060 -927 2982
-1043 -920 2963
-1038 -923 2977
-1026 -921 2972
-1003 -909 2935
-935 -855 2764
-834 -770 2492
-889 -828 2681
-932 -877 2840
-958 -910 2950
-946 -907 2943
-935 -905 2939
-927 -906 2944
-915 -903 2936
-904 -901 2933
-890 -896 2919
-879 -895 2916
-871 -896 2921
-859 -893 2913
-851 -894 2919
-841 -892 2915
-829 -889 2908
-818 -887 2903
-810 -888 2909
-797 -883 2895
-789 -884 2899
-776 -880 2887
-762 -874 2870
-755 -876 2877
-746 -876 2880
-733 -871 2864
-726 -872 2870
-717 -873 2874
-705 -868 2860
-698 -871 2870
-686 -866 2856
-676 -865 2855
-666 -863 2847
-656 -861 2844
-647 -861 2846
-638 -861 2845
-629 -859 2842
-618 -857 2836
-610 -857 2837
-600 -856 2834
-592 -856 2836
-579 -850 2817
-570 -849 2815
-559 -846 2806
-552 -847 2812
-540 -843 2797
-532 -844 2802
-524 -844 2805
-515 -842 2799
-505 -840 2794
-495 -838 2789
-488 -841 2797
-479 -839 2793
-469 -836 2783
-461 -837 2787
-451 -834 2780
-443 -834 2778
-432 -829 2762
-425 -831 2773
-415 -828 2762
-407 -829 2768
-396 -823 2746
-388 -824 2751
-380 -825 2754
-371 -822 2747
-362 -822 2745
-355 -823 2751
-345 -820 2741
-337 -821 2743
-328 -817 2733
-319 -815 2727
-311 -816 2729
-303 -816 2731
-293 -813 2719
-285 -812 2718
-277 -813 2721
-270 -815 2729
-260 -810 2714
-251 -808 2707
-244 -812 2719
-235 -809 2710
-227 -807 2703
-218 -806 2699
-211 -807 2702
-203 -809 2711
-194 -805 2696
-185 -801 2686
-177 -800 2683
-169 -799 2679
-161 -798 2676
-153 -799 2677
-144 -796 2670
-136 -794 2662
-129 -798 2674
-120 -792 2654
-113 -797 2673
-104 -792 2657
-96 -792 2657
-88 -793 2661
-80 -792 2655
-72 -789 2647
-64 -789 2646
-56 -786 2636
-49 -788 2643
-41 -785 2633
-33 -788 2642
-25 -785 2632
-17 -785 2630
-9 -782 2621
-2 -785 2630
5 -781 2618
13 -782 2620
21 -779 2612
28 -779 2610
36 -783 2622
44 -776 2600
52 -780 2612
59 -777 2601
67 -779 2608
75 -777 2600
82 -774 2591
90 -773 2588
98 -775 2593
105 -774 2589
113 -773 2585
120 -770 2576
127 -770 2574
135 -770 2575
142 -768 2568
151 -771 2575
158 -768 2565
165 -768 2566
173 -768 2565
180 -766 2558
188 -767 2559
195 -764 2548
202 -765 2552
210 -764 2548
216 -759 2532
224 -762 2541
231 -760 2534
239 -761 2534
247 -761 2535
254 -761 2534
261 -757 2521
269 -760 2528
275 -757 2518
283 -757 2518
291 -758 2521
297 -756 2511
305 -757 2515
312 -756 2510
319 -753 2498
326 -753 2498
333 -753 2496
342 -756 2505
348 -753 2494
355 -751 2489
362 -749 2481
369 -749 2480
377 -750 2482
385 -751 2483
392 -752 2485
399 -750 2477
404 -746 2465
413 -749 2474
422 -751 2477
427 -747 2464
434 -747 2463
441 -746 2456
449 -746 2458
456 -746 2456
463 -746 2454
471 -746 2453
477 -746 2449
485 -745 2447
492 -745 2444
498 -743 2436
506 -745 2441
511 -741 2427
519 -741 2427
526 -741 2424
534 -742 2427
542 -743 2429
546 -739 2414
557 -744 2426
561 -739 2410
569 -740 2413
575 -739 2405
585 -742 2414
593 -743 2415
597 -739 2403
604 -739 2401
612 -740 2400
619 -739 2396
626 -739 2393
635 -741 2399
639 -737 2384
649 -740 2393
655 -738 2386
660 -736 2376
667 -736 2375
676 -738 2378
682 -736 2372
689 -737 2370
695 -735 2365
705 -738 2371
709 -735 2359
718 -736 2361
723 -734 2353
733 -737 2359
739 -736 2353
746 -736 2350
754 -737 2351
758 -733 2339
768 -736 2346
775 -736 2343
782 -735 2338
789 -735 2336
794 -733 2328
804 -736 2333
808 -733 2322
818 -735 2327
823 -733 2317
831 -734 2319
840 -736 2321
846 -735 2316
853 -734 2312
861 -735 2311
865 -733 2302
877 -736 2310
883 -736 2306
888 -734 2298
892 -731 2287
904 -735 2295
908 -732 2285
918 -735 2290
924 -734 2285
931 -734 2281
938 -734 2278
949 -737 2284
953 -734 2274
964 -737 2280
968 -735 2269
974 -733 2262
983 -735 2265
983 -730 2245
994 -732 2250
1002 -733 2250
1024 -744 2281
1016 -733 2243
1019 -730 2232
1052 -749 2285
1041 -736 2242
1048 -735 2238
1057 -737 2239
1062 -735 2231
1070 -736 2229
1069 -730 2209
1017 -690 2084
930 -626 1889
894 -598 1801
903 -600 1806
901 -595 1786
907 -595 1783
909 -593 1774
926 -600 1793
925 -595 1777
928 -594 1769
936 -595 1771
938 -593 1760
943 -592 1756
948 -592 1752
955 -593 1751
960 -592 1746
976 -598 1762
973 -593 1743
986 -597 1753
982 -591 1732
988 -591 1730
992 -590 1723
1004 -594 1731
1004 -590 1718
-2018 -1115 3340
-1994 -1108 3325
-1968 -1099 3305
-1940 -1091 3283
-1927 -1089 3286
-1910 -1086 3280
-1888 -1080 3267
-1873 -1078 3267
-1856 -1074 3260
-1838 -1070 3254
-1824 -1068 3253
-1809 -1066 3251
-1795 -1064 3251
-1779 -1061 3247
-1757 -1054 3232
-1744 -1053 3231
-1728 -1050 3228
-1708 -1044 3215
-1692 -1041 3210
-1676 -1038 3204
-1659 -1034 3197
-1640 -1028 3184
-1625 -1025 3180
-1612 -1024 3180
-1599 -1023 3180
-1584 -1020 3175
-1566 -1015 3165
-1554 -1014 3165
-1536 -1008 3153
-1519 -1004 3144
-1503 -1000 3137
-1492 -1000 3138
-1474 -995 3127
-1462 -993 3126
-1448 -991 3123
-1435 -989 3120
-1420 -985 3113
-1405 -982 3106
-1389 -978 3096
-1375 -975 3090
-1361 -972 3085
-1350 -971 3085
-1335 -968 3079
-1324 -967 3080
-1304 -959 3059
-1296 -960 3066
-1287 -961 3072
-1272 -957 3062
-1257 -953 3052
-1241 -949 3042
-1235 -951 3053
-1217 -945 3035
-1205 -943 3034
-1192 -940 3027
-1177 -936 3017
-1166 -935 3017
-1158 -936 3022
-1145 -933 3016
-1131 -929 3007
-1125 -932 3020
-1108 -927 3004
-1099 -926 3005
-1084 -922 2994
-1073 -921 2992
-1060 -917 2984
-1051 -918 2987
-1037 -913 2977
-1024 -910 2968
-1008 -905 2953
-986 -892 2915
-923 -844 2759
-809 -747 2444
-899 -837 2741
-920 -865 2835
-931 -884 2900
-933 -894 2935
-923 -894 2936
-917 -896 2947
-900 -889 2924
-890 -888 2924
-879 -886 2918
-869 -884 2915
-859 -884 2915
-850 -883 2917
-839 -881 2910
-828 -879 2905
-821 -881 2914
-806 -875 2895
-796 -873 2893
-788 -875 2899
-777 -873 2894
-766 -870 2888
-756 -868 2882
-743 -864 2870
-736 -865 2876
-727 -866 2879
-714 -860 2861
-706 -861 2866
-695 -858 2860
-685 -857 2856
-675 -855 2853
-666 -855 2852
-656 -853 2846
-646 -851 2844
-636 -849 2838
-627 -848 2835
-619 -849 2840
-610 -849 2839
-598 -844 2824
-589 -844 2825
-579 -842 2822
-568 -838 2809
-561 -840 2817
-551 -837 2808
-541 -835 2802
-533 -836 2806
-525 -837 2811
-516 -837 2811
-504 -831 2793
-495 -830 2790
-487 -829 2789
-477 -828 2786
-467 -824 2774
-460 -827 2783
-452 -827 2784
-440 -821 2766
-431 -818 2758
-422 -819 2759
-414 -818 2757
-405 -817 2754
-396 -816 2753
-387 -815 2750
-380 -816 2755
-371 -816 2754
-362 -813 2746
-355 -815 2752
-345 -812 2744
-336 -809 2735
-328 -810 2739
-319 -808 2732
-311 -808 2732
-302 -807 2728
-294 -806 2727
-287 -809 2737
-277 -804 2721
-268 -803 2717
-260 -802 2714
-251 -801 2711
-243 -800 2709
-235 -799 2704
-227 -798 2704
-218 -796 2695
-210 -797 2700
-201 -793 2686
-193 -793 2686
-186 -796 2698
-177 -793 2685
-168 -790 2677
-161 -790 2678
-152 -787 2669
-144 -789 2674
-136 -789 2674
-128 -786 2662
-120 -786 2666
-113 -790 2676
-104 -783 2653
-96 -784 2659
-88 -782 2652
-80 -781 2648
-73 -785 2660
-64 -781 2648
-57 -782 2650
-49 -781 2647
-41 -783 2654
-33 -777 2634
-25 -778 2638
-17 -775 2625
-9 -775 2626
-2 -775 2626
5 -774 2622
13 -774 2622
21 -771 2613
28 -771 2613
36 -771 2609
44 -770 2609
52 -770 2605
59 -767 2596
67 -768 2600
75 -768 2599
82 -765 2589
90 -764 2586
98 -767 2595
105 -767 2594
113 -765 2587
120 -764 2584
127 -761 2573
135 -761 2570
143 -762 2574
150 -760 2569
157 -758 2561
165 -760 2565
173 -760 2566
180 -757 2556
188 -758 2559
195 -756 2551
202 -755 2545
210 -755 2545
217 -755 2546
224 -752 2534
232 -753 2537
239 -752 2533
246 -752 2533
252 -748 2516
261 -750 2522
268 -750 2522
275 -750 2520
282 -747 2510
291 -750 2520
297 -748 2512
305 -747 2509
311 -744 2498
320 -748 2510
327 -748 2508
334 -746 2501
341 -745 2496
348 -745 2496
355 -743 2489
363 -745 2492
370 -744 2487
378 -744 2489
384 -743 2482
391 -741 2477
398 -742 2476
406 -742 2478
413 -741 2472
420 -740 2467
427 -740 2468
433 -738 2457
442 -741 2467
449 -739 2460
455 -738 2454
461 -735 2444
470 -737 2449
478 -739 2454
484 -736 2444
489 -734 2434
499 -737 2442
506 -736 2439
514 -738 2442
519 -734 2430
527 -735 2430
533 -734 2425
541 -735 2428
548 -734 2424
554 -732 2415
561 -732 2413
569 -733 2414
574 -729 2401
583 -732 2408
591 -733 2410
597 -732 2403
604 -731 2401
612 -732 2402
619 -732 2399
624 -729 2389
634 -732 2396
640 -731 2392
645 -729 2381
652 -728 2377
659 -728 2375
668 -729 2379
674 -728 2373
683 -730 2376
686 -726 2360
695 -728 2364
703 -728 2365
711 -729 2366
717 -728 2360
727 -731 2366
729 -725 2347
736 -725 2345
743 -725 2343
751 -726 2343
759 -727 2344
766 -727 2342
774 -728 2342
783 -729 2343
788 -727 2336
794 -726 2329
801 -726 2326
811 -728 2331
816 -726 2323
824 -727 2322
832 -728 2323
837 -726 2316
844 -726 2312
852 -726 2310
862 -729 2317
866 -726 2305
875 -727 2307
883 -728 2306
888 -726 2299
894 -726 2294
904 -728 2298
911 -728 2295
917 -726 2288
925 -727 2288
930 -726 2281
937 -726 2278
947 -728 2280
952 -726 2272
963 -729 2279
968 -727 2271
975 -727 2268
982 -727 2264
988 -726 2259
997 -727 2259
1021 -740 2294
1018 -732 2268
1026 -733 2267
1013 -719 2220
1015 -715 2205
1036 -725 2233
1049 -729 2243
1055 -728 2236
1060 -727 2230
1068 -727 2228
1067 -722 2208
1026 -689 2105
934 -623 1900
901 -597 1817
893 -588 1787
893 -584 1772
905 -588 1781
910 -587 1777
917 -588 1778
923 -588 1774
929 -589 1773
937 -589 1773
940 -588 1765
945 -587 1761
953 -589 1762
961 -590 1764
957 -584 1742
965 -586 1744
974 -588 1747
986 -591 1754
985 -587 1740
988 -585 1731
992 -584 1725
1000 -586 1725
1013 -590 1735
-2017 -1103 3342
-1984 -1091 3311
-1956 -1082 3288
-1940 -1079 3287
-1922 -1075 3280
-1909 -1074 3282
-1898 -1074 3287
-1872 -1066 3268
-1859 -1065 3269
-1844 -1063 3268
-1826 -1059 3261
-1810 -1055 3256
-1796 -1054 3256
-1781 -1051 3253
-1764 -1048 3247
-1742 -1041 3231
-1727 -1039 3229
-1707 -1033 3216
-1691 -1030 3211
-1671 -1024 3198
-1660 -1024 3201
-1643 -1020 3193
-1630 -1018 3194
-1609 -1012 3178
-1598 -1011 3180
-1580 -1007 3171
-1560 -1000 3155
-1547 -999 3154
-1540 -1001 3164
-1517 -993 3144
-1500 -988 3133
-1496 -992 3150
-1477 -987 3136
-1458 -981 3122
-1448 -981 3126
-1430 -975 3112
-1417 -973 3108
-1403 -971 3105
-1390 -968 3101
-1373 -964 3090
-1357 -959 3078
-1345 -958 3077
-1335 -958 3082
-1320 -954 3073
-1310 -954 3076
-1291 -947 3059
-1280 -946 3058
-1265 -942 3048
-1256 -943 3053
-1240 -938 3042
-1234 -941 3054
-1215 -934 3034
-1204 -932 3033
-1196 -934 3040
-1178 -928 3023
-1169 -928 3028
-1153 -922 3012
-1143 -922 3014
-1132 -921 3012
-1120 -919 3011
-1105 -914 2997
-1091 -911 2988
-1080 -909 2986
-1071 -910 2990
-1060 -909 2989
-1047 -905 2980
-1034 -902 2971
-1028 -904 2983
-1008 -895 2954
-991 -888 2934
-961 -870 2875
-838 -765 2532
-785 -724 2397
-813 -757 2509
-887 -833 2763
-924 -877 2910
-923 -884 2937
-914 -884 2939
-900 -879 2925
-890 -879 2926
-881 -879 2927
-869 -876 2919
-860 -876 2921
-849 -874 2916
-839 -872 2913
-828 -870 2909
-816 -867 2901
-806 -866 2897
-794 -862 2888
-786 -863 2892
-774 -860 2882
-765 -860 2885
-755 -858 2881
-745 -857 2878
-734 -855 2873
-724 -854 2870
-716 -854 2872
-705 -851 2865
-695 -849 2861
-683 -846 2851
-677 -849 2862
-665 -845 2850
-653 -841 2839
-647 -844 2851
-635 -839 2836
-626 -839 2835
-616 -837 2832
-607 -836 2830
-598 -836 2829
-588 -833 2821
-580 -835 2827
-568 -830 2813
-559 -828 2808
-551 -829 2811
-543 -830 2815
-530 -824 2795
-523 -825 2801
-514 -825 2801
-504 -822 2792
-495 -821 2792
-485 -818 2782
-474 -815 2771
-468 -818 2783
-459 -817 2780
-449 -815 2773
-442 -817 2782
-431 -811 2763
-422 -811 2762
-415 -811 2766
-407 -812 2768
-397 -809 2761
-389 -809 2761
-381 -810 2763
-371 -806 2750
-362 -805 2748
-354 -804 2747
-345 -803 2743
-335 -800 2734
-327 -801 2737
-319 -801 2737
-310 -798 2727
-302 -798 2727
-293 -796 2722
-284 -794 2714
-277 -797 2726
-268 -794 2717
-259 -793 2712
-251 -791 2708
-243 -793 2712
-235 -793 2713
-226 -789 2702
-218 -790 2704
-209 -786 2692
-201 -785 2689
-192 -783 2682
-185 -783 2682
-177 -787 2694
-169 -784 2684
-160 -782 2678
-153 -782 2680
-144 -779 2669
-136 -781 2674
-128 -780 2673
-120 -778 2665
-112 -777 2662
-104 -774 2653
-96 -774 2652
-88 -775 2655
-80 -772 2644
-72 -772 2645
-64 -774 2652
-56 -771 2642
-48 -769 2636
-41 -769 2635
-33 -769 2633
-25 -769 2635
-17 -768 2632
-9 -766 2623
-1 -767 2626
5 -767 2627
13 -765 2619
21 -762 2608
29 -764 2616
36 -765 2618
44 -760 2602
52 -764 2614
59 -760 2600
67 -760 2602
74 -759 2595
82 -760 2601
90 -756 2584
97 -758 2591
105 -759 2594
112 -754 2578
120 -752 2569
128 -754 2576
135 -754 2574
142 -752 2568
150 -751 2563
157 -751 2564
165 -750 2560
173 -752 2565
180 -751 2562
187 -750 2557
195 -749 2554
202 -747 2547
209 -745 2540
216 -744 2534
224 -745 2538
232 -746 2539
239 -744 2533
246 -743 2530
253 -743 2527
261 -742 2523
267 -740 2516
276 -744 2528
282 -739 2510
290 -741 2517
298 -742 2520
305 -740 2511
312 -740 2509
319 -738 2503
327 -740 2510
334 -739 2504
340 -736 2492
348 -738 2498
355 -736 2491
362 -736 2490
370 -737 2491
376 -733 2476
383 -733 2477
390 -732 2473
398 -733 2474
406 -734 2477
412 -733 2471
420 -732 2469
425 -729 2458
434 -732 2464
442 -733 2466
446 -728 2448
455 -730 2455
463 -731 2456
470 -730 2451
477 -730 2449
484 -729 2445
490 -728 2440
496 -726 2432
506 -730 2444
511 -727 2432
517 -725 2424
524 -724 2422
531 -724 2417
541 -727 2428
548 -726 2423
553 -724 2414
562 -726 2418
566 -722 2405
574 -722 2403
581 -722 2402
589 -724 2405
597 -725 2406
603 -722 2397
610 -723 2396
620 -725 2403
624 -722 2391
632 -722 2390
639 -722 2388
647 -723 2388
655 -724 2391
661 -722 2382
666 -720 2373
674 -721 2375
680 -720 2369
689 -721 2372
693 -718 2360
702 -720 2363
710 -721 2366
716 -720 2360
723 -719 2355
732 -721 2359
739 -721 2355
744 -719 2348
752 -719 2347
758 -719 2343
766 -719 2342
775 -721 2345
780 -719 2337
790 -721 2342
794 -718 2330
800 -717 2324
809 -719 2329
816 -719 2326
823 -719 2323
830 -719 2319
839 -720 2321
844 -718 2313
851 -718 2310
858 -718 2307
864 -717 2301
872 -718 2301
879 -717 2298
886 -718 2296
896 -720 2300
900 -717 2289
908 -718 2289
917 -720 2292
922 -718 2282
930 -718 2281
934 -716 2272
945 -719 2278
953 -719 2276
957 -717 2268
967 -719 2270
974 -719 2267
981 -719 2265
985 -716 2253
995 -718 2256
1024 -734 2303
1005 -716 2241
1022 -722 2260
1023 -718 2244
1034 -721 2249
1037 -718 2237
1045 -719 2235
1056 -721 2240
1060 -719 2230
1068 -720 2229
1070 -716 2215
1035 -688 2125
949 -626 1931
896 -588 1809
896 -583 1794
897 -580 1782
906 -582 1785
912 -583 1784
917 -582 1778
923 -583 1777
929 -583 1775
932 -581 1766
941 -583 1769
943 -581 1760
962 -588 1780
956 -581 1756
965 -583 1759
960 -577 1736
968 -578 1736
984 -585 1753
985 -582 1742
994 -583 1744
1000 -583 1740
999 -580 1727
1002 -578 1717
-2006 -1086 3326
-1978 -1077 3305
-1955 -1070 3290
-1937 -1066 3284
-1923 -1065 3286
-1912 -1065 3291
-1893 -1060 3282
-1880 -1059 3284
-1863 -1056 3281
-1837 -1048 3258
-1827 -1049 3266
-1805 -1042 3251
-1790 -1039 3248
-1772 -1036 3241
-1747 -1027 3220
-1740 -1029 3231
-1721 -1024 3221
-1703 -1020 3212
-1688 -1017 3208
-1672 -1014 3203
-1658 -1012 3201
-1643 -1009 3196
-1629 -1007 3194
-1602 -997 3166
-1591 -997 3170
-1580 -996 3173
-1559 -990 3157
-1551 -991 3166
-1534 -987 3155
-1520 -984 3151
-1504 -981 3145
-1486 -976 3133
-1474 -974 3132
-1454 -968 3115
-1441 -966 3113
-1423 -960 3099
-1413 -960 3103
-1396 -956 3092
-1389 -958 3103
-1372 -953 3091
-1356 -948 3079
-1346 -948 3082
-1334 -947 3081
-1325 -948 3087
-1307 -942 3071
-1289 -936 3056
-1277 -935 3055
-1264 -932 3049
-1253 -931 3050
-1242 -930 3049
-1226 -925 3037
-1213 -923 3031
-1208 -926 3047
-1190 -920 3028
-1176 -916 3020
-1167 -917 3025
-1154 -914 3017
-1142 -912 3014
-1130 -910 3011
-1119 -909 3010
-1107 -907 3006
-1095 -905 3002
-1082 -901 2993
-1072 -901 2995
-1057 -897 2982
-1048 -896 2984
-1035 -893 2975
-1022 -890 2969
-1009 -887 2959
-1000 -887 2964
-978 -876 2928
-839 -758 2538
-760 -694 2324
-765 -705 2363
-823 -765 2567
-913 -858 2879
-924 -876 2942
-909 -871 2926
-899 -870 2926
-893 -872 2936
-881 -870 2929
-867 -865 2916
-857 -863 2912
-848 -863 2914
-835 -859 2902
-827 -861 2909
-819 -862 2914
-806 -857 2901
-794 -854 2891
-781 -849 2876
-773 -850 2882
-766 -852 2891
-754 -848 2880
-743 -846 2874
-733 -845 2872
-723 -843 2867
-714 -844 2870
-704 -842 2865
-693 -839 2857
-684 -838 2856
-674 -836 2850
-664 -835 2849
-654 -833 2843
-645 -832 2842
-634 -829 2833
-625 -829 2831
-617 -830 2837
-605 -825 2822
-596 -824 2821
-587 -824 2821
-577 -822 2815
-568 -822 2815
-559 -821 2814
-550 -819 2809
-540 -817 2803
-531 -816 2799
-522 -816 2801
-513 -815 2799
-504 -813 2793
-496 -814 2798
-485 -810 2786
-478 -812 2792
-469 -812 2794
-457 -806 2772
-451 -810 2787
-442 -807 2779
-432 -806 2775
-423 -804 2769
-414 -802 2765
-405 -800 2759
-396 -799 2756
-388 -799 2756
-379 -798 2754
-370 -797 2752
-362 -796 2748
-353 -794 2742
-345 -795 2745
-335 -791 2733
-326 -789 2726
-319 -791 2734
-311 -792 2737
-302 -790 2731
-294 -791 2735
-284 -786 2716
-276 -787 2721
-268 -785 2715
-259 -783 2707
-250 -782 2705
-243 -783 2711
-235 -784 2712
-226 -779 2697
-218 -779 2697
-209 -777 2690
-201 -778 2692
-193 -776 2687
-185 -777 2690
-176 -773 2678
-168 -773 2676
-160 -774 2679
-152 -771 2671
-144 -772 2675
-136 -772 2673
-128 -771 2670
-120 -769 2664
-112 -769 2664
-104 -767 2656
-96 -768 2659
-88 -765 2651
-80 -765 2648
-72 -764 2648
-64 -764 2647
-56 -762 2638
-48 -763 2642
-40 -760 2633
-33 -761 2634
-25 -759 2628
-17 -759 2627
-9 -760 2632
-1 -757 2620
5 -757 2620
13 -759 2629
21 -756 2616
29 -757 2621
36 -754 2611
44 -754 2609
52 -753 2604
59 -751 2598
67 -751 2596
75 -751 2599
82 -750 2592
90 -750 2593
97 -748 2585
105 -749 2588
113 -748 2586
120 -748 2584
127 -744 2569
135 -747 2579
142 -744 2569
150 -745 2571
157 -743 2565
164 -741 2556
173 -745 2570
180 -741 2555
187 -742 2557
194 -740 2550
202 -739 2545
209 -739 2545
217 -738 2541
224 -737 2538
231 -736 2534
238 -735 2531
246 -736 2531
253 -734 2524
260 -734 2523
269 -736 2531
274 -731 2513
282 -732 2513
290 -733 2518
297 -732 2513
305 -732 2513
312 -733 2513
318 -730 2502
326 -729 2500
334 -730 2503
340 -729 2495
348 -730 2498
354 -727 2487
363 -729 2492
369 -727 2485
375 -724 2476
383 -725 2477
390 -724 2473
399 -727 2482
404 -724 2469
412 -725 2471
420 -725 2470
426 -724 2465
434 -725 2467
442 -725 2466
448 -722 2457
455 -722 2456
461 -720 2447
469 -722 2451
475 -719 2441
484 -722 2448
490 -720 2441
498 -721 2443
503 -718 2431
509 -716 2424
518 -718 2427
525 -718 2427
532 -717 2421
539 -717 2421
547 -717 2420
554 -717 2418
561 -718 2418
567 -716 2410
575 -716 2410
583 -717 2411
590 -717 2409
596 -716 2403
604 -716 2404
610 -715 2398
618 -715 2397
625 -715 2395
630 -713 2384
638 -714 2387
644 -713 2381
652 -713 2379
658 -712 2375
666 -713 2374
672 -712 2370
679 -711 2365
687 -712 2368
692 -710 2359
699 -710 2357
708 -712 2360
713 -710 2351
722 -711 2354
730 -712 2355
736 -711 2349
744 -711 2348
751 -712 2347
758 -712 2345
766 -712 2345
773 -712 2340
780 -711 2338
782 -707 2320
792 -710 2327
800 -710 2327
809 -712 2331
812 -708 2314
821 -710 2319
829 -711 2319
838 -712 2320
844 -711 2315
849 -710 2308
857 -710 2306
864 -710 2303
870 -709 2297
877 -709 2295
888 -712 2301
891 -709 2290
903 -712 2299
908 -711 2292
916 -712 2291
924 -712 2289
931 -712 2287
937 -711 2280
944 -711 2278
952 -711 2276
959 -711 2274
965 -710 2268
967 -707 2253
979 -710 2261
986 -710 2259
991 -709 2251
980 -695 2205
1000 -705 2232
1039 -728 2301
1025 -713 2251
1035 -715 2254
1034 -709 2233
1046 -712 2240
1051 -711 2233
1063 -714 2240
1064 -710 2222
1073 -711 2224
1041 -685 2139
960 -628 1957
900 -584 1819
896 -577 1795
903 -578 1795
900 -573 1775
916 -579 1792
918 -577 1782
922 -576 1776
927 -575 1772
925 -570 1754
938 -575 1765
942 -574 1759
951 -576 1761
956 -576 1758
966 -578 1762
962 -572 1742
973 -575 1748
981 -576 1749
988 -577 1748
993 -577 1744
992 -573 1728
1002 -575 1732
1007 -575 1729
-1999 -1070 3318
-1947 -1049 3257
-1901 -1030 3203
-1878 -1023 3188
-1895 -1038 3240
-1911 -1053 3293
-1896 -1052 3292
-1881 -1049 3290
-1857 -1042 3273
-1843 -1040 3273
-1818 -1032 3253
-1805 -1031 3254
-1788 -1027 3248
-1772 -1025 3244
-1751 -1019 3230
-1729 -1012 3214
-1723 -1015 3227
-1699 -1007 3207
-1688 -1007 3212
-1668 -1001 3199
-1648 -995 3185
-1639 -996 3192
-1623 -993 3186
-1606 -989 3178
-1587 -984 3165
-1576 -983 3167
-1563 -982 3167
-1547 -978 3161
-1529 -973 3148
-1517 -972 3148
-1497 -966 3133
-1483 -964 3129
-1469 -961 3125
-1454 -958 3118
-1446 -959 3126
-1431 -956 3120
-1415 -952 3111
-1397 -947 3097
-1386 -946 3097
-1373 -944 3096
-1356 -939 3083
-1343 -937 3080
-1331 -935 3078
-1318 -933 3075
-1303 -929 3065
-1291 -928 3063
-1276 -924 3055
-1265 -923 3053
-1252 -921 3050
-1242 -920 3051
-1226 -915 3039
-1212 -912 3032
-1200 -910 3028
-1186 -908 3022
-1178 -908 3027
-1166 -906 3024
-1154 -905 3020
-1139 -901 3010
-1128 -899 3009
-1116 -897 3004
-1102 -893 2995
-1096 -896 3008
-1080 -891 2992
-1067 -888 2983
-1056 -887 2983
-1047 -887 2985
-1033 -883 2974
-1018 -877 2959
-1010 -878 2964
-995 -874 2952
-979 -867 2932
-896 -802 2712
-775 -700 2371
-757 -690 2340
-780 -718 2437
-867 -806 2734
-911 -855 2904
-909 -862 2928
-902 -864 2938
-890 -861 2931
-880 -860 2930
-867 -856 2918
-855 -853 2909
-846 -853 2911
-834 -850 2903
-823 -848 2896
-815 -848 2901
-807 -850 2908
-795 -846 2896
-783 -843 2887
-773 -841 2884
-762 -839 2879
-752 -837 2874
-743 -838 2877
-731 -834 2866
-721 -832 2861
-712 -832 2864
-705 -834 2872
-696 -833 2869
-684 -830 2858
-671 -825 2843
-664 -826 2848
-652 -823 2838
-645 -824 2845
-634 -821 2836
-626 -822 2839
-616 -820 2836
-605 -817 2825
-597 -817 2828
-588 -817 2829
-576 -812 2813
-568 -812 2814
-560 -813 2819
-550 -811 2811
-540 -808 2804
-531 -808 2804
-523 -809 2809
-512 -804 2793
-503 -804 2793
-495 -804 2795
-486 -803 2793
-475 -799 2780
-468 -802 2788
-458 -798 2778
-449 -798 2777
-441 -798 2778
-432 -796 2773
-422 -794 2767
-413 -792 2760
-405 -793 2764
-396 -791 2756
-387 -790 2754
-378 -787 2746
-370 -787 2747
-360 -785 2741
-353 -787 2747
-343 -784 2737
-335 -784 2738
-326 -782 2731
-319 -783 2735
-309 -781 2728
-301 -779 2722
-293 -781 2728
-284 -778 2719
-276 -778 2720
-268 -778 2722
-259 -777 2716
-251 -775 2712
-242 -772 2702
-234 -773 2705
-226 -772 2703
-217 -770 2694
-209 -770 2695
-201 -770 2695
-193 -768 2689
-185 -768 2688
-176 -764 2674
-169 -769 2693
-160 -764 2674
-152 -765 2678
-143 -761 2666
-136 -762 2668
-128 -763 2671
-120 -760 2662
-111 -758 2655
-104 -758 2655
-96 -760 2660
-88 -760 2660
-80 -754 2641
-72 -755 2644
-64 -756 2648
-56 -756 2648
-48 -753 2637
-40 -753 2637
-33 -753 2637
-25 -751 2628
-17 -749 2621
-9 -750 2624
-1 -749 2621
5 -749 2622
13 -746 2609
21 -746 2610
29 -747 2612
36 -746 2609
44 -742 2597
52 -744 2601
59 -745 2607
67 -743 2599
75 -742 2596
82 -740 2587
90 -741 2589
97 -741 2589
105 -741 2589
113 -740 2584
120 -738 2579
127 -737 2575
135 -736 2569
142 -737 2572
149 -733 2557
158 -738 2575
165 -734 2562
172 -734 2559
180 -735 2562
187 -733 2556
194 -732 2551
202 -730 2545
209 -729 2539
216 -728 2534
224 -729 2536
231 -728 2534
238 -726 2525
247 -730 2540
254 -728 2531
261 -727 2527
268 -726 2522
275 -726 2523
282 -724 2513
290 -726 2519
297 -725 2514
303 -722 2504
312 -725 2515
318 -721 2500
326 -722 2500
333 -721 2496
340 -720 2492
346 -719 2487
356 -723 2502
361 -719 2486
369 -719 2485
376 -719 2484
383 -718 2480
390 -718 2478
398 -718 2477
405 -718 2477
412 -717 2471
420 -717 2472
426 -715 2463
433 -715 2460
441 -716 2462
447 -714 2454
454 -714 2454
462 -714 2453
468 -713 2446
475 -712 2443
482 -711 2439
491 -713 2445
497 -713 2441
504 -712 2437
511 -711 2431
518 -711 2431
525 -710 2426
530 -707 2414
539 -710 2423
547 -710 2421
553 -709 2415
561 -710 2417
568 -709 2414
573 -707 2404
581 -707 2404
587 -707 2400
597 -709 2407
603 -708 2402
607 -704 2386
615 -705 2389
624 -707 2394
630 -705 2386
638 -707 2388
645 -706 2384
651 -705 2379
661 -708 2387
666 -706 2378
672 -704 2372
682 -707 2379
687 -704 2368
694 -704 2365
700 -704 2361
707 -703 2358
714 -703 2355
721 -703 2353
730 -705 2357
735 -703 2347
742 -703 2346
749 -702 2341
758 -704 2346
765 -703 2341
773 -704 2341
779 -703 2337
786 -703 2334
793 -703 2330
801 -703 2330
808 -704 2328
816 -704 2329
821 -702 2320
831 -705 2324
834 -701 2311
841 -701 2309
850 -703 2312
858 -703 2310
865 -703 2308
869 -701 2297
879 -703 2302
884 -702 2295
889 -699 2284
900 -703 2294
906 -702 2288
914 -703 2288
920 -702 2282
928 -702 2281
934 -701 2275
946 -705 2283
949 -702 2271
958 -703 2273
963 -702 2265
970 -702 2262
978 -702 2260
986 -703 2259
993 -703 2257
1013 -712 2283
1022 -713 2284
1022 -708 2264
1006 -692 2211
1022 -698 2227
1034 -702 2235
1044 -704 2238
1053 -705 2239
1054 -701 2222
1064 -703 2225
1067 -700 2214
1047 -682 2153
971 -628 1980
895 -575 1811
897 -572 1799
905 -574 1801
893 -563 1764
908 -569 1779
913 -568 1774
927 -573 1788
923 -567 1766
940 -574 1784
934 -567 1760
945 -570 1766
946 -567 1755
955 -569 1757
962 -570 1756
969 -571 1756
980 -574 1763
976 -568 1742
975 -564 1726
986 -567 1733
1002 -573 1748
998 -567 1727
1011 -571 1737
-1986 -1053 3301
-1897 -1011 3176
-1798 -964 3033
-1801 -971 3061
-1882 -1021 3223
-1906 -1040 3287
-1886 -1035 3277
-1866 -1030 3267
-1846 -1025 3257
-1831 -1023 3255
-1817 -1021 3254
-1799 -1017 3247
-1783 -1014 3242
-1763 -1009 3231
-1752 -1008 3235
-1730 -1002 3219
-1713 -998 3212
-1699 -997 3211
-1680 -992 3199
-1667 -990 3199
-1646 -984 3184
-1633 -982 3184
-1615 -978 3173
-1605 -978 3179
-1587 -974 3169
-1574 -972 3168
-1557 -968 3157
-1544 -966 3157
-1530 -964 3153
-1513 -960 3145
-1493 -954 3128
-1485 -955 3136
-1465 -948 3118
-1455 -948 3122
-1439 -945 3115
-1422 -940 3103
-1411 -940 3105
-1395 -935 3094
-1384 -934 3096
-1369 -931 3088
-1359 -931 3093
-1344 -928 3085
-1330 -925 3078
-1317 -923 3074
-1302 -919 3066
-1287 -915 3056
-1276 -914 3056
-1262 -911 3049
-1249 -909 3045
-1238 -908 3044
-1226 -906 3043
-1211 -902 3033
-1199 -900 3028
-1186 -897 3022
-1177 -898 3027
-1164 -895 3021
-1151 -893 3015
-1138 -890 3008
-1130 -891 3015
-1114 -886 3000
-1102 -884 2998
-1091 -883 2996
-1079 -881 2991
-1067 -878 2985
-1053 -875 2976
-1042 -873 2972
-1032 -872 2973
-1021 -871 2970
-1009 -869 2965
-998 -868 2964
-977 -857 2930
-940 -832 2848
-864 -772 2646
-771 -696 2386
-757 -689 2365
-816 -750 2575
-904 -840 2885
-909 -852 2930
-899 -852 2931
-886 -848 2920
-875 -846 2916
-866 -846 2916
-855 -844 2912
-846 -843 2912
-833 -840 2901
-825 -841 2907
-815 -839 2902
-804 -837 2897
-794 -836 2895
-784 -835 2895
-770 -829 2875
-762 -830 2881
-754 -831 2885
-743 -829 2879
-732 -826 2870
-722 -825 2868
-711 -822 2859
-703 -823 2863
-695 -824 2868
-684 -821 2861
-672 -817 2847
-663 -816 2847
-654 -816 2847
-643 -814 2841
-633 -812 2835
-624 -811 2834
-616 -811 2835
-606 -809 2831
-596 -807 2824
-585 -805 2818
-577 -805 2820
-568 -804 2815
-557 -801 2808
-549 -801 2810
-541 -802 2814
-529 -797 2796
-523 -800 2808
-512 -796 2795
-501 -793 2786
-494 -794 2790
-483 -790 2778
-475 -790 2780
-468 -792 2787
-458 -790 2781
-450 -791 2786
-439 -785 2765
-430 -785 2765
-422 -785 2765
-414 -785 2767
-405 -784 2764
-396 -782 2759
-387 -781 2754
-378 -780 2751
-370 -780 2753
-361 -779 2748
-352 -776 2739
-344 -777 2742
-336 -777 2744
-326 -774 2734
-318 -775 2736
-310 -773 2730
-301 -772 2728
-293 -771 2727
-284 -769 2717
-276 -770 2724
-266 -765 2706
-260 -769 2721
-251 -767 2715
-243 -767 2714
-234 -764 2701
-225 -762 2697
-217 -761 2693
-208 -759 2687
-200 -759 2686
-191 -755 2674
-184 -757 2681
-176 -759 2686
-167 -754 2669
-160 -757 2680
-152 -758 2684
-144 -757 2680
-136 -756 2676
-128 -753 2667
-119 -751 2659
-112 -752 2662
-103 -750 2655
-96 -750 2657
-87 -748 2648
-80 -748 2648
-72 -748 2649
-64 -748 2649
-56 -747 2645
-48 -745 2638
-40 -743 2631
-32 -743 2631
-25 -744 2633
-17 -743 2631
-9 -742 2626
-1 -741 2623
5 -740 2620
13 -739 2616
21 -740 2617
29 -738 2610
36 -736 2602
44 -736 2604
52 -737 2606
59 -734 2598
67 -733 2593
74 -733 2591
82 -731 2584
90 -732 2588
97 -732 2585
105 -731 2583
112 -729 2576
120 -729 2576
127 -730 2577
135 -727 2566
142 -725 2559
150 -729 2572
157 -726 2562
164 -724 2554
173 -728 2566
179 -723 2549
187 -724 2553
194 -723 2549
202 -723 2546
210 -724 2551
216 -721 2538
224 -722 2543
231 -721 2536
238 -718 2525
246 -719 2530
253 -718 2524
261 -720 2529
267 -717 2518
276 -719 2525
281 -715 2510
289 -716 2512
296 -714 2504
304 -715 2507
312 -716 2511
318 -713 2499
325 -713 2497
334 -716 2508
340 -713 2495
347 -711 2489
354 -712 2491
362 -713 2494
368 -710 2483
376 -711 2484
383 -710 2479
390 -710 2479
397 -710 2476
404 -709 2471
412 -709 2471
419 -709 2472
426 -708 2464
434 -708 2466
439 -706 2455
447 -706 2453
454 -706 2455
458 -700 2433
470 -707 2455
476 -706 2450
483 -705 2444
490 -705 2442
495 -702 2432
505 -706 2442
510 -703 2432
516 -701 2423
525 -703 2430
532 -703 2426
539 -702 2424
545 -700 2415
553 -701 2417
559 -700 2412
566 -700 2409
573 -700 2407
582 -701 2411
589 -701 2408
596 -700 2404
602 -700 2400
607 -697 2390
617 -700 2397
621 -697 2384
631 -700 2393
637 -698 2387
644 -697 2381
650 -696 2377
657 -696 2374
667 -699 2381
672 -697 2372
679 -696 2368
687 -698 2372
691 -694 2357
700 -696 2361
707 -696 2360
714 -696 2358
724 -699 2364
726 -693 2345
736 -697 2354
742 -695 2348
746 -692 2335
755 -694 2338
764 -695 2340
770 -694 2335
779 -696 2338
783 -694 2328
792 -695 2330
800 -696 2330
806 -694 2323
814 -695 2323
819 -694 2316
828 -695 2319
835 -695 2316
842 -695 2313
849 -695 2310
857 -695 2309
866 -697 2313
872 -696 2306
877 -694 2298
887 -697 2304
893 -696 2298
901 -696 2297
908 -696 2296
913 -695 2286
924 -698 2294
930 -696 2287
939 -698 2289
944 -697 2282
947 -693 2269
958 -696 2275
961 -693 2263
967 -692 2257
979 -696 2265
984 -694 2256
1013 -710 2304
969 -674 2185
1006 -694 2249
1021 -700 2263
1016 -692 2235
1022 -691 2229
1032 -693 2232
1043 -696 2238
1050 -695 2233
1059 -696 2233
1064 -695 2226
1071 -695 2223
1052 -678 2166
977 -626 1995
906 -576 1833
898 -567 1804
903 -567 1799
902 -562 1781
907 -562 1778
918 -565 1785
909 -556 1755
929 -565 1778
933 -564 1772
942 -566 1776
948 -566 1774
957 -568 1777
951 -561 1752
961 -563 1757
973 -567 1765
969 -561 1744
975 -561 1741
990 -567 1755
986 -561 1735
992 -561 1732
999 -562 1731
1000 -559 1719
-1975 -1036 3286
-1837 -969 3078
-1729 -917 2920
-1762 -940 2996
-1883 -1010 3226
-1899 -1025 3278
-1881 -1021 3272
-1867 -1020 3273
-1850 -1016 3266
-1831 -1012 3258
-1815 -1009 3254
-1797 -1005 3247
-1778 -1000 3237
-1765 -999 3238
-1752 -998 3238
-1728 -990 3219
-1712 -987 3214
-1692 -982 3201
-1682 -983 3207
-1665 -978 3198
-1652 -977 3200
-1632 -971 3185
-1619 -970 3183
-1595 -962 3162
-1589 -965 3176
-1573 -961 3168
-1556 -957 3159
-1541 -954 3153
-1526 -951 3149
-1511 -948 3141
-1493 -944 3131
-1484 -944 3137
-1469 -941 3130
-1454 -938 3124
-1435 -932 3109
-1426 -933 3115
-1413 -931 3112
-1393 -924 3093
-1383 -924 3096
-1369 -922 3092
-1352 -916 3079
-1340 -915 3078
-1328 -913 3075
-1315 -911 3072
-1303 -910 3071
-1290 -908 3066
-1269 -900 3043
-1263 -902 3054
-1249 -899 3047
-1238 -898 3048
-1226 -896 3044
-1213 -894 3038
-1197 -889 3026
-1186 -888 3026
-1174 -886 3023
-1160 -883 3013
-1147 -880 3008
-1137 -880 3010
-1123 -876 2999
-1114 -877 3005
-1104 -877 3006
-1093 -875 3003
-1079 -872 2994
-1064 -867 2980
-1055 -867 2984
-1041 -863 2973
-1033 -865 2980
-1020 -861 2972
-1010 -860 2969
-995 -856 2957
-983 -853 2949
-965 -845 2926
-927 -820 2839
-831 -742 2573
-770 -694 2407
-809 -736 2557
-891 -819 2844
-909 -844 2933
-900 -843 2935
-886 -839 2923
-876 -838 2921
-863 -834 2909
-857 -837 2921
-842 -831 2902
-833 -831 2904
-822 -829 2897
-814 -829 2902
-803 -827 2895
-789 -822 2879
-783 -825 2892
-772 -823 2886
-762 -821 2881
-751 -819 2877
-743 -820 2880
-731 -816 2870
-721 -815 2865
-710 -813 2859
-700 -811 2854
-691 -811 2857
-683 -812 2860
-673 -810 2856
-662 -806 2844
-654 -807 2849
-643 -804 2840
-633 -802 2835
-624 -803 2837
-615 -801 2833
-604 -798 2824
-597 -800 2831
-585 -796 2818
-577 -796 2820
-567 -794 2814
-558 -794 2813
-550 -794 2815
-541 -794 2816
-530 -790 2804
-521 -789 2801
-513 -789 2803
-503 -787 2795
-493 -784 2787
-486 -786 2795
-476 -784 2787
-465 -780 2775
-457 -781 2778
-449 -781 2781
-439 -778 2771
-431 -778 2772
-420 -774 2758
-412 -774 2759
-403 -773 2756
-394 -771 2750
-386 -772 2753
-377 -769 2745
-368 -768 2742
-361 -771 2751
-351 -767 2737
-342 -765 2731
-335 -767 2738
-326 -765 2733
-317 -763 2727
-309 -764 2729
-301 -763 2728
-292 -763 2726
-284 -761 2722
-275 -760 2717
-268 -761 2722
-258 -757 2708
-250 -756 2706
-241 -755 2700
-234 -756 2704
-225 -755 2702
-217 -753 2694
-208 -752 2691
-200 -750 2684
-192 -751 2688
-185 -752 2694
-175 -747 2675
-168 -749 2683
-160 -749 2681
-152 -748 2678
-143 -746 2671
-135 -743 2662
-128 -745 2668
-119 -743 2661
-111 -743 2660
-103 -742 2656
-96 -743 2661
-88 -742 2658
-80 -740 2650
-71 -737 2638
-64 -739 2646
-56 -738 2643
-48 -735 2631
-40 -737 2638
-32 -734 2630
-25 -736 2634
-17 -733 2624
-9 -733 2625
-1 -731 2618
6 -733 2624
13 -732 2620
21 -733 2624
29 -730 2611
36 -727 2600
44 -728 2605
52 -729 2607
59 -728 2603
67 -726 2596
74 -724 2589
82 -723 2586
90 -724 2587
97 -722 2581
105 -723 2584
112 -722 2580
119 -720 2571
127 -719 2567
135 -720 2569
142 -719 2566
150 -720 2568
157 -718 2561
165 -718 2562
172 -718 2560
180 -720 2567
187 -716 2551
194 -716 2550
202 -715 2546
209 -714 2544
216 -713 2540
223 -711 2531
231 -713 2537
238 -711 2530
245 -711 2529
253 -710 2525
260 -709 2521
266 -706 2510
275 -709 2518
282 -709 2518
289 -708 2514
296 -706 2507
304 -708 2511
311 -707 2506
318 -706 2502
325 -706 2502
332 -704 2493
340 -705 2497
348 -706 2499
352 -701 2478
361 -703 2486
368 -702 2483
377 -705 2489
382 -700 2474
390 -701 2476
398 -703 2480
404 -701 2471
411 -700 2468
418 -700 2467
424 -697 2456
433 -700 2465
439 -699 2457
448 -701 2464
454 -698 2452
461 -698 2452
468 -697 2446
475 -697 2444
482 -697 2443
489 -697 2441
496 -695 2435
502 -694 2429
512 -697 2438
519 -697 2438
525 -696 2432
528 -689 2408
538 -693 2420
546 -694 2421
552 -693 2416
559 -693 2413
566 -693 2411
575 -694 2415
580 -692 2406
588 -693 2407
595 -692 2403
602 -692 2400
606 -689 2388
616 -691 2395
622 -690 2389
630 -691 2388
637 -691 2388
643 -690 2382
651 -691 2383
658 -690 2381
665 -690 2378
671 -689 2372
679 -689 2372
683 -687 2360
692 -688 2364
700 -688 2362
706 -688 2358
713 -688 2356
721 -688 2356
727 -687 2351
736 -688 2352
743 -688 2350
749 -687 2344
757 -688 2344
760 -685 2331
768 -685 2331
776 -687 2333
781 -684 2323
790 -686 2327
799 -687 2329
806 -687 2325
811 -686 2319
822 -689 2326
829 -689 2325
836 -688 2320
842 -687 2315
850 -688 2315
855 -686 2306
863 -687 2307
868 -686 2299
875 -685 2295
884 -687 2298
893 -689 2301
896 -685 2287
907 -688 2294
914 -688 2291
921 -688 2287
929 -688 2286
933 -686 2275
942 -688 2278
948 -687 2273
958 -689 2277
965 -689 2274
971 -688 2267
974 -685 2256
983 -686 2256
990 -686 2253
985 -678 2223
1016 -694 2273
1010 -685 2242
1008 -679 2219
1021 -683 2227
1030 -685 2230
1042 -687 2236
1049 -687 2233
1057 -688 2233
1065 -689 2231
1068 -686 2219
1057 -674 2178
989 -627 2022
911 -573 1845
897 -561 1802
895 -556 1784
909 -561 1799
908 -557 1781
917 -559 1786
913 -553 1763
928 -558 1778
929 -555 1767
937 -557 1767
946 -559 1772
941 -552 1747
950 -554 1750
952 -552 1742
955 -551 1734
968 -555 1745
983 -560 1757
986 -558 1749
984 -554 1732
989 -554 1728
993 -553 1723
1008 -558 1734
-1838 -953 3060
-1740 -908 2919
-1684 -883 2845
-1733 -914 2950
-1801 -956 3090
-1833 -979 3168
-1842 -989 3207
-1857 -1003 3258
-1819 -988 3215
-1782 -974 3174
-1780 -979 3195
-1794 -993 3245
-1778 -990 3240
-1755 -983 3223
-1741 -981 3221
-1723 -977 3212
-1710 -975 3212
-1695 -973 3210
-1683 -972 3212
-1663 -967 3197
-1647 -964 3191
-1632 -961 3187
-1611 -955 3171
-1601 -955 3177
-1586 -952 3171
-1562 -944 3150
-1559 -948 3167
-1540 -943 3154
-1520 -937 3139
-1509 -937 3142
-1490 -931 3127
-1480 -931 3131
-1464 -928 3123
-1450 -926 3119
-1437 -924 3117
-1420 -919 3104
-1408 -917 3103
-1395 -915 3100
-1382 -914 3098
-1367 -910 3090
-1353 -907 3083
-1340 -905 3080
-1326 -903 3074
-1310 -898 3064
-1302 -900 3072
-1286 -895 3059
-1277 -896 3066
-1262 -892 3054
-1246 -888 3044
-1235 -887 3044
-1224 -885 3042
-1207 -880 3028
-1194 -878 3022
-1186 -879 3029
-1173 -876 3022
-1161 -875 3020
-1144 -869 3003
-1136 -870 3009
-1126 -870 3012
-1111 -865 2997
-1100 -863 2995
-1089 -862 2994
-1079 -862 2996
-1063 -857 2980
-1055 -857 2985
-1042 -855 2979
-1030 -852 2972
-1019 -851 2971
-1010 -851 2972
-996 -847 2960
-986 -846 2960
-973 -843 2952
-951 -832 2916
-917 -809 2839
-865 -771 2706
-816 -735 2580
-859 -781 2746
-900 -827 2908
-898 -833 2931
-887 -831 2926
-877 -830 2925
-865 -827 2917
-854 -826 2914
-839 -819 2894
-830 -819 2896
-822 -820 2899
-810 -817 2891
-802 -817 2894
-791 -816 2889
-780 -813 2882
-773 -815 2891
-764 -815 2891
-750 -810 2876
-745 -813 2889
-731 -807 2870
-722 -808 2873
-712 -806 2870
-699 -801 2852
-693 -805 2867
-682 -802 2857
-673 -802 2859
-661 -798 2846
-651 -796 2840
-645 -798 2851
-632 -794 2836
-624 -794 2837
-614 -793 2835
-605 -791 2830
-594 -788 2819
-585 -787 2819
-575 -786 2816
-565 -783 2808
-556 -783 2807
-548 -783 2809
-538 -781 2802
-529 -779 2798
-520 -780 2800
-511 -779 2797
-501 -776 2787
-493 -776 2791
-484 -776 2791
-474 -773 2782
-463 -768 2764
-458 -775 2788
-447 -770 2771
-439 -770 2773
-430 -769 2770
-422 -768 2768
-412 -766 2761
-404 -766 2761
-396 -766 2762
-386 -764 2756
-376 -760 2742
-369 -763 2752
-360 -760 2743
-352 -760 2744
-344 -760 2745
-333 -754 2725
-326 -758 2739
-317 -756 2733
-310 -757 2736
-300 -754 2727
-291 -752 2718
-284 -753 2721
-274 -749 2710
-266 -750 2711
-258 -750 2713
-250 -749 2711
-242 -748 2707
-234 -748 2706
-225 -746 2699
-217 -745 2695
-208 -743 2688
-200 -741 2684
-192 -741 2682
-183 -740 2679
-175 -740 2678
-168 -740 2681
-160 -740 2678
-151 -738 2671
-143 -738 2672
-135 -736 2667
-127 -736 2666
-119 -736 2667
-111 -736 2664
-103 -733 2654
-96 -735 2661
-87 -730 2645
-79 -731 2648
-72 -732 2651
-64 -729 2640
-56 -730 2644
-48 -729 2639
-40 -727 2634
-32 -724 2622
-25 -727 2632
-17 -727 2631
-9 -726 2627
-1 -721 2609
6 -724 2622
13 -723 2616
21 -722 2613
29 -719 2602
36 -720 2607
44 -718 2596
52 -721 2607
59 -721 2606
67 -716 2588
74 -717 2593
82 -715 2587
90 -717 2593
97 -715 2586
104 -712 2574
112 -715 2582
120 -714 2578
127 -713 2576
135 -712 2569
142 -710 2563
150 -711 2565
157 -712 2569
164 -709 2557
172 -709 2557
180 -710 2559
187 -708 2552
194 -707 2548
202 -707 2548
209 -707 2546
216 -703 2533
223 -703 2533
231 -704 2533
239 -706 2541
246 -704 2531
253 -704 2532
259 -701 2518
268 -703 2526
275 -702 2521
282 -702 2522
289 -701 2517
296 -698 2504
304 -701 2513
310 -696 2496
318 -698 2502
325 -698 2501
333 -699 2503
341 -699 2503
346 -696 2490
354 -697 2492
360 -693 2478
368 -694 2482
374 -691 2470
382 -694 2478
390 -694 2478
397 -693 2474
404 -692 2469
411 -693 2469
419 -693 2470
426 -694 2470
431 -690 2456
439 -690 2455
448 -692 2462
453 -690 2452
461 -691 2454
468 -690 2451
475 -689 2444
483 -691 2450
487 -686 2433
495 -687 2433
502 -686 2429
510 -687 2433
516 -686 2427
523 -685 2421
530 -686 2422
539 -687 2426
544 -685 2415
551 -685 2413
559 -685 2414
564 -683 2404
574 -685 2411
580 -684 2405
587 -684 2402
595 -685 2404
601 -683 2397
609 -684 2399
616 -684 2395
622 -683 2391
631 -685 2397
637 -683 2388
644 -683 2386
650 -682 2379
656 -681 2376
665 -683 2380
672 -682 2374
680 -684 2378
684 -680 2363
691 -680 2360
700 -681 2364
706 -680 2358
710 -677 2346
721 -681 2357
728 -681 2356
734 -680 2349
742 -681 2351
747 -679 2341
755 -680 2342
764 -681 2344
769 -679 2337
777 -680 2336
785 -680 2336
792 -680 2332
799 -681 2332
808 -682 2335
812 -679 2323
819 -679 2321
825 -678 2315
833 -678 2313
840 -678 2310
848 -679 2310
856 -680 2312
863 -680 2308
867 -678 2298
876 -679 2299
883 -679 2297
890 -679 2294
897 -679 2292
902 -677 2283
909 -677 2281
919 -679 2284
928 -680 2286
935 -681 2284
940 -679 2275
948 -679 2274
951 -677 2262
962 -680 2269
972 -681 2271
977 -679 2263
980 -677 2252
1012 -694 2305
984 -670 2222
994 -672 2227
1009 -677 2240
1028 -685 2264
1019 -675 2226
1033 -679 2238
1041 -680 2237
1049 -681 2236
1056 -680 2232
1062 -679 2226
1070 -680 2224
1067 -673 2200
1005 -630 2055
911 -567 1847
886 -548 1782
891 -548 1778
897 -547 1775
903 -548 1774
917 -553 1787
912 -546 1762
926 -551 1777
931 -551 1771
935 -550 1766
941 -550 1764
950 -552 1766
952 -550 1757
957 -549 1752
963 -550 1750
963 -546 1736
976 -550 1746
986 -553 1751
989 -551 1743
987 -547 1726
997 -549 1730
1003 -549 1728
-1677 -861 2795
-1647 -850 2766
-1637 -850 2769
-1664 -869 2836
-1688 -886 2899
-1706 -901 2951
-1739 -924 3031
-1752 -936 3077
-1725 -927 3051
-1712 -926 3052
-1746 -950 3136
-1779 -974 3220
-1769 -974 3227
-1754 -972 3224
-1739 -969 3220
-1722 -966 3214
-1709 -964 3213
-1697 -964 3216
-1673 -956 3195
-1661 -955 3197
-1638 -948 3177
-1629 -949 3184
-1617 -948 3186
-1595 -941 3167
-1583 -940 3169
-1570 -938 3167
-1551 -934 3155
-1539 -932 3155
-1519 -926 3139
-1503 -923 3132
-1491 -922 3131
-1477 -920 3128
-1461 -916 3118
-1447 -913 3115
-1433 -911 3109
-1421 -910 3110
-1406 -907 3103
-1393 -905 3100
-1378 -901 3091
-1366 -900 3090
-1350 -896 3081
-1335 -892 3072
-1328 -894 3081
-1311 -889 3069
-1299 -888 3066
-1289 -888 3069
-1271 -882 3053
-1260 -881 3053
-1249 -880 3054
-1236 -877 3047
-1223 -875 3043
-1207 -871 3030
-1197 -870 3031
-1181 -866 3018
-1176 -869 3033
