VERSION 0.7
FIELDS x y z
SIZE 4 4 4
TYPE I I I
COUNT 1 1 1
WIDTH 3784
HEIGHT 1
VIEWPOINT 0.0 0.0 0.0 1.0 0.0 0.0 0.0
POINTS 3784
DATA ascii
70 42 1665
75 42 1665
82 43 1714
89 44 1752
96 45 1793
101 45 1790
106 45 1790
114 46 1834
121 46 1868
126 46 1857
130 45 1834
142 48 1934
150 48 1959
164 51 2061
173 52 2107
183 53 2147
193 54 2188
199 54 2191
205 54 2188
211 53 2178
217 53 2180
224 54 2188
229 53 2170
236 53 2175
236 52 2123
228 49 1999
228 48 1945
229 47 1909
230 46 1866
235 46 1867
238 45 1848
243 45 1844
250 45 1852
260 46 1883
262 45 1860
261 44 1814
273 45 1858
273 44 1824
280 45 1833
283 44 1817
297 46 1872
297 45 1837
299 44 1819
301 44 1799
320 46 1878
311 44 1795
324 45 1837
327 44 1824
333 44 1829
338 44 1826
334 43 1775
343 43 1796
345 43 1776
365 45 1851
353 43 1760
358 43 1762
370 43 1794
368 42 1757
385 44 1814
375 42 1739
385 43 1763
391 43 1768
401 43 1786
412 44 1814
411 43 1783
404 42 1731
414 42 1751
417 42 1738
430 43 1771
423 41 1720
431 42 1732
445 42 1764
435 41 1704
443 41 1718
448 41 1714
454 41 1717
469 42 1752
475 42 1755
481 42 1759
489 42 1766
489 42 1746
501 42 1771
507 42 1770
521 43 1802
528 43 1806
545 44 1842
552 44 1846
553 44 1831
558 44 1827
540 42 1750
579 44 1858
573 43 1819
565 42 1775
572 43 1779
550 41 1694
531 39 1619
511 37 1543
521 37 1556
518 37 1532
510 36 1493
498 35 1445
495 34 1422
500 34 1423
509 35 1435
542 36 1514
566 38 1568
571 38 1566
577 38 1570
584 38 1575
634 41 1695
637 40 1688
625 39 1639
658 41 1711
635 39 1637
641 39 1638
650 39 1646
657 39 1649
679 40 1690
694 41 1713
713 42 1746
743 43 1805
798 46 1922
850 48 2032
890 50 2109
922 52 2167
916 51 2135
928 51 2144
943 51 2162
951 52 2163
905 49 2042
913 49 2043
946 50 2098
974 51 2144
976 51 2132
989 51 2142
1020 52 2194
981 50 2091
826 42 1746
850 43 1782
983 49 2048
1012 50 2091
902 44 1848
873 43 1774
880 43 1775
885 43 1771
892 43 1772
897 43 1768
901 42 1762
911 43 1769
913 42 1759
922 43 1763
924 42 1754
930 42 1752
938 42 1755
947 42 1758
954 42 1757
953 42 1743
959 42 1741
964 42 1736
965 42 1726
-1299 80 2267
-1300 81 2284
-1287 80 2278
-1260 79 2247
-1259 79 2261
-1251 79 2265
-1240 79 2261
-1223 78 2246
-1198 77 2218
-1202 78 2240
-1191 77 2236
-1172 77 2217
-1161 76 2214
-1155 76 2220
-1142 76 2211
-1124 75 2191
-1131 76 2223
-1107 75 2192
-1100 75 2194
-1085 74 2181
-1087 75 2202
-1067 74 2180
-1065 74 2192
-1049 73 2175
-1044 73 2182
-1029 73 2168
-1023 73 2171
-1011 72 2163
-998 72 2152
-991 72 2155
-978 71 2143
-970 71 2143
-962 71 2143
-974 72 2186
-971 73 2198
-894 67 2040
-823 63 1894
-810 62 1880
-805 62 1883
-801 62 1889
-794 62 1888
-789 62 1892
-779 62 1885
-772 61 1883
-768 62 1890
-759 61 1884
-757 61 1894
-749 61 1892
-739 61 1884
-736 61 1892
-732 61 1897
-725 61 1896
-716 61 1890
-714 61 1900
-709 61 1904
-724 63 1961
-745 65 2037
-747 66 2061
-758 67 2113
-782 70 2200
-860 77 2440
-870 79 2492
-875 80 2531
-868 80 2533
-863 80 2544
-857 80 2552
-855 80 2569
-850 81 2579
-844 81 2585
-842 81 2606
-836 81 2614
-829 81 2617
-826 82 2635
-820 82 2644
-812 82 2646
-813 83 2675
-803 82 2671
-795 82 2673
-762 80 2587
-723 76 2482
-709 76 2460
-709 76 2488
-707 77 2508
-705 77 2530
-724 80 2628
-745 83 2733
-745 84 2764
-733 84 2751
-719 83 2732
-712 83 2737
-703 83 2736
-692 83 2727
-682 82 2717
-674 82 2721
-664 82 2715
-639 80 2643
-562 71 2356
-506 65 2149
-495 64 2130
-486 64 2122
-476 63 2104
-465 63 2083
-453 62 2058
-448 62 2061
-440 62 2057
-442 63 2094
-434 62 2084
-424 62 2067
-416 61 2060
-413 62 2075
-408 62 2079
-406 62 2103
-402 63 2114
-397 63 2124
-390 63 2118
-382 62 2110
-380 63 2130
-373 63 2128
-363 62 2105
-352 61 2079
-348 62 2094
-335 60 2048
-321 59 2002
-313 58 1989
-306 58 1983
-299 58 1974
-285 56 1921
-282 57 1938
-279 57 1957
-268 56 1919
-271 58 1978
-260 57 1938
-248 55 1896
-246 56 1920
-230 54 1842
-226 54 1849
-211 51 1770
-215 54 1852
-202 52 1787
-196 51 1773
-193 52 1791
-189 52 1806
-171 49 1685
-175 51 1767
-170 51 1770
-161 50 1731
-159 51 1761
-152 50 1744
-147 50 1751
-146 51 1789
-146 54 1864
-138 53 1830
-132 52 1810
-125 51 1784
-116 50 1730
-107 48 1680
-101 48 1663
-96 47 1649
-90 47 1637
-86 47 1644
-79 46 1593
-74 46 1599
-71 47 1634
-62 44 1530
-60 45 1575
-57 46 1631
-53 47 1645
-50 48 1701
-44 47 1660
-39 47 1669
-34 46 1629
-29 46 1641
-25 48 1691
-20 47 1650
-16 49 1728
-10 46 1638
-6 50 1757
-1 47 1657
3 47 1667
8 47 1682
13 48 1693
17 46 1648
22 47 1656
27 46 1637
31 46 1621
36 46 1632
42 47 1678
45 45 1611
50 46 1648
54 45 1605
59 45 1624
64 46 1631
71 47 1679
74 46 1635
79 46 1652
86 47 1697
91 47 1705
97 48 1714
98 46 1648
105 47 1691
113 48 1734
126 52 1861
131 51 1854
134 50 1814
147 53 1913
153 53 1931
164 55 1996
175 57 2059
189 59 2152
198 60 2177
204 60 2178
211 60 2177
217 60 2180
223 60 2176
229 59 2169
235 59 2166
237 58 2133
235 56 2054
228 53 1940
228 52 1894
233 52 1893
241 52 1909
246 52 1907
249 52 1885
251 51 1862
256 51 1857
259 50 1836
263 50 1828
271 50 1849
272 50 1817
283 51 1852
286 50 1839
294 51 1856
292 49 1810
297 49 1807
309 50 1847
306 49 1795
304 48 1756
331 51 1878
329 50 1838
331 49 1817
334 49 1804
333 48 1771
348 49 1822
344 48 1769
365 50 1849
347 47 1731
349 47 1718
366 48 1773
370 48 1767
377 48 1778
377 47 1752
388 48 1779
393 48 1775
388 47 1728
406 48 1786
412 48 1786
423 49 1811
418 48 1766
429 48 1791
429 48 1767
431 47 1752
433 47 1737
451 48 1791
440 47 1726
446 47 1728
444 46 1699
459 47 1735
465 47 1737
473 47 1748
473 47 1727
479 47 1730
481 46 1718
496 47 1750
503 47 1756
497 46 1716
519 48 1773
527 48 1782
536 48 1794
551 49 1825
557 49 1826
560 49 1817
563 49 1807
573 49 1820
575 49 1806
563 47 1753
554 46 1706
531 44 1619
511 42 1541
507 41 1513
500 40 1479
512 41 1500
501 39 1455
493 38 1417
500 39 1424
525 40 1480
530 40 1481
558 42 1546
566 42 1554
567 42 1542
594 43 1601
631 45 1685
629 45 1665
624 44 1638
638 45 1660
627 44 1616
650 45 1662
652 45 1652
656 45 1648
659 44 1642
680 45 1678
689 46 1687
707 46 1717
741 48 1785
784 50 1872
832 53 1971
889 56 2088
897 56 2091
914 57 2112
941 58 2156
946 58 2152
892 54 2011
885 53 1979
949 57 2105
967 57 2129
962 57 2100
978 57 2119
1001 58 2151
919 53 1958
816 47 1725
836 48 1753
978 55 2036
1005 56 2077
902 50 1848
875 48 1779
881 48 1776
890 48 1781
894 48 1776
897 48 1767
904 48 1769
909 48 1765
913 48 1759
918 48 1755
925 48 1755
932 48 1756
938 48 1754
940 48 1745
949 48 1748
956 48 1748
955 48 1733
964 48 1736
968 48 1732
-1305 88 2276
-1294 88 2273
-1286 87 2277
-1275 87 2274
-1259 87 2262
-1255 87 2271
-1250 87 2279
-1230 86 2259
-1210 85 2240
-1209 85 2254
-1196 85 2246
-1179 84 2230
-1178 85 2246
-1171 84 2249
-1150 83 2225
-1141 83 2225
-1129 83 2220
-1120 83 2218
-1117 83 2228
-1101 82 2214
-1087 82 2202
-1083 82 2212
-1065 81 2191
-1053 80 2184
-1052 81 2198
-1039 80 2189
-1029 80 2185
-1014 79 2171
-1010 80 2179
-1003 79 2181
-997 80 2186
-967 78 2136
-966 78 2152
-973 79 2184
-964 79 2183
-888 73 2026
-827 69 1903
-808 68 1875
-804 68 1882
-806 68 1901
-795 68 1890
-789 68 1893
-784 68 1897
-775 67 1892
-769 67 1893
-758 67 1881
-755 67 1889
-749 67 1892
-741 67 1888
-739 67 1900
-730 67 1892
-722 66 1887
-719 67 1896
-713 67 1898
-705 66 1893
-712 68 1931
-736 70 2013
-751 72 2074
-754 73 2100
-789 77 2219
-859 84 2438
-874 86 2502
-870 87 2517
-870 87 2539
-860 87 2534
-858 88 2552
-852 88 2561
-848 88 2574
-844 88 2587
-839 89 2598
-834 89 2608
-832 90 2628
-824 89 2627
-823 90 2652
-814 90 2650
-811 90 2668
-804 90 2674
-793 90 2665
-759 87 2579
-718 83 2465
-711 83 2469
-709 84 2488
-705 84 2503
-709 85 2545
-728 89 2642
-748 92 2744
-746 93 2770
-733 92 2752
-710 90 2699
-702 90 2699
-697 90 2713
-684 90 2696
-673 89 2681
-660 88 2664
-642 87 2623
-617 85 2556
-546 76 2291
-508 71 2158
-492 70 2116
-484 70 2113
-472 69 2088
-461 68 2065
-449 67 2041
-447 68 2059
-447 69 2088
-441 69 2087
-422 67 2030
-412 66 2008
-406 66 2010
-399 66 2004
-396 66 2019
-390 66 2018
-387 66 2035
-385 67 2059
-383 68 2080
-379 68 2092
-378 69 2122
-367 68 2094
-357 67 2075
-348 67 2057
-335 65 2013
-324 64 1987
-315 64 1966
-312 64 1980
-315 66 2039
-292 62 1927
-288 62 1937
-283 63 1946
-277 62 1940
-280 64 2000
-261 61 1908
-269 64 2007
-261 64 1990
-241 60 1885
-227 58 1818
-222 58 1819
-210 56 1763
-209 57 1798
-197 56 1741
-194 56 1759
-187 55 1739
-187 57 1788
-174 54 1709
-166 54 1681
-164 55 1715
-161 55 1732
-153 54 1705
-149 54 1710
-142 54 1693
-144 56 1770
-145 58 1842
-140 58 1851
-132 57 1813
-124 56 1776
-116 55 1738
-108 53 1693
-101 52 1662
-97 52 1666
-91 52 1652
-82 50 1579
-80 51 1616
-74 50 1595
-68 49 1569
-65 50 1598
-63 52 1657
-57 51 1620
-52 51 1612
-48 51 1641
-44 52 1671
-38 51 1635
-34 52 1655
-28 50 1603
-25 52 1654
-20 51 1635
-15 51 1647
-9 48 1538
-6 52 1660
-1 52 1666
3 52 1673
8 52 1660
12 50 1625
16 48 1560
22 52 1680
27 52 1666
31 49 1597
35 50 1601
41 50 1628
45 50 1624
50 51 1636
54 50 1614
60 51 1655
62 49 1572
69 50 1631
77 52 1703
80 51 1661
88 53 1734
88 50 1637
94 51 1659
93 48 1558
105 52 1692
108 51 1659
117 53 1716
129 56 1818
135 56 1834
144 57 1878
150 57 1881
159 59 1928
169 60 1982
182 63 2062
192 64 2115
201 65 2141
210 66 2167
216 66 2164
220 65 2145
227 65 2150
240 67 2216
240 65 2157
241 64 2105
233 60 1985
233 59 1941
233 57 1892
234 56 1853
245 58 1900
246 56 1866
254 57 1879
259 57 1875
255 55 1808
266 56 1847
266 55 1816
274 55 1833
283 56 1855
285 55 1831
296 56 1866
300 56 1858
303 56 1845
307 55 1832
309 55 1811
311 54 1796
334 57 1892
314 53 1749
331 55 1819
332 54 1794
336 54 1783
349 55 1826
341 53 1757
356 54 1807
344 52 1718
356 53 1752
370 54 1794
369 53 1761
382 54 1799
387 54 1798
384 53 1758
400 54 1805
402 54 1792
391 52 1718
411 53 1783
399 51 1707
419 53 1769
419 52 1748
425 53 1752
421 51 1712
442 53 1774
439 52 1743
446 52 1747
467 54 1808
450 52 1722
451 51 1706
470 53 1756
470 52 1737
478 52 1748
477 52 1723
486 52 1736
484 51 1709
487 51 1699
492 51 1698
499 51 1705
522 53 1765
507 51 1694
517 51 1711
541 53 1772
542 53 1758
542 52 1738
534 51 1696
562 53 1766
550 51 1712
550 51 1692
521 48 1588
515 47 1555
498 45 1486
507 45 1499
516 45 1511
506 44 1469
493 43 1415
499 43 1419
525 45 1481
536 45 1498
559 47 1549
558 46 1532
565 46 1536
587 48 1582
628 50 1679
630 50 1669
635 50 1667
639 50 1663
642 50 1656
652 50 1665
659 50 1669
679 51 1705
666 50 1658
675 50 1667
688 51 1683
699 51 1697
719 52 1729
743 53 1773
776 55 1838
848 60 1992
897 63 2091
915 63 2115
944 65 2165
943 64 2144
875 59 1972
909 61 2033
945 63 2096
978 65 2153
977 64 2133
986 64 2136
932 60 2001
872 56 1857
811 52 1714
830 53 1740
972 61 2024
1000 62 2067
883 55 1810
871 54 1770
881 54 1776
882 54 1766
893 54 1773
898 54 1770
904 54 1769
912 54 1770
913 54 1759
916 53 1752
926 54 1758
932 54 1755
943 54 1762
939 53 1743
948 53 1746
954 53 1744
956 53 1735
963 53 1734
968 53 1730
-1309 96 2283
-1299 95 2283
-1296 96 2293
-1276 95 2275
-1267 94 2277
-1252 94 2265
-1251 94 2280
-1233 93 2265
-1221 93 2259
-1206 92 2247
-1193 92 2241
-1186 92 2245
-1177 92 2245
-1166 91 2240
-1149 90 2224
-1139 90 2221
-1136 90 2232
-1128 90 2233
-1110 89 2215
-1106 90 2224
-1096 89 2221
-1079 88 2204
-1074 89 2209
-1069 89 2218
-1050 88 2194
-1042 87 2194
-1034 87 2195
-1025 87 2193
-1017 87 2194
-1007 87 2189
-991 86 2171
-973 85 2149
-969 85 2158
-973 86 2184
-970 86 2195
-901 81 2057
-832 75 1915
-822 75 1906
-818 75 1913
-811 75 1913
-799 74 1900
-793 74 1903
-782 73 1892
-781 74 1906
-773 74 1901
-769 74 1907
-764 74 1913
-756 73 1909
-749 73 1908
-742 73 1905
-734 73 1903
-732 73 1913
-724 73 1911
-717 73 1909
-712 73 1913
-714 74 1936
-737 77 2017
-759 79 2096
-773 81 2154
-818 87 2300
-864 92 2453
-877 94 2513
-870 94 2515
-866 95 2527
-862 95 2540
-857 95 2551
-855 96 2569
-846 96 2569
-847 97 2595
-840 97 2599
-837 97 2615
-832 97 2628
-827 98 2639
-818 97 2638
-814 98 2650
-810 98 2665
-803 98 2670
-795 98 2670
-747 93 2538
-715 90 2454
-713 91 2475
-709 91 2487
-707 92 2509
-705 92 2530
-728 96 2642
-747 100 2742
-735 99 2727
-720 98 2705
-698 96 2654
-686 96 2637
-680 96 2645
-668 95 2630
-655 94 2610
-623 91 2516
-588 87 2403
-569 85 2357
-529 80 2219
-503 77 2136
-492 76 2119
-481 76 2099
-470 75 2076
-459 74 2059
-457 75 2076
-458 76 2111
-457 76 2133
-440 75 2086
-421 72 2023
-408 71 1992
-400 71 1978
-396 71 1989
-390 71 1988
-386 71 2000
-380 71 2001
-381 72 2034
-378 73 2055
-372 73 2053
-366 73 2057
-357 72 2036
-345 71 2004
-333 70 1970
-325 69 1956
-320 69 1957
-311 68 1943
-307 69 1951
-288 66 1865
-292 68 1931
-288 68 1937
-288 69 1979
-277 68 1945
-278 70 1990
-262 67 1919
-262 69 1958
-254 68 1941
-248 68 1934
-232 65 1853
-222 64 1822
-214 63 1794
-210 63 1810
-206 63 1821
-191 60 1735
-190 62 1771
-180 60 1721
-184 63 1809
-184 64 1859
-163 59 1702
-166 62 1790
-160 62 1782
-154 61 1765
-150 62 1780
-146 62 1798
-138 61 1753
-139 63 1837
-130 62 1791
-124 61 1772
-116 60 1735
-108 58 1697
-100 57 1642
-96 57 1649
-87 54 1583
-82 54 1575
-80 56 1615
-78 58 1683
-72 56 1645
-66 56 1628
-62 56 1638
-58 57 1663
-54 57 1672
-48 56 1631
-42 55 1601
-38 56 1638
-35 59 1717
-29 56 1648
-25 57 1684
-20 56 1637
-14 54 1598
-10 57 1674
-5 54 1591
-1 56 1637
3 56 1638
8 56 1660
13 59 1747
18 57 1694
22 55 1616
27 56 1655
31 55 1639
36 55 1635
41 56 1649
45 55 1635
50 55 1628
57 57 1687
60 56 1653
65 56 1667
68 54 1606
72 54 1587
76 54 1589
84 55 1644
87 55 1624
91 54 1612
96 54 1619
102 55 1642
105 54 1610
115 56 1680
122 57 1713
135 61 1830
145 63 1893
148 62 1859
156 63 1887
165 64 1930
172 65 1952
180 66 1974
190 67 2025
205 71 2121
215 72 2153
219 71 2137
227 71 2152
239 73 2206
238 71 2141
247 72 2161
239 68 2039
235 65 1951
242 65 1966
235 62 1865
250 64 1940
246 62 1862
247 61 1829
261 63 1893
268 63 1906
270 62 1881
270 61 1842
274 61 1829
283 61 1855
281 60 1805
289 60 1822
290 59 1795
294 59 1786
300 59 1791
303 59 1776
310 59 1788
321 60 1820
326 60 1818
325 59 1783
334 60 1803
331 58 1758
338 58 1766
358 61 1845
346 58 1754
367 60 1834
346 56 1703
352 56 1707
356 56 1699
377 59 1775
372 57 1725
384 58 1756
383 57 1730
393 58 1749
397 58 1745
410 59 1778
414 58 1773
422 59 1785
429 59 1789
427 58 1760
438 59 1779
435 58 1747
433 57 1717
444 57 1741
450 57 1742
456 57 1743
462 57 1746
466 57 1743
455 55 1680
485 58 1771
473 56 1708
481 56 1716
483 56 1705
496 57 1730
490 56 1693
504 57 1721
498 55 1682
512 56 1713
526 57 1739
530 57 1736
511 55 1654
525 55 1683
538 56 1709
533 55 1676
542 56 1686
546 55 1682
518 52 1577
512 51 1545
506 50 1510
505 49 1494
515 50 1508
502 48 1455
489 47 1404
497 47 1415
532 50 1501
553 51 1546
547 50 1515
558 51 1532
568 51 1545
590 53 1589
627 55 1676
624 55 1652
652 57 1711
638 55 1660
633 54 1631
661 56 1688
671 56 1700
666 55 1672
667 55 1661
677 55 1672
684 56 1674
700 56 1698
715 57 1721
729 58 1738
761 60 1801
806 63 1892
839 65 1954
878 67 2028
920 70 2108
934 70 2123
899 67 2027
911 68 2037
932 69 2068
971 71 2137
949 69 2071
956 69 2070
846 61 1816
876 62 1867
807 57 1704
822 58 1723
964 67 2006
988 68 2040
889 61 1822
875 60 1779
876 59 1766
882 59 1764
892 59 1771
898 59 1769
904 59 1767
912 60 1771
913 59 1758
917 59 1753
926 59 1758
928 59 1747
936 59 1749
944 59 1751
948 59 1745
950 59 1735
963 59 1747
965 59 1738
966 59 1726
-1311 103 2287
-1296 102 2277
-1284 102 2273
-1274 102 2272
-1266 102 2274
-1253 101 2267
-1244 101 2268
-1230 100 2258
-1223 100 2262
-1208 100 2251
-1197 99 2248
-1184 99 2240
-1179 99 2248
-1173 99 2253
-1156 98 2237
-1145 98 2233
-1134 97 2228
-1123 97 2223
-1117 97 2228
-1103 96 2218
-1094 96 2217
-1083 96 2210
-1076 96 2214
-1072 96 2222
-1054 95 2202
-1042 94 2194
-1034 94 2195
-1029 94 2201
-1010 93 2179
-1003 93 2180
-991 93 2171
-968 91 2139
-961 91 2141
-974 93 2187
-980 94 2219
-951 92 2171
-913 89 2100
-898 88 2084
-891 88 2083
-874 87 2061
-826 82 1965
-802 81 1925
-789 80 1910
-784 80 1912
-781 80 1923
-773 80 1918
-767 80 1920
-763 80 1927
-757 80 1928
-747 80 1920
-744 80 1929
-746 81 1950
-742 81 1958
-742 81 1976
-741 82 1991
-755 84 2046
-828 93 2264
-837 94 2309
-846 96 2357
-871 100 2447
-884 102 2507
-879 102 2517
-872 102 2522
-866 102 2527
-866 103 2551
-860 103 2560
-851 103 2556
-852 104 2584
-845 104 2588
-836 104 2589
-836 105 2614
-825 104 2606
-821 105 2618
-813 105 2619
-803 104 2615
-798 105 2627
-798 106 2653
-781 104 2626
-744 100 2526
-717 98 2462
-709 98 2462
-709 99 2489
-705 99 2503
-703 100 2523
-719 103 2610
-724 105 2659
-683 100 2537
-656 97 2463
-637 95 2420
-620 94 2384
-604 92 2352
-591 91 2328
-585 91 2333
-555 88 2240
-528 85 2161
-517 84 2142
-500 82 2096
-491 81 2088
-483 81 2078
-480 82 2096
-465 80 2056
-450 78 2018
-449 79 2038
-450 80 2071
-452 82 2111
-440 81 2085
-430 80 2065
-419 79 2044
-410 78 2029
-406 79 2038
-403 79 2053
-398 79 2063
-389 79 2048
-383 79 2047
-373 78 2028
-364 77 2008
-353 76 1983
-344 75 1962
-334 74 1939
-327 74 1933
-331 76 1993
-309 72 1890
-289 69 1801
-284 69 1804
-275 68 1781
-282 71 1864
-274 70 1847
-282 74 1938
-281 75 1970
-270 73 1929
-271 75 1979
-263 74 1963
-258 75 1968
-244 72 1905
-235 71 1879
-222 69 1820
-214 68 1797
-201 65 1729
-198 66 1746
-199 68 1802
-188 66 1748
-182 66 1744
-174 64 1711
-170 65 1724
-172 67 1790
-174 70 1866
-167 69 1851
-156 67 1790
-150 67 1783
-145 67 1785
-140 67 1791
-139 69 1832
-131 67 1803
-123 66 1762
-116 65 1733
-107 63 1676
-97 60 1596
-92 59 1590
-91 62 1650
-85 61 1632
-76 57 1540
-76 61 1633
-72 61 1650
-71 65 1737
-62 60 1628
-57 61 1639
-50 58 1573
-47 60 1624
-42 60 1605
-38 60 1614
-33 59 1602
-30 63 1693
-24 61 1639
-19 59 1606
-15 61 1640
-10 59 1600
-5 59 1595
-1 60 1619
3 60 1621
8 60 1621
13 62 1695
17 60 1634
22 59 1616
27 61 1668
31 59 1614
35 59 1604
40 59 1603
46 60 1640
51 61 1650
56 61 1665
58 58 1586
63 59 1607
69 60 1644
72 58 1586
76 58 1580
81 58 1583
87 59 1617
95 61 1670
96 59 1609
98 57 1572
107 60 1632
109 58 1598
116 59 1629
126 62 1706
142 67 1851
139 63 1744
150 66 1818
164 70 1918
170 70 1925
174 69 1908
180 69 1913
194 72 1997
207 75 2079
218 77 2127
231 79 2189
232 77 2141
238 77 2133
246 78 2153
248 76 2115
241 72 2005
238 70 1934
242 69 1920
247 69 1916
253 69 1919
256 68 1896
256 67 1852
263 67 1864
271 68 1882
272 67 1856
278 67 1859
281 66 1840
284 66 1824
281 64 1774
298 66 1847
290 64 1764
311 67 1858
315 66 1846
318 66 1832
325 66 1842
330 66 1838
329 65 1805
343 66 1848
338 64 1793
334 63 1746
345 64 1776
348 63 1763
348 62 1737
343 61 1687
355 62 1720
369 63 1762
386 65 1818
378 63 1753
382 63 1747
375 61 1694
391 63 1742
391 62 1719
413 64 1789
408 63 1748
418 63 1765
420 63 1752
422 62 1737
443 65 1800
442 64 1776
446 63 1767
448 63 1755
448 62 1735
443 61 1693
466 63 1761
469 63 1754
455 60 1681
469 62 1714
466 60 1680
473 61 1688
475 60 1675
490 61 1711
491 61 1694
500 61 1708
505 61 1706
510 61 1704
511 61 1690
506 60 1657
504 59 1631
530 61 1699
524 60 1661
522 59 1640
542 61 1685
541 60 1666
528 58 1610
508 55 1532
503 54 1502
501 53 1480
515 54 1509
496 52 1439
485 50 1392
501 52 1426
513 52 1446
537 54 1500
558 56 1546
565 56 1549
570 56 1549
591 57 1591
626 60 1671
599 57 1585
631 60 1656
638 60 1659
651 61 1677
685 63 1751
651 60 1649
658 60 1652
667 60 1659
671 60 1656
679 60 1660
708 62 1718
720 63 1732
742 64 1771
750 64 1776
766 65 1797
794 67 1849
800 67 1848
859 71 1969
860 71 1953
869 71 1959
865 70 1932
899 72 1994
921 74 2027
913 72 1991
927 73 2007
796 62 1709
901 70 1919
809 62 1708
819 63 1717
953 72 1983
964 73 1991
873 65 1788
866 64 1759
880 65 1775
889 65 1779
894 65 1774
898 65 1770
903 65 1765
904 65 1754
917 65 1766
922 65 1762
923 65 1751
933 65 1757
939 65 1755
949 65 1760
950 65 1750
952 65 1740
957 64 1737
961 64 1730
969 64 1731
-1315 111 2293
-1294 110 2274
-1291 110 2284
-1282 110 2286
-1258 108 2259
-1262 109 2284
-1249 109 2276
-1233 108 2265
-1218 107 2254
-1213 107 2261
-1201 107 2255
-1190 106 2251
-1178 106 2245
-1167 106 2242
-1152 105 2230
-1139 104 2221
-1139 105 2237
-1127 104 2230
-1116 104 2227
-1104 103 2220
-1096 103 2221
-1085 103 2215
-1076 103 2214
-1065 102 2208
-1056 102 2208
-1042 101 2195
-1034 101 2194
-1023 101 2189
-1013 100 2185
-1002 100 2179
-986 99 2161
-971 98 2144
-964 98 2146
-972 99 2182
-977 100 2210
-969 100 2212
-962 100 2213
-957 100 2221
-953 101 2228
-899 96 2121
-824 88 1961
-798 86 1913
-796 86 1924
-789 86 1926
-780 86 1920
-776 86 1926
-769 86 1925
-762 86 1925
-753 85 1917
-748 86 1923
-746 86 1933
-743 86 1942
-744 87 1963
-750 88 1997
-756 90 2031
-785 94 2128
-877 105 2398
-892 108 2461
-887 108 2469
-884 109 2486
-879 109 2495
-876 109 2509
-872 110 2522
-873 111 2549
-867 111 2554
-858 111 2552
-856 111 2572
-853 112 2587
-846 112 2592
-839 112 2597
-834 112 2607
-824 112 2601
-816 112 2602
-809 112 2608
-796 111 2593
-794 112 2611
-790 112 2627
-773 111 2599
-740 107 2512
-714 105 2451
-711 105 2467
-711 106 2495
-704 106 2499
-699 107 2508
-706 109 2563
-681 106 2501
-640 101 2376
-597 95 2244
-583 94 2216
-567 92 2182
-544 90 2119
-536 89 2111
-530 89 2116
-518 88 2092
-507 87 2075
-499 87 2067
-488 86 2047
-485 87 2063
-471 85 2030
-456 83 1991
-442 82 1957
-431 81 1931
-422 80 1918
-421 81 1942
-417 81 1951
-412 81 1951
-414 83 1992
-420 85 2048
-417 86 2066
-412 86 2068
-401 85 2046
-390 84 2021
-382 83 2008
-369 82 1974
-361 81 1961
-349 80 1930
-343 80 1928
-336 79 1919
-331 79 1924
-329 80 1943
-318 79 1911
-307 77 1883
-283 73 1765
-281 73 1787
-274 73 1779
-266 72 1757
-266 73 1791
-264 74 1817
-276 79 1936
-274 80 1960
-269 80 1964
-257 78 1918
-252 78 1924
-246 78 1919
-241 78 1925
-221 74 1812
-210 72 1764
-210 74 1809
-203 73 1790
-194 72 1762
-181 69 1688
-187 72 1787
-182 73 1795
-173 71 1754
-172 73 1791
-168 73 1813
-164 74 1822
-158 73 1812
-156 75 1856
-146 72 1792
-142 73 1814
-137 73 1816
-130 72 1795
-123 71 1763
-115 69 1722
-106 67 1657
-100 66 1644
-96 66 1646
-88 64 1594
-84 64 1603
-79 65 1609
-77 66 1651
-69 64 1586
-67 66 1641
-62 65 1631
-58 67 1670
-51 64 1598
-48 65 1630
-42 64 1603
-37 63 1567
-34 65 1637
-29 66 1645
-24 65 1633
-19 64 1615
-14 64 1600
-10 65 1632
-5 63 1577
-1 64 1605
3 63 1579
8 63 1595
12 64 1623
17 65 1627
21 63 1585
26 62 1567
31 65 1630
35 63 1593
40 63 1602
45 65 1630
48 62 1565
55 65 1644
61 66 1669
64 64 1612
67 62 1578
74 65 1643
76 63 1586
83 64 1623
87 64 1612
91 63 1608
98 65 1642
100 63 1603
103 62 1582
110 63 1606
118 65 1655
123 66 1668
138 70 1792
146 72 1836
154 73 1868
163 75 1906
171 76 1936
175 75 1921
179 74 1900
186 75 1919
198 78 1985
211 80 2051
225 83 2131
234 84 2161
243 85 2182
243 83 2123
243 81 2075
247 80 2055
241 76 1959
242 75 1916
244 74 1891
245 72 1858
258 74 1911
253 72 1835
261 72 1850
272 74 1889
276 73 1882
274 71 1827
279 71 1827
280 70 1799
290 71 1827
286 69 1771
294 70 1786
304 71 1816
307 70 1800
315 71 1818
320 71 1815
322 70 1796
335 71 1837
342 72 1846
334 69 1773
337 68 1760
338 68 1737
353 69 1788
367 71 1830
366 70 1800
365 69 1769
362 67 1730
369 67 1735
384 69 1784
379 67 1736
383 67 1731
387 67 1723
390 67 1713
413 69 1790
409 68 1752
423 69 1785
421 68 1754
434 69 1789
426 67 1732
432 67 1735
434 67 1720
444 68 1738
443 67 1713
457 68 1747
461 68 1744
470 68 1757
478 69 1766
464 66 1695
467 66 1685
484 67 1727
484 66 1707
482 65 1681
492 66 1699
512 68 1750
511 67 1725
511 66 1708
517 67 1711
520 66 1701
525 66 1700
510 64 1635
537 66 1703
520 64 1632
543 66 1688
540 65 1662
529 63 1611
509 60 1534
508 59 1516
501 58 1480
517 59 1514
501 57 1452
491 55 1410
501 56 1425
524 58 1476
535 58 1493
558 60 1544
551 59 1511
567 60 1540
581 61 1564
623 65 1663
629 65 1665
634 65 1662
644 66 1675
657 66 1692
639 64 1632
656 65 1662
663 65 1663
667 65 1660
670 65 1654
675 65 1651
692 66 1678
713 67 1715
727 68 1733
729 68 1724
744 69 1746
746 68 1736
760 69 1754
774 70 1771
801 72 1819
826 73 1861
826 73 1845
875 77 1940
859 75 1889
858 74 1871
826 71 1787
775 66 1663
878 74 1870
799 67 1687
817 68 1711
909 75 1890
845 69 1743
813 66 1664
846 68 1718
872 70 1757
881 70 1762
888 70 1762
897 71 1768
903 71 1766
906 70 1759
919 71 1769
919 70 1757
923 70 1750
928 70 1748
938 70 1753
941 70 1746
948 70 1745
956 70 1747
963 70 1747
961 70 1730
970 70 1734
-1308 118 2281
-1295 117 2276
-1287 117 2278
-1270 116 2263
-1270 117 2281
-1259 116 2278
-1237 115 2254
-1234 115 2266
-1213 114 2243
-1203 114 2242
-1198 114 2250
-1191 114 2253
-1183 114 2255
-1163 112 2234
-1161 113 2247
-1145 112 2232
-1135 112 2229
-1121 111 2218
-1116 111 2226
-1103 110 2216
-1093 110 2214
-1079 109 2203
-1075 109 2211
-1058 108 2193
-1050 108 2194
-1048 109 2207
-1036 108 2198
-1023 107 2189
-1015 107 2189
-1002 107 2178
-988 106 2166
-972 105 2147
-972 105 2164
-979 107 2198
-986 108 2232
-982 108 2240
-971 108 2235
-969 109 2248
-959 108 2243
-905 103 2134
-826 95 1964
-802 92 1923
-797 93 1929
-790 92 1927
-788 93 1938
-781 93 1938
-773 92 1935
-765 92 1932
-759 92 1932
-755 92 1940
-753 93 1952
-748 93 1955
-748 93 1974
-757 95 2016
-770 98 2069
-803 102 2175
-862 111 2357
-886 115 2444
-881 115 2454
-878 115 2468
-867 115 2460
-859 115 2460
-855 115 2473
-855 116 2497
-849 116 2503
-835 115 2484
-826 115 2483
-823 116 2498
-822 116 2519
-818 117 2531
-812 117 2539
-801 117 2531
-793 116 2531
-790 117 2545
-781 117 2542
-775 117 2549
-763 116 2537
-753 116 2532
-730 113 2479
-716 112 2460
-714 113 2478
-709 113 2489
-706 114 2504
-696 114 2498
-671 111 2437
-655 109 2404
-634 107 2355
-611 104 2297
-597 103 2268
-585 102 2252
-570 100 2221
-560 100 2206
-547 98 2182
-530 96 2139
-516 95 2110
-503 94 2085
-489 92 2053
-475 91 2019
-455 88 1960
-440 86 1922
-431 85 1904
-421 85 1888
-419 85 1903
-410 85 1892
-407 85 1901
-405 86 1921
-399 86 1918
-395 86 1927
-393 87 1946
-387 87 1946
-379 86 1932
-369 85 1911
-363 85 1912
-355 84 1900
-344 83 1869
-337 82 1859
-332 82 1864
-329 83 1878
-328 84 1905
-318 83 1878
-321 85 1931
-310 84 1897
-287 79 1793
-276 77 1752
-274 78 1776
-270 79 1786
-260 77 1756
-263 79 1807
-276 85 1937
-279 87 1995
-265 85 1939
-256 84 1912
-248 83 1893
-247 84 1928
-238 83 1903
-214 76 1750
-209 77 1757
-209 78 1801
-200 77 1770
-193 76 1753
-190 77 1772
-188 78 1797
-177 76 1746
-168 74 1703
-170 77 1775
-162 76 1744
-155 75 1727
-154 77 1773
-144 74 1717
-147 78 1807
-142 78 1808
-137 78 1817
-130 77 1786
-122 76 1752
-114 74 1704
-103 70 1615
-98 69 1608
-93 69 1596
-89 70 1618
-83 69 1598
-78 68 1579
-69 65 1498
-73 71 1663
-64 68 1570
-60 68 1594
-56 69 1596
-52 70 1635
-46 68 1591
-43 70 1638
-37 67 1568
-33 69 1621
-28 68 1587
-23 68 1587
-19 68 1589
-14 67 1565
-10 70 1631
-5 69 1608
0 68 1582
3 69 1616
8 69 1619
12 66 1559
17 66 1557
21 67 1569
26 67 1581
31 69 1615
35 67 1572
40 68 1604
43 65 1520
50 69 1635
55 70 1643
58 67 1587
62 67 1576
68 68 1600
71 67 1573
77 68 1609
85 71 1666
89 70 1646
91 68 1603
98 69 1642
100 68 1605
105 68 1608
112 69 1640
116 69 1634
124 71 1677
131 72 1697
139 74 1744
149 76 1800
160 79 1878
169 81 1917
175 81 1922
180 80 1910
183 79 1889
192 81 1918
202 83 1968
218 86 2063
232 90 2137
240 90 2157
248 91 2165
254 91 2163
253 88 2107
246 84 1998
244 81 1935
246 80 1907
253 80 1917
251 78 1855
258 78 1873
256 76 1816
263 76 1824
270 77 1839
282 79 1882
283 78 1855
288 78 1853
287 76 1809
292 76 1806
308 78 1869
305 76 1821
307 75 1798
307 74 1769
314 74 1780
326 76 1818
330 76 1807
331 75 1784
334 74 1773
342 75 1789
348 75 1789
356 75 1804
372 77 1855
362 74 1782
352 71 1704
370 74 1766
369 73 1737
376 73 1745
385 74 1763
387 73 1744
396 74 1764
395 73 1737
399 72 1728
409 73 1750
406 72 1712
413 72 1723
421 72 1733
419 71 1702
438 74 1760
432 72 1714
444 73 1738
453 73 1755
464 74 1775
465 73 1758
459 72 1714
459 71 1693
475 72 1732
481 73 1734
469 70 1674
482 71 1699
496 72 1731
490 71 1690
502 72 1714
502 71 1694
502 70 1676
533 74 1762
519 71 1698
518 70 1676
521 70 1670
533 71 1690
537 71 1686
544 71 1691
545 70 1678
539 69 1642
517 65 1557
505 63 1508
501 62 1479
507 62 1483
500 61 1449
497 60 1426
501 60 1424
518 62 1460
537 63 1499
556 65 1538
552 64 1514
574 66 1558
605 69 1628
630 71 1681
627 70 1658
631 70 1654
634 70 1646
639 70 1646
623 67 1591
638 68 1615
659 70 1653
662 70 1646
668 70 1647
675 70 1650
682 70 1655
686 70 1651
705 71 1682
705 71 1668
708 71 1660
720 71 1675
730 72 1684
736 72 1684
774 75 1757
750 72 1687
769 73 1717
819 77 1813
816 76 1794
841 78 1834
790 73 1709
769 71 1650
864 79 1839
801 72 1692
815 73 1707
835 74 1736
783 69 1613
789 69 1614
816 71 1657
847 73 1706
872 75 1743
892 76 1770
895 76 1763
901 76 1762
908 76 1761
912 76 1755
922 76 1762
923 76 1751
930 76 1751
934 76 1744
947 76 1756
947 76 1743
954 76 1743
960 76 1741
971 76 1748
966 75 1727
-1316 126 2296
-1290 124 2266
-1275 123 2256
-1277 124 2277
-1267 124 2276
-1259 124 2278
-1236 122 2252
-1224 122 2247
-1213 121 2244
-1209 121 2253
-1196 121 2245
-1189 121 2249
-1169 119 2229
-1167 120 2241
-1155 119 2234
-1145 119 2233
-1140 119 2240
-1122 118 2221
-1115 118 2224
-1102 117 2214
-1094 117 2216
-1078 116 2201
-1069 116 2200
-1067 116 2212
-1047 115 2187
-1041 115 2193
-1031 114 2188
-1021 114 2185
-1006 113 2170
-997 113 2168
-992 113 2174
-988 113 2182
-992 114 2208
-990 115 2221
-996 116 2254
-979 115 2234
-971 115 2234
-962 115 2230
-945 113 2210
-894 108 2109
-824 100 1959
-799 98 1917
-798 99 1930
-791 98 1930
-784 98 1928
-778 98 1932
-774 98 1936
-765 98 1932
-760 98 1935
-758 98 1946
-752 98 1949
-751 99 1964
-760 101 2005
-785 105 2088
-798 108 2144
-786 107 2130
-799 109 2185
-826 114 2280
-826 115 2300
-816 114 2293
-808 114 2292
-789 112 2261
-782 112 2261
-792 115 2312
-774 113 2280
-742 109 2209
-723 107 2173
-711 106 2156
-718 108 2200
-719 110 2227
-722 111 2258
-722 112 2279
-723 113 2306
-718 113 2315
-719 115 2343
-717 115 2360
-713 116 2372
-708 116 2378
-698 115 2371
-693 116 2379
-688 116 2388
-684 116 2400
-677 117 2404
-668 116 2396
-647 114 2350
-645 115 2369
-633 114 2353
-623 113 2339
-610 112 2318
-591 110 2275
-545 102 2121
-520 99 2052
-516 99 2060
-506 98 2044
-491 96 2008
-475 94 1969
-464 93 1948
-457 93 1942
-447 92 1924
-437 91 1906
-429 91 1897
-418 89 1874
-417 90 1894
-410 90 1890
-403 90 1886
-404 91 1914
-392 90 1886
-387 90 1888
-381 90 1889
-372 89 1872
-368 89 1878
-364 89 1885
-347 87 1828
-339 86 1812
-347 89 1886
-340 89 1880
-334 88 1876
-341 92 1945
-327 89 1899
-325 90 1922
-314 89 1888
-305 88 1868
-284 83 1774
-277 83 1762
-276 84 1791
-271 84 1793
-266 84 1791
-271 87 1859
-272 89 1909
-265 89 1900
-265 91 1940
-258 90 1928
-252 90 1922
-245 89 1916
-238 88 1900
-224 85 1833
-208 81 1746
-209 84 1799
-207 85 1831
-193 81 1749
-189 82 1760
-177 79 1699
-175 80 1725
-174 81 1759
-169 82 1769
-162 81 1743
-157 81 1746
-151 80 1734
-147 80 1742
-143 81 1759
-140 83 1789
-138 84 1823
-131 83 1801
-121 80 1741
-111 77 1670
-106 77 1666
-97 74 1600
-92 73 1589
-91 76 1644
-85 75 1627
-80 75 1624
-75 74 1619
-70 74 1618
-64 73 1584
-61 74 1610
-57 75 1630
-52 74 1611
-45 70 1537
-41 72 1582
-38 74 1614
-33 73 1597
-28 73 1588
-23 72 1575
-19 73 1589
-14 72 1584
-9 71 1559
-5 71 1567
0 71 1548
3 70 1528
8 72 1573
12 71 1566
17 72 1581
21 72 1580
26 72 1586
31 72 1592
35 71 1566
40 72 1585
45 74 1629
50 74 1630
53 72 1576
60 74 1640
64 74 1631
69 74 1643
72 72 1591
78 73 1617
80 71 1558
86 72 1599
91 73 1606
97 74 1631
102 74 1628
106 73 1622
110 72 1604
117 74 1648
122 75 1653
127 74 1646
132 74 1646
143 78 1726
153 80 1786
164 83 1852
170 84 1863
174 83 1843
174 80 1786
180 81 1794
192 84 1864
205 87 1939
218 90 2004
228 92 2045
241 94 2103
250 95 2132
252 94 2092
246 89 1996
246 87 1946
246 85 1904
251 85 1899
255 85 1891
263 85 1906
263 84 1868
270 84 1878
272 83 1850
269 80 1795
274 80 1796
281 81 1804
297 84 1873
297 82 1835
300 82 1824
299 80 1781
304 80 1781
296 76 1707
330 84 1873
327 81 1821
329 81 1803
333 80 1797
343 81 1818
344 80 1799
357 82 1835
359 81 1819
378 84 1886
382 84 1877
372 81 1804
370 79 1768
371 78 1746
385 80 1788
373 76 1703
378 76 1703
400 80 1779
405 80 1778
409 79 1775
416 80 1779
413 78 1742
418 78 1743
427 79 1756
425 77 1727
432 78 1734
427 76 1692
449 79 1757
438 76 1692
461 79 1764
449 76 1698
469 78 1752
453 75 1672
477 78 1742
473 77 1707
473 76 1688
494 78 1742
481 75 1679
495 77 1709
504 77 1721
513 78 1733
515 77 1719
516 77 1705
511 75 1672
473 69 1531
487 70 1560
516 74 1636
538 76 1690
542 76 1685
557 77 1715
511 70 1555
504 69 1520
507 68 1514
500 67 1477
505 67 1477
499 65 1446
491 64 1408
500 64 1422
517 66 1457
534 67 1490
543 68 1502
548 68 1503
565 69 1534
597 73 1608
625 76 1669
632 76 1672
635 75 1664
640 75 1662
634 74 1633
640 74 1635
667 77 1688
693 79 1739
671 76 1669
674 76 1663
682 76 1668
688 76 1668
694 76 1669
703 76 1676
702 76 1659
710 76 1665
707 75 1645
724 76 1668
729 76 1668
761 79 1727
739 76 1662
762 78 1700
772 78 1709
756 76 1661
771 77 1681
750 74 1621
754 74 1617
784 77 1668
791 77 1670
788 76 1651
781 75 1622
774 74 1595
772 73 1580
793 74 1609
830 77 1673
850 79 1699
875 80 1737
895 82 1763
900 81 1758
909 82 1763
911 81 1754
917 81 1753
925 82 1755
926 81 1742
937 82 1750
943 82 1749
947 81 1743
952 81 1739
958 81 1737
958 81 1725
969 81 1732
-1303 132 2272
-1295 132 2275
-1277 131 2260
-1268 131 2260
-1261 131 2265
-1245 130 2252
-1240 130 2259
-1234 130 2265
-1215 129 2247
-1209 129 2253
-1178 126 2212
-1185 127 2241
-1176 127 2242
-1160 126 2227
-1148 126 2220
-1148 126 2237
-1132 125 2224
-1131 126 2238
-1108 124 2210
-1104 124 2220
-1095 124 2218
-1083 124 2210
-1068 123 2196
-1058 122 2193
-1042 121 2177
-1028 120 2165
-1015 119 2155
-985 117 2106
-970 116 2091
-954 114 2073
-959 116 2101
-952 116 2103
-947 116 2109
-943 116 2117
-945 117 2139
-940 117 2145
-924 116 2126
-922 117 2139
-922 117 2156
-901 115 2124
-831 107 1977
-802 104 1924
-794 104 1919
-780 103 1903
-779 103 1916
-771 103 1912
-766 103 1917
-759 103 1916
-754 103 1921
-750 103 1926
-743 103 1926
-745 104 1949
-757 107 1998
-776 110 2064
-777 111 2088
-730 105 1978
-720 105 1970
-740 108 2042
-737 109 2054
-724 108 2037
-711 107 2017
-710 107 2033
-701 107 2028
-687 106 2005
-677 105 1997
-645 101 1921
-635 100 1909
-638 102 1937
-633 102 1940
-627 102 1943
-628 103 1964
-626 103 1976
-633 105 2021
-633 106 2040
-637 108 2074
-632 108 2081
-637 110 2120
-633 110 2129
-630 111 2141
-625 111 2147
-599 107 2080
-582 106 2044
-591 108 2100
-577 107 2073
-552 103 2006
-554 105 2035
-564 108 2094
-565 109 2125
-559 109 2126
-541 107 2082
-502 100 1955
-486 98 1917
-494 101 1972
-487 100 1967
-473 99 1936
-466 98 1931
-457 98 1917
-454 98 1930
-448 98 1929
-439 97 1917
-427 96 1887
-417 95 1871
-412 95 1873
-409 95 1885
-403 95 1882
-408 98 1936
-396 96 1904
-382 94 1866
-385 96 1906
-359 91 1803
-360 92 1837
-360 94 1867
-346 92 1822
-361 97 1931
-350 95 1901
-345 96 1906
-344 97 1929
-341 98 1950
-336 98 1955
-330 98 1953
-325 98 1954
-311 95 1904
-287 89 1793
-282 89 1795
-271 87 1754
-270 89 1781
-271 91 1825
-270 92 1858
-273 95 1914
-266 95 1906
-261 95 1911
-257 95 1923
-245 93 1872
-247 96 1931
-238 94 1905
-221 89 1808
-217 90 1818
-207 88 1779
-206 90 1819
-193 87 1754
-193 89 1796
-192 90 1833
-181 88 1779
-175 87 1769
-163 84 1705
-159 84 1712
-161 88 1793
-150 85 1720
-144 84 1707
-140 85 1729
-137 86 1754
-136 88 1799
-128 86 1758
-117 83 1688
-108 80 1624
-101 78 1588
-96 77 1573
-92 77 1582
-87 77 1574
-84 79 1610
-77 77 1571
-71 75 1537
-65 73 1499
-62 75 1528
-60 77 1584
-56 78 1600
-51 77 1590
-46 77 1572
-42 78 1594
-37 76 1569
-33 78 1596
-28 78 1596
-23 77 1581
-19 78 1605
-14 75 1551
-9 76 1576
-5 75 1552
0 76 1573
3 78 1605
8 76 1578
12 75 1543
17 78 1615
22 77 1589
26 77 1586
30 76 1564
35 76 1565
39 76 1564
45 77 1604
48 75 1544
52 75 1552
58 77 1590
61 75 1547
69 79 1630
72 77 1589
77 77 1604
84 80 1655
87 78 1617
87 74 1533
98 79 1635
102 79 1633
108 79 1650
112 79 1635
115 77 1611
119 77 1604
127 79 1649
134 81 1681
138 80 1670
149 84 1743
157 85 1776
166 87 1812
167 85 1773
168 83 1729
176 84 1762
180 84 1748
192 87 1817
203 89 1862
209 89 1872
224 94 1958
240 97 2040
241 95 1999
241 93 1958
243 92 1923
248 91 1916
249 90 1886
255 90 1886
258 89 1869
262 89 1862
267 88 1852
269 87 1830
277 88 1847
275 86 1799
284 87 1820
293 88 1844
296 87 1828
298 86 1811
296 84 1764
307 86 1801
323 89 1864
322 87 1822
323 86 1801
319 83 1749
338 87 1821
357 90 1892
350 87 1829
352 86 1810
376 91 1905
425 101 2121
422 99 2077
382 88 1851
369 84 1763
380 85 1788
385 85 1786
381 83 1744
384 83 1734
400 85 1781
390 82 1713
405 84 1753
411 84 1756
426 86 1797
410 81 1707
428 84 1762
430 83 1748
438 84 1757
444 84 1761
434 81 1700
448 83 1734
457 83 1749
457 82 1727
459 82 1713
464 82 1711
473 82 1725
466 80 1679
473 81 1688
497 84 1753
498 83 1736
500 82 1724
521 85 1780
512 83 1728
522 83 1743
510 81 1687
488 76 1594
470 73 1519
481 74 1538
500 76 1583
534 80 1675
533 79 1655
550 81 1691
506 74 1539
494 72 1487
497 71 1483
505 72 1491
498 70 1457
492 69 1426
483 67 1387
499 68 1417
509 69 1435
531 71 1481
538 72 1488
549 73 1504
560 73 1522
597 78 1609
634 82 1691
628 80 1660
635 80 1665
631 79 1639
639 80 1646
646 80 1648
646 79 1635
658 80 1650
658 79 1637
675 81 1664
684 81 1673
693 82 1679
698 82 1679
700 81 1668
701 81 1658
709 81 1661
711 81 1653
713 80 1643
739 82 1691
778 86 1764
756 83 1701
788 86 1759
787 85 1742
772 83 1696
768 82 1673
748 79 1617
750 79 1608
767 80 1632
774 80 1634
775 80 1621
756 77 1570
742 75 1528
779 79 1592
789 79 1602
814 81 1640
834 82 1668
870 85 1726
895 87 1761
901 87 1760
909 87 1763
912 87 1755
921 87 1760
922 87 1748
930 87 1751
935 87 1746
944 87 1750
950 87 1749
949 87 1732
959 87 1738
967 87 1740
969 87 1730
-1285 138 2241
-1300 140 2283
-1266 137 2240
-1255 136 2237
-1253 137 2249
-1236 136 2236
-1234 136 2248
-1224 136 2246
-1197 134 2214
-1192 134 2221
-1178 133 2211
-1166 133 2205
-1150 131 2191
-1158 133 2224
-1150 133 2225
-1139 132 2219
-1126 132 2211
-1113 131 2202
-1104 131 2202
-1096 131 2203
-1088 130 2203
-1078 130 2200
-1062 129 2184
-1051 128 2179
-1030 126 2151
-1009 125 2125
-996 124 2113
-988 124 2112
-968 122 2088
-965 122 2097
-957 122 2096
-942 121 2080
-938 121 2089
-935 122 2098
-924 121 2091
-915 121 2086
-917 122 2109
-926 124 2147
-941 126 2200
-922 125 2175
-874 119 2078
-838 115 2009
-801 111 1937
-782 109 1908
-779 109 1917
-768 109 1907
-765 109 1914
-759 109 1915
-755 109 1922
-747 109 1919
-745 109 1931
-743 110 1942
-756 112 1993
-780 117 2076
-759 115 2037
-686 105 1858
-676 104 1850
-668 103 1843
-661 103 1843
-654 103 1838
-638 101 1810
-636 102 1823
-633 102 1832
-627 102 1832
-630 103 1856
-615 102 1831
-612 102 1841
-611 103 1854
-593 101 1818
-597 102 1848
-587 102 1836
-594 104 1875
-584 103 1864
-574 102 1852
-578 104 1884
-565 102 1859
-571 104 1900
-567 105 1907
-565 105 1920
-554 104 1905
-534 102 1856
-527 101 1850
-535 104 1900
-526 103 1891
-510 101 1852
-513 103 1884
-522 105 1939
-523 107 1966
-523 108 1988
-520 108 1999
-497 105 1937
-492 105 1938
-503 108 2007
-488 106 1970
-475 105 1943
-468 104 1938
-449 102 1884
-448 102 1904
-444 103 1913
-432 101 1884
-423 100 1870
-416 100 1864
-412 100 1872
-407 100 1875
-400 100 1868
-403 102 1908
-393 101 1888
-381 99 1859
-374 99 1851
-368 99 1850
-364 99 1859
-358 99 1856
-355 99 1871
-353 100 1891
-353 102 1916
-350 103 1934
-346 103 1943
-343 104 1958
-336 103 1952
-332 104 1963
-326 104 1960
-302 98 1851
-284 94 1775
-280 94 1780
-274 94 1776
-266 93 1755
-262 93 1769
-273 99 1879
-271 100 1904
-270 102 1936
-264 101 1929
-259 102 1937
-253 101 1932
-245 100 1918
-239 100 1910
-232 99 1897
-223 98 1869
-212 95 1825
-202 93 1786
-195 92 1765
-188 92 1753
-181 91 1736
-172 89 1699
-173 91 1752
-164 89 1713
-160 90 1723
-152 88 1690
-148 89 1701
-143 89 1707
-141 90 1731
-135 90 1728
-130 90 1725
-121 86 1665
-111 83 1602
-104 81 1562
-98 80 1547
-97 83 1601
-92 82 1589
-90 84 1630
-83 82 1585
-80 84 1618
-73 82 1575
-67 80 1551
-64 81 1575
-61 84 1620
-54 81 1564
-50 81 1574
-47 84 1621
-41 82 1583
-36 80 1560
-31 80 1545
-28 82 1588
-23 81 1571
-19 82 1589
-14 81 1579
-9 78 1521
-5 81 1583
0 83 1608
3 83 1611
8 83 1610
12 81 1587
17 80 1555
22 82 1592
26 80 1557
31 81 1580
35 81 1579
40 81 1579
44 81 1585
49 81 1586
52 79 1534
58 81 1578
61 79 1548
67 81 1582
70 79 1541
75 80 1557
81 81 1583
82 77 1514
92 82 1611
97 83 1626
102 83 1631
106 83 1625
110 82 1611
119 85 1669
119 82 1603
126 84 1641
135 86 1688
138 85 1671
144 85 1679
159 91 1796
161 89 1760
167 90 1773
170 89 1744
172 87 1719
176 87 1707
187 90 1765
205 96 1887
216 98 1930
222 98 1935
233 100 1981
236 99 1962
239 98 1939
243 97 1922
245 96 1892
248 95 1876
252 94 1864
257 94 1864
262 94 1855
267 94 1852
272 94 1854
279 94 1859
282 94 1848
288 93 1846
291 93 1831
296 93 1830
297 91 1805
296 89 1765
307 91 1798
314 92 1809
325 93 1843
319 90 1774
339 94 1855
345 94 1861
378 101 2005
359 95 1875
369 96 1896
415 106 2104
463 117 2315
427 106 2100
375 92 1818
369 89 1760
363 87 1709
383 90 1777
384 89 1754
393 90 1771
393 88 1748
393 87 1724
402 88 1742
412 89 1762
423 90 1787
420 89 1750
412 86 1693
417 86 1692
438 89 1759
440 88 1743
430 85 1684
439 86 1698
444 86 1696
451 86 1701
462 87 1723
472 88 1742
457 85 1667
484 89 1747
484 88 1727
496 89 1750
480 85 1674
499 87 1721
511 89 1743
499 86 1684
502 85 1676
504 85 1664
478 80 1561
469 77 1518
477 78 1527
480 78 1521
511 82 1603
516 82 1602
529 83 1627
522 81 1587
504 78 1519
497 76 1483
512 77 1511
495 74 1448
493 73 1427
490 72 1407
506 74 1437
519 75 1462
526 75 1467
539 76 1491
550 77 1506
554 77 1505
571 79 1538
626 86 1671
634 86 1676
634 85 1661
641 86 1664
644 85 1659
655 86 1672
645 84 1632
655 85 1643
687 88 1709
693 88 1709
692 87 1692
683 85 1655
690 86 1658
697 86 1660
687 84 1623
702 85 1645
708 85 1645
704 84 1622
752 89 1720
822 97 1864
835 98 1880
872 101 1947
865 99 1915
857 98 1883
793 90 1728
747 84 1614
753 84 1614
759 84 1613
766 85 1617
763 84 1597
762 83 1583
770 83 1587
787 84 1608
786 84 1594
803 85 1616
822 86 1642
860 90 1705
893 93 1757
899 93 1757
904 93 1753
916 93 1762
920 93 1757
924 93 1751
927 92 1745
938 93 1752
946 93 1752
950 93 1747
953 93 1741
955 92 1732
965 93 1735
968 92 1729
-1298 146 2264
-1287 146 2259
-1267 144 2240
-1257 144 2241
-1252 144 2248
-1231 142 2226
-1232 143 2245
-1217 142 2234
-1200 141 2220
-1188 141 2213
-1167 139 2190
-1119 134 2116
-1070 129 2038
-1097 133 2106
-1069 130 2069
-1076 132 2098
-1054 130 2070
-1034 128 2047
-1050 131 2094
-1052 132 2113
-1056 133 2139
-1040 132 2123
-1033 132 2123
-1013 130 2100
-1020 132 2130
-997 130 2100
-999 131 2121
-967 128 2069
-963 128 2077
-957 128 2079
-956 129 2095
-945 128 2086
-930 127 2071
-934 128 2096
-931 128 2107
-923 128 2105
-923 129 2123
-924 130 2143
-927 131 2167
-929 132 2190
-888 128 2111
-855 124 2050
-809 118 1957
-788 116 1921
-777 115 1911
-772 115 1916
-766 115 1916
-764 115 1928
-756 115 1926
-753 116 1935
-749 116 1941
-756 118 1976
-770 121 2031
-787 124 2095
-758 121 2036
-682 110 1848
-663 107 1813
-651 106 1798
-637 105 1774
-644 107 1810
-626 105 1777
-628 106 1798
-615 105 1779
-610 105 1781
-599 104 1767
-604 105 1799
-602 106 1808
-593 105 1800
-584 105 1790
-574 104 1777
-566 103 1770
-574 106 1813
-557 103 1778
-551 103 1776
-554 105 1804
-538 103 1770
-539 104 1793
-526 102 1768
-529 104 1798
-519 103 1783
-514 103 1785
-511 103 1795
-503 103 1786
-489 101 1756
-492 103 1787
-492 104 1806
-484 103 1800
-483 104 1817
-475 103 1806
-470 104 1810
-472 105 1841
-460 104 1813
-462 105 1844
-451 104 1823
-453 106 1855
-438 103 1817
-434 104 1821
-422 102 1797
-426 104 1834
-416 103 1818
-404 101 1787
-407 103 1826
-398 102 1812
-396 103 1827
-387 102 1809
-384 103 1820
-382 104 1838
-376 103 1835
-368 103 1821
-364 103 1833
-363 104 1851
-362 105 1874
-356 105 1872
-352 105 1881
-345 105 1875
-345 107 1905
-337 106 1895
-334 107 1908
-330 107 1915
-326 108 1930
-318 107 1915
-300 103 1841
-287 100 1793
-279 99 1774
-274 99 1777
-269 99 1780
-266 100 1792
-266 102 1830
-272 106 1905
-269 107 1929
-264 107 1928
-259 107 1934
-251 106 1918
-242 105 1895
-236 104 1890
-228 103 1872
-218 101 1828
-210 100 1809
-203 99 1789
-196 98 1773
-190 98 1769
-181 95 1732
-175 95 1721
-169 94 1709
-160 92 1669
-155 92 1674
-151 92 1678
-148 93 1698
-142 93 1695
-137 93 1693
-128 90 1636
-121 88 1612
-115 88 1595
-108 86 1561
-108 89 1623
-100 86 1572
-98 88 1608
-93 88 1613
-87 87 1590
-80 84 1535
-79 87 1599
-71 84 1530
-69 86 1582
-64 86 1578
-61 88 1611
-56 87 1600
-52 88 1617
-46 86 1584
-40 84 1549
-37 87 1605
-33 88 1609
-27 83 1529
-23 85 1555
-18 86 1576
-14 86 1580
-10 88 1628
-5 85 1568
0 87 1611
3 85 1575
8 86 1594
13 87 1604
18 89 1645
21 86 1581
27 88 1629
31 87 1598
35 85 1562
40 85 1574
43 84 1546
49 86 1592
53 85 1567
56 83 1536
60 82 1512
68 86 1599
72 86 1599
77 86 1592
83 88 1635
86 86 1593
92 87 1619
103 93 1728
101 87 1607
108 89 1650
113 89 1648
118 89 1658
122 88 1640
126 88 1640
132 89 1652
142 92 1718
142 89 1652
153 93 1723
157 92 1718
164 93 1738
166 91 1702
167 90 1670
173 90 1681
185 93 1740
208 102 1911
221 106 1978
221 103 1931
225 103 1915
230 102 1912
232 101 1876
234 99 1852
239 99 1851
238 97 1802
242 96 1788
246 95 1777
251 95 1778
253 94 1752
252 92 1713
259 92 1725
262 92 1713
266 92 1708
271 91 1705
276 91 1706
282 92 1710
286 91 1707
309 97 1810
305 94 1756
315 95 1783
324 97 1805
330 97 1806
351 101 1893
357 101 1894
352 98 1838
387 106 1992
441 119 2234
445 119 2221
407 107 2001
366 95 1773
369 94 1761
376 95 1770
384 95 1781
390 95 1782
391 94 1762
394 94 1752
399 94 1753
407 94 1762
412 94 1763
414 94 1744
420 94 1748
426 94 1751
433 94 1757
435 94 1746
440 94 1744
442 93 1730
445 92 1721
451 92 1722
457 93 1726
466 93 1738
472 93 1740
477 93 1740
479 93 1726
485 93 1731
488 93 1721
491 92 1713
506 94 1745
529 97 1805
528 96 1782
508 91 1695
514 92 1699
484 85 1583
469 82 1515
476 82 1521
490 84 1551
518 88 1624
518 87 1607
503 84 1546
507 83 1542
508 83 1529
503 81 1500
502 80 1482
497 79 1455
498 78 1442
488 76 1401
508 78 1443
518 79 1457
536 81 1495
537 81 1484
541 81 1481
559 82 1517
574 84 1545
633 92 1690
624 90 1649
628 90 1645
638 90 1658
648 91 1668
656 91 1675
659 91 1667
670 92 1680
668 91 1662
687 92 1692
680 91 1663
690 92 1673
676 89 1624
707 92 1685
681 88 1609
716 92 1679
713 91 1656
711 90 1639
755 95 1726
814 101 1847
822 102 1850
834 102 1863
828 101 1833
857 104 1883
858 103 1869
759 91 1638
750 89 1606
752 89 1599
754 88 1589
745 87 1559
764 88 1586
773 89 1592
757 86 1547
783 88 1588
800 90 1611
822 92 1643
858 95 1701
890 98 1752
900 98 1757
905 98 1755
910 98 1751
923 99 1762
923 98 1750
932 98 1752
939 99 1753
940 98 1742
948 98 1744
957 99 1747
956 98 1732
967 98 1740
973 98 1737
-1295 153 2257
-1279 152 2245
-1278 153 2260
-1263 152 2250
-1257 152 2256
-1236 150 2236
-1231 151 2243
-1220 150 2238
-1196 148 2212
-1201 149 2238
-1161 145 2179
-1076 135 2035
-1020 129 1943
-997 127 1914
-971 124 1878
-1010 130 1969
-974 126 1913
-1002 131 1983
-972 128 1939
-990 131 1989
-967 128 1958
-979 131 1998
-969 130 1992
-951 129 1971
-962 131 2010
-950 130 1999
-946 130 2008
-936 130 2001
-935 130 2016
-933 131 2027
-926 131 2029
-925 132 2043
-917 131 2041
-902 130 2024
-912 132 2064
-902 132 2058
-896 132 2059
-891 132 2067
-889 132 2077
-885 133 2086
-849 128 2019
-835 127 2002
-808 124 1954
-792 122 1932
-786 122 1933
-775 121 1923
-772 122 1931
-769 122 1940
-763 122 1941
-754 122 1936
-753 122 1950
-754 123 1972
-768 127 2025
-780 130 2075
-744 125 1997
-680 115 1842
-662 113 1812
-654 112 1804
-648 112 1805
-638 111 1793
-628 111 1782
-629 112 1802
-614 110 1777
-612 110 1787
-613 111 1806
-597 110 1777
-594 110 1787
-587 110 1783
-590 111 1810
-574 109 1779
-563 108 1763
-570 110 1802
-553 108 1765
-547 108 1763
-546 109 1781
-539 108 1775
-532 108 1771
-527 108 1771
-516 107 1755
-514 107 1767
-506 107 1756
-512 109 1800
-492 106 1748
-486 106 1746
-478 105 1735
-475 105 1745
-472 106 1754
-469 106 1763
-465 107 1769
-463 107 1782
-453 106 1765
-446 106 1758
-437 105 1746
-432 105 1746
-427 105 1747
-424 105 1756
-420 106 1764
-413 105 1755
-407 105 1753
-396 103 1728
-393 104 1741
-394 105 1767
-383 104 1741
-385 105 1773
