VERSION 0.7
FIELDS x y z
SIZE 4 4 4
TYPE I I I
COUNT 1 1 1
WIDTH 3290
HEIGHT 1
VIEWPOINT 0.0 0.0 0.0 1.0 0.0 0.0 0.0
POINTS 3290
DATA ascii
474 -532 2428
481 -532 2425
488 -531 2422
493 -529 2411
500 -530 2411
508 -530 2411
516 -531 2414
522 -530 2408
530 -530 2408
538 -531 2412
546 -532 2414
554 -533 2418
561 -533 2416
569 -533 2415
573 -531 2401
581 -532 2405
589 -533 2406
596 -532 2402
603 -532 2402
608 -531 2393
615 -530 2389
623 -531 2390
629 -530 2384
637 -531 2386
644 -531 2384
650 -529 2377
656 -529 2374
663 -529 2372
671 -529 2371
678 -529 2369
686 -530 2371
689 -527 2355
698 -529 2361
709 -531 2369
714 -530 2361
720 -529 2356
730 -531 2363
736 -530 2357
742 -530 2352
750 -531 2354
756 -530 2349
764 -531 2350
771 -530 2345
775 -528 2336
786 -531 2344
791 -530 2336
797 -529 2330
806 -530 2333
812 -529 2328
819 -529 2325
829 -531 2332
834 -530 2323
843 -531 2327
850 -531 2324
858 -531 2323
863 -530 2315
870 -530 2314
874 -528 2303
881 -528 2299
891 -530 2305
897 -529 2299
904 -529 2297
912 -530 2297
919 -530 2293
924 -529 2285
933 -530 2289
934 -527 2271
946 -529 2281
955 -531 2283
959 -529 2273
969 -530 2275
974 -529 2269
983 -530 2269
988 -529 2263
990 -527 2249
993 -524 2236
1019 -535 2277
1036 -540 2295
1002 -518 2201
1031 -530 2246
1017 -519 2198
1042 -528 2233
1045 -526 2222
1054 -527 2224
1061 -527 2219
1067 -527 2214
1057 -518 2176
979 -477 1999
907 -439 1836
889 -427 1786
895 -427 1784
897 -425 1773
909 -429 1784
914 -428 1780
919 -428 1774
925 -428 1773
929 -427 1766
941 -430 1776
930 -422 1741
944 -426 1754
946 -425 1745
953 -425 1744
967 -429 1757
966 -426 1742
976 -428 1747
976 -425 1733
990 -429 1745
992 -428 1737
-1361 -545 2308
-1337 -539 2285
-1326 -537 2283
-1312 -535 2276
-1299 -533 2270
-1287 -531 2264
-1269 -526 2250
-1238 -517 2212
-1239 -520 2230
-1234 -521 2238
-1223 -520 2235
-1211 -518 2230
-1203 -517 2231
-1189 -514 2222
-1176 -512 2214
-1166 -511 2214
-1155 -509 2209
-1144 -508 2205
-1141 -509 2216
-1124 -505 2200
-1110 -502 2190
-1106 -503 2198
-1090 -499 2184
-1083 -499 2186
-1077 -500 2192
-1065 -497 2184
-1055 -496 2181
-1047 -495 2181
-1032 -492 2169
-1028 -493 2177
-1016 -491 2169
-1006 -489 2164
-993 -486 2155
-987 -487 2160
-978 -486 2156
-977 -488 2171
-997 -502 2235
-1002 -509 2266
-1000 -511 2279
-998 -514 2293
-994 -515 2303
-990 -517 2313
-988 -520 2329
-984 -522 2339
-980 -524 2350
-978 -526 2365
-976 -530 2382
-976 -534 2402
-971 -535 2411
-973 -540 2436
-977 -547 2469
-979 -552 2495
-993 -565 2554
-998 -572 2589
-987 -571 2585
-1000 -583 2642
-1042 -612 2779
-1060 -628 2852
-1056 -631 2869
-1065 -642 2921
-1056 -642 2923
-1056 -647 2950
-1052 -651 2967
-1039 -648 2959
-1031 -649 2964
-1023 -650 2970
-1010 -647 2960
-997 -644 2951
-988 -644 2953
-977 -643 2950
-968 -643 2952
-956 -641 2945
-947 -641 2946
-935 -639 2940
-923 -637 2932
-913 -637 2932
-900 -633 2919
-893 -635 2926
-880 -632 2917
-869 -630 2910
-860 -630 2912
-849 -629 2908
-837 -626 2898
-825 -624 2888
-816 -623 2887
-806 -622 2885
-796 -621 2882
-787 -621 2883
-777 -621 2882
-769 -621 2883
-756 -618 2871
-748 -618 2874
-738 -617 2869
-726 -614 2860
-715 -612 2852
-709 -614 2862
-697 -612 2852
-686 -609 2839
-668 -600 2802
-668 -608 2838
-657 -606 2832
-647 -605 2826
-642 -608 2840
-630 -605 2827
-622 -604 2828
-611 -602 2819
-604 -604 2825
-590 -599 2804
-584 -601 2814
-575 -600 2812
-566 -599 2808
-556 -598 2804
-546 -595 2794
-537 -595 2795
-527 -593 2785
-521 -595 2795
-510 -592 2782
-501 -592 2781
-492 -591 2777
-483 -590 2774
-475 -590 2775
-466 -589 2769
-456 -587 2764
-448 -587 2764
-440 -588 2768
-431 -586 2760
-421 -584 2752
-413 -584 2752
-404 -582 2744
-395 -582 2742
-387 -582 2743
-379 -582 2743
-370 -581 2740
-361 -579 2733
-353 -579 2733
-344 -577 2722
-335 -575 2715
-328 -577 2726
-319 -575 2717
-310 -574 2711
-302 -573 2709
-294 -574 2711
-285 -572 2705
-278 -573 2709
-269 -571 2700
-260 -570 2693
-252 -570 2693
-244 -570 2692
-236 -568 2685
-228 -568 2687
-220 -567 2681
-211 -565 2670
-204 -566 2676
-195 -564 2668
-187 -564 2669
-179 -563 2664
-171 -561 2655
-163 -562 2657
-155 -559 2642
-147 -560 2650
-139 -558 2641
-131 -559 2644
-123 -558 2638
-115 -557 2632
-108 -557 2636
-100 -556 2629
-92 -553 2616
-84 -554 2620
-76 -552 2609
-69 -553 2617
-61 -550 2601
-53 -551 2605
-46 -550 2601
-38 -547 2588
-30 -549 2593
-23 -548 2591
-15 -548 2589
-8 -547 2586
0 -546 2581
7 -545 2576
14 -544 2572
21 -544 2568
29 -544 2569
36 -544 2569
44 -542 2562
51 -542 2558
59 -541 2556
66 -541 2556
74 -541 2551
81 -538 2538
88 -540 2550
96 -539 2541
103 -538 2536
110 -539 2543
117 -536 2528
125 -539 2541
132 -536 2527
139 -536 2527
147 -535 2522
154 -536 2526
161 -533 2510
169 -536 2521
175 -533 2509
183 -535 2515
190 -534 2511
197 -533 2505
204 -531 2498
212 -534 2509
219 -533 2504
226 -533 2502
234 -534 2509
240 -531 2493
247 -530 2487
254 -530 2485
263 -532 2495
268 -529 2478
276 -531 2487
284 -531 2487
290 -530 2480
298 -530 2482
304 -529 2475
312 -529 2475
320 -531 2482
328 -532 2486
334 -530 2478
342 -530 2477
348 -529 2470
354 -528 2463
361 -526 2456
367 -526 2450
372 -523 2436
382 -527 2453
388 -524 2439
393 -522 2429
402 -524 2437
406 -519 2415
414 -521 2421
424 -525 2440
439 -534 2480
447 -535 2482
447 -526 2441
451 -523 2425
457 -521 2416
465 -523 2422
472 -522 2417
478 -521 2409
486 -522 2415
492 -521 2408
500 -522 2408
505 -520 2399
513 -520 2399
520 -521 2400
529 -522 2405
537 -523 2410
553 -532 2445
555 -527 2424
559 -524 2406
564 -522 2398
572 -522 2398
580 -523 2401
586 -523 2395
594 -523 2396
600 -522 2391
605 -521 2382
615 -523 2389
619 -521 2377
629 -523 2385
635 -522 2380
643 -523 2382
647 -520 2367
653 -520 2364
662 -521 2368
669 -521 2365
678 -523 2372
685 -522 2368
690 -521 2360
697 -520 2356
704 -521 2356
713 -522 2359
720 -522 2358
724 -520 2344
733 -521 2350
740 -521 2347
747 -521 2345
751 -519 2333
761 -521 2341
768 -521 2339
775 -521 2335
782 -521 2333
790 -521 2333
796 -521 2329
802 -520 2324
808 -520 2319
815 -520 2316
826 -522 2324
830 -520 2313
840 -522 2320
847 -522 2316
851 -520 2306
859 -521 2307
867 -521 2305
873 -520 2300
881 -521 2301
887 -521 2297
893 -520 2291
902 -521 2292
910 -522 2294
916 -521 2287
920 -519 2278
931 -521 2284
940 -523 2287
945 -522 2278
953 -522 2279
959 -521 2272
965 -521 2268
973 -522 2268
979 -521 2262
983 -519 2252
993 -521 2256
993 -517 2238
1016 -526 2270
1001 -514 2219
1022 -521 2246
1038 -526 2262
1046 -527 2262
1036 -518 2223
1041 -517 2214
1052 -519 2221
1060 -520 2219
1065 -519 2213
1055 -510 2174
977 -469 1995
910 -434 1843
896 -424 1800
894 -421 1783
912 -427 1805
899 -418 1764
914 -422 1781
915 -420 1769
919 -420 1763
926 -420 1763
937 -423 1770
934 -418 1750
951 -424 1769
949 -420 1752
956 -421 1752
961 -421 1747
966 -420 1743
968 -419 1733
983 -423 1747
985 -421 1737
999 -425 1749
-1352 -534 2295
-1337 -531 2287
-1314 -525 2264
-1291 -519 2240
-1297 -524 2268
-1283 -521 2259
-1263 -516 2240
-1263 -520 2258
-1242 -514 2237
-1236 -515 2244
-1215 -509 2222
-1211 -510 2231
-1203 -510 2233
-1190 -508 2226
-1180 -507 2224
-1166 -504 2215
-1154 -502 2209
-1147 -502 2212
-1138 -501 2212
-1126 -499 2205
-1118 -498 2206
-1105 -496 2198
-1095 -495 2196
-1083 -492 2189
-1072 -491 2184
-1064 -490 2183
-1052 -488 2177
-1043 -487 2176
-1035 -486 2176
-1022 -484 2166
-1009 -480 2154
-1007 -483 2169
-988 -477 2146
-988 -481 2163
-978 -479 2157
-982 -484 2184
-991 -492 2224
-1004 -503 2272
-998 -503 2276
-995 -505 2288
-992 -507 2300
-989 -509 2312
-985 -511 2324
-984 -514 2341
-978 -515 2347
-970 -515 2348
-970 -519 2367
-964 -520 2375
-963 -523 2392
-962 -526 2410
-957 -528 2420
-955 -531 2436
-953 -535 2454
-951 -537 2469
-956 -545 2505
-961 -552 2540
-972 -563 2594
-989 -577 2662
-1006 -593 2734
-999 -593 2739
-1004 -602 2781
-1014 -613 2833
-1015 -619 2864
-1025 -630 2920
-1028 -638 2958
-1020 -638 2962
-1009 -637 2959
-993 -633 2941
-980 -630 2931
-963 -625 2909
-949 -622 2897
-940 -622 2898
-936 -625 2915
-930 -627 2926
-921 -627 2927
-911 -626 2927
-902 -626 2926
-890 -624 2919
-881 -624 2922
-868 -621 2911
-856 -619 2902
-847 -618 2901
-836 -617 2895
-823 -613 2881
-818 -616 2896
-805 -613 2885
-797 -614 2890
-787 -613 2884
-775 -610 2875
-764 -608 2867
-756 -609 2871
-747 -609 2873
-735 -606 2860
-726 -606 2861
-718 -606 2863
-707 -604 2857
-697 -603 2851
-680 -596 2819
-671 -595 2817
-668 -600 2841
-658 -598 2835
-650 -599 2838
-639 -597 2830
-628 -594 2819
-619 -593 2817
-610 -593 2818
-603 -594 2822
-592 -592 2812
-583 -591 2811
-571 -588 2795
-564 -589 2800
-555 -588 2799
-546 -587 2796
-535 -585 2786
-527 -585 2788
-518 -585 2786
-510 -584 2784
-501 -583 2782
-490 -580 2767
-481 -580 2765
-475 -582 2779
-466 -582 2776
-458 -581 2775
-447 -578 2761
-437 -575 2747
-429 -575 2749
-420 -575 2748
-411 -574 2743
-401 -571 2731
-394 -572 2735
-386 -571 2734
-377 -571 2731
-370 -572 2735
-360 -569 2723
-352 -569 2726
-343 -568 2718
-334 -566 2713
-326 -565 2707
-316 -563 2695
-310 -566 2710
-300 -562 2693
-292 -562 2695
-282 -558 2675
-274 -558 2674
-267 -559 2680
-258 -556 2666
-250 -556 2665
-241 -554 2658
-233 -553 2651
-224 -552 2646
-217 -552 2648
-209 -552 2647
-200 -549 2634
-193 -551 2645
-185 -550 2637
-177 -548 2629
-169 -548 2629
-161 -547 2626
-154 -548 2628
-145 -544 2612
-137 -544 2609
-129 -543 2607
-121 -541 2596
-114 -541 2597
-106 -542 2601
-98 -541 2594
-91 -540 2594
-83 -540 2590
-75 -539 2585
-68 -536 2572
-60 -537 2575
-53 -537 2574
-45 -536 2571
-38 -536 2573
-30 -534 2564
-22 -535 2566
-15 -535 2564
-7 -534 2558
0 -536 2569
7 -536 2569
14 -533 2556
21 -533 2555
29 -532 2552
36 -533 2553
44 -533 2553
51 -530 2537
58 -530 2539
66 -530 2538
73 -529 2535
80 -527 2521
88 -528 2529
95 -528 2525
102 -528 2527
110 -529 2531
118 -530 2534
124 -527 2521
132 -527 2521
139 -526 2515
146 -527 2516
154 -527 2519
161 -527 2518
168 -525 2508
175 -526 2510
182 -525 2504
190 -526 2509
197 -526 2507
204 -524 2497
211 -523 2491
218 -522 2486
226 -523 2494
232 -522 2486
240 -523 2488
247 -523 2489
254 -522 2485
262 -523 2488
269 -523 2489
276 -523 2487
283 -522 2480
290 -522 2481
297 -522 2477
303 -519 2463
311 -520 2469
318 -520 2466
326 -521 2469
332 -519 2461
339 -519 2459
345 -518 2451
351 -515 2437
358 -515 2437
365 -515 2436
372 -515 2433
377 -512 2422
385 -514 2427
393 -515 2429
401 -515 2430
407 -514 2426
414 -514 2421
419 -511 2408
428 -513 2416
434 -512 2411
440 -511 2403
449 -514 2415
455 -512 2408
462 -512 2404
469 -512 2402
477 -512 2405
485 -514 2411
493 -515 2412
497 -512 2398
505 -512 2398
512 -512 2396
523 -516 2412
534 -520 2429
550 -529 2470
564 -535 2499
570 -534 2489
568 -525 2447
568 -518 2413
572 -516 2400
579 -516 2399
584 -514 2387
592 -514 2388
598 -513 2384
605 -513 2380
614 -515 2386
622 -515 2388
627 -514 2381
631 -512 2366
642 -514 2377
649 -514 2376
655 -514 2370
662 -513 2368
668 -513 2363
674 -512 2356
683 -514 2363
690 -514 2361
696 -513 2356
703 -513 2353
709 -512 2348
716 -512 2345
726 -514 2353
730 -512 2342
737 -512 2340
744 -512 2337
754 -514 2342
758 -512 2331
767 -513 2336
774 -513 2334
779 -512 2327
786 -512 2323
796 -514 2330
801 -512 2321
808 -512 2320
816 -513 2321
825 -514 2323
827 -511 2306
836 -512 2310
843 -512 2307
849 -512 2302
858 -513 2305
869 -516 2314
873 -513 2302
880 -513 2300
886 -513 2293
893 -513 2292
899 -512 2286
909 -514 2293
916 -514 2289
924 -515 2290
927 -512 2276
935 -513 2275
944 -514 2279
952 -515 2279
958 -514 2271
965 -514 2268
970 -513 2262
976 -512 2256
984 -513 2257
991 -513 2252
991 -509 2235
983 -501 2197
1020 -517 2262
1027 -517 2260
1029 -514 2244
1034 -513 2238
1036 -511 2223
1045 -512 2224
1050 -511 2216
1059 -512 2218
1064 -511 2211
1062 -507 2189
983 -466 2009
910 -428 1845
890 -416 1790
893 -415 1781
905 -418 1792
909 -417 1786
909 -414 1771
915 -415 1770
920 -414 1766
927 -415 1765
931 -414 1759
941 -416 1766
942 -414 1753
952 -416 1758
955 -415 1750
966 -417 1758
964 -414 1741
973 -415 1743
976 -414 1735
978 -413 1727
991 -416 1737
-1349 -525 2292
-1346 -527 2303
-1322 -521 2279
-1311 -519 2276
-1291 -514 2259
-1284 -515 2263
-1272 -513 2259
-1255 -509 2245
-1250 -510 2254
-1231 -505 2236
-1221 -504 2233
-1208 -502 2227
-1195 -500 2221
-1187 -499 2222
-1182 -500 2229
-1163 -495 2211
-1159 -496 2219
-1146 -494 2211
-1138 -494 2214
-1121 -489 2196
-1113 -489 2198
-1099 -486 2187
-1094 -487 2195
-1080 -484 2184
-1073 -484 2188
-1065 -483 2186
-1050 -480 2174
-1042 -479 2175
-1032 -478 2171
-1026 -478 2175
-1013 -476 2165
-1008 -477 2172
-999 -475 2170
-984 -472 2154
-976 -471 2156
-980 -477 2183
-995 -487 2234
-1000 -493 2263
-1000 -497 2283
-991 -496 2280
-995 -501 2308
-989 -502 2314
-985 -504 2326
-982 -506 2339
-976 -507 2344
-974 -510 2359
-974 -513 2378
-966 -513 2381
-965 -517 2398
-962 -519 2413
-955 -519 2415
-957 -525 2442
-949 -524 2444
-946 -527 2457
-941 -529 2468
-940 -532 2486
-938 -536 2505
-935 -538 2518
-936 -543 2545
-940 -550 2579
-952 -562 2637
-957 -570 2677
-963 -579 2721
-976 -592 2782
-988 -604 2843
-980 -604 2847
-961 -598 2820
-941 -592 2790
-920 -584 2755
-902 -577 2728
-892 -576 2724
-884 -576 2727
-901 -593 2807
-913 -607 2873
-910 -611 2894
-902 -611 2899
-894 -612 2905
-888 -613 2914
-878 -613 2911
-868 -612 2910
-858 -611 2908
-849 -611 2910
-836 -608 2897
-827 -608 2899
-816 -606 2893
-807 -606 2893
-794 -603 2880
-785 -603 2880
-776 -603 2882
-763 -599 2867
-757 -601 2876
-746 -599 2869
-736 -598 2865
-728 -599 2870
-715 -595 2853
-706 -594 2852
-693 -591 2838
-674 -582 2795
-672 -587 2821
-669 -593 2848
-658 -590 2836
-647 -588 2830
-639 -588 2831
-630 -588 2831
-620 -586 2822
-610 -584 2816
-601 -584 2817
-593 -585 2821
-580 -580 2800
-573 -581 2804
-563 -580 2800
-552 -576 2784
-543 -576 2783
-534 -575 2780
-525 -575 2778
-515 -573 2769
-506 -571 2763
-498 -571 2765
-488 -570 2758
-480 -570 2758
-468 -566 2741
-460 -566 2742
-451 -564 2733
-442 -563 2731
-433 -563 2728
-424 -561 2719
-417 -563 2728
-405 -557 2703
-398 -558 2708
-388 -556 2697
-380 -555 2693
-371 -553 2688
-361 -551 2675
-354 -552 2680
-346 -552 2680
-337 -550 2672
-327 -547 2657
-321 -549 2668
-311 -546 2655
-303 -546 2655
-296 -546 2656
-288 -546 2656
-278 -543 2641
-271 -544 2647
-263 -544 2646
-255 -542 2637
-246 -541 2633
-239 -541 2634
-230 -540 2628
-223 -540 2628
-214 -538 2618
-206 -537 2615
-198 -537 2612
-192 -539 2624
-183 -536 2609
-175 -536 2611
-167 -534 2600
-159 -534 2601
-152 -533 2598
-144 -533 2595
-136 -532 2591
-129 -533 2595
-121 -531 2584
-113 -531 2588
-106 -532 2590
-98 -531 2587
-91 -532 2593
-82 -528 2573
-75 -529 2576
-67 -529 2573
-60 -530 2578
-52 -528 2571
-45 -528 2569
-37 -528 2568
-30 -527 2563
-22 -526 2558
-15 -525 2555
-7 -526 2560
0 -524 2548
7 -526 2558
14 -524 2550
21 -524 2547
29 -522 2536
36 -525 2551
43 -521 2531
51 -522 2537
58 -522 2536
66 -522 2535
73 -522 2534
81 -524 2544
87 -518 2516
95 -520 2526
102 -521 2529
109 -518 2513
117 -521 2528
124 -519 2516
131 -519 2517
139 -518 2511
146 -518 2510
153 -517 2507
160 -518 2509
168 -518 2510
175 -516 2501
181 -515 2493
189 -516 2500
197 -517 2502
203 -514 2488
211 -516 2494
217 -512 2478
225 -515 2490
232 -515 2488
239 -513 2481
247 -514 2483
253 -513 2477
262 -515 2488
268 -514 2482
276 -514 2482
282 -513 2474
290 -515 2481
296 -512 2469
303 -512 2467
309 -510 2455
317 -511 2460
322 -508 2444
328 -506 2431
335 -505 2429
341 -505 2425
348 -504 2420
356 -505 2425
363 -504 2421
370 -504 2419
376 -504 2415
384 -504 2416
389 -502 2406
398 -504 2414
405 -504 2413
411 -502 2404
419 -504 2409
426 -504 2409
433 -503 2404
441 -505 2409
449 -506 2412
454 -503 2401
460 -503 2396
468 -503 2399
476 -505 2403
483 -505 2402
488 -502 2387
496 -503 2390
503 -503 2389
508 -502 2381
524 -510 2418
539 -518 2455
564 -534 2532
577 -540 2557
588 -543 2572
578 -527 2490
573 -515 2436
573 -509 2404
576 -506 2387
581 -504 2378
590 -506 2384
597 -506 2382
603 -505 2375
611 -505 2375
618 -506 2376
624 -504 2368
633 -506 2374
640 -506 2372
649 -508 2379
652 -504 2360
660 -505 2361
666 -504 2358
675 -506 2364
681 -505 2356
686 -504 2349
693 -503 2345
700 -503 2344
709 -505 2349
715 -504 2343
721 -503 2338
729 -504 2339
736 -504 2335
745 -506 2342
750 -504 2332
757 -504 2329
766 -505 2335
771 -504 2325
779 -504 2326
786 -505 2324
791 -503 2317
799 -504 2317
807 -505 2318
812 -504 2311
822 -505 2315
826 -503 2305
835 -505 2308
843 -505 2308
850 -505 2305
854 -503 2295
862 -504 2294
868 -503 2290
876 -504 2290
885 -505 2292
894 -506 2296
897 -504 2282
905 -505 2283
912 -504 2279
921 -506 2283
928 -506 2281
932 -504 2271
942 -506 2274
946 -504 2265
954 -505 2264
963 -506 2266
969 -505 2262
975 -505 2256
982 -505 2252
990 -505 2252
991 -502 2235
1009 -508 2257
1029 -514 2283
1026 -509 2258
1030 -508 2247
1037 -508 2246
1037 -504 2227
1049 -507 2234
1047 -503 2213
1057 -504 2216
1063 -503 2209
1067 -502 2200
990 -462 2024
906 -420 1838
888 -409 1787
899 -412 1794
895 -407 1772
911 -412 1791
909 -409 1774
918 -410 1776
927 -411 1779
927 -409 1766
935 -410 1768
939 -409 1762
945 -410 1760
950 -409 1757
956 -409 1754
966 -411 1758
974 -412 1760
972 -409 1743
971 -406 1728
982 -409 1735
985 -407 1727
-1339 -514 2275
-1332 -514 2281
-1317 -511 2272
-1299 -507 2258
-1290 -506 2258
-1269 -501 2239
-1265 -503 2248
-1258 -503 2252
-1246 -501 2247
-1230 -497 2235
-1222 -497 2237
-1210 -495 2232
-1196 -493 2223
-1194 -495 2236
-1171 -488 2210
-1168 -490 2222
-1153 -487 2209
-1147 -487 2214
-1136 -486 2212
-1123 -483 2202
-1115 -483 2203
-1099 -479 2188
-1090 -478 2188
-1080 -477 2185
-1072 -476 2185
-1063 -476 2185
-1050 -473 2174
-1046 -475 2185
-1034 -472 2177
-1025 -471 2175
-1016 -470 2174
-1005 -468 2167
-996 -467 2165
-987 -466 2163
-977 -465 2158
-983 -471 2190
-996 -481 2238
-1004 -488 2273
-997 -488 2276
-998 -492 2297
-993 -494 2307
-990 -495 2317
-984 -496 2324
-984 -500 2343
-977 -500 2347
-970 -500 2351
-972 -505 2375
-964 -505 2377
-959 -506 2385
-956 -509 2399
-957 -513 2423
-952 -515 2432
-945 -515 2434
-944 -519 2455
-938 -519 2461
-937 -523 2481
-927 -522 2477
-930 -528 2507
-926 -530 2520
-920 -531 2526
-924 -538 2561
-915 -537 2562
-916 -542 2587
-926 -553 2641
-932 -562 2684
-920 -560 2676
-905 -556 2659
-891 -552 2642
-876 -547 2623
-865 -545 2616
-856 -545 2616
-850 -546 2623
-849 -551 2648
-859 -563 2706
-863 -571 2748
-880 -588 2832
-889 -599 2888
-889 -606 2920
-879 -605 2917
-866 -602 2906
-857 -602 2909
-848 -602 2908
-837 -600 2902
-825 -598 2895
-815 -597 2889
-808 -598 2898
-798 -597 2895
-787 -595 2888
-774 -592 2873
-765 -592 2875
-754 -590 2867
-744 -589 2865
-733 -587 2857
-723 -586 2852
-714 -586 2853
-700 -581 2831
-687 -577 2812
-668 -568 2771
-672 -579 2822
-662 -578 2818
-649 -574 2802
-644 -577 2819
-635 -577 2817
-622 -572 2794
-612 -570 2788
-602 -568 2780
-594 -569 2786
-582 -565 2767
-573 -564 2764
-562 -562 2752
-555 -563 2761
-544 -560 2747
-535 -559 2743
-525 -558 2735
-515 -556 2728
-507 -555 2727
-497 -553 2717
-489 -554 2720
-479 -551 2708
-471 -551 2708
-461 -549 2698
-452 -548 2696
-443 -546 2686
-434 -546 2685
-427 -547 2689
-417 -544 2680
-409 -543 2676
-400 -542 2668
-392 -542 2668
-383 -541 2663
-374 -538 2653
-369 -542 2673
-358 -539 2655
-351 -540 2661
-342 -538 2655
-334 -538 2653
-325 -536 2645
-317 -535 2640
-310 -536 2643
-301 -535 2640
-293 -534 2636
-284 -532 2627
-276 -531 2622
-269 -531 2623
-261 -531 2622
-254 -533 2630
-246 -532 2627
-237 -529 2614
-229 -529 2615
-222 -530 2617
-214 -530 2618
-206 -528 2610
-198 -527 2605
-190 -527 2607
-182 -526 2597
-174 -524 2591
-167 -527 2604
-159 -525 2593
-151 -523 2587
-144 -525 2593
-135 -522 2581
-128 -522 2581
-120 -521 2576
-113 -522 2582
-105 -522 2579
-98 -521 2576
-90 -519 2566
-82 -520 2568
-75 -519 2562
-67 -521 2575
-60 -518 2562
-52 -518 2559
-45 -518 2561
-37 -517 2554
-30 -517 2554
-22 -517 2551
-15 -516 2550
-7 -515 2545
0 -515 2544
7 -518 2558
14 -516 2545
21 -514 2537
29 -514 2535
36 -513 2533
44 -514 2536
51 -513 2531
58 -513 2530
65 -512 2523
73 -511 2520
80 -512 2525
87 -511 2520
95 -511 2518
102 -510 2512
109 -511 2516
116 -509 2507
124 -510 2511
131 -510 2512
139 -511 2517
146 -509 2506
152 -507 2496
160 -507 2496
167 -508 2498
175 -509 2503
181 -508 2494
189 -508 2494
196 -507 2491
202 -505 2482
210 -507 2489
217 -505 2477
225 -506 2485
232 -507 2485
239 -506 2483
246 -506 2478
253 -506 2478
260 -505 2476
267 -504 2469
274 -504 2466
282 -506 2477
288 -504 2465
296 -504 2465
302 -503 2459
305 -495 2419
310 -493 2408
318 -494 2410
325 -494 2412
333 -495 2415
340 -495 2416
347 -495 2411
354 -495 2413
361 -495 2411
368 -495 2410
375 -495 2408
382 -495 2406
388 -494 2401
395 -493 2397
404 -495 2406
408 -492 2389
416 -494 2396
424 -495 2400
433 -496 2405
438 -494 2395
446 -495 2396
450 -492 2383
460 -496 2398
465 -493 2385
473 -494 2388
480 -494 2387
487 -494 2386
492 -492 2375
500 -493 2377
507 -493 2374
515 -494 2380
527 -499 2402
544 -509 2446
558 -515 2473
554 -504 2420
555 -499 2395
558 -495 2373
562 -492 2360
571 -494 2366
581 -496 2377
589 -497 2378
595 -496 2372
602 -496 2370
609 -497 2370
615 -496 2365
623 -496 2366
628 -495 2358
637 -497 2363
642 -495 2352
649 -495 2352
657 -496 2354
666 -497 2358
672 -496 2352
680 -497 2354
687 -497 2352
692 -496 2344
699 -496 2343
706 -496 2340
713 -496 2338
722 -497 2341
729 -497 2340
733 -495 2330
741 -495 2328
751 -497 2335
759 -498 2336
761 -495 2319
770 -496 2323
775 -495 2317
785 -497 2321
789 -495 2312
796 -495 2310
802 -494 2303
810 -495 2305
820 -497 2310
827 -497 2310
831 -495 2299
838 -495 2297
849 -497 2304
853 -495 2292
859 -495 2290
867 -495 2288
877 -497 2294
883 -497 2288
891 -497 2288
896 -496 2281
905 -497 2283
908 -496 2272
918 -497 2276
924 -496 2271
931 -496 2269
939 -497 2268
945 -496 2262
955 -498 2268
959 -496 2257
964 -495 2249
974 -497 2255
980 -496 2248
988 -497 2248
992 -495 2238
997 -495 2232
1007 -496 2236
1013 -496 2230
1034 -502 2258
1020 -492 2209
1039 -498 2232
1040 -495 2217
1049 -496 2218
1057 -497 2216
1065 -497 2216
1063 -493 2193
1002 -462 2051
908 -415 1843
890 -404 1792
897 -405 1793
899 -403 1782
902 -402 1774
911 -404 1777
916 -404 1774
920 -402 1767
918 -399 1750
933 -403 1765
938 -403 1761
948 -405 1766
948 -403 1754
948 -400 1741
959 -402 1747
965 -403 1744
967 -401 1735
980 -404 1745
985 -404 1741
992 -405 1740
-1339 -506 2277
-1332 -506 2282
-1313 -502 2266
-1303 -501 2266
-1289 -499 2259
-1283 -499 2265
-1268 -496 2254
-1259 -496 2255
-1238 -490 2234
-1232 -491 2241
-1220 -489 2236
-1209 -488 2232
-1200 -487 2232
-1187 -485 2225
-1173 -482 2215
-1167 -483 2221
-1153 -480 2211
-1147 -480 2216
-1138 -479 2216
-1122 -476 2202
-1118 -477 2211
-1106 -475 2204
-1099 -475 2209
-1087 -473 2202
-1081 -474 2207
-1066 -470 2193
-1059 -470 2195
-1045 -467 2183
-1041 -468 2193
-1025 -464 2176
-1013 -462 2169
-1003 -461 2165
-998 -462 2172
-986 -459 2163
-973 -456 2151
-985 -465 2195
-1000 -476 2248
-1004 -481 2275
-1002 -483 2289
-998 -485 2301
-991 -485 2303
-991 -489 2323
-987 -491 2334
-985 -493 2349
-979 -494 2353
-971 -493 2354
-970 -497 2373
-966 -499 2384
-962 -500 2394
-953 -500 2393
-957 -506 2424
-956 -509 2443
-950 -510 2450
-941 -509 2448
-939 -512 2466
-938 -516 2485
-930 -516 2487
-929 -519 2505
-926 -522 2522
-916 -521 2518
-915 -525 2538
-911 -527 2550
-906 -529 2562
-903 -532 2577
-898 -533 2588
-898 -538 2612
-888 -537 2609
-884 -540 2624
-874 -539 2621
-863 -537 2613
-853 -535 2609
-841 -533 2599
-845 -541 2638
-845 -546 2664
-836 -545 2663
-844 -555 2716
-877 -583 2853
-888 -596 2919
-880 -597 2923
-867 -594 2910
-855 -592 2903
-847 -592 2907
-838 -592 2908
-829 -592 2908
-816 -589 2896
-804 -586 2884
-795 -587 2888
-785 -586 2884
-775 -585 2881
-764 -583 2874
-752 -580 2860
-733 -572 2823
-720 -569 2807
-712 -568 2808
-700 -566 2796
-687 -562 2779
-669 -554 2741
-661 -555 2746
-655 -557 2756
-645 -554 2747
-636 -554 2747
-627 -553 2743
-619 -553 2744
-607 -550 2730
-599 -550 2730
-590 -549 2728
-579 -547 2716
-569 -545 2709
-563 -547 2718
-553 -545 2713
-545 -545 2714
-535 -543 2701
-526 -542 2698
-517 -541 2697
-508 -540 2691
-500 -540 2692
-490 -538 2684
-483 -539 2687
-474 -538 2683
-465 -536 2677
-458 -537 2682
-449 -537 2679
-439 -534 2668
-431 -534 2665
-422 -533 2661
-416 -534 2670
-407 -533 2663
-398 -532 2658
-389 -530 2648
-381 -529 2648
-373 -529 2648
-365 -530 2652
-356 -528 2643
-350 -530 2651
-339 -525 2628
-332 -527 2639
-324 -527 2637
-317 -527 2638
-309 -527 2638
-300 -525 2631
-292 -524 2624
-284 -524 2625
-276 -523 2620
-268 -522 2618
-260 -522 2617
-252 -522 2618
-245 -522 2618
-236 -520 2605
-228 -519 2602
-220 -519 2604
-212 -518 2599
-206 -521 2615
-197 -517 2595
-190 -519 2605
-182 -518 2598
-174 -518 2596
-166 -516 2589
-158 -515 2584
-151 -516 2587
-143 -514 2580
-135 -513 2572
-127 -513 2574
-120 -514 2578
-112 -511 2563
-105 -514 2578
-97 -513 2572
-90 -511 2565
-82 -512 2567
-74 -510 2559
-67 -511 2562
-59 -510 2556
-52 -510 2559
-44 -508 2547
-37 -507 2543
-29 -508 2547
-22 -508 2546
-15 -508 2548
-7 -506 2536
0 -506 2534
7 -506 2535
14 -503 2523
21 -507 2538
29 -504 2527
36 -505 2529
43 -503 2518
51 -504 2526
58 -502 2514
65 -502 2514
73 -502 2514
80 -501 2507
87 -501 2509
94 -501 2505
102 -501 2507
109 -502 2509
116 -500 2501
124 -501 2506
131 -501 2502
138 -499 2493
144 -498 2485
152 -499 2491
159 -497 2484
166 -498 2485
173 -497 2480
181 -497 2482
187 -497 2476
195 -497 2477
202 -497 2475
209 -496 2471
216 -497 2476
223 -496 2473
230 -496 2468
238 -496 2469
244 -495 2463
251 -495 2461
259 -496 2467
266 -495 2460
273 -496 2463
280 -494 2453
287 -494 2451
294 -493 2448
301 -494 2452
304 -488 2418
307 -480 2379
314 -480 2378
323 -484 2398
331 -485 2402
339 -486 2406
346 -486 2405
354 -487 2411
358 -484 2394
367 -487 2406
373 -485 2396
380 -485 2397
388 -486 2401
395 -486 2397
401 -485 2390
408 -485 2390
416 -486 2393
422 -485 2387
429 -485 2387
437 -486 2388
443 -485 2383
450 -484 2380
458 -486 2386
465 -486 2384
471 -485 2380
478 -485 2379
485 -484 2373
492 -485 2375
498 -484 2367
504 -483 2361
511 -483 2360
519 -484 2365
529 -486 2374
534 -485 2366
535 -479 2337
540 -478 2329
549 -480 2337
558 -482 2344
563 -480 2333
576 -485 2356
583 -485 2356
592 -487 2363
599 -487 2360
606 -487 2359
611 -485 2350
620 -487 2356
628 -487 2357
635 -488 2356
642 -488 2355
648 -487 2348
654 -486 2344
661 -486 2342
670 -488 2347
676 -487 2341
682 -486 2336
690 -487 2338
696 -486 2332
705 -488 2338
711 -487 2333
716 -485 2322
727 -489 2336
730 -486 2320
741 -489 2331
744 -485 2315
754 -488 2323
761 -488 2323
769 -488 2320
773 -486 2310
780 -487 2310
787 -486 2306
796 -488 2309
804 -488 2310
809 -487 2302
817 -488 2303
823 -487 2298
829 -487 2292
835 -486 2288
845 -488 2295
853 -489 2296
858 -487 2287
865 -488 2286
870 -486 2278
880 -488 2282
886 -487 2276
891 -486 2269
899 -487 2271
909 -489 2274
915 -488 2270
919 -487 2260
927 -487 2260
936 -488 2261
941 -487 2254
952 -489 2261
959 -489 2259
966 -489 2256
973 -489 2253
974 -487 2237
986 -489 2245
993 -489 2242
994 -486 2225
1012 -492 2248
1010 -487 2225
1024 -490 2237
1024 -487 2219
1037 -490 2229
1042 -489 2222
1049 -489 2218
1058 -490 2220
1064 -490 2216
1067 -488 2203
1007 -457 2063
915 -413 1859
894 -400 1800
896 -399 1792
898 -397 1782
903 -397 1777
913 -399 1784
915 -397 1772
922 -398 1773
928 -398 1770
928 -395 1756
943 -400 1772
948 -399 1767
946 -396 1750
959 -399 1762
964 -399 1757
965 -397 1746
969 -396 1740
983 -400 1751
989 -400 1749
990 -398 1738
-1345 -501 2290
-1323 -496 2268
-1314 -495 2270
-1305 -494 2270
-1288 -491 2257
-1277 -490 2255
-1267 -489 2254
-1251 -485 2243
-1237 -483 2234
-1230 -483 2238
-1213 -479 2225
-1205 -479 2226
-1193 -477 2220
-1185 -477 2222
-1179 -477 2229
-1163 -474 2214
-1159 -475 2224
-1138 -469 2200
-1137 -472 2216
-1124 -469 2207
-1111 -467 2199
-1108 -469 2211
-1101 -469 2214
-1081 -464 2191
-1069 -461 2183
-1067 -463 2195
-1044 -457 2167
-1041 -458 2177
-1028 -456 2168
-1019 -455 2165
-1010 -454 2163
-998 -451 2155
-991 -451 2157
-983 -451 2157
-975 -450 2157
-987 -459 2202
-1002 -470 2254
-1003 -473 2275
-1000 -476 2288
-993 -475 2289
-990 -478 2302
-991 -482 2324
-982 -481 2323
-981 -484 2339
-980 -487 2358
-974 -488 2364
-971 -490 2375
-964 -490 2379
-961 -492 2393
-959 -495 2409
-951 -495 2410
-948 -498 2425
-948 -501 2445
-940 -501 2447
-936 -503 2459
-936 -507 2480
-927 -507 2480
-927 -511 2504
-921 -512 2510
-916 -514 2521
-910 -515 2527
-906 -516 2538
-902 -519 2552
-896 -520 2558
-894 -523 2579
-890 -526 2592
-887 -529 2609
-881 -530 2617
-873 -530 2619
-869 -532 2631
-859 -531 2626
-854 -533 2639
-845 -532 2638
-849 -540 2678
-833 -535 2656
-841 -546 2710
-879 -576 2861
-889 -588 2923
-877 -586 2913
-866 -585 2910
-858 -585 2912
-847 -584 2909
-836 -582 2902
-823 -579 2889
-812 -578 2884
-804 -578 2886
-795 -578 2888
-784 -576 2882
-773 -574 2874
-762 -573 2866
-743 -564 2827
-717 -551 2764
-704 -548 2746
-693 -546 2739
-682 -543 2727
-673 -542 2724
-665 -543 2729
-654 -541 2717
-646 -541 2720
-639 -542 2725
-629 -540 2719
-617 -537 2703
-608 -536 2698
-601 -537 2704
-591 -535 2699
-585 -537 2706
-576 -536 2705
-570 -538 2714
-557 -533 2693
-550 -534 2697
-542 -535 2701
-532 -532 2688
-524 -533 2693
-514 -530 2679
-507 -532 2689
-498 -530 2683
-490 -530 2681
-481 -529 2677
-473 -529 2680
-462 -525 2660
-455 -526 2667
-447 -527 2670
-437 -523 2652
-430 -525 2660
-422 -524 2659
-412 -522 2650
-406 -524 2658
-397 -523 2655
-388 -522 2649
-380 -521 2645
-373 -522 2649
-363 -519 2635
-355 -519 2635
-347 -519 2635
-339 -518 2634
-331 -518 2634
-323 -518 2633
-315 -517 2631
-306 -515 2617
-299 -515 2620
-291 -515 2622
-284 -517 2629
-275 -514 2614
-267 -514 2615
-259 -513 2611
-251 -512 2605
-244 -512 2607
-236 -511 2604
-227 -510 2595
-220 -511 2604
-212 -511 2601
-204 -508 2586
-196 -507 2583
-188 -506 2576
-180 -506 2578
-173 -507 2583
-165 -506 2579
-157 -505 2575
-149 -504 2568
-142 -504 2567
-134 -504 2565
-127 -503 2562
-119 -503 2561
-111 -501 2552
-104 -502 2559
-96 -500 2548
-89 -500 2547
-81 -500 2545
-74 -500 2548
-66 -498 2536
-59 -498 2538
-52 -500 2545
-44 -499 2539
-37 -497 2531
-29 -497 2528
-22 -496 2527
-14 -496 2526
-7 -495 2517
0 -494 2515
7 -496 2526
14 -494 2515
21 -493 2508
29 -494 2514
36 -492 2504
43 -492 2500
50 -492 2502
58 -493 2504
65 -493 2507
72 -493 2504
79 -490 2489
87 -492 2498
94 -491 2496
100 -488 2477
108 -489 2484
114 -486 2467
122 -489 2482
129 -487 2473
137 -489 2482
143 -486 2466
151 -488 2475
158 -486 2464
165 -487 2469
172 -486 2464
179 -487 2467
185 -484 2450
193 -486 2461
199 -483 2444
208 -486 2457
214 -484 2450
220 -482 2436
228 -484 2444
235 -484 2444
242 -482 2437
249 -483 2441
257 -484 2444
263 -483 2436
270 -483 2436
277 -481 2428
284 -482 2428
290 -480 2421
298 -481 2423
302 -477 2404
307 -474 2386
313 -471 2372
318 -470 2362
326 -470 2365
336 -475 2388
343 -476 2390
350 -474 2383
357 -475 2386
365 -476 2391
371 -476 2386
379 -477 2391
385 -476 2384
393 -477 2389
400 -476 2383
408 -478 2392
412 -474 2370
422 -478 2391
426 -475 2371
435 -477 2382
442 -477 2381
448 -476 2373
454 -475 2367
462 -476 2370
468 -475 2363
476 -476 2367
482 -475 2362
489 -475 2362
495 -474 2356
504 -475 2361
510 -475 2357
516 -474 2352
525 -476 2357
530 -474 2349
537 -474 2348
539 -470 2326
549 -473 2338
558 -475 2346
562 -472 2332
570 -473 2333
577 -473 2331
584 -473 2332
593 -474 2336
600 -475 2335
608 -476 2339
616 -477 2342
621 -475 2334
631 -477 2340
636 -476 2333
641 -475 2325
650 -476 2329
656 -476 2326
666 -478 2335
671 -476 2325
674 -474 2311
684 -476 2320
692 -477 2321
696 -474 2307
708 -478 2322
713 -477 2315
719 -476 2309
728 -478 2315
732 -476 2304
740 -476 2303
751 -479 2316
758 -479 2312
764 -478 2307
769 -477 2299
776 -477 2298
785 -478 2302
792 -478 2299
797 -477 2292
807 -479 2300
809 -476 2282
820 -479 2292
826 -478 2286
830 -476 2275
844 -480 2293
848 -479 2283
851 -476 2269
861 -478 2275
870 -480 2279
875 -478 2272
885 -480 2275
892 -480 2272
898 -480 2269
904 -479 2262
912 -479 2263
918 -479 2259
923 -478 2251
929 -478 2247
941 -480 2255
946 -479 2249
954 -480 2248
962 -480 2247
971 -481 2249
976 -480 2242
985 -481 2244
989 -480 2234
982 -473 2201
1001 -479 2224
1001 -476 2205
1023 -483 2236
1031 -483 2235
1035 -482 2226
1042 -482 2222
1048 -482 2218
1058 -483 2222
1062 -482 2211
1063 -479 2196
1008 -451 2065
913 -406 1855
899 -397 1813
894 -392 1788
904 -394 1794
906 -393 1784
902 -388 1763
911 -390 1767
922 -392 1774
929 -393 1774
931 -391 1764
940 -392 1767
933 -387 1741
947 -391 1753
953 -391 1751
960 -391 1750
963 -391 1744
970 -391 1742
979 -392 1746
974 -388 1724
987 -391 1734
-1333 -489 2270
-1323 -488 2270
-1313 -487 2270
-1305 -487 2273
-1287 -483 2258
-1268 -479 2241
-1267 -481 2255
-1256 -480 2254
-1240 -477 2241
-1225 -474 2231
-1220 -474 2238
-1206 -472 2229
-1199 -472 2233
-1186 -470 2225
-1181 -471 2233
-1176 -472 2240
-1160 -468 2228
-1150 -467 2225
-1138 -465 2220
-1134 -467 2228
-1116 -462 2210
-1094 -456 2183
-1087 -456 2186
-1088 -459 2206
-1061 -451 2168
-1053 -451 2169
-1044 -449 2166
-1039 -450 2173
-1036 -452 2185
-1031 -453 2191
-1010 -447 2164
-996 -444 2152
-1009 -453 2197
-980 -443 2152
-970 -441 2147
-983 -450 2194
-1000 -462 2251
-999 -464 2266
-1003 -470 2295
-995 -469 2295
-994 -472 2312
-987 -472 2316
-985 -475 2331
-982 -477 2344
-979 -479 2357
-972 -479 2359
-970 -482 2375
-967 -484 2389
-965 -487 2404
-959 -488 2410
-955 -490 2422
-953 -493 2439
-947 -493 2444
-941 -494 2451
-937 -496 2462
-931 -497 2469
-928 -500 2485
-925 -502 2499
-924 -506 2520
-920 -508 2531
-912 -508 2532
-910 -511 2551
-904 -512 2560
-899 -514 2568
-896 -517 2587
-889 -517 2589
-882 -518 2594
-880 -521 2615
-870 -520 2611
-869 -524 2633
-860 -524 2634
-855 -526 2644
-853 -529 2663
-848 -531 2675
-841 -532 2683
-848 -542 2733
-870 -561 2833
-877 -571 2884
-875 -576 2910
-864 -574 2904
-852 -572 2896
-844 -572 2898
-836 -574 2906
-823 -570 2890
-814 -570 2891
-805 -570 2892
-795 -569 2889
-784 -567 2882
-772 -565 2873
-759 -562 2858
-730 -547 2781
-706 -535 2724
-697 -534 2721
-689 -534 2722
-681 -535 2725
-670 -532 2715
-661 -532 2714
-653 -531 2713
-643 -530 2706
-633 -528 2700
-625 -529 2704
-616 -528 2700
-608 -528 2702
-599 -527 2697
-592 -528 2704
-583 -527 2698
-574 -526 2698
-567 -527 2704
-555 -523 2683
-549 -526 2697
-536 -521 2673
-530 -522 2682
-523 -523 2686
-514 -523 2685
-505 -521 2677
-494 -518 2665
-487 -519 2670
-478 -518 2663
-471 -519 2667
-462 -518 2663
-453 -516 2654
-445 -516 2659
-438 -517 2661
-427 -514 2647
-419 -513 2644
-411 -513 2643
-402 -512 2637
-395 -512 2641
-387 -512 2639
-378 -510 2633
-371 -511 2638
-363 -510 2634
-354 -509 2626
-346 -509 2629
-339 -510 2631
-328 -506 2611
-321 -507 2617
-314 -507 2617
-304 -504 2604
-298 -506 2612
-290 -505 2609
-282 -504 2606
-273 -502 2597
-264 -501 2588
-258 -504 2604
-251 -504 2603
-242 -501 2591
-233 -499 2583
-227 -501 2592
-218 -499 2579
-210 -498 2577
-202 -497 2570
-195 -498 2574
-187 -495 2562
-178 -493 2551
-172 -495 2562
-164 -495 2560
-156 -495 2561
-148 -492 2543
-141 -493 2549
-134 -493 2552
-126 -492 2544
-119 -493 2549
-111 -491 2541
-103 -491 2539
-95 -489 2531
-88 -488 2527
-81 -489 2529
-73 -488 2526
-66 -488 2523
-58 -488 2522
-51 -489 2527
-44 -489 2528
-36 -487 2518
-29 -486 2513
-22 -486 2511
-14 -486 2513
-7 -484 2499
0 -483 2495
7 -485 2508
14 -484 2503
21 -487 2517
28 -483 2498
36 -482 2491
43 -484 2500
50 -481 2483
57 -482 2487
65 -482 2490
72 -481 2480
79 -482 2488
86 -479 2470
93 -479 2472
100 -480 2476
107 -477 2461
115 -480 2475
122 -480 2474
129 -478 2464
136 -479 2468
143 -479 2467
150 -479 2465
157 -477 2457
163 -475 2444
171 -476 2448
178 -475 2445
185 -475 2441
193 -477 2452
200 -478 2456
206 -475 2438
213 -474 2435
220 -473 2430
227 -473 2427
233 -473 2426
240 -472 2423
248 -473 2428
256 -476 2441
262 -473 2426
270 -475 2431
275 -471 2410
283 -473 2420
289 -472 2415
297 -473 2417
303 -472 2412
307 -467 2387
312 -464 2372
318 -462 2359
324 -461 2354
332 -463 2362
340 -464 2366
350 -468 2387
356 -466 2376
364 -468 2382
371 -468 2381
378 -468 2381
385 -468 2380
390 -466 2372
397 -466 2368
405 -468 2376
412 -467 2373
418 -466 2367
425 -466 2366
432 -467 2366
438 -466 2360
447 -467 2366
453 -467 2362
460 -466 2360
468 -467 2363
474 -466 2357
480 -466 2352
485 -464 2344
496 -467 2358
502 -467 2354
506 -464 2339
512 -464 2336
521 -466 2343
528 -466 2342
534 -464 2334
541 -465 2334
548 -465 2333
554 -464 2328
561 -464 2328
570 -466 2333
576 -465 2329
581 -464 2321
587 -463 2314
595 -464 2318
603 -465 2321
609 -464 2316
616 -464 2314
623 -464 2313
631 -465 2316
634 -462 2298
644 -464 2308
650 -464 2305
658 -465 2307
667 -466 2311
671 -464 2299
679 -465 2303
686 -465 2301
692 -465 2297
700 -465 2298
706 -465 2293
714 -465 2294
720 -465 2291
726 -465 2286
733 -464 2282
740 -465 2283
748 -466 2284
755 -466 2282
763 -466 2282
769 -466 2278
774 -464 2270
782 -465 2272
789 -465 2270
800 -468 2279
803 -466 2267
813 -467 2273
819 -467 2268
828 -468 2272
833 -467 2263
842 -468 2267
848 -468 2262
856 -468 2262
863 -469 2262
872 -470 2264
877 -469 2257
885 -469 2258
895 -471 2261
902 -471 2259
908 -470 2254
915 -471 2253
919 -469 2243
927 -469 2242
934 -470 2240
940 -469 2236
955 -473 2251
957 -471 2237
962 -470 2229
973 -472 2238
980 -472 2235
987 -472 2231
996 -473 2234
1015 -478 2256
1015 -475 2237
1012 -471 2214
1025 -474 2225
1034 -475 2226
1043 -475 2226
1048 -474 2219
1051 -473 2207
1062 -475 2213
1064 -472 2199
1014 -447 2079
922 -404 1875
895 -389 1806
884 -382 1769
905 -388 1796
908 -387 1788
911 -386 1781
915 -386 1774
917 -384 1765
922 -384 1762
935 -387 1773
943 -388 1774
944 -386 1762
942 -383 1744
955 -386 1756
961 -386 1755
963 -385 1744
969 -385 1742
978 -386 1744
978 -384 1732
994 -388 1747
-1332 -481 2271
-1322 -480 2270
-1305 -477 2257
-1299 -477 2264
-1288 -476 2262
-1279 -475 2262
-1266 -473 2256
-1245 -468 2235
-1238 -468 2239
-1227 -467 2235
-1225 -469 2250
-1209 -466 2237
-1188 -461 2214
-1187 -463 2230
-1187 -466 2247
-1170 -462 2232
-1158 -460 2225
-1137 -455 2201
-1128 -454 2202
-1121 -454 2205
-1105 -450 2189
-1099 -451 2194
-1090 -450 2194
-1089 -453 2210
-1065 -446 2178
-1058 -446 2181
-1057 -448 2196
-1051 -449 2200
-1035 -445 2185
-1027 -445 2186
-1017 -443 2181
-1010 -443 2184
-1008 -445 2197
-986 -439 2167
-977 -438 2164
-987 -445 2205
-1004 -456 2261
-1000 -458 2271
-997 -460 2283
-992 -461 2290
-989 -463 2303
-991 -467 2327
-985 -468 2332
-981 -469 2342
-974 -470 2347
-973 -473 2364
-968 -474 2372
-969 -478 2395
-963 -479 2401
-957 -479 2407
-955 -482 2423
-952 -484 2436
-946 -486 2445
-944 -488 2461
-938 -489 2468
-935 -492 2482
-930 -493 2492
-923 -493 2495
-919 -495 2508
-915 -497 2519
-908 -498 2525
-909 -503 2551
-899 -502 2546
-899 -506 2570
-892 -506 2576
-886 -507 2583
-885 -511 2604
-879 -513 2614
-874 -514 2623
-870 -517 2637
-859 -515 2632
-856 -518 2648
-849 -519 2652
-843 -520 2662
-838 -522 2673
-842 -530 2716
-847 -538 2760
-853 -547 2808
-855 -554 2845
-850 -556 2858
-851 -563 2894
-841 -562 2891
-832 -562 2892
-824 -562 2896
-811 -559 2881
-802 -559 2882
-793 -559 2886
-779 -555 2867
-767 -553 2856
-754 -549 2838
-720 -531 2746
-706 -526 2722
-696 -525 2717
-685 -523 2709
-679 -524 2716
-669 -524 2713
-659 -522 2707
-651 -522 2706
-639 -519 2691
-631 -519 2692
-625 -521 2704
-615 -519 2698
-605 -517 2688
-595 -515 2679
-588 -516 2685
-580 -517 2690
-571 -516 2686
-561 -513 2674
-554 -515 2681
-546 -515 2683
-534 -511 2664
-526 -510 2660
-520 -512 2672
-508 -508 2652
-502 -511 2665
-492 -508 2651
-485 -509 2659
-476 -508 2655
-467 -507 2648
-459 -506 2645
-451 -506 2647
-442 -505 2639
-434 -504 2637
-425 -503 2633
-418 -504 2637
-409 -503 2631
-401 -502 2629
-392 -501 2625
-386 -503 2633
-376 -501 2623
-366 -497 2604
-358 -496 2601
-352 -499 2616
-343 -497 2608
-336 -498 2614
-329 -498 2615
-319 -495 2596
-312 -496 2604
-304 -496 2602
-296 -495 2599
-288 -494 2593
-280 -495 2597
-272 -494 2594
-265 -493 2591
-256 -492 2584
-248 -490 2574
-241 -492 2586
-232 -489 2568
-225 -490 2576
-217 -488 2563
-210 -489 2570
-201 -486 2555
-194 -488 2562
-186 -487 2558
-179 -488 2566
-172 -488 2565
-163 -486 2554
-156 -487 2559
-148 -484 2545
-140 -483 2541
-133 -484 2544
-126 -485 2548
-118 -485 2548
-110 -481 2528
-103 -482 2535
-96 -484 2544
-88 -483 2540
-80 -480 2522
-73 -482 2534
-66 -481 2524
-58 -480 2520
-51 -480 2522
-44 -481 2524
-36 -479 2514
-29 -478 2508
-22 -480 2518
-14 -477 2506
-7 -477 2504
0 -476 2498
7 -479 2513
14 -477 2502
21 -477 2501
28 -476 2495
36 -476 2499
43 -477 2502
50 -474 2487
57 -474 2487
65 -474 2483
72 -473 2479
79 -474 2483
86 -472 2473
93 -473 2478
101 -473 2480
108 -473 2477
115 -472 2474
122 -473 2477
129 -470 2461
136 -473 2474
144 -473 2472
151 -473 2471
157 -471 2462
164 -470 2455
172 -470 2459
178 -469 2449
186 -471 2458
193 -470 2456
200 -470 2455
207 -470 2455
214 -470 2453
221 -468 2443
228 -470 2448
235 -469 2446
242 -468 2439
250 -470 2446
256 -469 2441
264 -469 2442
269 -466 2423
278 -469 2439
284 -468 2432
291 -467 2426
298 -466 2423
305 -467 2423
311 -465 2414
315 -460 2388
319 -457 2372
325 -455 2361
330 -452 2344
336 -452 2341
345 -455 2355
352 -455 2354
360 -456 2361
370 -459 2376
375 -457 2362
383 -459 2370
388 -457 2358
395 -457 2357
403 -457 2360
412 -460 2374
418 -459 2365
422 -456 2348
431 -458 2359
436 -456 2346
444 -457 2352
451 -457 2351
458 -458 2352
464 -457 2346
471 -457 2345
478 -457 2346
486 -458 2350
491 -456 2338
499 -457 2340
505 -456 2336
511 -456 2332
518 -455 2328
525 -455 2326
533 -457 2331
539 -456 2327
548 -458 2334
552 -455 2320
561 -457 2327
567 -457 2323
572 -455 2312
578 -454 2309
584 -453 2302
591 -454 2303
595 -451 2289
607 -455 2308
616 -457 2315
624 -458 2317
633 -459 2323
640 -459 2321
645 -458 2312
651 -458 2310
657 -457 2305
663 -457 2300
669 -456 2294
679 -458 2305
683 -456 2290
687 -455 2282
697 -456 2288
704 -457 2289
710 -456 2283
715 -455 2276
726 -458 2287
733 -458 2285
737 -456 2274
744 -456 2271
753 -457 2276
757 -456 2266
766 -457 2269
774 -457 2271
780 -457 2267
785 -456 2259
794 -457 2264
798 -456 2252
808 -458 2260
814 -457 2256
824 -459 2262
827 -457 2250
837 -459 2255
842 -458 2248
850 -458 2248
857 -458 2245
860 -456 2233
868 -457 2235
879 -459 2242
884 -458 2235
895 -460 2243
898 -458 2231
907 -459 2233
912 -458 2225
922 -460 2231
927 -459 2224
938 -461 2232
945 -461 2229
949 -460 2219
960 -462 2226
969 -463 2229
975 -462 2223
980 -462 2217
992 -464 2225
995 -462 2214
1020 -471 2251
1027 -470 2247
1030 -469 2237
1036 -468 2230
1039 -467 2220
1046 -467 2216
1057 -469 2223
1064 -468 2219
1061 -464 2194
1017 -442 2087
919 -396 1869
896 -384 1808
892 -380 1786
902 -382 1792
905 -380 1783
900 -376 1759
913 -379 1771
917 -379 1767
919 -377 1756
928 -378 1760
933 -378 1755
947 -382 1769
942 -377 1747
951 -379 1750
956 -378 1746
959 -377 1737
971 -380 1747
973 -378 1737
979 -379 1735
988 -380 1738
-1341 -477 2287
-1320 -472 2268
-1312 -472 2272
-1288 -466 2246
-1283 -467 2253
-1279 -468 2264
-1264 -465 2254
-1250 -463 2245
-1242 -463 2249
-1223 -459 2231
-1207 -455 2217
-1214 -460 2247
-1195 -456 2228
-1169 -449 2197
-1175 -454 2225
-1151 -448 2196
-1148 -449 2208
-1138 -448 2206
-1121 -444 2189
-1117 -445 2198
-1107 -444 2196
-1102 -445 2202
-1090 -443 2195
-1089 -446 2210
-1076 -443 2202
-1072 -445 2211
-1056 -441 2195
-1046 -440 2192
-1039 -440 2195
-1031 -439 2194
-1022 -438 2193
-1008 -435 2181
-1002 -436 2186
-988 -432 2171
-979 -432 2171
-990 -440 2213
-1003 -449 2261
-1002 -451 2276
-1003 -455 2297
-992 -453 2291
-989 -455 2303
-989 -459 2324
-984 -460 2332
-977 -460 2335
-975 -463 2350
-969 -463 2355
-971 -468 2380
-964 -468 2384
-965 -472 2406
-961 -474 2420
-958 -476 2433
-951 -476 2436
-947 -478 2446
-945 -481 2463
-941 -483 2477
-936 -484 2485
-932 -486 2498
-924 -486 2498
-923 -490 2519
-918 -491 2530
-914 -493 2541
-906 -493 2543
-901 -495 2553
-894 -495 2558
-892 -499 2577
-886 -499 2583
-881 -502 2596
-876 -503 2606
-871 -505 2616
-863 -505 2618
-862 -509 2643
-854 -509 2643
-849 -511 2654
-841 -511 2656
-842 -516 2687
-833 -516 2688
-832 -521 2713
-828 -523 2728
-829 -529 2761
-827 -533 2785
-828 -539 2816
-824 -542 2835
-820 -545 2851
-820 -551 2883
-811 -551 2886
-802 -550 2883
-788 -547 2868
-766 -538 2821
-750 -532 2793
-727 -522 2741
-714 -518 2722
-702 -515 2709
-693 -515 2709
-687 -517 2717
-671 -511 2689
-664 -512 2695
-654 -510 2686
-645 -509 2683
-640 -511 2696
-627 -508 2679
-618 -506 2673
-611 -508 2680
-600 -505 2669
-595 -507 2681
-587 -507 2682
-575 -504 2666
-568 -505 2672
-559 -504 2669
-550 -503 2664
-543 -504 2669
-533 -502 2660
-523 -500 2649
-516 -500 2652
-508 -500 2653
-500 -501 2656
-491 -499 2649
-482 -499 2646
-474 -497 2641
-467 -499 2651
-456 -496 2634
-449 -496 2635
-443 -498 2648
-434 -497 2641
-424 -495 2631
-417 -495 2635
-409 -495 2634
-399 -493 2622
-392 -493 2626
-385 -494 2628
-375 -491 2615
-369 -493 2624
-361 -494 2628
-352 -491 2615
-344 -490 2612
-337 -491 2618
-327 -489 2604
-320 -489 2606
-312 -489 2608
-304 -488 2603
-297 -489 2608
-288 -487 2599
-281 -488 2603
-273 -487 2599
-265 -487 2596
-256 -484 2584
-249 -485 2586
-241 -485 2587
-234 -485 2588
-225 -483 2578
-218 -485 2587
-210 -482 2575
-202 -481 2567
-195 -483 2577
-187 -482 2573
-179 -480 2565
-172 -481 2568
-164 -479 2560
-156 -478 2553
-148 -477 2546
-140 -477 2546
-133 -478 2551
-126 -478 2551
-118 -476 2543
-111 -476 2542
-103 -477 2547
-96 -477 2544
-88 -475 2537
-81 -475 2533
-74 -477 2547
-66 -475 2535
-58 -474 2532
-51 -473 2522
-44 -473 2525
-36 -473 2526
-29 -476 2540
-21 -469 2501
-14 -471 2515
-7 -471 2511
0 -471 2509
7 -471 2512
14 -470 2507
21 -469 2502
29 -470 2505
36 -468 2496
43 -469 2499
50 -469 2497
58 -468 2495
65 -466 2485
72 -468 2493
79 -467 2486
86 -467 2484
94 -468 2493
101 -466 2482
108 -466 2477
115 -465 2475
122 -464 2468
129 -466 2477
137 -466 2477
143 -465 2469
151 -465 2469
158 -464 2467
164 -461 2450
172 -464 2463
179 -463 2455
186 -463 2456
192 -461 2448
199 -461 2447
208 -464 2460
213 -461 2441
220 -460 2438
228 -462 2448
235 -461 2439
241 -458 2426
249 -460 2436
256 -461 2441
264 -461 2440
269 -459 2427
277 -460 2429
283 -458 2420
291 -459 2426
298 -460 2431
304 -458 2415
312 -460 2425
318 -458 2414
323 -455 2399
326 -450 2370
331 -448 2357
336 -445 2341
344 -446 2345
349 -443 2331
357 -446 2343
366 -448 2353
373 -448 2351
380 -448 2350
387 -448 2349
394 -448 2349
402 -450 2359
409 -449 2355
414 -448 2347
420 -447 2341
429 -449 2351
433 -446 2332
441 -447 2339
448 -447 2336
455 -448 2338
463 -449 2342
469 -448 2337
476 -448 2336
481 -447 2326
489 -447 2329
496 -447 2327
503 -448 2329
509 -447 2323
517 -448 2324
525 -449 2330
530 -447 2319
536 -447 2316
543 -447 2314
549 -446 2309
559 -448 2320
564 -447 2311
570 -447 2308
579 -448 2313
584 -447 2305
592 -447 2306
596 -445 2294
602 -445 2289
612 -447 2299
621 -449 2309
632 -452 2321
637 -450 2311
647 -452 2320
655 -453 2323
659 -452 2313
666 -452 2310
671 -451 2304
679 -451 2305
685 -451 2300
692 -451 2299
699 -451 2298
707 -451 2298
713 -451 2292
721 -452 2296
725 -450 2282
732 -450 2282
740 -451 2284
749 -452 2287
756 -452 2286
760 -451 2277
767 -450 2274
772 -450 2267
782 -452 2275
786 -450 2263
794 -450 2265
802 -451 2266
806 -450 2256
816 -451 2261
821 -450 2254
829 -451 2255
835 -451 2251
841 -450 2246
845 -448 2235
855 -450 2241
862 -450 2239
870 -451 2241
873 -449 2228
884 -451 2237
888 -449 2226
896 -450 2226
905 -452 2231
909 -450 2220
920 -452 2228
924 -451 2219
931 -451 2216
941 -452 2220
949 -453 2220
956 -453 2218
958 -451 2204
968 -452 2209
980 -455 2218
985 -454 2211
999 -457 2223
1013 -460 2237
1012 -457 2217
1042 -467 2264
1033 -460 2224
1040 -460 2223
1047 -460 2220
1051 -459 2211
1060 -460 2212
1057 -455 2187
1012 -433 2077
922 -392 1877
891 -376 1799
892 -374 1788
893 -372 1774
906 -375 1787
905 -372 1771
911 -373 1770
919 -373 1770
923 -373 1764
928 -373 1761
943 -377 1777
945 -375 1767
946 -373 1755
962 -377 1771
966 -376 1764
959 -372 1739
971 -374 1747
977 -374 1746
982 -374 1741
986 -373 1735
-1338 -468 2283
-1336 -470 2297
-1321 -468 2288
-1299 -462 2266
-1280 -458 2251
-1279 -461 2265
-1267 -459 2261
-1257 -458 2259
-1243 -456 2251
-1229 -453 2242
-1216 -451 2235
-1193 -445 2210
-1205 -453 2250
-1180 -446 2219
