VERSION 0.7
FIELDS x y z
SIZE 4 4 4
TYPE I I I
COUNT 1 1 1
WIDTH 3161
HEIGHT 1
VIEWPOINT 0.0 0.0 0.0 1.0 0.0 0.0 0.0
POINTS 3161
DATA ascii
-1660 -1371 3221
-1644 -1367 3216
-1624 -1359 3202
-1611 -1358 3203
-1598 -1355 3201
-1586 -1354 3204
-1560 -1342 3179
-1543 -1336 3170
-1534 -1338 3178
-1511 -1326 3155
-1502 -1328 3164
-1476 -1314 3135
-1452 -1302 3110
-1424 -1286 3076
-1398 -1272 3046
-1375 -1260 3021
-1360 -1255 3013
-1344 -1250 3004
-1330 -1246 2998
-1318 -1244 2996
-1299 -1235 2980
-1277 -1223 2955
-1255 -1211 2929
-1235 -1202 2910
-1214 -1190 2884
-1218 -1204 2922
-1206 -1201 2917
-1192 -1197 2911
-1071 -1084 2639
-925 -944 2301
-905 -931 2271
-1091 -1131 2763
-1169 -1222 2989
-1155 -1218 2981
-1154 -1227 3006
-1145 -1227 3011
-1137 -1230 3020
-1125 -1227 3017
-1113 -1225 3014
-1103 -1224 3014
-1093 -1223 3016
-1082 -1222 3015
-1068 -1218 3008
-1059 -1218 3011
-1043 -1210 2995
-1028 -1205 2984
-1016 -1202 2979
-1004 -1198 2973
-997 -1202 2984
-982 -1195 2971
-975 -1198 2979
-957 -1187 2956
-949 -1189 2962
-937 -1186 2957
-925 -1182 2951
-913 -1178 2943
-903 -1178 2945
-889 -1172 2933
-878 -1170 2928
-862 -1161 2909
-851 -1158 2903
-839 -1154 2895
-830 -1154 2899
-819 -1151 2892
-806 -1146 2883
-795 -1143 2877
-787 -1145 2884
-777 -1143 2880
-765 -1139 2872
-756 -1140 2875
-749 -1141 2882
-734 -1133 2861
-726 -1134 2866
-713 -1128 2853
-706 -1131 2863
-695 -1127 2854
-686 -1127 2855
-673 -1121 2842
-665 -1122 2847
-656 -1122 2847
-649 -1125 2858
-637 -1119 2844
-626 -1116 2837
-617 -1115 2836
-606 -1111 2828
-598 -1113 2835
-587 -1109 2825
-578 -1107 2822
-567 -1104 2816
-559 -1106 2820
-548 -1100 2807
-539 -1100 2809
-529 -1097 2802
-521 -1098 2806
-513 -1099 2808
-503 -1096 2804
-493 -1094 2799
-485 -1095 2802
-475 -1092 2796
-465 -1090 2791
-455 -1085 2780
-448 -1090 2794
-438 -1086 2784
-429 -1085 2783
-419 -1080 2771
-411 -1081 2774
-402 -1080 2773
-393 -1078 2770
-384 -1079 2772
-375 -1076 2766
-366 -1073 2759
-356 -1069 2748
-347 -1069 2750
-339 -1069 2749
-331 -1070 2754
-321 -1064 2739
-312 -1063 2737
-305 -1068 2751
-295 -1062 2735
-286 -1062 2735
-277 -1059 2728
-269 -1061 2733
-260 -1058 2727
-251 -1052 2713
-243 -1054 2717
-233 -1047 2699
-226 -1051 2710
-217 -1051 2710
-209 -1049 2705
-199 -1042 2689
-192 -1046 2700
-184 -1046 2699
-175 -1043 2693
-166 -1041 2688
-159 -1044 2694
-150 -1039 2683
-142 -1040 2685
-133 -1038 2680
-125 -1033 2668
-116 -1032 2664
-108 -1033 2668
-100 -1035 2672
-92 -1033 2666
-84 -1029 2658
-75 -1027 2652
-68 -1030 2661
-59 -1025 2647
-51 -1024 2643
-43 -1023 2643
-35 -1023 2641
-27 -1022 2638
-19 -1025 2646
-11 -1025 2648
-3 -1020 2632
4 -1019 2631
12 -1021 2634
20 -1016 2621
28 -1015 2620
36 -1016 2621
44 -1017 2624
51 -1013 2613
59 -1010 2607
67 -1014 2616
75 -1010 2606
83 -1010 2604
91 -1008 2599
99 -1009 2601
106 -1008 2598
114 -1005 2591
122 -1006 2593
129 -1003 2584
137 -1001 2577
144 -998 2570
153 -1005 2587
161 -1001 2577
169 -1005 2585
176 -998 2567
184 -999 2569
191 -997 2565
199 -999 2569
207 -997 2562
214 -995 2555
221 -993 2552
229 -994 2554
237 -996 2556
245 -994 2550
252 -994 2549
259 -990 2538
267 -990 2537
275 -991 2541
282 -989 2533
290 -988 2531
299 -993 2543
306 -990 2533
311 -984 2517
319 -983 2515
328 -986 2521
335 -986 2520
343 -987 2521
351 -987 2519
357 -982 2506
365 -985 2512
371 -979 2496
379 -981 2500
388 -983 2503
394 -980 2494
401 -978 2490
408 -977 2485
417 -980 2493
424 -978 2485
431 -976 2480
440 -979 2485
446 -976 2477
453 -975 2474
461 -975 2471
467 -973 2466
477 -977 2473
484 -976 2468
491 -975 2465
498 -974 2460
505 -973 2456
512 -971 2451
519 -970 2447
526 -970 2445
535 -972 2449
541 -969 2440
549 -971 2443
557 -971 2442
564 -970 2438
570 -967 2429
578 -968 2428
585 -968 2428
593 -969 2428
598 -964 2413
606 -965 2413
614 -965 2413
622 -966 2413
629 -966 2410
635 -964 2404
644 -966 2408
650 -964 2401
659 -966 2403
666 -965 2398
672 -964 2394
680 -964 2392
686 -961 2383
697 -967 2396
699 -959 2374
709 -963 2382
717 -963 2380
724 -963 2378
728 -958 2362
738 -961 2369
744 -959 2362
752 -960 2361
760 -961 2361
766 -959 2355
774 -960 2354
782 -961 2355
789 -960 2349
799 -963 2356
802 -957 2339
811 -959 2342
817 -958 2335
827 -961 2341
833 -960 2335
840 -959 2331
848 -960 2330
855 -959 2326
860 -957 2317
872 -962 2326
875 -956 2311
884 -958 2313
891 -958 2310
899 -958 2307
905 -957 2301
911 -955 2295
922 -960 2303
925 -955 2289
937 -960 2297
945 -960 2294
950 -958 2286
960 -960 2289
968 -961 2288
975 -960 2283
982 -960 2280
988 -958 2273
994 -957 2267
1000 -956 2262
1007 -955 2257
1016 -957 2259
1025 -958 2258
1029 -955 2247
1040 -959 2252
1048 -959 2251
1055 -959 2247
1064 -960 2245
1070 -959 2239
1073 -955 2227
1046 -924 2153
973 -854 1986
913 -795 1846
894 -774 1794
902 -775 1794
906 -774 1788
908 -771 1778
927 -782 1800
928 -777 1788
927 -771 1771
935 -773 1773
944 -775 1774
947 -773 1765
955 -774 1766
964 -777 1769
962 -771 1753
971 -773 1754
980 -776 1757
977 -768 1737
988 -773 1744
985 -766 1725
1000 -772 1737
998 -766 1720
1005 -767 1720
1010 -767 1715
1019 -769 1716
1020 -765 1705
1031 -769 1710
-2119 -1491 3392
-2093 -1482 3376
-2079 -1480 3378
-2063 -1477 3377
-2046 -1473 3375
-2017 -1461 3352
-1999 -1456 3347
-1980 -1451 3342
-1967 -1450 3346
-1943 -1441 3329
-1914 -1428 3305
-1902 -1428 3310
-1870 -1412 3279
-1842 -1400 3256
-1823 -1394 3247
-1799 -1384 3230
-1792 -1387 3242
-1767 -1376 3221
-1751 -1372 3217
-1734 -1367 3212
-1721 -1365 3212
-1696 -1354 3191
-1696 -1363 3216
-1677 -1357 3206
-1664 -1355 3207
-1663 -1363 3231
-1644 -1356 3219
-1627 -1351 3212
-1606 -1343 3196
-1588 -1337 3187
-1569 -1330 3175
-1539 -1313 3139
-1526 -1310 3138
-1507 -1303 3125
-1496 -1303 3128
-1484 -1302 3129
-1461 -1291 3107
-1418 -1261 3040
-1398 -1252 3022
-1387 -1252 3024
-1371 -1246 3016
-1355 -1241 3007
-1336 -1233 2990
-1331 -1237 3005
-1316 -1233 2997
-1294 -1221 2972
-1271 -1208 2945
-1258 -1205 2941
-1233 -1190 2909
-1224 -1190 2911
-1204 -1181 2892
-1214 -1199 2940
-1211 -1206 2960
-1092 -1096 2694
-927 -938 2308
-877 -896 2205
-1039 -1069 2635
-1152 -1195 2948
-1158 -1212 2993
-1154 -1217 3009
-1148 -1221 3022
-1137 -1220 3024
-1127 -1219 3024
-1113 -1215 3016
-1104 -1216 3021
-1091 -1212 3014
-1074 -1204 2998
-1064 -1203 2998
-1050 -1199 2991
-1043 -1201 3000
-1027 -1193 2983
-1013 -1189 2974
-1004 -1189 2977
-993 -1187 2974
-979 -1182 2964
-969 -1181 2965
-957 -1178 2959
-945 -1174 2952
-933 -1171 2946
-921 -1168 2943
-914 -1170 2950
-903 -1169 2949
-886 -1159 2926
-874 -1155 2918
-863 -1153 2914
-848 -1145 2897
-839 -1144 2898
-828 -1142 2893
-816 -1139 2888
-806 -1136 2884
-795 -1135 2881
-784 -1132 2876
-774 -1130 2873
-767 -1134 2884
-754 -1127 2869
-744 -1125 2867
-739 -1132 2886
-725 -1124 2868
-715 -1122 2864
-704 -1119 2857
-696 -1120 2862
-687 -1119 2862
-676 -1117 2858
-665 -1113 2849
-654 -1109 2840
-643 -1107 2836
-634 -1105 2833
-623 -1102 2828
-613 -1099 2819
-606 -1102 2829
-594 -1096 2815
-585 -1096 2816
-578 -1099 2827
-569 -1098 2826
-558 -1094 2817
-551 -1098 2828
-540 -1092 2814
-530 -1090 2810
-521 -1090 2811
-513 -1091 2813
-503 -1088 2806
-492 -1082 2794
-483 -1083 2796
-474 -1080 2791
-466 -1083 2799
-456 -1080 2792
-446 -1077 2784
-438 -1077 2785
-428 -1074 2781
-419 -1071 2773
-410 -1072 2775
-403 -1073 2781
-392 -1068 2768
-383 -1065 2761
-374 -1066 2765
-364 -1062 2754
-356 -1062 2754
-347 -1060 2752
-338 -1057 2743
-329 -1056 2742
-321 -1057 2743
-312 -1057 2744
-302 -1051 2730
-294 -1050 2729
-286 -1051 2731
-277 -1048 2724
-268 -1046 2718
-259 -1045 2717
-251 -1045 2719
-242 -1043 2712
-234 -1042 2710
-226 -1042 2711
-216 -1037 2700
-208 -1038 2702
-200 -1037 2699
-191 -1033 2689
-183 -1035 2696
-174 -1031 2683
-166 -1029 2679
-158 -1030 2683
-150 -1031 2684
-141 -1028 2677
-133 -1027 2675
-125 -1027 2674
-116 -1025 2669
-108 -1018 2652
-100 -1023 2664
-92 -1023 2666
-84 -1024 2668
-76 -1022 2664
-67 -1018 2653
-60 -1022 2662
-51 -1019 2654
-43 -1016 2647
-35 -1015 2643
-27 -1010 2631
-19 -1016 2646
-11 -1014 2640
-3 -1011 2633
4 -1010 2630
12 -1007 2622
20 -1008 2625
28 -1008 2624
36 -1005 2617
44 -1008 2625
51 -1002 2607
59 -1002 2609
67 -1002 2606
75 -1002 2608
83 -1003 2609
91 -999 2598
99 -1001 2603
106 -1000 2600
114 -1000 2599
122 -999 2598
130 -997 2592
137 -995 2585
145 -996 2588
153 -995 2585
161 -995 2584
169 -996 2587
176 -992 2574
183 -989 2568
192 -993 2575
198 -987 2559
206 -988 2562
214 -988 2560
222 -986 2556
229 -983 2546
237 -985 2552
244 -983 2545
252 -984 2548
259 -982 2541
266 -978 2531
275 -982 2540
282 -982 2538
290 -980 2532
297 -978 2527
305 -981 2534
313 -980 2530
320 -978 2522
327 -977 2520
334 -976 2516
342 -975 2513
349 -973 2507
356 -971 2500
364 -974 2506
372 -973 2504
377 -967 2488
387 -972 2499
392 -967 2484
401 -969 2488
409 -970 2490
416 -969 2485
424 -971 2490
431 -969 2482
438 -967 2476
446 -969 2481
453 -968 2476
460 -965 2469
468 -967 2472
477 -969 2475
482 -964 2462
489 -964 2459
497 -964 2458
504 -964 2456
512 -964 2456
518 -962 2449
525 -960 2442
532 -960 2440
540 -960 2440
549 -962 2443
554 -959 2432
564 -962 2438
572 -963 2440
578 -961 2433
584 -959 2425
593 -961 2429
598 -956 2416
605 -957 2415
614 -958 2416
620 -955 2408
627 -956 2407
635 -955 2404
641 -953 2397
650 -956 2403
657 -956 2400
664 -954 2393
670 -952 2386
677 -952 2384
684 -952 2382
694 -954 2386
701 -955 2384
707 -952 2377
715 -953 2377
722 -953 2373
730 -953 2373
739 -955 2375
742 -949 2358
750 -950 2358
759 -953 2362
766 -951 2357
772 -950 2352
781 -952 2354
787 -950 2347
793 -948 2340
803 -951 2345
809 -949 2338
819 -953 2344
824 -950 2335
833 -952 2336
840 -951 2333
850 -955 2338
858 -955 2337
862 -951 2324
868 -949 2318
876 -950 2318
884 -950 2315
889 -948 2306
899 -951 2311
906 -950 2306
915 -952 2308
922 -952 2305
930 -952 2302
934 -949 2292
943 -950 2292
952 -952 2293
958 -950 2287
967 -952 2288
974 -952 2284
977 -947 2271
986 -949 2273
995 -950 2272
1000 -948 2264
1006 -947 2258
1012 -946 2252
1023 -949 2256
1025 -944 2242
1040 -951 2254
1047 -951 2251
1054 -951 2247
1057 -947 2234
1067 -949 2237
1079 -953 2242
1053 -924 2171
986 -859 2015
923 -798 1870
892 -766 1793
900 -767 1792
913 -774 1805
914 -770 1792
914 -764 1776
919 -764 1772
925 -764 1769
942 -772 1787
942 -768 1773
941 -762 1758
947 -762 1755
953 -763 1752
969 -771 1768
958 -757 1733
980 -769 1759
981 -766 1747
985 -764 1741
994 -767 1743
997 -764 1735
1009 -769 1741
1004 -760 1719
1013 -763 1722
1012 -758 1708
1028 -766 1722
1028 -761 1707
-2116 -1477 3392
-2095 -1471 3383
-2065 -1458 3359
-2049 -1456 3360
-2035 -1454 3361
-2021 -1452 3363
-1999 -1445 3352
-1980 -1439 3345
-1941 -1419 3305
-1928 -1419 3309
-1899 -1406 3284
-1875 -1396 3266
-1865 -1397 3275
-1841 -1387 3257
-1818 -1379 3243
-1810 -1381 3253
-1782 -1368 3227
-1758 -1358 3209
-1750 -1360 3219
-1735 -1357 3218
-1715 -1350 3206
-1699 -1346 3201
-1691 -1349 3212
-1674 -1343 3204
-1664 -1344 3211
-1654 -1345 3218
-1637 -1340 3211
-1614 -1330 3191
-1591 -1320 3171
-1554 -1297 3121
-1519 -1277 3077
-1495 -1265 3053
-1479 -1260 3046
-1476 -1267 3065
-1465 -1266 3068
-1463 -1273 3089
-1445 -1266 3076
-1412 -1246 3031
-1393 -1238 3016
-1387 -1241 3028
-1365 -1231 3007
-1350 -1227 2999
-1345 -1231 3013
-1316 -1214 2975
-1308 -1215 2981
-1289 -1207 2965
-1274 -1201 2955
-1252 -1190 2931
-1236 -1184 2919
-1235 -1192 2942
-1230 -1197 2958
-1234 -1210 2994
-1242 -1227 3039
-1166 -1161 2879
-959 -963 2391
-886 -897 2229
-985 -1006 2502
-1127 -1160 2890
-1155 -1198 2987
-1154 -1207 3013
-1148 -1211 3026
-1132 -1205 3014
-1124 -1207 3021
-1115 -1207 3025
-1101 -1202 3016
-1085 -1195 3001
-1076 -1197 3007
-1062 -1192 2998
-1051 -1189 2995
-1041 -1190 2998
-1027 -1184 2986
-1016 -1183 2986
-1005 -1181 2985
-991 -1176 2973
-982 -1176 2976
-966 -1168 2960
-959 -1171 2970
-943 -1163 2950
-933 -1162 2950
-921 -1159 2946
-910 -1157 2942
-901 -1157 2945
-886 -1150 2929
-872 -1143 2914
-860 -1140 2908
-848 -1136 2902
-834 -1129 2884
-825 -1130 2889
-816 -1130 2891
-806 -1129 2890
-795 -1126 2885
-785 -1124 2883
-775 -1122 2879
-767 -1124 2885
-759 -1126 2893
-745 -1118 2875
-733 -1114 2865
-724 -1113 2864
-718 -1118 2880
-706 -1113 2868
-693 -1107 2855
-684 -1106 2853
-674 -1104 2851
-664 -1103 2849
-654 -1101 2845
-643 -1096 2835
-634 -1097 2837
-623 -1093 2828
-614 -1093 2829
-603 -1088 2818
-594 -1087 2819
-586 -1090 2827
-576 -1087 2820
-567 -1087 2822
-560 -1089 2829
-550 -1087 2824
-539 -1082 2813
-529 -1079 2807
-522 -1082 2815
-511 -1078 2805
-501 -1076 2803
-492 -1074 2798
-485 -1078 2810
-474 -1072 2794
-463 -1068 2785
-454 -1066 2781
-446 -1067 2784
-437 -1066 2783
-428 -1065 2780
-419 -1063 2776
-411 -1064 2780
-399 -1055 2757
-390 -1055 2759
-382 -1055 2760
-374 -1056 2762
-364 -1053 2755
-356 -1054 2759
-347 -1051 2753
-337 -1048 2744
-330 -1052 2756
-321 -1048 2747
-312 -1047 2743
-302 -1042 2732
-294 -1042 2731
-284 -1035 2715
-276 -1037 2719
-267 -1036 2719
-259 -1035 2716
-250 -1033 2710
-241 -1031 2707
-234 -1035 2717
-224 -1029 2701
-216 -1027 2697
-209 -1032 2710
-199 -1025 2693
-191 -1027 2698
-183 -1026 2694
-175 -1025 2693
-166 -1021 2682
-158 -1022 2686
-150 -1024 2692
-141 -1020 2680
-133 -1020 2680
-125 -1022 2686
-117 -1022 2686
-108 -1019 2678
-100 -1015 2667
-91 -1010 2655
-84 -1012 2660
-75 -1009 2653
-67 -1011 2657
-59 -1010 2654
-51 -1007 2648
-43 -1003 2638
-35 -1005 2642
-27 -1003 2636
-19 -1003 2636
-11 -1003 2636
-3 -1002 2633
4 -1000 2628
12 -1005 2641
20 -1001 2630
28 -1001 2629
36 -998 2622
44 -995 2613
51 -994 2611
59 -993 2608
67 -994 2609
75 -995 2613
83 -995 2612
91 -991 2602
99 -993 2606
106 -987 2589
114 -988 2592
122 -988 2591
130 -988 2592
137 -985 2584
145 -987 2588
153 -985 2581
160 -983 2576
168 -982 2573
176 -983 2574
182 -976 2555
191 -981 2568
198 -978 2559
206 -977 2556
214 -977 2556
222 -978 2558
229 -976 2552
236 -975 2549
243 -970 2535
252 -974 2545
259 -973 2539
266 -971 2534
274 -971 2532
282 -973 2538
289 -969 2525
297 -973 2535
305 -971 2531
311 -967 2519
319 -966 2516
326 -965 2511
334 -968 2517
341 -966 2511
348 -964 2505
357 -968 2514
364 -966 2508
372 -965 2505
380 -966 2506
386 -964 2499
393 -960 2489
401 -962 2493
408 -960 2486
417 -963 2493
425 -964 2495
431 -961 2486
438 -961 2483
444 -957 2471
452 -957 2471
461 -960 2477
467 -956 2466
473 -955 2460
482 -957 2464
488 -953 2453
498 -959 2466
505 -957 2460
510 -953 2449
519 -955 2453
526 -955 2450
534 -955 2450
539 -951 2438
546 -949 2431
554 -951 2434
561 -950 2430
569 -951 2432
578 -953 2434
585 -953 2433
589 -947 2415
599 -951 2425
605 -948 2414
614 -951 2420
618 -946 2405
628 -949 2411
635 -948 2407
642 -948 2405
650 -949 2406
657 -947 2400
663 -945 2393
672 -948 2398
678 -945 2389
684 -944 2383
692 -944 2382
699 -945 2381
706 -944 2377
714 -944 2376
722 -944 2374
729 -944 2371
737 -945 2371
744 -944 2366
751 -944 2365
757 -942 2357
766 -944 2360
772 -943 2354
777 -939 2343
786 -942 2348
794 -942 2345
802 -943 2345
810 -943 2344
818 -944 2343
825 -943 2338
830 -941 2331
840 -944 2336
845 -941 2326
851 -940 2320
861 -942 2324
866 -940 2316
877 -944 2323
885 -944 2320
888 -939 2306
895 -939 2303
907 -944 2312
911 -941 2301
919 -941 2299
927 -942 2299
935 -942 2297
943 -943 2296
947 -940 2285
958 -943 2290
964 -942 2285
970 -940 2277
978 -941 2275
987 -943 2277
989 -937 2262
998 -939 2261
1006 -939 2260
1010 -937 2251
1018 -937 2247
1026 -938 2246
1038 -941 2253
1047 -943 2254
1055 -943 2251
1062 -943 2247
1064 -938 2232
1074 -941 2234
1063 -925 2194
1002 -866 2050
927 -795 1880
891 -759 1791
901 -762 1796
908 -763 1796
907 -758 1780
918 -761 1786
924 -761 1783
924 -757 1770
933 -759 1773
946 -765 1784
950 -764 1777
956 -763 1773
961 -763 1769
956 -754 1745
975 -764 1766
975 -760 1753
973 -754 1736
989 -761 1751
987 -755 1733
997 -758 1737
1005 -760 1738
1002 -753 1719
1019 -762 1735
1021 -758 1724
1014 -749 1699
1029 -755 1711
-2107 -1459 3381
-2080 -1449 3364
-2068 -1448 3369
-2049 -1443 3363
-2022 -1433 3345
-2014 -1436 3357
-1983 -1421 3329
-1961 -1414 3318
-1934 -1403 3298
-1918 -1400 3296
-1897 -1392 3284
-1866 -1378 3256
-1857 -1380 3265
-1834 -1371 3250
-1815 -1365 3242
-1792 -1356 3226
-1780 -1355 3228
-1765 -1352 3226
-1745 -1346 3216
-1728 -1341 3210
-1707 -1333 3194
-1702 -1338 3211
-1691 -1338 3216
-1674 -1332 3208
-1666 -1335 3219
-1651 -1331 3215
-1634 -1326 3208
-1587 -1297 3141
-1530 -1259 3054
-1504 -1246 3026
-1481 -1235 3005
-1475 -1238 3016
-1461 -1235 3013
-1452 -1236 3018
-1446 -1239 3031
-1436 -1240 3036
-1419 -1233 3024
-1409 -1234 3030
-1385 -1222 3004
-1379 -1225 3016
-1365 -1221 3010
-1347 -1214 2996
-1339 -1216 3004
-1316 -1204 2979
-1302 -1200 2972
-1286 -1194 2962
-1271 -1189 2953
-1266 -1194 2967
-1252 -1189 2960
-1253 -1199 2988
-1247 -1203 3000
-1246 -1212 3026
-1263 -1237 3094
-1226 -1211 3031
-1069 -1065 2667
-953 -958 2402
-933 -945 2372
-1078 -1101 2767
-1147 -1181 2971
-1148 -1191 3001
-1142 -1195 3014
-1130 -1193 3010
-1121 -1194 3016
-1111 -1194 3019
-1096 -1187 3005
-1088 -1190 3015
-1074 -1185 3005
-1060 -1180 2996
-1046 -1175 2985
-1035 -1174 2985
-1026 -1174 2988
-1011 -1167 2974
-999 -1165 2970
-990 -1165 2972
-977 -1161 2965
-965 -1157 2959
-954 -1155 2956
-939 -1149 2943
-932 -1152 2952
-924 -1154 2959
-907 -1144 2935
-894 -1139 2926
-889 -1144 2941
-869 -1131 2910
-862 -1133 2917
-848 -1127 2905
-837 -1125 2901
-830 -1127 2908
-818 -1124 2902
-806 -1119 2891
-796 -1117 2889
-785 -1114 2884
-776 -1115 2888
-768 -1117 2893
-758 -1116 2893
-744 -1108 2874
-732 -1103 2864
-724 -1104 2868
-714 -1103 2866
-703 -1100 2861
-692 -1097 2853
-682 -1095 2850
-674 -1096 2855
-662 -1092 2845
-651 -1088 2837
-645 -1092 2848
-634 -1088 2842
-623 -1084 2832
-615 -1085 2835
-603 -1079 2821
-596 -1083 2833
-585 -1078 2821
-577 -1081 2829
-568 -1080 2828
-559 -1078 2826
-549 -1076 2821
-538 -1072 2812
-528 -1070 2807
-519 -1068 2803
-510 -1067 2803
-501 -1066 2800
-491 -1063 2794
-483 -1065 2799
-474 -1064 2799
-463 -1059 2787
-455 -1060 2790
-445 -1056 2780
-436 -1055 2780
-429 -1058 2787
-417 -1049 2766
-410 -1053 2777
-400 -1049 2768
-392 -1052 2776
-382 -1047 2762
-373 -1046 2760
-364 -1044 2756
-354 -1040 2746
-346 -1040 2746
-338 -1040 2749
-328 -1038 2742
-319 -1034 2733
-311 -1035 2737
-302 -1032 2731
-292 -1028 2719
-283 -1026 2715
-275 -1027 2717
-267 -1028 2720
-258 -1023 2709
-250 -1023 2708
-241 -1020 2702
-234 -1025 2716
-225 -1024 2713
-216 -1021 2706
-207 -1017 2696
-200 -1022 2708
-191 -1015 2691
-182 -1015 2692
-174 -1017 2695
-166 -1012 2683
-158 -1019 2701
-149 -1014 2688
-141 -1012 2684
-133 -1010 2677
-125 -1012 2683
-116 -1005 2665
-108 -1006 2669
-100 -1006 2669
-92 -1003 2662
-83 -1000 2653
-75 -1002 2659
-67 -997 2644
-59 -1001 2656
-51 -999 2649
-43 -1000 2653
-35 -994 2638
-27 -997 2644
-19 -996 2641
-11 -996 2643
-3 -995 2638
4 -991 2628
12 -990 2626
20 -992 2630
28 -991 2626
36 -991 2626
44 -988 2619
51 -985 2611
59 -986 2612
67 -984 2608
75 -984 2607
83 -984 2605
91 -983 2604
99 -982 2600
106 -981 2597
114 -980 2595
121 -974 2578
129 -977 2584
137 -978 2588
145 -978 2586
153 -976 2581
161 -977 2584
168 -972 2570
175 -970 2563
183 -973 2572
191 -970 2562
199 -972 2567
205 -967 2553
213 -965 2547
220 -964 2544
228 -966 2549
237 -968 2552
243 -962 2537
251 -963 2538
258 -962 2534
267 -965 2541
275 -966 2544
281 -962 2532
289 -962 2531
295 -958 2520
303 -958 2520
312 -961 2524
319 -961 2525
326 -957 2512
334 -958 2514
341 -957 2512
349 -959 2515
354 -952 2495
363 -954 2499
370 -954 2498
379 -956 2503
385 -953 2493
392 -952 2489
401 -955 2498
408 -953 2489
415 -952 2486
423 -953 2488
430 -952 2484
437 -950 2479
445 -951 2478
451 -948 2471
459 -948 2469
466 -947 2464
473 -947 2462
481 -948 2464
489 -948 2462
495 -945 2453
502 -944 2449
509 -944 2447
517 -944 2446
525 -945 2446
533 -945 2446
539 -942 2437
546 -942 2434
553 -942 2432
560 -940 2427
568 -941 2428
576 -942 2429
583 -942 2426
590 -941 2422
597 -940 2418
606 -943 2423
611 -938 2409
618 -938 2406
628 -941 2413
633 -938 2404
640 -937 2398
648 -937 2398
655 -938 2397
662 -937 2394
671 -938 2395
676 -935 2384
684 -935 2384
693 -938 2387
697 -934 2375
705 -934 2373
713 -935 2374
719 -933 2368
728 -935 2371
734 -934 2365
742 -934 2364
751 -936 2366
756 -933 2355
762 -931 2348
771 -934 2353
777 -932 2346
788 -936 2354
791 -931 2340
797 -930 2334
808 -934 2342
815 -933 2337
821 -931 2330
829 -932 2331
837 -932 2328
842 -930 2320
852 -933 2326
861 -934 2325
867 -934 2321
874 -933 2316
883 -934 2318
887 -931 2307
895 -932 2306
903 -932 2304
911 -933 2303
917 -932 2298
926 -933 2298
933 -933 2294
940 -932 2290
949 -934 2292
954 -931 2282
963 -934 2285
969 -932 2279
978 -934 2279
980 -928 2263
991 -931 2268
998 -931 2264
1003 -929 2256
1012 -931 2258
1015 -927 2244
1020 -925 2236
1032 -929 2243
1045 -934 2252
1054 -936 2253
1059 -933 2244
1067 -934 2241
1072 -932 2234
1062 -917 2194
1015 -870 2079
934 -795 1897
903 -763 1819
899 -755 1796
909 -758 1801
906 -750 1779
914 -752 1781
913 -746 1765
925 -752 1775
933 -753 1774
931 -747 1758
953 -760 1784
955 -757 1774
950 -748 1751
963 -753 1760
960 -746 1740
966 -747 1739
975 -749 1741
982 -750 1740
989 -751 1739
993 -749 1732
997 -748 1726
1003 -748 1722
1011 -750 1724
1019 -751 1723
1021 -748 1714
1021 -744 1700
-2107 -1448 3387
-2077 -1435 3363
-2061 -1432 3362
-2053 -1435 3375
-2018 -1419 3343
-2010 -1421 3354
-1974 -1404 3320
-1945 -1391 3295
-1923 -1384 3284
-1905 -1379 3278
-1878 -1368 3256
-1858 -1361 3246
-1850 -1364 3258
-1829 -1356 3245
-1811 -1351 3239
-1794 -1346 3232
-1774 -1340 3222
-1755 -1334 3212
-1748 -1337 3224
-1728 -1330 3214
-1711 -1325 3207
-1698 -1323 3207
-1690 -1326 3217
-1676 -1323 3216
-1657 -1317 3205
-1644 -1315 3206
-1611 -1298 3168
-1538 -1247 3049
-1494 -1220 2986
-1483 -1218 2987
-1472 -1217 2989
-1467 -1222 3004
-1454 -1220 3003
-1444 -1220 3007
-1438 -1222 3018
-1422 -1218 3011
-1414 -1219 3018
-1399 -1215 3012
-1381 -1208 2999
-1372 -1209 3003
-1357 -1204 2996
-1338 -1196 2979
-1331 -1199 2990
-1309 -1187 2965
-1304 -1192 2980
-1280 -1179 2951
-1275 -1183 2965
-1268 -1186 2975
-1257 -1185 2976
-1251 -1188 2987
-1253 -1199 3019
-1255 -1211 3052
-1253 -1218 3075
-1232 -1207 3050
-1130 -1116 2823
-1012 -1008 2553
-891 -895 2269
-989 -1002 2542
-1119 -1143 2902
-1150 -1184 3010
-1140 -1183 3011
-1134 -1187 3024
-1116 -1179 3006
-1109 -1182 3016
-1095 -1177 3007
-1083 -1174 3002
-1071 -1172 3000
-1058 -1168 2992
-1042 -1161 2978
-1037 -1166 2992
-1020 -1158 2974
-1010 -1157 2976
-999 -1156 2974
-988 -1154 2972
-977 -1151 2968
-962 -1145 2955
-950 -1142 2949
-943 -1144 2957
-929 -1139 2947
-920 -1139 2949
-908 -1136 2942
-895 -1131 2933
-885 -1130 2933
-869 -1121 2911
-861 -1123 2919
-848 -1117 2905
-841 -1120 2915
-829 -1117 2909
-818 -1115 2905
-807 -1111 2897
-797 -1111 2898
-784 -1105 2886
-774 -1103 2882
-767 -1106 2892
-752 -1097 2870
-744 -1100 2879
-733 -1095 2869
-720 -1090 2858
-714 -1094 2868
-703 -1091 2864
-691 -1086 2853
-683 -1087 2857
-675 -1089 2864
-661 -1080 2840
-655 -1086 2857
-643 -1080 2845
-634 -1080 2845
-623 -1075 2835
-614 -1075 2836
-605 -1075 2837
-596 -1073 2834
-585 -1069 2824
-576 -1069 2825
-567 -1069 2826
-558 -1069 2828
-548 -1065 2819
-538 -1063 2814
-528 -1061 2810
-520 -1063 2816
-511 -1061 2813
-500 -1056 2800
-492 -1057 2802
-482 -1055 2800
-471 -1049 2785
-464 -1053 2795
-455 -1051 2791
-445 -1048 2786
-436 -1046 2782
-426 -1043 2775
-417 -1042 2771
-409 -1044 2777
-398 -1038 2761
-390 -1039 2765
-381 -1036 2759
-372 -1034 2755
-363 -1034 2756
-355 -1033 2755
-345 -1028 2741
-337 -1031 2749
-327 -1026 2736
-318 -1023 2730
-310 -1023 2731
-302 -1025 2735
-293 -1024 2733
-284 -1021 2727
-276 -1020 2723
-267 -1018 2718
-258 -1017 2718
-250 -1017 2718
-241 -1012 2705
-233 -1015 2713
-224 -1012 2705
-217 -1015 2714
-207 -1009 2698
-199 -1010 2702
-191 -1009 2697
-182 -1005 2690
-174 -1005 2689
-166 -1005 2688
-157 -1004 2687
-149 -1004 2687
-141 -1003 2684
-133 -1002 2682
-124 -998 2672
-116 -999 2674
-108 -997 2670
-99 -993 2659
-91 -995 2663
-83 -992 2655
-75 -994 2660
-67 -992 2656
-59 -995 2662
-51 -991 2652
-43 -988 2645
-35 -986 2639
-27 -986 2638
-19 -987 2642
-11 -987 2641
-3 -984 2633
4 -983 2629
12 -983 2630
20 -980 2623
28 -981 2624
36 -982 2626
44 -979 2618
51 -977 2612
59 -976 2610
67 -977 2613
75 -976 2609
82 -970 2593
90 -971 2594
98 -969 2589
106 -972 2596
114 -970 2590
122 -969 2588
130 -970 2591
137 -969 2587
145 -967 2582
153 -971 2590
160 -965 2575
167 -963 2569
175 -964 2571
183 -965 2572
191 -964 2569
198 -961 2560
206 -962 2563
213 -960 2556
221 -958 2549
228 -957 2547
235 -954 2538
244 -957 2546
251 -955 2539
259 -958 2546
267 -956 2542
274 -956 2539
281 -953 2532
288 -951 2526
296 -952 2525
303 -950 2519
310 -949 2518
318 -950 2518
326 -949 2514
335 -953 2524
341 -949 2514
347 -946 2503
356 -948 2507
362 -945 2500
370 -945 2497
377 -945 2495
387 -950 2507
392 -944 2491
400 -944 2490
407 -944 2489
416 -946 2494
422 -942 2481
430 -943 2482
438 -943 2483
444 -941 2474
451 -940 2471
458 -938 2465
466 -940 2468
475 -942 2471
481 -940 2465
487 -937 2456
494 -935 2449
502 -937 2452
510 -937 2451
518 -937 2451
524 -936 2446
532 -936 2444
539 -935 2442
546 -934 2436
555 -938 2444
560 -933 2429
568 -934 2430
575 -933 2427
582 -932 2423
588 -930 2416
596 -931 2417
604 -932 2416
611 -930 2411
618 -930 2410
626 -931 2410
634 -932 2410
639 -928 2398
647 -929 2398
653 -927 2390
660 -927 2388
669 -929 2392
676 -928 2388
681 -924 2376
692 -929 2386
698 -928 2381
705 -927 2378
711 -925 2371
718 -925 2367
728 -927 2372
734 -926 2365
742 -926 2365
748 -925 2361
756 -926 2360
763 -925 2355
771 -926 2355
779 -927 2356
786 -926 2350
790 -922 2339
801 -926 2346
807 -925 2341
812 -922 2331
821 -924 2334
830 -926 2335
835 -923 2326
845 -926 2332
849 -923 2320
859 -925 2323
863 -921 2311
875 -926 2321
882 -926 2317
889 -925 2313
895 -924 2308
902 -924 2305
910 -924 2302
917 -924 2299
925 -925 2299
931 -923 2291
937 -922 2286
949 -926 2293
953 -923 2283
962 -925 2285
970 -925 2283
976 -924 2277
983 -923 2272
990 -924 2269
996 -922 2263
1007 -925 2267
1011 -922 2256
1013 -918 2243
1023 -920 2244
1031 -920 2243
1043 -924 2249
1052 -926 2250
1058 -925 2244
1065 -925 2241
1070 -923 2233
1068 -915 2210
1023 -870 2098
948 -800 1928
896 -751 1807
902 -751 1803
906 -750 1797
906 -745 1782
919 -750 1793
921 -747 1783
926 -747 1778
931 -746 1774
930 -740 1756
934 -738 1750
948 -745 1763
955 -746 1763
966 -750 1769
963 -743 1748
975 -748 1758
982 -749 1756
986 -747 1749
984 -741 1732
993 -743 1734
1008 -750 1746
1005 -743 1728
1009 -742 1722
1015 -742 1720
1024 -744 1720
1020 -737 1701
-2091 -1425 3365
-2085 -1429 3381
-2056 -1417 3359
-2045 -1417 3366
-2028 -1414 3363
-1996 -1400 3337
-1967 -1387 3311
-1936 -1373 3284
-1911 -1364 3267
-1902 -1366 3277
-1892 -1366 3284
-1870 -1358 3271
-1845 -1349 3254
-1828 -1344 3247
-1817 -1344 3252
-1787 -1331 3225
-1773 -1328 3224
-1757 -1325 3220
-1741 -1321 3216
-1719 -1312 3200
-1710 -1313 3208
-1689 -1306 3195
-1685 -1311 3212
-1669 -1307 3208
-1654 -1304 3205
-1646 -1306 3215
-1590 -1270 3130
-1521 -1223 3018
-1491 -1207 2984
-1475 -1202 2975
-1474 -1209 2997
-1457 -1204 2988
-1453 -1208 3003
-1441 -1207 3003
-1438 -1213 3023
-1423 -1209 3016
-1413 -1209 3020
-1395 -1202 3007
-1389 -1205 3018
-1380 -1206 3024
-1359 -1197 3005
-1342 -1190 2993
-1332 -1190 2995
-1311 -1180 2974
-1299 -1178 2973
-1281 -1170 2956
-1272 -1171 2963
-1260 -1168 2959
-1257 -1174 2978
-1251 -1178 2991
-1248 -1185 3011
-1243 -1190 3027
-1226 -1183 3013
-1213 -1180 3008
-1170 -1147 2928
-1057 -1044 2668
-923 -920 2352
-907 -911 2334
-1059 -1073 2751
-1138 -1162 2982
-1138 -1172 3010
-1130 -1174 3018
-1115 -1168 3007
-1109 -1172 3020
-1095 -1168 3011
-1080 -1161 2998
-1067 -1158 2992
-1059 -1159 2999
-1048 -1158 2996
-1036 -1156 2994
-1022 -1151 2984
-1011 -1148 2980
-999 -1146 2976
-983 -1138 2959
-975 -1140 2966
-962 -1135 2957
-950 -1133 2952
-940 -1131 2952
-924 -1123 2933
-916 -1125 2940
-907 -1125 2943
-895 -1122 2937
-883 -1119 2930
-870 -1114 2920
-858 -1110 2913
-847 -1107 2906
-836 -1105 2902
-826 -1103 2899
-815 -1101 2896
-803 -1097 2888
-795 -1099 2895
-783 -1094 2884
-772 -1092 2879
-762 -1090 2877
-753 -1090 2879
-742 -1087 2872
-731 -1084 2867
-720 -1080 2858
-711 -1081 2863
-702 -1081 2864
-694 -1082 2867
-685 -1082 2870
-672 -1076 2855
-664 -1076 2856
-653 -1073 2850
-643 -1071 2847
-632 -1067 2838
-624 -1068 2841
-614 -1067 2840
-605 -1066 2838
-595 -1064 2833
-585 -1062 2830
-576 -1061 2830
-565 -1057 2821
-557 -1058 2825
-546 -1053 2813
-536 -1051 2807
-526 -1047 2799
-517 -1048 2802
-509 -1048 2803
-499 -1046 2798
-489 -1042 2790
-483 -1049 2809
-470 -1039 2785
-463 -1042 2793
-451 -1034 2772
-445 -1039 2787
-434 -1033 2772
-425 -1033 2771
-417 -1033 2773
-406 -1028 2760
-398 -1028 2761
-389 -1027 2760
-381 -1029 2765
-371 -1024 2753
-363 -1025 2755
-355 -1026 2759
-346 -1024 2756
-338 -1026 2761
-327 -1017 2738
-319 -1017 2739
-311 -1018 2742
-302 -1017 2739
-293 -1013 2730
-283 -1010 2721
-275 -1011 2724
-267 -1009 2721
-258 -1008 2718
-250 -1007 2716
-242 -1011 2728
-232 -1004 2708
-224 -1002 2704
-216 -1002 2704
-207 -1002 2703
-199 -1001 2701
-191 -1000 2698
-182 -997 2692
-174 -999 2697
-165 -994 2684
-156 -989 2671
-148 -990 2672
-140 -990 2672
-133 -995 2687
-124 -991 2677
-116 -992 2679
-108 -987 2667
-100 -990 2675
-91 -988 2668
-83 -987 2665
-75 -980 2648
-67 -984 2658
-59 -982 2654
-51 -981 2649
-43 -981 2651
-35 -978 2641
-27 -980 2646
-19 -975 2633
-11 -975 2632
-3 -972 2623
4 -977 2637
12 -976 2634
20 -973 2626
28 -970 2619
36 -969 2614
44 -967 2611
51 -968 2613
59 -968 2612
67 -970 2617
75 -965 2604
83 -964 2599
91 -964 2599
98 -964 2599
106 -960 2588
114 -959 2585
121 -960 2586
129 -958 2582
136 -956 2574
144 -957 2578
152 -958 2580
160 -957 2575
167 -955 2570
175 -955 2571
182 -952 2560
190 -952 2561
198 -952 2561
206 -953 2560
213 -952 2558
221 -951 2555
228 -948 2545
236 -950 2552
244 -950 2549
251 -950 2549
259 -948 2542
266 -945 2534
273 -944 2531
281 -944 2531
288 -945 2530
296 -943 2526
304 -944 2527
310 -942 2520
318 -942 2519
325 -939 2512
333 -940 2513
341 -941 2514
349 -943 2518
355 -938 2504
362 -937 2499
369 -935 2495
377 -936 2496
385 -936 2495
392 -935 2491
401 -939 2501
407 -936 2490
414 -933 2481
420 -931 2475
429 -934 2482
436 -933 2478
442 -929 2464
451 -933 2475
458 -932 2471
466 -932 2469
472 -930 2463
479 -927 2454
487 -930 2459
495 -930 2458
503 -930 2458
509 -927 2448
516 -927 2445
524 -928 2446
531 -927 2443
538 -926 2438
547 -928 2442
552 -924 2430
560 -925 2431
568 -927 2434
575 -926 2431
582 -924 2425
589 -924 2422
597 -924 2420
603 -922 2413
610 -922 2411
619 -924 2415
626 -924 2412
634 -924 2411
641 -923 2407
647 -921 2401
654 -920 2395
660 -919 2390
669 -920 2392
677 -922 2393
682 -918 2383
690 -919 2384
696 -918 2378
704 -919 2378
713 -920 2378
717 -915 2364
725 -917 2366
730 -914 2357
742 -920 2369
746 -915 2354
757 -920 2365
762 -916 2354
770 -917 2353
775 -915 2345
784 -916 2346
792 -917 2346
801 -919 2350
807 -917 2342
816 -919 2346
820 -916 2334
827 -915 2329
834 -915 2326
843 -917 2329
850 -916 2324
858 -917 2324
867 -918 2325
874 -918 2321
880 -916 2314
885 -914 2307
896 -917 2313
902 -917 2308
908 -915 2301
919 -919 2308
926 -918 2303
929 -914 2290
937 -914 2287
946 -916 2288
952 -915 2284
957 -912 2274
970 -918 2286
976 -916 2278
981 -914 2271
986 -912 2263
994 -912 2260
1001 -912 2257
1009 -913 2254
1015 -912 2249
999 -891 2194
1030 -912 2244
1041 -916 2249
1052 -919 2253
1057 -917 2245
1061 -914 2235
1068 -914 2231
1071 -910 2218
1030 -869 2116
950 -796 1935
905 -752 1826
895 -739 1791
902 -740 1791
914 -745 1800
911 -738 1779
921 -741 1785
927 -741 1782
928 -737 1770
941 -743 1780
944 -740 1771
945 -737 1760
955 -739 1763
949 -731 1740
965 -738 1755
981 -746 1771
975 -737 1744
982 -738 1744
982 -733 1730
995 -738 1739
1004 -741 1742
999 -733 1721
1011 -737 1727
1020 -740 1730
1024 -738 1723
1017 -729 1699
-2093 -1414 3373
-2077 -1412 3373
-2055 -1405 3363
-2040 -1402 3363
-2020 -1397 3355
-1995 -1388 3339
-1964 -1374 3311
-1919 -1351 3261
-1912 -1353 3273
-1890 -1346 3261
-1865 -1336 3242
-1852 -1335 3245
-1842 -1336 3252
-1812 -1322 3224
-1805 -1325 3237
-1791 -1322 3235
-1771 -1316 3224
-1752 -1310 3215
-1734 -1305 3207
-1709 -1294 3185
-1709 -1302 3210
-1700 -1303 3219
-1679 -1296 3206
-1669 -1297 3212
-1648 -1288 3196
-1633 -1285 3192
-1580 -1252 3115
-1525 -1216 3031
-1488 -1195 2982
-1479 -1195 2987
-1471 -1197 2994
-1463 -1199 3003
-1457 -1202 3016
-1449 -1204 3024
-1433 -1199 3016
-1423 -1199 3020
-1407 -1194 3011
-1401 -1197 3023
-1379 -1187 3001
-1368 -1186 3003
-1352 -1180 2993
-1340 -1178 2991
-1327 -1176 2988
-1310 -1169 2975
-1305 -1173 2989
-1286 -1165 2972
-1274 -1163 2971
-1263 -1162 2971
-1250 -1159 2967
-1245 -1163 2981
-1237 -1164 2987
-1227 -1164 2990
-1211 -1159 2979
-1203 -1160 2986
-1187 -1153 2972
-1105 -1083 2794
-998 -986 2546
-884 -881 2278
-970 -974 2522
-1100 -1114 2887
-1139 -1164 3017
-1127 -1161 3013
-1116 -1160 3013
-1106 -1159 3015
-1090 -1153 3001
-1077 -1149 2994
-1070 -1152 3004
-1055 -1146 2991
-1044 -1144 2990
-1032 -1142 2987
-1020 -1139 2982
-1008 -1136 2975
-995 -1132 2967
-987 -1134 2975
-973 -1128 2962
-962 -1127 2962
-950 -1123 2955
-938 -1119 2947
-925 -1116 2940
-914 -1114 2937
-905 -1114 2939
-897 -1115 2946
-878 -1103 2915
-867 -1100 2910
-858 -1101 2914
-848 -1099 2912
-833 -1092 2896
-825 -1093 2899
-814 -1091 2896
-805 -1091 2898
-794 -1088 2893
-784 -1087 2891
-774 -1086 2891
-765 -1086 2892
-755 -1084 2888
-747 -1086 2895
-732 -1077 2875
-725 -1080 2883
-717 -1080 2886
-704 -1074 2872
-692 -1069 2861
-682 -1068 2859
-672 -1067 2857
-661 -1064 2850
-652 -1062 2848
-642 -1061 2846
-634 -1062 2849
-623 -1058 2840
-612 -1055 2834
-601 -1051 2825
-596 -1057 2842
-584 -1051 2829
-575 -1051 2828
-566 -1050 2828
-554 -1043 2810
-545 -1043 2811
-536 -1042 2810
-526 -1040 2806
-517 -1038 2802
-508 -1038 2803
-498 -1035 2796
-488 -1033 2790
-479 -1030 2784
-469 -1027 2777
-461 -1029 2783
-451 -1026 2777
-443 -1027 2779
-435 -1027 2780
-425 -1025 2775
-415 -1022 2767
-408 -1023 2772
-398 -1021 2768
-389 -1019 2764
-380 -1017 2759
-373 -1020 2767
-363 -1017 2760
-353 -1011 2745
-344 -1011 2746
-337 -1013 2752
-327 -1009 2741
-320 -1012 2751
-309 -1006 2733
-301 -1005 2731
-293 -1006 2735
-284 -1004 2730
-275 -1001 2724
-266 -1000 2719
-258 -1001 2723
-250 -999 2718
-241 -998 2715
-233 -998 2716
-224 -995 2708
-215 -991 2697
-207 -994 2707
-199 -993 2704
-190 -990 2697
-182 -989 2693
-174 -990 2697
-165 -985 2683
-156 -983 2678
-149 -984 2681
-141 -985 2684
-133 -986 2686
-124 -981 2673
-115 -978 2666
-108 -981 2675
-99 -975 2657
-91 -975 2657
-83 -976 2659
-75 -976 2660
-67 -973 2654
-59 -972 2650
-51 -973 2651
-43 -972 2648
-35 -970 2644
-27 -972 2649
-19 -968 2637
-11 -967 2635
-3 -967 2635
4 -964 2626
12 -966 2631
20 -962 2621
28 -964 2626
36 -962 2619
44 -959 2611
51 -959 2612
59 -961 2618
67 -956 2604
75 -955 2599
83 -957 2605
91 -957 2606
98 -956 2602
106 -953 2593
114 -952 2591
121 -952 2589
129 -949 2581
137 -948 2578
144 -947 2574
152 -949 2578
160 -949 2579
168 -949 2576
175 -946 2568
183 -946 2569
190 -945 2566
198 -946 2568
205 -942 2556
213 -943 2556
220 -940 2550
227 -938 2543
236 -942 2554
244 -942 2550
250 -935 2533
258 -936 2535
266 -937 2537
272 -934 2526
281 -936 2532
288 -934 2526
295 -935 2526
303 -934 2523
310 -934 2521
317 -931 2514
325 -931 2513
332 -931 2510
340 -932 2513
347 -929 2504
355 -930 2505
362 -929 2501
370 -931 2506
379 -932 2508
384 -927 2494
392 -927 2493
398 -925 2485
405 -923 2479
413 -924 2480
420 -923 2475
430 -927 2486
435 -923 2474
443 -923 2473
449 -921 2465
459 -925 2475
465 -923 2467
472 -921 2461
478 -918 2453
487 -922 2461
494 -921 2456
500 -917 2446
509 -921 2454
516 -919 2448
522 -917 2441
530 -917 2438
537 -917 2437
544 -915 2431
552 -917 2434
559 -916 2429
566 -915 2426
576 -919 2435
581 -915 2421
587 -913 2415
596 -915 2419
601 -912 2408
610 -914 2414
618 -915 2413
626 -916 2414
631 -912 2402
638 -911 2398
647 -913 2402
655 -915 2403
660 -911 2391
668 -911 2391
675 -911 2389
681 -910 2383
689 -910 2382
697 -911 2382
702 -908 2373
711 -909 2373
720 -912 2377
725 -909 2368
734 -911 2372
739 -908 2360
746 -908 2358
754 -908 2357
760 -907 2351
770 -910 2357
779 -911 2358
784 -909 2350
789 -906 2339
800 -910 2349
803 -906 2334
812 -908 2337
821 -909 2337
827 -907 2330
832 -905 2323
838 -904 2317
849 -907 2324
856 -907 2321
864 -908 2319
874 -910 2323
877 -905 2309
887 -909 2315
892 -906 2306
899 -906 2303
909 -908 2305
913 -905 2295
921 -906 2293
930 -908 2295
937 -907 2291
945 -907 2288
952 -908 2287
959 -907 2282
967 -907 2280
974 -907 2277
985 -910 2282
987 -905 2266
990 -901 2253
1001 -905 2260
1008 -904 2254
1013 -903 2248
1030 -911 2265
1029 -903 2243
1042 -909 2252
1049 -909 2250
1053 -906 2239
1063 -908 2241
1070 -907 2236
1067 -899 2213
1041 -871 2141
966 -802 1968
899 -741 1816
888 -727 1779
897 -730 1784
911 -736 1796
913 -733 1785
912 -728 1770
924 -732 1777
934 -736 1784
935 -732 1770
942 -733 1769
951 -735 1773
947 -728 1752
963 -735 1766
967 -734 1761
965 -728 1743
973 -729 1743
989 -737 1758
984 -729 1736
989 -729 1732
995 -729 1730
1001 -728 1726
1003 -726 1716
1013 -729 1721
1013 -724 1706
1016 -722 1698
-2098 -1406 3385
-2078 -1400 3378
-2054 -1392 3364
-2036 -1388 3360
-2014 -1381 3349
-1980 -1366 3318
-1962 -1361 3313
-1923 -1342 3271
-1907 -1338 3268
-1893 -1336 3269
-1875 -1332 3264
-1851 -1323 3246
-1830 -1316 3235
-1818 -1315 3239
-1801 -1311 3234
-1781 -1304 3221
-1766 -1301 3220
-1751 -1298 3218
-1734 -1293 3211
-1720 -1291 3210
-1697 -1282 3192
-1692 -1287 3209
-1681 -1287 3214
-1661 -1279 3199
-1650 -1280 3205
-1633 -1275 3197
-1592 -1251 3142
-1529 -1209 3041
-1499 -1193 3006
-1480 -1186 2993
-1469 -1185 2994
-1462 -1188 3005
-1453 -1189 3012
-1446 -1191 3021
-1442 -1196 3038
-1419 -1185 3014
-1401 -1179 3002
-1393 -1180 3009
-1375 -1173 2995
-1364 -1173 2997
-1348 -1167 2988
-1340 -1169 2995
-1330 -1169 2999
-1317 -1166 2995
-1297 -1156 2974
-1287 -1156 2977
-1285 -1164 3000
-1269 -1158 2988
-1258 -1157 2990
-1246 -1155 2988
-1233 -1152 2983
-1223 -1151 2985
-1213 -1151 2987
-1205 -1152 2993
-1190 -1147 2984
-1158 -1125 2930
-1054 -1033 2692
-934 -923 2409
-890 -887 2317
-1053 -1058 2768
-1125 -1139 2982
-1124 -1149 3010
-1110 -1144 3000
-1098 -1141 2996
-1089 -1142 3001
-1081 -1143 3008
-1068 -1140 3001
-1053 -1134 2989
-1042 -1133 2988
-1027 -1127 2974
-1020 -1130 2985
-1008 -1127 2979
-995 -1123 2972
-984 -1120 2968
-972 -1118 2965
-963 -1118 2965
-949 -1113 2955
-937 -1109 2948
-925 -1106 2942
-911 -1100 2928
-904 -1104 2941
-891 -1098 2929
-881 -1097 2927
-867 -1091 2913
-854 -1087 2904
-846 -1088 2909
-835 -1085 2904
-827 -1087 2912
-812 -1080 2893
-805 -1082 2902
-794 -1079 2895
-785 -1079 2897
-773 -1076 2891
-763 -1074 2888
-753 -1072 2885
-744 -1072 2886
-735 -1072 2887
-723 -1068 2878
-712 -1065 2873
-704 -1066 2876
-691 -1060 2863
-684 -1063 2871
-670 -1055 2851
-663 -1057 2859
-652 -1054 2853
-644 -1055 2855
-630 -1046 2834
-626 -1054 2857
-614 -1049 2844
-604 -1048 2842
-593 -1043 2831
-583 -1042 2828
-574 -1039 2823
-564 -1037 2819
-554 -1035 2815
-545 -1034 2812
-536 -1033 2812
-526 -1031 2806
-515 -1027 2796
-506 -1026 2795
-497 -1025 2794
-491 -1029 2807
-481 -1027 2801
-470 -1022 2789
-462 -1022 2791
-452 -1020 2786
-443 -1019 2784
-434 -1018 2782
-425 -1015 2775
-415 -1011 2765
-407 -1014 2774
-399 -1015 2776
-389 -1010 2764
-379 -1007 2756
-371 -1007 2758
-363 -1007 2759
-355 -1010 2768
-345 -1004 2752
-336 -1002 2748
-327 -1001 2744
-317 -997 2734
-310 -1000 2742
-301 -997 2734
-292 -995 2731
-283 -991 2721
-275 -993 2727
-266 -992 2722
-257 -988 2712
-250 -991 2721
-241 -991 2721
-232 -987 2712
-223 -984 2704
-215 -984 2703
-207 -985 2707
-198 -980 2695
-190 -981 2697
-181 -979 2691
-173 -980 2693
-165 -977 2686
-157 -976 2685
-149 -979 2691
-140 -974 2679
-132 -976 2683
-123 -970 2668
-115 -966 2659
-107 -971 2670
-99 -967 2660
-91 -965 2655
-83 -969 2666
-75 -967 2660
-67 -964 2653
-59 -963 2649
-51 -964 2652
-43 -962 2646
-34 -958 2636
-27 -961 2642
-19 -963 2650
-11 -957 2631
-3 -957 2631
4 -956 2630
12 -955 2625
20 -952 2617
28 -952 2617
36 -954 2622
44 -952 2616
51 -950 2611
59 -946 2599
67 -948 2605
75 -948 2606
83 -947 2601
90 -945 2596
98 -947 2600
106 -943 2589
114 -944 2591
121 -941 2584
129 -942 2585
137 -941 2581
144 -938 2572
152 -941 2580
159 -938 2571
167 -936 2567
175 -936 2566
183 -940 2576
191 -939 2572
197 -933 2556
205 -935 2559
212 -930 2546
220 -932 2549
227 -929 2541
235 -930 2544
243 -931 2545
249 -925 2528
258 -930 2540
265 -927 2531
272 -925 2525
280 -926 2529
287 -923 2519
295 -926 2526
303 -928 2529
311 -928 2528
317 -924 2516
325 -922 2512
333 -925 2517
340 -923 2512
348 -924 2514
355 -922 2506
363 -922 2506
369 -920 2499
375 -916 2488
384 -918 2492
392 -919 2493
399 -919 2492
405 -916 2482
413 -916 2481
420 -914 2475
428 -916 2479
435 -915 2474
442 -914 2472
450 -914 2470
456 -911 2461
464 -912 2462
472 -914 2464
478 -911 2455
487 -913 2460
495 -915 2464
500 -910 2449
508 -910 2448
515 -909 2444
522 -909 2441
529 -909 2439
535 -906 2431
544 -908 2435
550 -906 2428
559 -908 2430
567 -909 2432
573 -907 2425
580 -906 2420
586 -904 2414
594 -905 2414
602 -906 2415
609 -905 2410
617 -905 2410
624 -905 2408
632 -906 2409
636 -902 2395
644 -901 2392
652 -903 2395
659 -902 2390
666 -901 2387
674 -902 2387
681 -902 2383
689 -903 2384
693 -899 2372
700 -898 2368
711 -902 2376
717 -901 2371
724 -900 2367
731 -900 2364
741 -902 2369
745 -899 2358
753 -899 2356
760 -899 2352
769 -901 2355
774 -899 2348
781 -898 2343
788 -898 2340
798 -901 2346
806 -901 2344
813 -901 2342
816 -896 2327
826 -899 2332
831 -896 2321
842 -900 2329
849 -899 2325
856 -899 2322
861 -896 2313
868 -897 2311
877 -898 2312
885 -899 2310
892 -898 2307
896 -896 2297
906 -898 2302
913 -898 2298
922 -900 2299
927 -897 2289
935 -897 2288
944 -899 2289
951 -899 2286
957 -898 2281
966 -899 2280
974 -899 2279
982 -901 2279
984 -896 2263
994 -898 2265
1005 -901 2270
1006 -896 2254
1014 -896 2252
1012 -888 2228
1029 -897 2247
1039 -899 2249
1043 -896 2239
1056 -901 2248
1059 -897 2236
1070 -900 2239
1070 -894 2221
1053 -874 2168
980 -808 2001
904 -740 1829
898 -730 1802
901 -728 1794
906 -727 1789
906 -721 1773
917 -725 1780
928 -729 1787
921 -720 1761
935 -726 1773
939 -724 1766
951 -729 1775
954 -727 1766
964 -730 1772
966 -727 1761
969 -725 1753
981 -729 1760
979 -724 1744
985 -724 1741
985 -719 1727
1003 -728 1745
1008 -727 1740
1009 -724 1728
1003 -715 1705
1018 -722 1718
1013 -714 1695
-2091 -1390 3379
-2072 -1385 3373
-2060 -1385 3379
-2036 -1376 3364
-2011 -1368 3349
-1985 -1357 3330
-1944 -1337 3286
-1921 -1330 3273
-1906 -1327 3272
-1889 -1323 3267
-1870 -1317 3260
-1860 -1318 3267
-1828 -1303 3236
-1808 -1297 3225
-1800 -1299 3235
-1786 -1297 3235
-1758 -1285 3210
-1752 -1288 3223
-1725 -1277 3200
-1714 -1276 3204
-1703 -1276 3208
-1686 -1271 3201
-1676 -1272 3208
-1665 -1272 3212
-1654 -1272 3216
-1632 -1263 3199
-1598 -1245 3158
-1557 -1221 3101
-1506 -1189 3025
-1481 -1177 2998
-1468 -1175 2996
-1462 -1178 3010
-1459 -1183 3026
-1451 -1186 3036
-1438 -1183 3033
-1424 -1179 3028
-1401 -1169 3006
-1393 -1170 3012
-1379 -1167 3008
-1368 -1166 3009
-1350 -1159 2995
-1336 -1155 2989
-1334 -1162 3011
-1324 -1162 3014
-1311 -1159 3010
-1301 -1159 3014
-1292 -1160 3019
-1277 -1155 3010
-1266 -1154 3011
-1253 -1151 3007
-1244 -1152 3011
-1225 -1143 2993
-1215 -1142 2994
-1209 -1146 3007
-1196 -1144 3004
-1182 -1139 2995
-1115 -1083 2850
-1013 -992 2614
-894 -884 2331
-966 -963 2541
-1090 -1095 2893
-1119 -1134 2999
-1109 -1134 3001
-1098 -1132 3001
-1089 -1133 3006
-1076 -1129 2999
-1063 -1125 2991
-1052 -1124 2991
-1038 -1119 2979
-1026 -1116 2975
-1015 -1114 2973
-1004 -1113 2971
-993 -1111 2969
-978 -1105 2954
-969 -1105 2956
-957 -1102 2952
-947 -1101 2951
-936 -1100 2950
-924 -1096 2944
-911 -1092 2935
-903 -1093 2939
-888 -1086 2924
-878 -1085 2922
-869 -1085 2923
-857 -1081 2916
-846 -1079 2913
-837 -1079 2914
-825 -1076 2907
-812 -1070 2894
-804 -1071 2900
-795 -1072 2903
-784 -1069 2897
-773 -1067 2893
-762 -1064 2888
-753 -1063 2886
-742 -1061 2882
-730 -1056 2872
-722 -1058 2877
-715 -1061 2888
-703 -1055 2873
-690 -1049 2860
-681 -1049 2862
-672 -1049 2862
-660 -1044 2850
-653 -1047 2859
-642 -1044 2852
-630 -1038 2839
-622 -1039 2843
-612 -1037 2837
-602 -1036 2836
-593 -1034 2833
-582 -1030 2823
-571 -1026 2812
-562 -1026 2816
-554 -1026 2817
-543 -1023 2809
-535 -1023 2811
-526 -1024 2813
-516 -1021 2806
-507 -1019 2801
-500 -1022 2811
-489 -1017 2800
-480 -1017 2800
-472 -1017 2802
-461 -1012 2787
-452 -1011 2785
-441 -1006 2775
-435 -1010 2786
-424 -1006 2774
-415 -1003 2769
-407 -1006 2777
-399 -1005 2776
-389 -1001 2766
-379 -997 2754
-371 -998 2758
-360 -993 2744
-353 -996 2754
-344 -992 2745
-335 -993 2746
-326 -989 2738
-318 -992 2745
-310 -991 2744
-300 -985 2728
-292 -988 2737
-283 -985 2728
-274 -981 2718
-266 -981 2720
-257 -979 2714
-248 -977 2709
-240 -978 2713
-232 -979 2715
-224 -981 2720
-215 -975 2705
-206 -972 2695
-198 -973 2699
-190 -975 2705
-181 -970 2690
-173 -970 2691
-165 -969 2690
-157 -968 2686
-148 -968 2686
-140 -963 2673
-132 -963 2673
-124 -965 2680
-115 -962 2672
-107 -959 2664
-99 -962 2670
-91 -959 2662
-83 -956 2655
-74 -955 2650
-67 -956 2655
-58 -954 2650
-50 -953 2645
-42 -951 2641
-34 -948 2632
-27 -953 2646
-18 -950 2636
-11 -949 2635
-3 -946 2627
4 -942 2614
12 -945 2623
20 -943 2617
28 -944 2620
36 -944 2619
44 -939 2606
52 -942 2613
59 -942 2612
67 -938 2601
75 -938 2600
83 -941 2608
90 -936 2596
98 -936 2595
106 -936 2595
113 -932 2581
121 -935 2591
129 -933 2584
137 -933 2583
144 -930 2576
152 -932 2580
160 -930 2574
167 -931 2576
174 -925 2559
182 -927 2564
190 -928 2564
197 -924 2554
205 -925 2556
213 -925 2555
220 -922 2546
228 -924 2550
235 -923 2548
243 -922 2545
250 -922 2542
257 -919 2534
266 -922 2542
273 -920 2535
281 -921 2537
287 -917 2526
295 -919 2530
303 -917 2525
309 -915 2516
317 -914 2512
324 -913 2510
332 -915 2514
340 -914 2511
348 -916 2514
354 -913 2506
362 -913 2505
370 -913 2503
377 -913 2501
383 -909 2489
390 -907 2484
398 -909 2488
405 -907 2481
413 -909 2485
421 -909 2485
428 -908 2481
435 -908 2479
441 -904 2467
450 -906 2471
457 -906 2470
464 -905 2465
471 -904 2460
478 -903 2458
484 -899 2446
492 -902 2451
499 -900 2445
507 -901 2446
515 -902 2447
521 -900 2441
529 -901 2441
536 -900 2438
544 -900 2436
550 -898 2430
557 -898 2426
567 -901 2433
571 -896 2419
581 -900 2426
587 -898 2421
592 -895 2410
603 -899 2419
608 -895 2408
616 -897 2410
623 -896 2405
631 -897 2406
637 -895 2399
644 -894 2396
653 -896 2398
660 -895 2395
668 -896 2395
673 -894 2386
681 -894 2385
688 -893 2381
695 -893 2378
701 -892 2374
710 -894 2377
717 -893 2373
725 -893 2371
732 -893 2368
735 -888 2354
743 -889 2353
752 -891 2357
762 -894 2362
768 -892 2354
774 -890 2348
783 -893 2351
790 -892 2348
794 -888 2334
803 -891 2339
809 -888 2331
820 -892 2339
827 -892 2336
832 -890 2328
840 -891 2328
847 -890 2322
853 -889 2316
864 -893 2326
871 -892 2320
877 -891 2314
882 -889 2306
891 -890 2307
896 -888 2298
906 -891 2303
913 -890 2299
919 -889 2294
929 -891 2297
936 -891 2293
941 -888 2284
949 -890 2284
958 -891 2283
967 -892 2284
972 -890 2276
980 -891 2275
985 -889 2266
995 -891 2270
1000 -889 2261
1004 -886 2250
1013 -888 2253
1012 -880 2230
1032 -892 2256
1035 -888 2242
1046 -891 2248
1053 -891 2243
1058 -889 2235
1070 -893 2242
1074 -890 2231
1053 -867 2170
990 -809 2022
916 -743 1855
893 -720 1795
907 -726 1808
915 -728 1809
909 -719 1783
919 -721 1787
927 -723 1789
933 -723 1786
935 -720 1774
931 -713 1754
940 -715 1757
955 -721 1770
956 -718 1759
959 -716 1750
968 -718 1753
972 -717 1746
980 -718 1746
987 -719 1746
993 -719 1742
995 -716 1733
1007 -721 1740
1013 -721 1738
1010 -714 1719
1018 -716 1720
1020 -713 1710
-2086 -1375 3375
-2073 -1374 3380
-2048 -1365 3364
-2029 -1360 3357
-2003 -1351 3340
-1976 -1340 3319
-1934 -1319 3274
-1923 -1319 3280
-1896 -1308 3258
-1882 -1306 3259
-1871 -1307 3266
-1851 -1301 3255
-1835 -1297 3252
-1811 -1288 3234
-1795 -1284 3230
-1775 -1278 3219
-1761 -1276 3219
-1743 -1271 3211
