VERSION 0.7
FIELDS x y z
SIZE 4 4 4
TYPE I I I
COUNT 1 1 1
WIDTH 3566
HEIGHT 1
VIEWPOINT 0.0 0.0 0.0 1.0 0.0 0.0 0.0
POINTS 3566
DATA ascii
59 142 1592
63 141 1587
66 137 1541
73 141 1590
77 141 1587
82 142 1594
86 141 1585
90 140 1572
95 140 1579
100 141 1582
105 141 1590
109 141 1586
110 136 1531
117 139 1569
123 141 1588
125 138 1552
128 136 1534
135 139 1568
138 138 1552
144 139 1562
148 138 1553
152 137 1547
158 139 1568
156 134 1506
169 141 1589
172 139 1565
175 138 1556
182 140 1573
182 137 1538
193 141 1592
188 134 1513
193 135 1515
200 136 1534
203 136 1526
214 140 1572
207 132 1491
216 135 1525
223 137 1539
225 135 1521
226 133 1498
242 140 1573
240 136 1530
252 140 1576
252 137 1547
248 133 1496
253 133 1500
258 134 1503
259 132 1485
273 137 1536
276 136 1529
280 136 1526
274 131 1470
278 131 1466
288 133 1494
301 137 1538
298 134 1500
304 134 1507
307 134 1502
310 133 1495
306 130 1454
332 138 1554
337 139 1558
322 131 1465
332 133 1489
335 132 1483
341 133 1491
343 132 1478
348 132 1481
352 132 1477
356 132 1475
359 131 1469
364 132 1471
368 132 1471
373 131 1470
377 131 1469
379 131 1458
385 131 1464
389 131 1463
393 131 1460
396 130 1454
397 129 1443
401 129 1440
407 130 1445
409 129 1435
413 129 1433
416 128 1429
422 129 1435
425 129 1429
420 126 1397
432 128 1419
437 128 1422
422 123 1360
447 128 1424
448 127 1413
460 130 1437
454 127 1405
448 124 1372
462 127 1400
467 127 1402
467 126 1388
483 129 1422
484 128 1410
477 125 1378
491 127 1403
495 127 1404
498 127 1398
509 129 1417
499 125 1374
508 126 1387
510 126 1381
518 127 1388
521 126 1383
524 126 1378
530 126 1381
529 125 1367
537 126 1376
542 126 1377
547 126 1377
549 126 1370
557 127 1380
559 126 1373
565 126 1376
571 127 1378
574 126 1373
578 126 1370
585 127 1376
587 126 1369
592 127 1370
597 127 1370
603 127 1371
608 127 1371
614 127 1374
617 127 1371
627 128 1381
629 128 1375
637 129 1380
635 127 1367
643 128 1372
647 128 1370
655 129 1376
655 128 1364
659 128 1363
662 127 1359
668 128 1360
673 128 1359
678 128 1359
683 128 1358
688 128 1357
689 127 1350
699 128 1359
700 128 1350
699 127 1338
706 127 1342
714 128 1347
844 150 1581
923 163 1717
937 165 1731
947 165 1737
958 166 1743
970 167 1751
971 166 1741
976 166 1737
-1320 246 2295
-1306 245 2287
-1291 243 2278
-1280 243 2275
-1269 242 2272
-1255 241 2265
-1246 240 2265
-1229 238 2251
-1220 238 2251
-1219 239 2265
-1204 237 2254
-1190 236 2245
-1171 234 2227
-1167 234 2234
-1148 232 2215
-1080 219 2101
-1005 205 1969
-973 200 1921
-971 201 1932
-983 205 1971
-986 207 1992
-979 206 1993
-979 208 2009
-975 208 2016
-969 208 2021
-960 207 2017
-941 205 1993
-923 202 1970
-915 202 1970
-897 199 1945
-882 197 1929
-877 197 1933
-867 196 1926
-864 197 1934
-851 195 1922
-842 194 1917
-829 193 1902
-822 192 1901
-811 191 1892
-803 191 1890
-794 190 1885
-788 190 1886
-794 193 1915
-746 182 1815
-775 191 1902
-760 189 1883
-766 191 1913
-731 184 1842
-719 182 1827
-736 188 1887
-717 185 1854
-707 183 1845
-716 187 1886
-694 183 1843
-671 178 1800
-695 186 1880
-681 184 1861
-684 186 1884
-662 182 1841
-654 181 1837
-639 178 1811
-652 183 1865
-648 184 1872
-644 184 1877
-618 178 1820
-628 183 1867
-611 179 1833
-593 176 1796
-586 175 1794
-589 178 1821
-576 175 1798
-580 178 1830
-562 174 1790
-556 174 1789
-561 177 1826
-539 172 1771
-556 179 1847
-533 173 1789
-532 175 1805
-511 170 1755
-516 173 1792
-516 175 1810
-487 167 1727
-492 170 1767
-500 175 1814
-492 174 1806
-484 173 1797
-476 172 1789
-470 171 1786
-464 171 1785
-451 168 1756
-452 171 1782
-450 172 1795
-431 167 1742
-441 172 1803
-424 167 1754
-414 166 1737
-417 169 1771
-409 168 1762
-400 166 1744
-398 167 1758
-394 168 1766
-381 164 1731
-376 165 1733
-372 165 1738
-376 169 1780
-367 167 1763
-355 164 1730
-349 164 1730
-345 164 1733
-334 161 1704
-329 161 1708
-322 160 1694
-322 163 1724
-318 163 1726
-306 160 1694
-302 160 1695
-311 167 1774
-292 160 1698
-283 158 1675
-281 159 1692
-277 159 1696
-267 156 1665
-269 161 1714
-263 160 1708
-256 158 1691
-251 158 1691
-248 160 1707
-236 155 1661
-235 158 1684
-231 158 1692
-230 161 1719
-225 161 1724
-216 158 1693
-214 160 1712
-206 158 1694
-196 154 1652
-197 158 1700
-188 155 1667
-180 152 1633
-179 156 1672
-172 153 1647
-166 153 1642
-162 153 1646
-159 154 1660
-158 158 1705
-152 157 1692
-146 156 1680
-143 158 1702
-136 156 1682
-131 156 1678
-124 153 1654
-121 155 1672
-113 151 1634
-107 149 1609
-105 152 1644
-98 150 1617
-96 154 1660
-91 154 1660
-86 152 1646
-80 151 1630
-75 151 1630
-69 148 1602
-67 153 1661
-61 150 1623
-56 150 1624
-52 151 1636
-48 153 1657
-43 151 1641
-38 151 1633
-34 154 1673
-28 150 1632
-23 149 1621
-19 150 1630
-14 149 1619
-9 150 1634
-4 147 1595
0 147 1599
4 150 1626
9 152 1649
13 149 1624
18 148 1604
22 147 1596
27 150 1635
31 145 1575
36 145 1583
40 146 1592
45 147 1597
50 147 1604
54 145 1577
58 143 1558
65 149 1619
68 146 1594
72 145 1584
78 147 1598
81 145 1579
86 145 1577
90 145 1580
94 144 1565
99 145 1577
103 143 1558
110 147 1603
113 144 1574
120 148 1609
120 142 1551
127 145 1576
133 146 1591
134 142 1550
139 143 1555
144 143 1560
150 144 1574
151 141 1542
159 144 1576
163 144 1568
166 143 1555
171 143 1560
175 142 1553
176 140 1526
180 139 1520
186 141 1535
193 143 1556
201 145 1578
205 144 1572
209 144 1574
210 141 1542
214 141 1540
219 142 1544
225 142 1551
226 140 1525
230 140 1523
237 141 1538
239 140 1521
246 142 1542
246 139 1514
250 138 1508
250 136 1481
262 140 1524
267 140 1526
269 139 1517
267 136 1478
273 137 1487
279 138 1497
285 138 1501
297 142 1543
295 139 1508
296 137 1492
299 136 1483
305 137 1488
313 139 1508
313 137 1485
314 135 1468
328 140 1515
332 139 1511
333 138 1492
337 137 1490
341 137 1489
338 134 1457
349 137 1484
353 137 1483
359 137 1489
357 135 1462
366 137 1478
366 135 1462
375 137 1480
381 137 1486
384 137 1477
392 138 1490
390 136 1464
388 134 1443
405 138 1488
405 136 1470
391 130 1403
416 137 1477
419 137 1472
427 137 1481
423 135 1452
435 137 1476
436 136 1465
438 135 1457
443 136 1457
460 139 1498
433 130 1395
444 132 1417
456 134 1438
450 131 1405
462 133 1428
458 131 1402
478 135 1448
466 131 1399
483 134 1436
483 133 1423
494 135 1440
482 130 1391
501 134 1432
501 133 1420
506 133 1421
504 132 1401
518 134 1428
526 135 1437
515 131 1394
525 133 1407
547 137 1454
536 133 1411
525 129 1368
515 126 1332
548 133 1404
548 132 1393
542 129 1363
543 128 1354
573 134 1418
569 133 1396
582 135 1417
582 134 1404
599 136 1433
582 132 1381
595 133 1400
584 130 1363
590 130 1364
587 129 1347
629 137 1432
623 135 1405
585 125 1308
634 135 1408
629 133 1385
613 129 1338
634 132 1375
660 137 1420
647 133 1380
626 128 1325
645 131 1354
656 132 1365
664 133 1372
656 130 1345
656 130 1335
657 129 1325
673 131 1349
651 126 1295
718 138 1418
691 132 1353
700 133 1360
691 130 1333
668 125 1278
700 130 1329
725 134 1366
843 155 1579
929 170 1727
942 171 1740
952 172 1745
952 171 1732
965 172 1742
972 172 1742
973 171 1732
-1314 252 2284
-1309 253 2292
-1293 251 2281
-1279 250 2273
-1275 250 2283
-1263 249 2277
-1248 248 2268
-1242 248 2274
-1226 246 2261
-1213 245 2254
-1202 244 2251
-1190 243 2245
-1178 242 2239
-1169 242 2239
-1152 240 2222
-1113 233 2163
-1022 215 2002
-979 208 1933
-978 209 1945
-983 211 1970
-988 213 1995
-986 214 2007
-985 215 2022
-982 216 2030
-984 218 2051
-989 220 2077
-999 224 2115
-982 222 2096
-972 221 2090
-954 218 2069
-942 217 2060
-929 215 2048
-936 218 2079
-933 219 2089
-935 221 2112
-923 220 2100
-912 219 2093
-895 216 2070
-874 212 2038
-857 210 2016
-841 207 1994
-827 205 1979
-812 203 1960
-797 201 1940
-786 199 1929
-773 198 1913
-762 196 1904
-748 194 1884
-740 193 1879
-716 189 1836
-724 192 1872
-714 191 1863
-695 187 1830
-703 191 1867
-671 184 1799
-697 192 1886
-657 183 1794
-635 178 1750
-651 184 1811
-676 193 1898
-630 181 1785
-644 187 1842
-638 187 1843
-616 182 1797
-633 188 1864
-589 177 1751
-616 186 1848
-605 185 1834
-577 178 1767
-590 183 1824
-573 180 1788
-574 182 1811
-567 181 1808
-565 182 1821
-563 184 1833
-552 182 1815
-533 177 1773
-540 181 1814
-529 179 1797
-511 175 1755
-521 180 1808
-500 175 1755
-506 178 1794
-501 179 1799
-488 176 1769
-485 176 1779
-481 177 1786
-467 174 1754
-468 176 1779
-458 174 1760
-462 178 1797
-457 178 1799
-443 174 1767
-435 173 1757
-432 174 1767
-422 172 1749
-418 173 1754
-405 169 1720
-404 171 1739
-403 173 1760
-397 172 1755
-389 171 1744
-379 169 1723
-387 175 1784
-369 169 1723
-372 172 1761
-358 168 1723
-352 168 1720
-356 172 1762
-349 171 1757
-330 164 1682
-330 167 1710
-321 165 1692
-318 166 1702
-320 169 1739
-310 166 1712
-309 168 1735
-302 168 1727
-296 167 1719
-282 162 1669
-279 163 1683
-277 164 1696
-277 168 1731
-270 166 1715
-261 164 1694
-259 166 1714
-253 165 1706
-248 165 1709
-241 163 1692
-237 164 1699
-231 163 1691
-217 157 1628
-215 159 1650
-222 168 1740
-211 163 1694
-208 164 1710
-200 162 1681
-192 159 1655
-191 162 1686
-187 163 1699
-183 164 1710
-175 161 1679
-173 163 1702
-164 159 1661
-157 157 1639
-152 157 1642
-148 158 1652
-142 157 1641
-141 161 1681
-136 161 1679
-129 158 1651
-125 159 1658
-121 160 1679
-115 158 1653
-109 157 1639
-108 162 1696
-101 158 1658
-94 155 1627
-89 155 1628
-85 157 1641
-80 156 1631
-75 156 1634
-71 155 1629
-65 153 1610
-61 154 1617
-57 156 1639
-53 158 1660
-47 155 1628
-42 155 1629
-37 152 1599
-33 155 1627
-28 154 1615
-24 157 1657
-18 153 1605
-14 154 1624
-9 152 1603
-5 153 1610
0 155 1628
4 152 1606
8 154 1622
13 153 1609
17 150 1582
22 151 1587
27 151 1590
31 150 1582
36 151 1595
41 152 1601
46 154 1626
50 151 1598
54 150 1587
60 153 1620
63 149 1570
68 150 1581
74 152 1610
79 154 1626
82 150 1589
86 151 1590
91 151 1596
95 149 1577
99 148 1569
104 150 1580
108 148 1568
113 149 1570
116 147 1552
122 148 1566
128 150 1586
132 150 1581
133 146 1542
140 149 1574
147 151 1596
148 147 1558
152 147 1550
155 145 1532
165 150 1586
166 147 1558
172 148 1564
174 146 1548
179 146 1547
185 148 1562
186 145 1532
192 146 1543
193 144 1519
202 146 1547
210 149 1574
204 142 1500
207 141 1486
218 145 1532
218 143 1506
228 146 1541
234 147 1554
237 146 1543
241 145 1535
246 146 1539
242 141 1487
254 145 1532
257 144 1524
259 143 1508
267 145 1530
272 145 1532
273 143 1511
284 147 1545
277 141 1483
288 144 1518
296 146 1537
286 139 1463
299 143 1506
303 143 1504
313 145 1531
303 139 1459
311 140 1476
318 141 1487
326 143 1503
325 140 1476
334 142 1498
330 139 1461
348 145 1519
346 142 1489
346 140 1471
351 140 1473
355 140 1470
362 141 1480
360 139 1456
378 144 1507
370 139 1457
381 142 1483
380 140 1462
386 140 1468
390 140 1466
395 140 1468
403 142 1481
403 140 1462
411 141 1476
415 141 1473
415 139 1455
420 140 1458
425 140 1458
426 139 1445
438 141 1472
438 140 1456
442 140 1453
445 139 1447
457 141 1471
450 138 1435
457 139 1441
449 135 1400
468 139 1447
465 137 1422
475 139 1440
483 140 1450
484 139 1439
490 139 1441
494 139 1440
500 140 1443
506 140 1447
508 139 1438
515 140 1444
514 138 1427
525 140 1447
528 140 1440
526 138 1423
531 138 1422
526 136 1397
541 139 1423
546 139 1424
546 138 1411
550 138 1410
563 140 1431
573 141 1442
568 139 1417
564 137 1395
573 138 1406
578 138 1406
571 135 1377
572 134 1367
588 137 1393
601 139 1414
605 139 1412
610 139 1410
604 137 1385
592 133 1346
623 139 1406
620 137 1387
623 137 1383
638 139 1405
632 137 1381
652 140 1413
643 138 1383
657 140 1401
668 141 1413
652 137 1368
652 136 1358
664 137 1373
663 136 1359
680 139 1384
682 138 1376
685 138 1372
700 140 1392
706 140 1393
696 137 1363
689 135 1339
687 134 1323
699 135 1337
704 135 1336
728 139 1372
847 161 1586
930 175 1729
938 176 1732
951 177 1743
955 177 1736
962 177 1736
968 177 1734
978 178 1740
-1320 261 2295
-1316 262 2305
-1299 260 2291
-1283 258 2279
-1268 256 2269
-1266 257 2282
-1252 256 2274
-1237 254 2263
-1224 253 2257
-1214 252 2254
-1209 253 2263
-1187 250 2238
-1177 249 2236
-1171 249 2241
-1162 249 2242
-1127 243 2191
-1034 224 2025
-985 215 1944
-976 214 1941
-984 217 1972
-990 220 1999
-990 221 2015
-991 223 2032
-983 223 2032
-985 224 2053
-997 229 2094
-1027 237 2173
-1023 237 2182
-1018 238 2189
-1007 237 2183
-998 236 2180
-983 234 2166
-972 233 2159
-974 235 2179
-980 238 2212
-978 239 2225
-973 240 2232
-961 239 2223
-955 239 2228
-945 238 2223
-938 238 2226
-925 236 2213
-916 236 2209
-905 235 2202
-894 233 2193
-882 232 2183
-867 230 2164
-853 228 2147
-834 224 2118
-817 221 2094
-798 218 2063
-779 214 2031
-757 210 1993
-738 206 1959
-727 205 1948
-712 202 1927
-702 201 1917
-688 199 1894
-677 197 1881
-663 195 1861
-663 196 1877
-633 189 1810
-650 196 1876
-633 192 1846
-631 193 1857
-617 191 1832
-592 185 1777
-598 188 1812
-581 184 1778
-575 184 1777
-593 192 1853
-584 191 1843
-583 192 1857
-563 187 1813
-552 185 1796
-551 187 1812
-553 189 1838
-530 183 1781
-527 184 1790
-526 185 1803
-512 182 1777
-515 185 1805
-496 180 1760
-503 185 1803
-493 183 1787
-492 185 1806
-487 184 1806
-478 183 1794
-466 180 1770
-458 179 1761
-455 180 1771
-455 182 1794
-444 180 1772
-448 184 1810
-442 183 1807
-425 179 1761
-421 179 1767
-424 182 1802
-400 174 1722
-383 169 1672
-398 178 1761
-393 178 1762
-380 174 1727
-378 175 1740
-368 174 1721
-372 177 1760
-359 174 1728
-357 175 1740
-350 174 1734
-346 175 1741
-334 171 1706
-328 171 1701
-325 172 1710
-318 171 1702
-320 174 1738
-317 175 1751
-305 171 1713
-303 173 1730
-307 178 1784
-288 170 1706
-285 172 1719
-285 174 1747
-273 170 1704
-266 168 1690
-261 169 1693
-256 169 1693
-258 173 1736
-248 170 1707
-237 165 1662
-236 168 1694
-232 169 1701
-226 168 1690
-224 170 1712
-215 167 1687
-211 167 1687
-202 165 1661
-200 167 1685
-196 167 1691
-192 168 1694
-185 166 1679
-182 168 1701
-172 164 1654
-169 165 1672
-164 165 1668
-160 165 1674
-159 169 1713
-149 164 1664
-143 163 1651
-141 166 1682
-138 167 1699
-130 164 1660
-126 165 1672
-122 167 1691
-116 165 1675
-109 161 1633
-106 165 1675
-101 164 1663
-94 161 1635
-90 161 1635
-85 160 1630
-80 160 1626
-76 161 1639
-70 159 1620
-66 160 1629
-60 158 1609
-56 159 1625
-51 157 1604
-47 159 1626
-43 162 1654
-37 159 1618
-33 161 1641
-28 160 1630
-23 154 1577
-19 158 1616
-14 156 1597
-9 160 1635
-4 157 1600
0 160 1635
4 160 1632
9 160 1636
13 154 1574
18 156 1600
22 157 1602
27 157 1607
31 154 1575
36 154 1579
41 155 1591
45 155 1586
51 158 1622
54 156 1595
60 159 1624
63 155 1584
69 158 1618
73 156 1596
79 158 1617
81 153 1572
85 152 1553
90 154 1577
94 152 1561
101 155 1592
102 151 1545
108 153 1572
115 156 1602
116 151 1550
120 151 1550
127 153 1572
132 154 1580
135 152 1563
139 152 1554
147 156 1596
151 154 1583
155 154 1581
156 151 1548
162 152 1557
164 149 1531
166 148 1516
177 154 1574
181 153 1564
184 151 1552
190 152 1562
193 151 1552
195 150 1533
198 149 1522
202 148 1519
208 149 1525
214 150 1540
220 151 1550
224 151 1546
225 149 1523
235 152 1560
234 149 1521
240 150 1532
242 148 1516
247 148 1514
248 146 1495
260 150 1538
256 146 1490
268 150 1535
270 149 1520
275 149 1523
280 149 1524
285 149 1528
287 148 1511
295 150 1530
298 149 1523
307 151 1544
313 152 1550
307 147 1497
314 148 1513
323 150 1532
321 147 1499
332 150 1529
330 147 1500
337 148 1510
338 147 1497
335 144 1462
346 146 1490
354 148 1505
355 146 1491
356 145 1476
361 145 1478
362 144 1461
377 148 1506
375 145 1477
377 145 1469
381 144 1466
397 149 1511
381 141 1429
398 146 1476
406 147 1491
408 146 1480
410 145 1469
412 144 1460
420 146 1475
432 148 1498
422 143 1447
422 142 1432
437 145 1466
437 144 1452
448 146 1474
441 142 1434
447 143 1440
456 144 1451
458 144 1446
460 143 1436
465 143 1438
464 141 1420
475 143 1439
480 144 1441
476 141 1414
485 142 1425
493 143 1437
492 142 1418
504 144 1441
516 146 1461
504 141 1413
524 146 1458
525 145 1444
521 142 1421
530 144 1432
526 141 1408
543 145 1441
533 141 1403
546 143 1423
556 145 1436
552 142 1413
561 143 1423
564 143 1419
569 143 1420
554 138 1369
561 139 1376
575 141 1397
583 142 1404
590 143 1410
588 142 1394
586 140 1378
606 144 1413
613 144 1417
598 140 1371
609 141 1385
606 139 1366
613 140 1371
621 141 1377
642 145 1414
638 143 1394
642 143 1391
647 143 1391
637 140 1358
651 142 1377
650 140 1364
659 142 1372
660 141 1364
674 143 1381
674 142 1371
672 141 1357
680 141 1361
687 142 1365
696 143 1372
698 142 1366
691 140 1342
702 141 1353
691 138 1321
711 141 1349
766 151 1444
857 168 1603
926 180 1722
943 182 1740
955 184 1749
950 182 1727
966 184 1744
965 182 1728
973 183 1729
-1317 268 2289
-1309 268 2292
-1299 267 2291
-1283 265 2279
-1276 265 2284
-1256 263 2263
-1252 263 2274
-1234 261 2257
-1224 260 2257
-1219 261 2264
-1207 260 2259
-1190 258 2243
-1178 256 2237
-1171 256 2241
-1159 255 2234
-1138 252 2212
-1046 233 2048
-985 221 1943
-976 220 1940
-979 223 1962
-993 227 2006
-988 227 2011
-989 229 2028
-989 230 2045
-987 231 2055
-991 234 2081
-1026 243 2170
-1028 246 2194
-1014 244 2180
-1007 244 2183
-997 243 2178
-986 242 2171
-975 241 2164
-970 241 2172
-984 246 2220
-986 248 2243
-979 248 2246
-981 250 2268
-978 252 2281
-972 252 2287
-972 253 2304
-967 254 2312
-960 254 2315
-958 255 2330
-955 256 2342
-949 257 2349
-941 256 2347
-931 256 2344
-926 256 2352
-918 256 2351
-906 254 2341
-894 253 2331
-885 252 2328
-870 250 2309
-858 249 2298
-845 247 2285
-831 245 2266
-812 241 2235
-799 239 2221
-782 236 2192
-762 232 2159
-743 228 2124
-721 223 2080
-702 219 2046
-684 216 2013
-666 212 1979
-650 208 1950
-636 206 1928
-623 203 1905
-608 200 1880
-603 200 1881
-601 202 1894
-576 195 1837
-594 203 1914
-563 194 1832
-555 193 1823
-551 194 1832
-545 194 1831
-537 193 1823
-534 194 1832
-510 187 1770
-500 185 1753
-512 191 1816
-496 187 1779
-492 188 1784
-479 185 1757
-488 190 1810
-472 186 1773
-479 191 1821
-460 185 1768
-457 186 1778
-451 186 1777
-437 182 1741
-429 181 1732
-435 186 1778
-425 184 1761
-422 185 1770
-405 179 1721
-410 184 1765
-393 179 1714
-392 180 1731
-398 185 1782
-380 179 1727
-368 176 1697
-366 178 1711
-378 185 1788
-358 179 1723
-350 177 1708
-360 184 1779
-344 179 1730
-330 174 1684
-339 181 1755
-325 176 1709
-320 176 1709
-319 179 1735
-316 180 1748
-309 179 1736
-300 177 1717
-290 173 1685
-283 172 1676
-292 181 1760
-280 176 1717
-275 176 1718
-268 175 1704
-265 176 1715
-255 173 1685
-248 171 1671
-248 175 1705
-243 174 1704
-238 175 1710
-235 176 1723
-233 178 1745
-218 171 1668
-214 171 1672
-209 171 1672
-208 174 1708
-199 171 1678
-198 174 1703
-186 168 1648
-181 167 1641
-178 169 1661
-174 170 1669
-168 169 1661
-163 169 1661
-156 166 1631
-153 168 1655
-149 169 1664
-148 173 1707
-138 167 1640
-133 167 1647
-128 166 1639
-122 165 1627
-120 169 1664
-113 165 1628
-107 164 1614
-104 166 1637
-101 169 1671
-97 170 1684
-90 167 1647
-87 170 1676
-82 168 1662
-78 170 1681
-71 167 1652
-67 167 1651
-62 168 1662
-57 166 1642
-52 165 1630
-48 167 1650
-42 163 1618
-38 168 1664
-33 165 1637
-28 162 1601
-23 165 1634
-18 162 1603
-14 162 1608
-9 163 1620
-4 162 1605
0 163 1615
4 160 1590
8 162 1604
13 159 1580
18 166 1644
22 161 1597
27 162 1604
31 161 1594
37 163 1618
41 161 1604
46 163 1624
51 164 1631
56 163 1625
60 163 1625
64 160 1590
68 160 1592
71 156 1552
78 161 1601
82 160 1594
86 159 1584
91 159 1578
97 162 1609
100 158 1576
105 160 1597
110 160 1595
114 159 1586
118 158 1572
122 157 1566
127 159 1581
130 157 1561
135 157 1566
141 158 1577
146 159 1580
148 156 1557
154 158 1573
158 157 1561
163 158 1570
166 156 1554
173 158 1575
177 158 1571
180 156 1552
185 157 1562
189 157 1558
194 157 1560
197 155 1547
199 153 1525
204 154 1532
210 155 1541
219 158 1574
217 154 1528
217 151 1497
228 155 1541
232 155 1536
235 153 1523
242 155 1539
249 156 1554
250 154 1535
252 153 1522
251 150 1489
264 155 1537
263 152 1506
266 151 1495
272 151 1503
286 157 1556
282 152 1510
281 149 1481
289 151 1497
296 152 1510
304 154 1531
314 157 1558
312 154 1525
310 150 1489
319 153 1514
324 153 1514
327 152 1506
328 151 1492
330 150 1481
344 154 1520
349 154 1523
352 153 1515
356 153 1514
358 152 1502
365 153 1514
362 150 1481
371 152 1497
366 148 1458
375 150 1475
378 149 1470
384 150 1475
388 150 1476
388 148 1457
388 146 1439
396 148 1452
407 150 1477
407 148 1459
406 147 1441
419 149 1468
427 151 1481
425 149 1459
433 150 1469
438 150 1471
436 148 1449
447 150 1470
444 147 1442
451 148 1451
455 148 1449
457 147 1440
463 148 1446
466 147 1440
473 148 1445
478 148 1448
475 146 1424
480 146 1424
491 148 1444
496 148 1444
490 145 1414
496 146 1417
513 150 1453
498 144 1395
514 147 1427
513 146 1411
522 147 1423
529 148 1429
522 145 1398
532 146 1412
545 148 1433
549 148 1431
551 148 1423
548 146 1404
554 146 1405
560 146 1409
574 149 1432
571 147 1413
573 147 1405
572 145 1390
578 146 1394
586 146 1400
597 148 1414
591 146 1389
595 145 1386
612 148 1414
596 144 1367
610 146 1387
605 143 1364
629 148 1407
640 150 1421
633 147 1393
644 149 1407
643 147 1392
650 148 1397
664 150 1415
644 144 1362
659 147 1382
663 147 1381
669 147 1382
673 147 1378
659 143 1339
679 146 1370
669 143 1340
709 151 1408
700 148 1380
690 145 1349
691 144 1341
702 145 1353
712 147 1361
700 143 1328
744 151 1402
872 176 1632
933 187 1734
940 187 1734
949 188 1738
953 188 1732
955 187 1723
962 187 1723
973 188 1729
-1312 274 2280
-1300 273 2276
-1292 273 2278
-1284 273 2281
-1268 271 2268
-1255 270 2262
-1245 269 2261
-1230 268 2250
-1219 267 2246
-1212 267 2250
-1203 266 2249
-1198 267 2258
-1184 265 2249
-1171 264 2241
-1152 261 2220
-1139 259 2212
-1053 241 2061
-991 229 1955
-976 227 1940
-977 228 1957
-990 233 1998
-992 235 2017
-989 236 2029
-989 237 2043
-988 238 2057
-994 241 2086
-1022 249 2161
-1034 254 2205
-1014 251 2180
-1012 252 2193
-1001 251 2187
-984 248 2167
-976 248 2167
-974 249 2179
-984 253 2220
-991 257 2254
-991 258 2272
-985 259 2278
-981 259 2287
-972 259 2285
-973 261 2306
-966 261 2310
-960 261 2314
-960 263 2334
-959 265 2352
-956 266 2364
-948 265 2364
-944 266 2376
-944 268 2395
-940 269 2406
-934 270 2413
-929 270 2421
-923 271 2428
-919 271 2438
-914 272 2446
-907 272 2451
-904 273 2464
-898 274 2472
-893 274 2479
-886 275 2484
-879 275 2488
-865 273 2470
-856 272 2467
-847 271 2465
-828 268 2434
-817 266 2424
-800 263 2398
-785 261 2376
-767 257 2345
-751 254 2319
-738 252 2301
-716 247 2256
-697 242 2219
-676 237 2176
-654 232 2125
-636 228 2089
-617 223 2049
-599 219 2010
-580 214 1969
-564 210 1934
-551 207 1910
-536 204 1879
-526 202 1866
-520 202 1863
-517 203 1874
-490 194 1797
-489 196 1815
-469 190 1762
-468 192 1779
-476 197 1829
-463 194 1800
-446 189 1755
-453 194 1805
-434 188 1751
-431 189 1761
-427 190 1768
-417 188 1750
-416 189 1767
-415 191 1787
-404 189 1762
-390 184 1723
-395 189 1771
-379 184 1724
-376 185 1732
-376 187 1756
-374 189 1773
-360 185 1731
-338 176 1649
-346 183 1715
-347 185 1741
-341 185 1738
-334 184 1733
-320 179 1683
-324 184 1732
-311 179 1688
-311 182 1716
-308 183 1728
-302 183 1726
-298 183 1733
-290 182 1717
-284 181 1711
-273 177 1671
-273 180 1703
-269 181 1712
-262 179 1696
-262 183 1733
-253 180 1705
-248 180 1705
-242 179 1696
-238 180 1709
-232 179 1700
-228 180 1709
-221 178 1690
-212 174 1658
-209 176 1671
-203 175 1667
-203 179 1710
-197 178 1695
-193 179 1707
-182 174 1657
-175 171 1635
-175 175 1674
-171 177 1690
-165 176 1677
-158 173 1656
-152 172 1642
-149 174 1665
-151 181 1736
-138 172 1650
-133 171 1641
-132 177 1694
-124 172 1650
-121 175 1676
-116 174 1672
-110 172 1650
-104 170 1634
-102 175 1680
-97 175 1682
-91 172 1655
-86 173 1657
-81 173 1658
-76 170 1637
-70 168 1614
-66 170 1638
-62 172 1655
-57 170 1636
-51 168 1619
-46 166 1596
-43 172 1656
-37 169 1627
-32 167 1610
-27 164 1583
-23 168 1619
-18 167 1608
-13 163 1571
-9 169 1629
-4 168 1616
0 168 1616
4 166 1598
9 168 1619
13 165 1590
18 164 1581
22 166 1600
27 165 1590
32 166 1605
36 165 1590
40 163 1573
45 164 1588
49 164 1579
55 167 1618
59 166 1600
63 162 1567
69 167 1614
74 166 1609
78 165 1593
82 165 1591
86 162 1569
90 163 1575
95 163 1574
100 164 1590
104 163 1581
110 165 1596
112 161 1560
117 162 1565
120 160 1548
125 160 1547
130 161 1559
138 165 1597
141 163 1579
145 162 1568
146 159 1534
154 162 1570
158 162 1565
162 161 1560
166 161 1557
171 161 1552
177 163 1573
180 161 1559
183 160 1545
189 160 1551
193 160 1547
199 162 1565
199 158 1527
205 159 1540
209 159 1533
213 158 1531
216 157 1520
222 158 1531
227 159 1535
229 157 1514
237 159 1536
241 159 1535
245 159 1535
252 160 1546
251 157 1516
252 154 1490
260 157 1515
262 155 1500
269 157 1510
273 156 1507
274 154 1488
287 159 1537
290 158 1527
296 159 1533
291 154 1488
301 157 1514
319 164 1580
307 156 1498
314 157 1512
320 158 1516
322 157 1506
329 158 1516
332 157 1506
329 154 1476
338 155 1492
340 154 1482
342 153 1472
352 156 1494
357 156 1499
362 156 1501
358 153 1465
363 153 1467
371 154 1480
371 152 1460
383 155 1489
391 157 1502
391 155 1485
391 154 1469
392 152 1456
400 153 1466
399 151 1447
417 157 1497
421 156 1493
419 154 1470
429 156 1489
427 154 1465
421 150 1429
429 151 1438
439 153 1457
435 150 1429
451 154 1465
455 154 1465
447 150 1421
453 151 1429
464 153 1448
463 151 1429
469 151 1434
483 154 1463
476 151 1426
489 153 1451
492 153 1448
484 149 1409
497 152 1435
499 151 1426
513 154 1451
509 151 1426
523 154 1454
516 151 1419
531 154 1447
528 152 1426
537 153 1437
531 150 1408
544 153 1431
550 153 1434
548 151 1415
560 153 1433
546 148 1386
556 150 1397
562 150 1402
568 150 1403
575 151 1409
591 154 1435
584 151 1406
577 149 1379
595 152 1410
587 149 1380
592 149 1378
602 150 1392
628 156 1439
615 151 1398
629 154 1417
620 150 1386
627 151 1390
629 150 1384
632 150 1378
643 152 1392
636 149 1365
639 148 1360
662 153 1400
650 149 1363
672 153 1398
675 153 1393
685 154 1403
676 151 1374
668 148 1347
695 153 1391
689 151 1367
712 155 1404
700 151 1369
686 147 1330
688 147 1325
707 150 1351
714 150 1354
753 158 1418
882 183 1650
936 193 1738
943 194 1738
951 194 1741
957 194 1738
957 193 1726
972 195 1739
972 194 1728
-1317 283 2287
-1301 281 2276
-1296 282 2284
-1283 280 2278
-1266 278 2265
-1247 275 2247
-1233 274 2237
-1234 276 2257
-1221 274 2249
-1203 272 2233
-1201 273 2246
-1196 273 2254
-1177 271 2234
-1174 272 2246
-1155 269 2226
-1137 266 2209
-1065 251 2085
-992 235 1956
-973 232 1934
-979 235 1960
-990 239 1998
-993 241 2019
-991 242 2031
-987 243 2038
-985 244 2050
-987 246 2071
-1014 254 2145
-1023 258 2180
-1020 259 2191
-1011 258 2189
-1001 257 2185
-983 255 2165
-974 254 2161
-977 256 2186
-989 261 2230
-991 264 2254
-987 264 2262
-985 266 2278
-980 266 2283
-977 267 2296
-970 267 2300
-970 269 2318
-966 270 2329
-964 271 2343
-963 273 2362
-955 273 2361
-950 273 2370
-947 275 2383
-943 276 2395
-944 278 2418
-937 278 2420
-933 279 2432
-931 280 2448
-923 280 2449
-916 280 2453
-918 283 2479
-912 283 2486
-909 285 2501
-902 285 2506
-896 285 2511
-893 287 2525
-887 287 2534
-883 288 2546
-878 289 2556
-874 290 2568
-867 290 2572
-859 290 2574
-858 293 2598
-854 294 2611
-843 293 2603
-836 293 2608
-830 293 2613
-818 292 2603
-815 293 2620
-802 292 2605
-789 290 2591
-777 288 2577
-760 285 2550
-746 282 2530
-726 277 2489
-704 272 2438
-682 266 2390
-662 261 2344
-638 254 2287
-617 248 2234
-591 240 2166
-575 236 2132
-555 231 2081
-549 231 2083
-567 241 2178
-555 238 2156
-537 233 2112
-520 229 2071
-504 224 2032
-488 220 1995
-475 217 1965
-461 213 1933
-454 212 1926
-444 210 1909
-437 209 1903
-414 201 1827
-408 201 1826
-404 201 1835
-386 195 1775
-369 189 1726
-376 195 1782
-361 190 1734
-356 190 1737
-367 198 1813
-345 189 1733
-342 191 1747
-340 192 1762
-334 192 1758
-318 186 1703
-317 188 1725
-310 187 1713
-302 185 1695
-300 186 1711
-300 189 1741
-297 191 1757
-284 186 1711
-282 188 1731
-271 184 1692
-262 181 1667
-258 181 1671
-254 182 1680
-250 183 1686
-249 185 1711
-241 183 1689
-232 180 1667
-227 180 1662
-224 182 1679
-220 182 1684
-220 186 1722
-212 184 1702
-206 182 1690
-199 181 1676
-197 183 1699
-187 179 1658
-188 184 1703
-183 184 1706
-174 180 1671
-168 178 1656
-170 186 1728
-159 179 1665
-153 178 1651
-150 180 1674
-146 180 1680
-138 177 1644
-136 180 1678
-131 180 1678
-126 180 1679
-119 176 1641
-114 177 1647
-110 178 1657
-105 177 1653
-101 178 1661
-95 176 1640
-90 175 1636
-85 175 1634
-80 175 1637
-77 177 1659
-73 181 1697
-66 174 1632
-61 175 1641
-56 174 1629
-52 176 1644
-46 172 1606
-43 178 1668
-37 172 1610
-33 177 1658
-28 175 1636
-23 175 1639
-19 175 1639
-14 171 1601
-9 173 1618
-5 175 1644
0 173 1618
4 171 1600
9 171 1600
13 172 1614
18 169 1583
22 171 1605
27 174 1630
32 172 1612
37 173 1625
42 174 1636
46 172 1618
50 170 1593
55 172 1615
59 169 1588
64 169 1587
69 170 1598
74 173 1623
78 169 1592
81 168 1578
86 168 1583
90 167 1572
96 170 1596
101 170 1600
106 170 1600
108 167 1570
113 167 1573
119 169 1585
124 170 1595
128 168 1584
132 168 1578
135 166 1563
141 168 1580
142 164 1539
146 163 1534
154 167 1566
158 166 1558
161 164 1546
162 161 1516
173 167 1575
177 167 1567
182 167 1573
181 162 1524
189 166 1557
192 164 1541
196 164 1540
200 163 1535
206 164 1541
210 164 1544
214 164 1537
219 164 1539
222 163 1530
226 162 1525
230 162 1519
241 167 1564
238 161 1513
242 161 1511
244 159 1497
248 159 1494
255 161 1507
261 162 1518
265 161 1513
267 160 1503
271 160 1500
283 164 1539
285 163 1524
285 160 1502
282 156 1463
291 158 1483
303 163 1523
300 159 1485
308 161 1502
314 161 1507
321 162 1520
317 158 1482
323 159 1489
325 158 1476
333 159 1490
332 157 1468
341 159 1488
350 161 1505
353 161 1499
358 161 1500
363 161 1504
364 160 1489
372 161 1499
371 159 1478
381 161 1502
382 160 1487
389 161 1495
390 159 1482
399 161 1499
399 159 1478
396 156 1452
397 155 1438
413 159 1479
418 160 1481
417 158 1463
424 158 1469
425 157 1456
434 159 1472
436 158 1462
438 157 1455
450 160 1477
457 161 1486
453 158 1457
456 157 1451
467 160 1473
462 156 1440
461 155 1424
477 158 1457
471 155 1426
491 160 1471
480 155 1424
487 156 1432
489 155 1424
495 156 1427
493 154 1407
513 158 1451
517 158 1450
516 156 1432
521 157 1432
521 155 1419
525 155 1418
533 156 1427
533 155 1414
547 158 1438
547 156 1424
550 156 1421
551 155 1410
554 155 1406
568 157 1427
573 157 1428
571 156 1412
567 153 1389
591 159 1436
576 154 1388
590 156 1408
582 153 1377
592 154 1390
600 155 1398
611 157 1411
620 158 1419
613 155 1392
610 153 1375
627 156 1400
616 152 1365
643 158 1414
637 156 1390
640 155 1386
639 154 1371
646 155 1376
663 157 1400
664 157 1391
664 156 1381
678 158 1400
685 158 1402
673 154 1366
666 152 1343
676 153 1352
687 155 1363
706 158 1391
690 153 1348
701 155 1361
705 155 1358
696 152 1330
697 151 1322
760 164 1431
889 190 1662
938 199 1742
939 198 1730
951 200 1740
949 198 1724
967 201 1744
963 199 1723
967 198 1718
-1307 288 2270
-1296 287 2266
-1275 284 2246
-1265 283 2244
-1263 285 2259
-1260 286 2270
-1239 282 2248
-1222 280 2234
-1211 279 2230
-1210 281 2245
-1201 280 2245
-1190 279 2242
-1178 278 2236
-1168 277 2233
-1154 276 2223
-1150 276 2234
-1067 258 2087
-992 241 1956
-972 238 1932
-978 241 1958
-988 245 1993
-997 249 2026
-994 249 2036
-988 250 2041
-981 249 2042
-987 252 2071
-1011 260 2138
-1029 267 2194
-1017 265 2186
-1007 264 2181
-999 264 2180
-987 262 2171
-973 260 2158
-974 263 2178
-987 268 2226
-996 272 2263
-989 272 2266
-986 273 2279
-983 274 2290
-978 274 2297
-971 275 2301
-975 278 2329
-968 278 2332
-966 279 2348
-959 279 2351
-956 280 2364
-953 281 2376
-947 282 2382
-946 284 2400
-938 283 2402
-936 285 2418
-934 287 2435
-932 288 2450
-927 289 2458
-921 289 2464
-914 289 2470
-913 291 2488
-905 291 2490
-905 293 2513
-899 294 2520
-896 295 2534
-888 295 2536
-882 296 2544
-883 298 2569
-875 299 2572
-868 299 2577
-864 300 2589
-861 301 2605
-856 302 2617
-851 303 2626
-846 304 2637
-843 306 2656
-833 305 2651
-830 307 2670
-822 307 2669
-816 308 2678
-809 308 2682
-797 306 2672
-803 311 2720
-790 310 2707
-783 310 2711
-776 310 2717
-770 311 2727
-760 310 2719
-749 309 2713
-739 308 2705
-727 306 2692
-716 305 2683
-707 305 2681
-702 306 2693
-690 304 2679
-678 302 2666
-666 300 2651
-651 297 2621
-635 293 2590
-622 290 2569
-606 286 2535
-587 281 2488
-571 277 2452
-553 271 2406
-534 266 2358
-519 261 2320
-503 257 2281
-482 249 2215
-469 246 2186
-452 240 2139
-437 236 2097
-424 232 2064
-408 226 2016
-396 223 1986
-384 219 1955
-375 218 1941
-375 221 1974
-337 202 1800
-340 207 1846
-341 210 1881
-317 199 1779
-306 195 1745
-308 200 1789
-304 201 1797
-296 199 1781
-295 202 1808
-283 197 1765
-278 197 1770
-272 196 1760
-261 192 1727
-249 187 1682
-244 187 1681
-241 188 1690
-237 189 1696
-233 189 1705
-218 181 1630
-225 191 1723
-219 190 1712
-208 185 1667
-207 188 1696
-201 187 1689
-194 185 1670
-192 188 1697
-186 187 1690
-175 181 1635
-172 182 1647
-170 185 1675
-163 184 1660
-162 187 1695
-154 183 1659
-146 180 1632
-142 181 1641
-140 185 1674
-134 183 1661
-130 184 1666
-122 179 1621
-123 188 1704
-116 184 1667
-111 184 1673
-104 180 1631
-99 180 1639
-97 184 1674
-93 186 1692
-86 181 1648
-82 184 1676
-75 180 1635
-71 181 1650
-66 180 1640
-62 182 1655
-57 180 1641
-51 178 1623
-46 177 1615
-43 181 1647
-37 177 1613
-32 176 1604
-27 172 1567
-23 177 1614
-19 178 1626
-14 181 1650
-9 176 1602
-4 175 1601
0 180 1641
4 177 1614
9 174 1590
13 178 1628
18 177 1615
23 177 1617
27 176 1610
31 171 1567
37 179 1633
41 177 1614
45 175 1597
51 177 1618
56 179 1635
58 171 1565
63 172 1577
68 174 1592
73 174 1591
77 172 1570
81 171 1561
86 173 1581
92 175 1605
96 174 1595
102 176 1615
103 171 1564
111 176 1607
113 172 1574
118 173 1580
122 172 1574
126 171 1564
131 172 1570
135 171 1563
140 172 1571
149 176 1609
148 169 1549
152 169 1548
159 172 1571
162 171 1561
167 171 1562
167 166 1521
178 172 1574
178 168 1541
182 168 1535
187 168 1541
194 170 1557
198 170 1553
204 171 1565
202 166 1516
213 171 1564
213 167 1530
216 166 1514
225 170 1550
228 168 1540
231 167 1530
234 166 1518
240 167 1527
247 169 1542
248 166 1521
252 167 1521
258 167 1526
255 163 1484
260 163 1487
271 167 1522
276 167 1525
282 168 1531
286 168 1529
287 166 1510
291 165 1507
292 163 1489
301 166 1514
312 169 1543
304 163 1483
313 165 1503
323 168 1528
324 166 1513
325 164 1496
337 168 1530
340 167 1522
343 167 1515
340 163 1482
346 164 1488
351 164 1489
351 162 1469
357 163 1475
363 163 1482
364 162 1470
368 162 1465
376 163 1479
376 161 1460
382 162 1466
390 164 1481
397 165 1490
389 160 1443
402 163 1473
409 164 1483
406 161 1455
419 164 1483
411 160 1440
423 163 1466
429 163 1471
436 164 1479
433 161 1451
435 160 1442
437 159 1434
451 163 1466
447 160 1436
449 159 1429
463 163 1459
465 162 1450
464 160 1431
482 164 1474
491 166 1485
466 156 1396
490 163 1455
492 162 1444
496 162 1443
501 162 1444
497 159 1418
516 164 1459
508 160 1424
520 162 1444
519 160 1426
529 162 1441
524 159 1415
535 161 1430
525 157 1392
545 162 1431
546 160 1421
550 160 1418
564 163 1443
564 162 1429
578 164 1452
572 162 1426
578 162 1428
562 156 1375
584 161 1417
571 156 1375
579 157 1381
599 162 1418
607 163 1425
615 163 1432
599 158 1383
607 159 1391
610 159 1386
626 162 1410
618 158 1380
635 162 1408
637 161 1400
641 161 1398
643 160 1390
650 161 1395
653 161 1390
632 154 1335
660 160 1384
664 160 1381
670 160 1382
690 164 1412
684 162 1390
668 157 1346
685 160 1370
698 162 1386
692 159 1362
689 157 1346
690 157 1337
703 159 1353
722 162 1380
728 162 1380
769 170 1447
894 196 1671
937 205 1738
938 204 1728
942 203 1722
955 205 1733
961 205 1732
974 206 1742
977 206 1735
-1291 292 2241
-1292 294 2258
-1273 291 2243
-1271 292 2255
-1268 293 2266
-1242 289 2237
-1223 286 2218
-1221 287 2232
-1206 285 2220
-1196 285 2218
-1183 283 2211
-1194 287 2249
-1173 284 2226
-1166 284 2229
-1149 281 2212
-1145 282 2222
-1073 266 2099
-999 249 1969
-976 245 1938
-973 246 1948
-987 251 1991
-993 254 2019
-993 256 2035
-985 255 2033
-985 257 2050
-986 259 2068
-999 264 2111
-1029 273 2192
-1017 272 2184
-1012 272 2191
-1000 271 2183
-984 268 2164
-976 268 2165
-979 271 2189
-990 275 2231
-995 279 2262
-991 280 2271
-983 279 2272
-984 281 2292
-981 283 2304
-977 283 2313
-973 284 2325
-969 285 2335
-967 287 2350
-961 287 2354
-958 288 2367
-957 290 2386
-957 292 2407
-946 291 2399
-942 292 2411
-942 294 2432
-936 295 2438
-930 295 2444
-925 296 2452
-924 298 2471
-920 299 2485
-914 299 2492
-908 300 2497
-905 301 2512
-900 302 2523
-898 304 2539
-892 304 2546
-885 304 2550
-880 305 2561
-877 307 2576
-871 307 2584
-871 310 2610
-859 309 2599
-857 311 2618
-852 312 2629
-846 312 2637
-842 314 2651
-842 317 2678
-832 316 2675
-825 316 2679
-817 316 2682
-814 318 2698
-810 319 2713
-800 319 2710
-796 320 2727
-787 320 2726
-781 321 2735
-772 320 2733
-768 322 2750
-763 323 2762
-755 323 2763
-748 323 2770
-738 323 2766
-733 324 2779
-718 321 2753
-708 320 2749
-701 320 2755
-690 319 2744
-681 319 2743
-671 317 2735
-662 317 2735
-652 316 2729
-642 315 2719
-635 315 2725
-625 315 2720
-615 313 2712
-606 313 2709
-596 312 2700
-584 310 2685
-576 309 2683
-563 307 2662
-552 305 2648
-541 303 2633
-529 300 2611
-515 297 2583
-502 293 2553
-487 289 2519
-474 286 2491
-460 281 2452
-444 276 2409
-430 272 2372
-414 266 2322
-401 262 2284
-387 257 2244
-372 252 2198
-358 246 2153
-347 242 2120
-335 238 2085
-322 234 2046
-310 230 2009
-302 227 1991
-290 223 1954
-281 220 1928
-268 215 1881
-256 209 1833
-249 207 1820
-241 206 1806
-234 204 1791
-230 205 1797
-226 206 1807
-215 201 1763
-212 203 1783
-203 199 1751
-198 199 1749
-186 192 1692
-182 193 1695
-178 194 1705
-175 196 1724
-171 197 1738
-161 191 1685
-153 187 1650
-146 185 1630
-143 187 1651
-139 188 1659
-134 187 1654
-131 191 1684
-126 190 1678
-120 188 1659
-116 189 1671
-112 190 1679
-105 187 1657
-99 184 1628
-95 186 1649
-92 189 1670
-86 187 1656
-79 182 1616
-74 182 1616
-72 187 1660
-66 186 1647
-62 187 1658
-57 187 1660
-51 181 1610
-46 182 1617
-42 183 1624
-37 180 1597
-33 186 1653
-28 186 1654
-24 185 1647
-18 182 1621
-14 183 1630
-9 180 1601
-5 186 1657
0 182 1617
4 180 1601
9 182 1618
13 180 1597
18 179 1595
23 182 1617
27 181 1611
32 180 1601
36 178 1581
40 177 1572
45 177 1576
50 178 1584
55 179 1590
59 177 1580
64 179 1595
69 181 1614
72 177 1579
80 184 1637
83 180 1603
86 178 1582
92 179 1594
95 176 1572
102 180 1604
103 175 1560
109 177 1576
112 175 1556
117 176 1567
123 178 1583
128 178 1589
133 178 1589
136 177 1574
140 175 1559
146 178 1583
150 176 1572
154 176 1570
155 172 1531
161 174 1549
166 174 1552
172 175 1560
176 175 1555
182 177 1574
186 175 1563
188 173 1544
199 179 1599
198 175 1555
205 176 1568
205 172 1535
210 173 1542
209 168 1496
219 173 1538
221 171 1520
224 169 1508
235 175 1557
236 172 1533
239 171 1521
246 172 1533
247 170 1515
255 173 1536
258 171 1523
269 176 1563
266 171 1521
276 175 1553
276 172 1525
273 167 1486
283 170 1512
288 171 1516
290 169 1501
296 170 1507
316 179 1587
310 173 1534
304 167 1483
309 167 1483
321 171 1518
316 166 1475
318 165 1464
335 172 1519
335 169 1500
336 168 1483
339 167 1475
345 168 1485
351 169 1490
359 170 1503
362 170 1499
368 170 1502
365 167 1474
369 167 1470
366 163 1441
384 169 1492
383 167 1472
384 165 1456
395 168 1480
387 163 1435
405 169 1485
410 169 1484
406 165 1453
412 166 1459
432 172 1512
421 166 1458
423 165 1450
432 167 1465
443 170 1486
439 166 1455
453 170 1486
448 166 1456
450 165 1446
468 170 1490
465 167 1463
468 167 1458
468 165 1443
477 167 1458
479 166 1449
471 162 1409
490 167 1453
488 165 1433
499 167 1452
497 165 1432
501 165 1429
505 165 1428
501 162 1403
516 165 1432
516 164 1419
528 166 1437
523 163 1410
526 163 1406
537 165 1422
551 168 1447
550 166 1431
555 166 1432
556 165 1421
557 164 1411
569 166 1429
560 163 1396
568 164 1402
570 163 1395
593 168 1441
584 164 1407
599 167 1429
582 161 1377
596 164 1399
597 163 1390
612 166 1413
601 162 1375
609 163 1381
630 167 1418
630 166 1408
636 166 1408
621 161 1364
623 161 1357
640 164 1384
641 163 1376
645 163 1372
662 166 1398
659 164 1381
665 164 1381
665 163 1371
678 165 1387
668 162 1356
673 162 1355
675 161 1348
693 165 1374
680 161 1338
696 163 1360
694 162 1346
714 166 1374
701 161 1338
715 164 1355
777 177 1461
901 204 1684
935 210 1734
944 211 1738
955 212 1746
949 209 1722
959 210 1727
977 213 1747
974 211 1728
-1302 302 2259
-1292 301 2258
-1273 298 2240
-1269 299 2251
-1265 300 2260
-1238 295 2228
-1242 298 2251
-1225 295 2238
-1203 292 2214
-1204 294 2232
-1184 290 2211
-1180 291 2222
-1165 289 2209
-1166 291 2227
-1145 288 2205
-1133 286 2199
-1075 273 2102
-1004 257 1979
-974 251 1935
-974 252 1949
-984 257 1985
-990 260 2011
-992 262 2032
-987 262 2036
-984 263 2047
-985 265 2065
-989 268 2091
-1019 278 2171
-1017 279 2183
-1006 278 2177
-1005 279 2193
-983 275 2161
-977 275 2165
-977 277 2184
-987 282 2225
-988 284 2244
-993 287 2274
-991 289 2290
-983 288 2289
-979 289 2298
-978 291 2317
-971 291 2319
-971 293 2338
-969 294 2353
-961 294 2354
-959 296 2369
-952 296 2373
-954 299 2400
-945 298 2396
-942 299 2409
-939 301 2423
-932 301 2428
-930 302 2444
-926 304 2456
-923 305 2470
-920 306 2483
-913 307 2488
-908 307 2497
-908 310 2519
-903 311 2529
-895 310 2530
-892 312 2546
-885 312 2549
-879 313 2558
-878 315 2580
-872 316 2586
-867 316 2596
-862 318 2607
-859 319 2624
-850 319 2622
-847 321 2640
-842 322 2652
-835 322 2657
-831 323 2670
-825 324 2679
-818 324 2683
-817 327 2708
-810 328 2714
-800 327 2709
-796 328 2726
-795 331 2753
-784 330 2744
-778 331 2752
-772 332 2762
-766 333 2773
-762 334 2789
-751 333 2783
-743 333 2784
-734 333 2782
-720 330 2760
-710 329 2756
-700 328 2750
-695 330 2765
-684 328 2756
-675 328 2752
-662 325 2735
-655 326 2739
-646 325 2735
-638 325 2739
-628 324 2732
-620 324 2731
-611 324 2732
-603 323 2730
-593 322 2724
-585 322 2723
-575 321 2715
-567 321 2718
-558 320 2714
-547 319 2702
-538 318 2696
-531 319 2704
-521 317 2694
-513 317 2691
-502 315 2679
-496 316 2688
-485 314 2672
-477 314 2672
-468 313 2663
-458 311 2653
-451 312 2657
-439 309 2636
-429 307 2623
-419 305 2609
-409 303 2590
-399 302 2580
-389 300 2563
-378 296 2536
-367 294 2513
-354 290 2479
-343 286 2448
-331 282 2414
-319 278 2382
-305 271 2326
-294 268 2296
-282 263 2252
-270 258 2210
-260 254 2183
-248 249 2136
-240 246 2115
-228 240 2061
-219 237 2038
-210 233 2006
-202 231 1985
-193 227 1951
-184 224 1924
-171 214 1842
-166 215 1851
-162 216 1864
-149 206 1777
-145 208 1793
-141 209 1805
-133 206 1772
-125 200 1724
-119 199 1711
-117 203 1752
-109 198 1708
-104 199 1715
-98 197 1704
-92 194 1676
-86 192 1660
-82 193 1670
-76 191 1650
-72 194 1673
-66 189 1631
-63 194 1679
-57 190 1645
-52 189 1638
-47 190 1645
-43 191 1652
-38 191 1652
-33 189 1637
-27 185 1604
-23 185 1602
-18 187 1622
-14 188 1629
-9 186 1614
-4 185 1601
0 185 1603
4 189 1642
9 187 1625
14 189 1638
18 187 1621
23 187 1618
27 186 1613
33 191 1656
37 187 1625
41 184 1595
45 183 1588
51 187 1623
54 182 1580
59 183 1591
64 183 1585
69 184 1595
72 182 1577
78 185 1603
83 186 1614
86 182 1578
91 182 1583
94 180 1562
99 180 1567
104 181 1573
107 178 1542
115 183 1591
117 180 1559
121 179 1556
125 178 1542
132 182 1577
139 184 1600
142 182 1583
143 178 1548
151 183 1586
153 179 1555
157 178 1548
163 181 1568
168 181 1573
171 179 1557
174 178 1542
176 175 1517
185 179 1554
189 179 1552
192 177 1541
196 177 1537
200 176 1529
208 179 1555
209 176 1527
216 179 1552
221 179 1550
224 178 1541
231 180 1558
238 181 1571
236 176 1528
235 172 1491
242 174 1509
250 177 1531
255 177 1534
254 174 1504
263 176 1528
268 177 1533
274 177 1536
272 174 1503
284 178 1543
282 174 1505
289 176 1520
287 172 1487
292 172 1491
298 173 1496
301 172 1487
314 177 1532
318 177 1526
321 176 1520
327 177 1527
327 174 1504
329 173 1494
334 173 1496
341 175 1507
339 171 1477
342 171 1470
347 171 1474
352 171 1472
360 173 1490
366 174 1494
373 175 1502
368 170 1464
371 170 1459
377 171 1465
379 170 1455
390 173 1481
382 167 1432
394 170 1458
401 171 1469
407 172 1474
407 170 1458
414 171 1464
413 169 1447
421 170 1456
429 172 1469
435 172 1472
436 171 1462
439 171 1456
434 167 1424
450 171 1460
450 170 1444
452 169 1438
457 169 1440
464 170 1446
475 172 1466
475 171 1450
472 168 1427
478 169 1432
487 170 1444
483 167 1418
492 169 1432
500 170 1441
506 171 1443
513 171 1448
515 171 1440
520 171 1443
519 169 1426
525 170 1429
530 170 1430
531 169 1419
538 170 1426
537 168 1409
547 170 1423
555 171 1431
550 168 1407
555 168 1407
559 168 1404
578 172 1439
573 169 1414
591 173 1446
586 171 1422
586 169 1410
594 170 1417
591 168 1399
607 171 1424
605 169 1407
608 169 1402
606 167 1387
611 167 1386
611 166 1374
621 168 1386
620 166 1372
628 167 1380
637 168 1387
649 171 1403
652 170 1397
671 174 1428
644 166 1360
667 170 1396
671 170 1395
663 167 1366
672 168 1373
672 167 1363
679 168 1368
677 166 1351
685 167 1359
689 167 1355
697 168 1361
688 165 1332
700 166 1346
708 167 1351
714 168 1352
788 184 1482
908 211 1697
938 216 1739
943 216 1736
942 214 1721
954 216 1729
968 218 1744
970 217 1733
982 218 1741
-1317 313 2284
-1308 312 2284
-1283 308 2257
-1285 310 2279
-1273 309 2273
-1262 308 2270
-1234 303 2236
-1227 303 2242
-1206 300 2219
-1197 299 2218
-1202 302 2245
-1174 297 2210
-1168 297 2215
-1163 297 2221
-1155 297 2223
-1140 295 2212
-1092 285 2135
-1012 265 1993
-976 258 1938
-973 258 1946
-985 263 1986
-995 267 2021
-990 268 2027
-989 269 2040
-983 269 2044
-983 271 2060
-990 274 2091
-1019 284 2170
-1016 285 2181
-1005 284 2174
-996 284 2173
-980 281 2155
-974 281 2158
-974 283 2176
-987 289 2224
-994 293 2258
-988 293 2263
-985 294 2274
-984 296 2292
-981 297 2302
-978 298 2316
-975 299 2329
-974 301 2345
-966 301 2346
-964 302 2361
-959 303 2368
-952 303 2371
-953 306 2396
-950 307 2408
-940 306 2405
-941 309 2429
-936 310 2438
-931 310 2445
-924 310 2449
-927 314 2478
-920 314 2482
-910 313 2478
-908 315 2495
-904 316 2508
-905 319 2533
-895 318 2530
-892 320 2546
-887 321 2555
-884 322 2570
-879 323 2582
-873 324 2588
-866 324 2593
-860 325 2600
-857 326 2617
-856 329 2639
-848 329 2641
-840 329 2643
-836 330 2657
-831 331 2670
-824 332 2676
-823 335 2700
-816 335 2706
-811 336 2716
-806 337 2729
-796 336 2725
-792 338 2742
-785 339 2746
-777 339 2750
-770 339 2756
-761 338 2752
-759 341 2777
-751 341 2781
-747 343 2797
-733 341 2779
-721 339 2767
-710 337 2757
-703 338 2764
-691 336 2750
-684 336 2755
-676 337 2758
-667 336 2753
-657 335 2748
-648 334 2744
-640 334 2746
-630 333 2739
-622 333 2743
-613 333 2739
-604 332 2735
-593 330 2724
-588 332 2739
-576 329 2719
-570 331 2730
-560 330 2725
-550 328 2713
-541 328 2711
-533 327 2710
-523 326 2703
-517 328 2715
-505 325 2693
-497 324 2691
-489 324 2693
-480 324 2689
-471 322 2679
-462 322 2675
-454 322 2676
-446 322 2677
-438 321 2673
-430 321 2674
-421 320 2668
-412 319 2659
-406 320 2671
-396 318 2656
-386 317 2646
-379 317 2648
-371 317 2649
-361 315 2633
-353 314 2630
-344 313 2624
-337 313 2623
-328 312 2617
-320 312 2617
-310 309 2591
-303 310 2596
-292 307 2573
-285 307 2576
-275 304 2556
-267 303 2545
-258 301 2528
-248 298 2507
-238 295 2481
-229 292 2458
-220 289 2434
-210 286 2403
-200 281 2368
-190 277 2329
-180 272 2292
-171 269 2263
-162 265 2231
-153 260 2187
-145 257 2164
-136 252 2121
-128 249 2097
-120 246 2071
-112 241 2035
-105 239 2019
-98 235 1986
-91 232 1957
-84 229 1934
-79 230 1943
-71 224 1892
-66 224 1889
-60 222 1877
-52 215 1816
-47 212 1794
-40 207 1749
-36 209 1763
-30 206 1740
-25 208 1756
-19 196 1655
-15 203 1720
-10 203 1714
-5 201 1702
0 196 1658
4 196 1654
9 197 1666
14 196 1657
19 199 1686
23 192 1626
27 189 1601
32 190 1607
37 193 1637
41 189 1599
44 183 1549
51 190 1607
56 192 1626
59 188 1595
65 190 1610
67 185 1564
73 187 1580
80 193 1638
84 192 1623
88 190 1606
91 187 1587
94 183 1550
100 187 1585
103 183 1554
111 190 1610
115 188 1592
118 186 1576
121 184 1554
125 183 1546
135 190 1613
138 188 1593
140 184 1562
145 185 1563
148 183 1553
152 183 1546
156 182 1545
162 184 1555
164 181 1534
171 184 1556
176 184 1557
180 183 1551
183 182 1539
189 184 1555
191 181 1531
197 183 1546
201 182 1536
208 184 1557
210 182 1541
214 181 1532
223 185 1562
223 182 1537
230 183 1550
231 181 1528
238 182 1543
245 184 1558
244 180 1525
243 176 1490
250 178 1502
254 178 1502
