VERSION 0.7
FIELDS x y z
SIZE 4 4 4
TYPE I I I
COUNT 1 1 1
WIDTH 3303
HEIGHT 1
VIEWPOINT 0.0 0.0 0.0 1.0 0.0 0.0 0.0
POINTS 3303
DATA ascii
130 -352 2354
137 -351 2349
144 -354 2367
151 -353 2362
157 -351 2350
162 -347 2322
168 -346 2311
175 -347 2319
183 -349 2332
190 -349 2330
196 -348 2322
203 -348 2324
210 -348 2323
217 -350 2333
223 -348 2320
230 -349 2323
237 -349 2323
243 -348 2319
250 -348 2315
256 -348 2316
263 -347 2309
269 -347 2309
276 -347 2308
283 -347 2308
289 -347 2304
296 -347 2304
302 -347 2302
309 -346 2298
315 -346 2295
322 -346 2293
328 -345 2288
334 -345 2286
340 -345 2281
348 -345 2285
354 -345 2284
361 -345 2281
367 -344 2275
373 -345 2276
379 -344 2272
386 -344 2268
392 -344 2266
403 -348 2291
412 -349 2299
421 -352 2314
431 -354 2332
431 -349 2292
433 -345 2268
440 -345 2265
443 -342 2246
447 -340 2231
446 -335 2194
448 -331 2170
452 -330 2159
460 -331 2167
467 -331 2165
474 -332 2171
486 -336 2192
496 -338 2210
507 -341 2227
516 -343 2236
529 -347 2264
544 -353 2297
549 -351 2286
559 -354 2301
562 -352 2285
570 -352 2285
571 -349 2264
572 -345 2240
576 -344 2227
585 -345 2236
592 -345 2235
599 -346 2235
605 -346 2232
616 -348 2245
619 -346 2231
632 -349 2252
638 -349 2246
642 -347 2235
653 -350 2249
660 -350 2249
666 -350 2245
675 -351 2253
684 -352 2256
682 -348 2228
692 -350 2236
679 -340 2171
676 -335 2139
684 -336 2143
688 -335 2134
695 -335 2133
703 -336 2135
710 -336 2136
714 -335 2128
721 -335 2125
727 -335 2125
733 -335 2121
740 -335 2121
744 -334 2112
755 -336 2121
759 -335 2113
769 -337 2121
776 -337 2120
785 -338 2125
787 -337 2112
795 -337 2114
802 -337 2112
802 -335 2095
804 -333 2080
823 -338 2111
834 -340 2120
842 -341 2123
843 -339 2106
861 -343 2131
853 -337 2093
863 -339 2099
874 -341 2110
873 -338 2088
882 -339 2093
891 -340 2095
914 -346 2133
896 -337 2072
915 -342 2100
918 -340 2089
929 -342 2097
923 -338 2066
921 -335 2044
956 -345 2106
948 -340 2070
953 -339 2063
952 -337 2046
986 -346 2102
1004 -350 2123
984 -341 2065
988 -340 2057
1004 -344 2073
990 -337 2028
943 -318 1916
902 -303 1818
892 -297 1785
902 -299 1790
902 -297 1777
909 -298 1777
913 -297 1770
916 -296 1763
925 -297 1766
929 -297 1761
938 -298 1765
940 -297 1756
953 -299 1765
951 -297 1749
962 -298 1755
961 -296 1741
963 -295 1732
964 -294 1720
985 -299 1745
-1294 -358 2225
-1283 -357 2223
-1272 -356 2221
-1267 -357 2228
-1245 -352 2205
-1239 -353 2210
-1225 -351 2203
-1216 -351 2203
-1207 -350 2202
-1196 -349 2199
-1189 -349 2203
-1175 -347 2192
-1162 -345 2185
-1147 -343 2174
-1137 -342 2171
-1129 -342 2172
-1116 -340 2163
-1109 -340 2167
-1095 -338 2154
-1089 -338 2159
-1077 -337 2154
-1068 -336 2152
-1062 -336 2155
-1051 -335 2150
-1035 -332 2135
-1031 -333 2142
-1022 -332 2140
-1011 -331 2134
-1010 -333 2149
-1017 -337 2182
-1015 -339 2194
-1013 -341 2209
-986 -334 2167
-975 -333 2160
-985 -338 2199
-998 -345 2248
-996 -347 2262
-989 -347 2265
-989 -350 2284
-986 -351 2295
-980 -352 2299
-979 -354 2316
-978 -356 2335
-970 -356 2334
-967 -358 2348
-962 -358 2356
-959 -360 2368
-956 -362 2382
-955 -364 2400
-950 -365 2408
-942 -365 2410
-937 -366 2418
-935 -368 2434
-930 -369 2443
-932 -373 2470
-926 -373 2475
-922 -375 2489
-919 -377 2502
-912 -377 2508
-905 -378 2511
-901 -379 2525
-894 -379 2527
-894 -383 2552
-888 -384 2559
-883 -385 2568
-879 -387 2582
-874 -388 2593
-863 -387 2585
-860 -389 2601
-857 -391 2619
-852 -393 2630
-847 -394 2641
-842 -395 2651
-840 -398 2672
-827 -396 2657
-821 -397 2668
-815 -398 2675
-808 -398 2681
-802 -399 2690
-799 -402 2706
-790 -401 2706
-779 -400 2700
-764 -396 2674
-749 -393 2652
-741 -393 2654
-730 -391 2645
-723 -392 2650
-714 -391 2648
-704 -390 2641
-697 -390 2644
-687 -390 2639
-679 -389 2639
-670 -389 2637
-663 -389 2639
-650 -386 2622
-645 -388 2633
-634 -386 2622
-625 -385 2619
-618 -386 2623
-610 -386 2624
-601 -385 2618
-591 -384 2610
-584 -384 2615
-574 -382 2603
-566 -382 2604
-558 -382 2602
-549 -381 2597
-539 -380 2589
-532 -380 2595
-525 -381 2597
-514 -378 2582
-507 -379 2587
-497 -377 2576
-491 -378 2583
-481 -376 2572
-472 -375 2564
-461 -373 2548
-457 -375 2566
-448 -374 2559
-439 -373 2552
-432 -373 2553
-424 -373 2555
-416 -373 2553
-408 -372 2545
-399 -370 2537
-393 -372 2549
-385 -372 2545
-376 -370 2536
-368 -369 2529
-360 -369 2530
-352 -368 2522
-345 -368 2525
-337 -368 2525
-328 -366 2510
-321 -366 2513
-313 -366 2511
-305 -365 2504
-297 -365 2504
-290 -365 2503
-282 -365 2502
-274 -363 2495
-267 -364 2496
-259 -363 2492
-252 -363 2490
-244 -362 2483
-237 -362 2484
-230 -362 2485
-221 -360 2472
-214 -360 2473
-207 -360 2470
-200 -360 2473
-192 -359 2466
-184 -358 2461
-176 -356 2448
-170 -359 2465
-163 -358 2459
-155 -357 2454
-148 -357 2452
-141 -358 2457
-133 -356 2446
-127 -357 2451
-119 -356 2442
-112 -355 2438
-105 -355 2439
-97 -354 2428
-90 -354 2429
-83 -354 2426
-76 -355 2435
-69 -354 2429
-62 -353 2423
-55 -353 2423
-48 -352 2416
-41 -353 2419
-34 -351 2411
-27 -351 2410
-20 -352 2413
-13 -351 2404
-6 -352 2412
0 -350 2397
7 -350 2401
14 -350 2399
21 -350 2400
28 -350 2396
35 -349 2390
42 -349 2389
49 -349 2393
56 -349 2386
62 -348 2385
69 -349 2388
76 -349 2386
83 -347 2374
90 -347 2370
97 -347 2373
103 -345 2360
110 -346 2363
117 -345 2359
123 -345 2354
130 -344 2351
137 -346 2360
144 -347 2367
150 -344 2346
156 -342 2330
159 -335 2284
166 -336 2289
175 -340 2316
183 -342 2331
191 -343 2339
197 -344 2339
204 -343 2335
210 -343 2332
216 -341 2317
223 -342 2325
230 -342 2324
237 -342 2326
244 -343 2328
250 -342 2319
257 -342 2321
263 -341 2312
270 -341 2313
277 -342 2319
283 -341 2310
289 -340 2302
296 -341 2307
303 -340 2305
310 -341 2310
316 -340 2301
321 -339 2291
329 -340 2300
336 -340 2297
342 -339 2292
348 -339 2287
356 -340 2293
362 -340 2290
369 -340 2290
374 -339 2282
380 -338 2273
385 -337 2267
393 -338 2272
405 -343 2303
414 -344 2311
419 -343 2303
430 -346 2323
436 -346 2318
441 -344 2308
445 -342 2295
446 -338 2262
448 -335 2241
453 -333 2228
453 -329 2199
458 -327 2187
466 -329 2197
471 -328 2188
481 -330 2204
493 -334 2227
505 -338 2248
515 -340 2265
523 -341 2269
536 -345 2294
542 -345 2290
548 -344 2286
555 -344 2283
561 -344 2281
566 -343 2271
567 -340 2248
576 -341 2253
584 -342 2260
589 -341 2251
594 -340 2244
597 -338 2228
610 -341 2249
611 -339 2229
619 -339 2231
628 -341 2239
638 -342 2248
645 -342 2248
651 -342 2243
659 -343 2247
665 -343 2243
675 -344 2252
681 -344 2248
688 -344 2247
690 -342 2230
677 -332 2165
681 -331 2155
681 -328 2134
692 -330 2145
702 -332 2154
703 -329 2136
712 -331 2144
715 -329 2130
727 -331 2144
725 -328 2118
735 -329 2126
746 -331 2138
742 -327 2107
756 -330 2127
763 -330 2124
765 -328 2110
776 -331 2122
783 -331 2120
789 -331 2117
797 -331 2120
806 -333 2125
809 -331 2115
811 -329 2099
818 -330 2100
825 -330 2098
841 -334 2120
856 -337 2140
852 -333 2112
862 -335 2118
867 -334 2112
868 -332 2096
874 -332 2091
874 -329 2073
888 -332 2090
908 -337 2118
903 -333 2090
913 -334 2095
908 -330 2067
939 -339 2120
921 -330 2062
937 -334 2081
933 -330 2056
945 -332 2065
965 -337 2092
963 -334 2071
986 -340 2102
1012 -346 2141
983 -334 2063
995 -336 2071
990 -333 2046
988 -330 2026
945 -313 1921
900 -296 1814
893 -292 1786
902 -293 1791
900 -291 1773
913 -293 1785
906 -289 1758
914 -290 1760
927 -292 1771
925 -290 1754
937 -292 1764
947 -293 1768
947 -292 1756
948 -290 1745
954 -290 1741
963 -291 1746
975 -293 1755
970 -290 1732
985 -293 1747
-1301 -353 2239
-1285 -350 2228
-1270 -348 2218
-1262 -348 2221
-1252 -347 2219
-1233 -344 2202
-1228 -345 2209
-1214 -343 2200
-1202 -342 2195
-1192 -341 2193
-1188 -342 2202
-1170 -338 2185
-1160 -338 2182
-1152 -337 2184
-1137 -335 2172
-1119 -332 2153
-1117 -333 2166
-1110 -333 2169
-1104 -334 2174
-1085 -330 2153
-1082 -331 2165
-1074 -331 2163
-1062 -329 2157
-1052 -329 2154
-1044 -328 2154
-1038 -328 2158
-1035 -330 2169
-1034 -331 2183
-1022 -330 2175
-1027 -334 2204
-1027 -336 2221
-1007 -332 2197
-978 -325 2151
-977 -326 2165
-984 -331 2198
-996 -338 2243
-999 -341 2268
-994 -342 2276
-991 -343 2288
-988 -345 2301
-982 -345 2305
-975 -345 2309
-967 -345 2309
-970 -349 2335
-968 -351 2351
-964 -352 2363
-959 -353 2369
-955 -354 2381
-952 -356 2393
-949 -357 2407
-944 -358 2415
-937 -359 2420
-932 -360 2429
-931 -362 2446
-929 -364 2464
-923 -365 2468
-921 -367 2487
-917 -369 2499
-913 -370 2512
-906 -370 2514
-903 -373 2531
-893 -371 2526
-893 -375 2550
-889 -376 2561
-883 -377 2569
-880 -379 2586
-870 -378 2581
-866 -380 2595
-862 -382 2609
-860 -385 2630
-856 -386 2643
-847 -386 2641
-842 -387 2653
-833 -387 2651
-828 -388 2662
-818 -387 2658
-815 -390 2677
-807 -390 2678
-801 -391 2687
-796 -392 2698
-788 -392 2700
-774 -390 2683
-761 -387 2667
-749 -385 2655
-739 -384 2647
-731 -384 2651
-721 -383 2645
-714 -384 2649
-705 -383 2646
-696 -382 2641
-689 -383 2649
-681 -383 2649
-671 -381 2640
-663 -382 2643
-651 -379 2628
-643 -379 2628
-635 -379 2626
-626 -378 2626
-616 -377 2617
-610 -378 2623
-601 -377 2618
-592 -376 2615
-582 -375 2606
-573 -374 2600
-565 -374 2601
-558 -375 2607
-549 -374 2601
-541 -374 2601
-531 -372 2589
-523 -372 2589
-514 -371 2584
-506 -370 2582
-499 -371 2588
-490 -370 2579
-481 -369 2573
-472 -368 2567
-464 -367 2563
-456 -367 2562
-448 -367 2561
-440 -366 2557
-432 -366 2554
-423 -365 2548
-416 -365 2551
-408 -365 2550
-400 -364 2547
-392 -364 2546
-384 -363 2541
-376 -362 2534
-368 -362 2533
-361 -363 2538
-353 -362 2530
-345 -362 2531
-335 -359 2514
-329 -360 2522
-321 -359 2517
-314 -360 2520
-305 -358 2507
-298 -358 2509
-290 -358 2506
-282 -356 2497
-274 -355 2490
-265 -354 2481
-259 -355 2491
-251 -355 2486
-244 -355 2486
-236 -353 2477
-229 -354 2482
-222 -354 2484
-214 -353 2471
-207 -353 2475
-199 -351 2462
-192 -352 2467
-184 -350 2452
-177 -350 2455
-170 -351 2459
-163 -351 2458
-155 -349 2448
-149 -351 2461
-141 -350 2451
-133 -349 2448
-126 -349 2447
-119 -349 2444
-112 -348 2440
-104 -347 2431
-97 -347 2431
-90 -347 2433
-83 -346 2423
-76 -347 2433
-69 -347 2430
-62 -346 2423
-55 -347 2429
-48 -346 2420
-41 -346 2421
-34 -345 2418
-27 -346 2421
-20 -345 2414
-13 -345 2416
-6 -346 2420
0 -343 2403
7 -344 2404
14 -342 2396
21 -343 2400
28 -342 2391
35 -342 2392
42 -342 2393
49 -341 2385
56 -342 2389
63 -343 2396
70 -343 2393
76 -341 2380
83 -341 2383
90 -340 2372
97 -341 2376
103 -339 2362
110 -339 2361
117 -338 2358
124 -339 2362
130 -337 2350
138 -340 2366
145 -341 2378
148 -332 2311
155 -332 2311
162 -333 2316
168 -332 2309
176 -334 2327
184 -337 2341
190 -336 2337
196 -335 2329
203 -335 2327
210 -335 2327
217 -336 2332
224 -336 2333
231 -336 2333
237 -335 2323
244 -335 2324
250 -335 2324
257 -335 2321
263 -335 2317
270 -334 2314
276 -334 2308
285 -336 2323
289 -333 2300
296 -334 2306
303 -333 2304
310 -334 2306
316 -333 2299
322 -333 2298
329 -333 2298
335 -333 2294
341 -332 2290
349 -333 2293
355 -332 2289
360 -331 2280
370 -334 2296
374 -332 2283
381 -332 2279
386 -331 2270
393 -331 2273
404 -335 2296
417 -340 2332
424 -340 2330
432 -341 2336
439 -341 2334
443 -339 2321
438 -330 2258
450 -334 2283
455 -333 2274
465 -335 2289
467 -332 2267
471 -331 2253
482 -333 2270
485 -331 2252
495 -333 2266
499 -332 2255
505 -331 2251
513 -332 2256
523 -334 2266
533 -336 2280
538 -335 2273
547 -337 2282
553 -336 2277
554 -333 2253
563 -334 2260
572 -336 2268
576 -334 2256
584 -335 2258
590 -335 2256
595 -334 2248
595 -330 2220
609 -334 2249
614 -333 2238
621 -334 2241
627 -333 2234
637 -335 2244
643 -334 2240
651 -335 2243
663 -338 2261
666 -336 2246
674 -337 2249
681 -337 2248
688 -337 2247
693 -337 2241
677 -326 2167
683 -325 2162
687 -324 2152
692 -324 2147
707 -327 2170
708 -325 2151
713 -325 2147
729 -329 2172
731 -327 2157
735 -326 2149
743 -327 2152
756 -329 2167
745 -322 2117
764 -327 2150
766 -325 2135
773 -326 2134
789 -330 2159
787 -326 2132
806 -331 2163
795 -324 2115
809 -327 2133
805 -323 2105
818 -326 2119
823 -325 2113
836 -328 2126
849 -331 2142
828 -320 2070
853 -327 2113
857 -326 2105
864 -326 2103
873 -327 2108
878 -327 2101
883 -326 2097
890 -326 2095
898 -327 2097
905 -327 2094
914 -328 2098
919 -328 2092
927 -328 2092
942 -331 2110
940 -328 2088
933 -324 2057
933 -322 2040
960 -329 2082
966 -328 2077
982 -332 2095
1011 -339 2140
983 -328 2063
976 -323 2033
994 -327 2055
989 -323 2028
943 -306 1917
898 -290 1811
894 -287 1790
900 -287 1787
904 -286 1782
902 -284 1763
915 -286 1775
918 -285 1768
929 -287 1776
935 -287 1774
934 -285 1758
937 -285 1751
940 -284 1744
955 -287 1758
957 -286 1749
964 -286 1748
973 -287 1751
979 -287 1749
980 -286 1737
-1297 -344 2233
-1277 -341 2215
-1271 -341 2221
-1261 -341 2220
-1246 -339 2210
-1239 -339 2214
-1224 -337 2203
-1207 -334 2189
-1196 -333 2186
-1187 -332 2184
-1181 -332 2189
-1178 -334 2201
-1158 -330 2180
-1156 -332 2193
-1138 -328 2175
-1133 -329 2181
-1118 -327 2170
-1107 -326 2165
-1104 -327 2175
-1110 -331 2204
-1100 -330 2201
-1082 -326 2181
-1077 -327 2189
-1071 -327 2193
-1068 -329 2204
-1068 -331 2223
-1053 -328 2208
-1044 -328 2205
-1039 -328 2213
-1042 -332 2237
-1014 -325 2194
-998 -322 2177
-978 -318 2152
-973 -318 2158
-987 -325 2206
-995 -330 2243
-997 -333 2266
-993 -335 2276
-988 -335 2282
-985 -337 2296
-978 -337 2299
-982 -340 2325
-977 -341 2333
-971 -342 2340
-970 -344 2356
-963 -344 2360
-956 -344 2363
-952 -346 2375
-949 -347 2388
-949 -350 2407
-943 -350 2413
-939 -352 2425
-938 -354 2443
-932 -355 2449
-925 -355 2454
-925 -358 2476
-918 -358 2479
-912 -359 2485
-911 -362 2505
-908 -364 2522
-899 -363 2519
-894 -364 2531
-888 -365 2536
-890 -369 2566
-882 -369 2569
-877 -370 2579
-874 -372 2595
-868 -373 2602
-864 -375 2617
-854 -374 2613
-851 -376 2628
-844 -377 2633
-840 -378 2648
-832 -378 2649
-827 -380 2660
-818 -379 2658
-814 -381 2674
-806 -381 2675
-802 -383 2690
-793 -383 2690
-782 -381 2681
-775 -382 2687
-765 -381 2680
-748 -376 2650
-740 -377 2652
-731 -376 2649
-735 -382 2695
-726 -382 2693
-695 -370 2608
-698 -376 2652
-693 -377 2663
-669 -368 2601
-673 -375 2652
-660 -372 2631
-652 -372 2632
-642 -371 2624
-633 -370 2620
-626 -371 2626
-618 -370 2623
-610 -370 2624
-601 -370 2622
-593 -369 2620
-583 -368 2611
-575 -368 2613
-567 -368 2610
-558 -367 2607
-549 -366 2602
-540 -365 2596
-532 -365 2596
-524 -365 2594
-515 -364 2587
-508 -364 2592
-496 -361 2573
-490 -362 2581
-482 -362 2577
-471 -360 2563
-463 -359 2561
-456 -359 2561
-449 -360 2565
-440 -359 2562
-432 -359 2558
-424 -358 2553
-416 -357 2550
-409 -358 2554
-400 -357 2549
-392 -356 2545
-384 -356 2542
-376 -356 2540
-368 -355 2534
-362 -356 2543
-352 -354 2528
-345 -354 2529
-337 -354 2530
-329 -352 2519
-321 -352 2520
-313 -351 2509
-306 -352 2515
-297 -350 2507
-290 -350 2506
-282 -350 2503
-275 -350 2505
-267 -349 2496
-260 -349 2500
-251 -347 2485
-244 -347 2486
-236 -347 2481
-229 -347 2483
-221 -346 2474
-214 -346 2477
-207 -345 2471
-199 -345 2470
-192 -346 2474
-184 -343 2458
-177 -344 2461
-170 -344 2460
-163 -344 2459
-155 -342 2450
-148 -343 2454
-140 -342 2447
-133 -342 2449
-126 -342 2446
-119 -341 2437
-112 -341 2441
-105 -341 2441
-98 -341 2442
-90 -341 2438
-83 -340 2433
-76 -339 2428
-69 -339 2426
-62 -339 2427
-55 -339 2425
-48 -341 2435
-41 -338 2417
-34 -339 2426
-27 -339 2424
-20 -339 2422
-13 -338 2412
-6 -339 2421
0 -337 2405
7 -336 2401
14 -336 2399
21 -336 2399
28 -337 2403
35 -335 2389
42 -335 2392
49 -334 2380
56 -335 2393
63 -335 2392
70 -335 2391
77 -337 2401
83 -335 2391
90 -333 2376
97 -333 2372
103 -332 2363
110 -332 2367
117 -332 2363
123 -331 2359
130 -331 2358
138 -334 2373
144 -333 2366
151 -331 2355
154 -324 2304
158 -319 2264
165 -320 2273
175 -326 2318
183 -329 2334
190 -328 2331
198 -330 2343
206 -332 2357
211 -329 2335
217 -329 2329
224 -329 2333
231 -329 2333
237 -328 2326
244 -329 2326
250 -327 2316
256 -327 2313
263 -328 2318
270 -327 2312
275 -326 2301
282 -326 2302
289 -326 2302
296 -327 2310
304 -328 2312
309 -326 2302
315 -326 2299
322 -326 2298
330 -327 2305
336 -326 2297
342 -326 2295
350 -328 2303
359 -330 2318
363 -327 2296
370 -327 2298
380 -330 2317
380 -325 2277
387 -325 2275
393 -324 2273
403 -327 2290
419 -335 2342
422 -332 2322
433 -335 2343
438 -333 2330
442 -331 2314
451 -333 2323
461 -336 2343
457 -328 2285
467 -330 2300
474 -330 2301
481 -331 2301
486 -329 2289
497 -332 2308
502 -331 2301
507 -330 2292
510 -328 2272
519 -329 2282
526 -330 2284
530 -328 2268
534 -326 2257
543 -327 2263
549 -327 2262
559 -329 2271
567 -330 2275
574 -330 2276
576 -327 2255
583 -328 2257
585 -325 2235
593 -326 2242
599 -326 2237
607 -327 2241
610 -324 2224
618 -325 2228
630 -328 2245
632 -326 2229
641 -327 2236
652 -329 2249
663 -331 2262
666 -330 2247
671 -329 2241
681 -330 2249
688 -330 2247
694 -330 2245
678 -320 2171
676 -316 2142
690 -319 2163
699 -320 2168
701 -318 2153
714 -321 2172
728 -325 2191
731 -323 2181
735 -322 2170
739 -321 2161
744 -320 2153
755 -322 2165
761 -322 2162
766 -321 2154
771 -321 2148
770 -318 2127
781 -320 2136
786 -319 2130
783 -315 2102
812 -324 2161
814 -323 2147
816 -321 2133
820 -320 2125
827 -320 2122
835 -321 2126
837 -319 2112
848 -321 2121
851 -320 2109
859 -320 2112
864 -320 2106
871 -320 2104
879 -321 2105
882 -319 2094
890 -320 2097
898 -320 2096
906 -321 2098
908 -319 2085
921 -322 2097
924 -321 2088
933 -322 2091
943 -323 2095
944 -321 2080
951 -321 2078
947 -318 2053
959 -320 2063
982 -325 2097
1014 -334 2148
985 -322 2068
987 -320 2056
995 -321 2057
990 -317 2032
936 -298 1905
898 -284 1813
888 -279 1779
903 -282 1794
907 -281 1788
908 -280 1777
909 -279 1765
923 -281 1778
932 -282 1782
928 -280 1762
931 -279 1753
937 -279 1751
944 -279 1751
953 -280 1755
962 -281 1758
967 -281 1754
972 -281 1750
978 -281 1747
981 -280 1740
-1292 -336 2226
-1273 -332 2209
-1269 -333 2218
-1253 -331 2206
-1249 -332 2216
-1227 -328 2193
-1226 -330 2208
-1216 -329 2206
-1201 -327 2195
-1200 -329 2209
-1190 -328 2208
-1171 -325 2189
-1179 -329 2221
-1162 -326 2205
-1153 -326 2205
-1166 -331 2246
-1148 -328 2228
-1141 -328 2232
-1128 -327 2223
-1116 -326 2218
-1113 -326 2227
-1108 -327 2236
-1093 -325 2221
-1083 -324 2219
-1074 -323 2217
-1054 -320 2194
-1055 -322 2214
-1033 -317 2184
-1024 -317 2182
-1018 -317 2187
-1005 -315 2176
-1000 -316 2183
-983 -313 2163
-974 -312 2161
-988 -319 2209
-996 -324 2245
-993 -325 2258
-992 -327 2275
-989 -328 2286
-988 -330 2302
-978 -330 2299
-978 -332 2318
-974 -333 2328
-971 -335 2340
-967 -336 2352
-963 -337 2361
-956 -337 2365
-955 -339 2381
-953 -341 2397
-946 -341 2400
-945 -344 2421
-939 -344 2426
-936 -346 2439
-928 -346 2441
-924 -347 2453
-920 -349 2463
-919 -351 2483
-917 -353 2500
-912 -354 2510
-909 -356 2525
-901 -356 2526
-897 -358 2539
-893 -359 2553
-887 -360 2560
-882 -361 2568
-877 -363 2581
-872 -363 2588
-868 -365 2602
-861 -366 2607
-859 -368 2628
-850 -368 2627
-841 -368 2626
-839 -370 2645
-832 -371 2651
-826 -372 2660
-820 -372 2666
-814 -373 2674
-802 -371 2664
-801 -375 2688
-797 -377 2703
-782 -373 2682
-777 -375 2694
-762 -372 2672
-748 -369 2651
-738 -368 2647
-732 -369 2655
-711 -362 2609
-714 -368 2650
-707 -368 2656
-699 -368 2656
-694 -370 2668
-694 -374 2702
-655 -357 2579
-662 -365 2640
-651 -363 2628
-643 -363 2628
-636 -364 2635
-627 -364 2631
-617 -362 2621
-608 -362 2619
-600 -361 2619
-591 -360 2613
-584 -361 2617
-575 -360 2613
-566 -360 2609
-558 -359 2608
-549 -358 2601
-541 -358 2602
-532 -358 2598
-523 -356 2588
-516 -357 2595
-507 -356 2587
-498 -355 2584
-490 -355 2581
-482 -354 2578
-471 -352 2564
-465 -353 2571
-457 -353 2570
-448 -352 2562
-440 -352 2563
-430 -349 2547
-423 -350 2550
-416 -350 2552
-409 -350 2554
-401 -350 2555
-392 -349 2546
-385 -349 2549
-375 -347 2535
-368 -347 2535
-360 -347 2531
-352 -346 2528
-344 -346 2525
-336 -345 2522
-328 -345 2519
-321 -344 2515
-313 -344 2516
-306 -344 2514
-298 -343 2509
-290 -342 2503
-282 -342 2500
-274 -342 2497
-268 -343 2506
-261 -343 2510
-253 -342 2500
-245 -342 2497
-238 -342 2500
-230 -340 2489
-222 -340 2487
-215 -340 2483
-206 -337 2467
-199 -337 2463
-191 -337 2461
-184 -337 2462
-176 -335 2452
-170 -338 2471
-163 -337 2462
-156 -337 2464
-148 -336 2458
-140 -334 2442
-133 -335 2451
-126 -335 2451
-119 -335 2450
-112 -335 2446
-104 -333 2438
-98 -334 2442
-90 -333 2432
-83 -334 2438
-76 -332 2427
-69 -333 2430
-62 -333 2429
-55 -333 2435
-48 -333 2431
-41 -332 2427
-34 -333 2429
-27 -333 2428
-20 -331 2419
-13 -331 2417
-6 -332 2420
0 -329 2400
7 -327 2383
14 -328 2390
21 -329 2400
28 -329 2399
35 -329 2396
42 -328 2388
49 -328 2394
56 -328 2389
63 -330 2402
70 -329 2397
77 -329 2399
84 -329 2394
90 -328 2388
97 -327 2377
103 -325 2364
110 -324 2354
117 -325 2361
124 -325 2364
130 -325 2362
138 -326 2370
145 -328 2381
148 -319 2320
155 -319 2313
158 -312 2265
167 -316 2294
176 -320 2323
183 -321 2329
190 -321 2329
198 -324 2348
206 -326 2364
212 -325 2356
217 -321 2327
225 -323 2339
231 -323 2334
237 -322 2329
244 -322 2325
251 -323 2332
257 -321 2320
263 -321 2317
272 -323 2332
276 -320 2311
285 -323 2327
284 -314 2264
296 -320 2306
303 -321 2311
309 -320 2305
316 -320 2302
322 -320 2300
329 -320 2298
337 -321 2307
341 -318 2286
349 -320 2299
354 -318 2282
362 -320 2292
371 -322 2307
378 -321 2303
380 -318 2277
386 -317 2273
391 -316 2263
402 -320 2288
416 -325 2325
425 -327 2337
434 -328 2345
440 -328 2344
443 -325 2319
446 -323 2302
453 -322 2298
455 -319 2273
459 -318 2262
466 -318 2260
476 -320 2275
480 -319 2265
486 -318 2260
493 -319 2261
499 -318 2256
504 -317 2246
512 -318 2250
519 -318 2252
526 -319 2253
530 -317 2239
538 -318 2242
547 -319 2253
560 -323 2276
565 -322 2269
570 -321 2259
581 -323 2275
583 -321 2257
587 -320 2245
594 -320 2245
603 -321 2252
608 -320 2244
613 -319 2235
622 -321 2244
628 -320 2239
642 -324 2266
644 -322 2245
649 -321 2238
663 -325 2262
670 -325 2262
675 -324 2256
680 -323 2248
685 -323 2241
692 -323 2239
678 -313 2171
677 -309 2144
687 -311 2153
695 -312 2157
707 -314 2172
702 -309 2135
717 -313 2160
719 -311 2145
733 -314 2164
744 -317 2177
733 -309 2124
745 -311 2136
763 -316 2169
764 -314 2150
762 -311 2125
762 -308 2104
774 -310 2119
787 -313 2134
795 -314 2137
801 -314 2133
809 -314 2135
812 -313 2123
823 -314 2132
826 -313 2120
838 -315 2133
840 -314 2120
848 -314 2121
853 -314 2116
861 -314 2116
869 -315 2118
874 -315 2113
882 -315 2113
888 -315 2111
895 -315 2109
899 -314 2100
907 -315 2100
913 -315 2097
922 -316 2102
929 -316 2100
937 -316 2100
939 -315 2088
949 -316 2092
953 -315 2084
960 -316 2084
971 -317 2091
985 -319 2103
1011 -326 2143
984 -315 2069
984 -313 2052
998 -315 2064
985 -309 2022
929 -290 1890
889 -275 1795
894 -275 1790
897 -274 1782
899 -273 1774
899 -272 1760
910 -273 1767
922 -275 1777
926 -275 1772
930 -274 1766
931 -273 1755
944 -275 1765
949 -275 1762
951 -274 1753
964 -276 1763
967 -275 1755
961 -272 1731
966 -272 1726
986 -276 1749
-1291 -328 2226
-1284 -328 2229
-1269 -326 2219
-1268 -328 2235
-1249 -325 2217
-1252 -328 2239
-1240 -326 2233
-1233 -327 2238
-1236 -329 2260
-1220 -327 2247
-1216 -328 2258
-1199 -325 2242
-1197 -327 2254
-1184 -325 2248
-1181 -326 2258
-1173 -326 2261
-1152 -322 2237
-1147 -323 2245
-1130 -320 2228
-1129 -322 2243
-1107 -318 2216
-1102 -318 2224
-1079 -314 2195
-1073 -314 2199
-1062 -313 2195
-1049 -311 2184
-1038 -310 2179
-1027 -309 2172
-1015 -307 2165
-1005 -306 2159
-1001 -307 2168
-991 -306 2164
-979 -305 2156
-977 -306 2168
-986 -311 2205
-996 -317 2247
-997 -319 2267
-991 -320 2273
-986 -320 2281
-986 -323 2299
-982 -324 2308
-981 -326 2325
-971 -325 2323
-970 -327 2338
-968 -329 2355
-968 -331 2374
-958 -330 2369
-953 -331 2378
-953 -334 2398
-947 -335 2405
-944 -336 2418
-941 -338 2433
-939 -340 2448
-934 -341 2459
-925 -340 2456
-926 -343 2480
-916 -343 2478
-914 -345 2495
-912 -347 2511
-909 -349 2526
-901 -349 2527
-899 -351 2546
-893 -352 2554
-889 -353 2567
-883 -354 2573
-879 -355 2586
-876 -357 2602
-869 -358 2606
-863 -359 2616
-855 -359 2617
-851 -360 2630
-844 -361 2636
-836 -361 2638
-834 -363 2657
-823 -362 2650
-821 -365 2672
-816 -366 2684
-806 -366 2679
-795 -364 2670
-791 -366 2686
-779 -364 2673
-772 -365 2678
-767 -366 2689
-749 -361 2657
-736 -359 2641
-732 -361 2656
-723 -360 2654
-707 -356 2627
-705 -359 2648
-697 -359 2648
-689 -359 2651
-681 -359 2650
-669 -357 2638
-661 -357 2637
-652 -356 2633
-643 -356 2629
-638 -357 2643
-626 -355 2625
-618 -355 2628
-610 -355 2628
-601 -354 2624
-592 -353 2620
-582 -352 2610
-574 -352 2607
-566 -352 2611
-558 -351 2607
-548 -350 2598
-540 -350 2600
-533 -350 2603
-522 -348 2587
-515 -349 2593
-506 -347 2583
-497 -347 2581
-489 -347 2580
-483 -347 2585
-473 -346 2574
-463 -344 2559
-457 -346 2572
-448 -344 2565
-440 -344 2559
-433 -344 2562
-424 -343 2554
-416 -343 2553
-407 -342 2548
-400 -342 2546
-392 -342 2549
-384 -341 2540
-375 -340 2536
-368 -340 2535
-360 -339 2531
-352 -339 2530
-345 -340 2535
-337 -339 2528
-330 -339 2529
-321 -337 2519
-313 -336 2513
-304 -335 2504
-298 -337 2516
-289 -335 2502
-283 -336 2510
-275 -335 2504
-267 -334 2496
-260 -335 2501
-253 -335 2501
-243 -332 2479
-236 -332 2484
-230 -334 2494
-222 -333 2485
-215 -332 2482
-207 -331 2475
-199 -331 2474
-191 -329 2462
-185 -330 2468
-177 -330 2467
-170 -329 2460
-162 -328 2454
-155 -329 2462
-147 -327 2447
-141 -329 2457
-133 -328 2451
-126 -328 2448
-119 -327 2444
-112 -328 2447
-105 -327 2444
-97 -326 2438
-90 -326 2437
-83 -327 2439
-76 -326 2431
-69 -326 2431
-62 -326 2433
-55 -325 2423
-48 -325 2427
-41 -326 2430
-34 -326 2434
-27 -324 2419
-20 -324 2419
-13 -324 2420
-6 -324 2414
0 -323 2408
7 -321 2397
14 -318 2371
21 -323 2405
28 -322 2401
35 -322 2401
42 -321 2392
49 -320 2381
56 -321 2388
63 -322 2396
70 -321 2392
77 -321 2389
83 -321 2389
90 -321 2388
97 -320 2379
103 -318 2364
110 -318 2365
117 -318 2366
124 -318 2361
130 -318 2360
138 -318 2365
146 -322 2393
149 -314 2328
153 -309 2294
160 -308 2285
167 -310 2296
175 -312 2310
184 -316 2339
190 -315 2331
198 -316 2343
206 -318 2357
212 -317 2346
218 -316 2336
224 -315 2331
231 -316 2337
236 -314 2321
244 -314 2323
250 -315 2323
257 -315 2323
264 -315 2322
271 -315 2327
279 -316 2333
283 -314 2314
291 -315 2318
297 -314 2311
303 -314 2309
310 -314 2308
316 -313 2305
323 -313 2305
327 -311 2288
337 -314 2309
348 -318 2332
348 -312 2290
357 -314 2305
362 -313 2294
373 -316 2318
375 -312 2288
380 -311 2279
386 -311 2275
393 -311 2273
401 -312 2278
412 -315 2302
421 -318 2318
428 -317 2316
439 -321 2337
438 -315 2293
444 -314 2287
449 -313 2282
455 -313 2275
459 -311 2260
469 -314 2279
471 -310 2251
478 -310 2252
482 -309 2241
488 -308 2235
497 -310 2246
506 -312 2256
509 -309 2238
514 -308 2230
519 -308 2223
531 -311 2244
536 -310 2236
545 -311 2245
557 -314 2265
562 -314 2259
570 -314 2261
576 -314 2258
581 -313 2248
584 -311 2233
592 -312 2238
602 -314 2247
609 -314 2250
612 -312 2235
622 -314 2245
631 -315 2250
637 -315 2247
643 -314 2242
649 -314 2238
657 -315 2241
667 -316 2251
673 -316 2248
680 -316 2248
683 -315 2234
689 -314 2229
680 -307 2176
679 -304 2152
695 -308 2180
692 -304 2147
703 -306 2160
707 -305 2150
715 -306 2155
718 -304 2143
724 -304 2140
728 -303 2128
731 -302 2117
747 -306 2145
752 -305 2136
755 -304 2124
757 -302 2110
779 -308 2152
784 -308 2145
789 -307 2141
792 -306 2128
799 -306 2129
806 -306 2127
813 -307 2127
818 -306 2122
826 -307 2123
833 -307 2123
837 -306 2114
847 -307 2119
851 -307 2112
857 -306 2108
866 -307 2111
870 -307 2103
876 -307 2101
883 -307 2098
891 -307 2101
896 -307 2095
903 -307 2093
910 -307 2092
915 -307 2087
926 -308 2092
932 -308 2089
937 -308 2085
942 -307 2079
951 -308 2080
957 -308 2077
955 -305 2056
985 -313 2103
1012 -319 2144
986 -309 2072
983 -306 2050
997 -309 2063
991 -305 2034
931 -284 1895
895 -272 1808
896 -270 1797
892 -267 1774
905 -269 1785
907 -268 1776
910 -268 1769
920 -269 1774
926 -269 1772
934 -270 1774
932 -268 1757
936 -267 1751
946 -268 1756
947 -267 1745
961 -270 1758
963 -269 1748
968 -268 1745
969 -267 1732
980 -269 1740
-1301 -323 2244
-1302 -325 2262
-1304 -328 2281
-1302 -329 2295
-1275 -324 2265
-1286 -329 2301
-1258 -324 2268
-1254 -325 2276
-1228 -320 2246
-1224 -321 2256
-1226 -323 2276
-1197 -318 2239
-1198 -320 2257
-1185 -318 2251
-1164 -314 2227
-1160 -315 2236
-1145 -313 2224
-1123 -309 2199
-1122 -311 2213
-1117 -312 2221
-1103 -310 2209
-1078 -304 2176
-1069 -304 2175
-1053 -301 2159
-1052 -303 2175
-1048 -304 2184
-1036 -303 2176
-1027 -302 2174
-1018 -301 2171
-1006 -300 2163
-1001 -300 2170
-1000 -302 2184
-976 -297 2149
-973 -298 2161
-988 -305 2212
-999 -311 2255
-995 -312 2265
-991 -313 2275
-987 -314 2284
-986 -316 2299
-981 -316 2307
-977 -317 2317
-975 -319 2333
-974 -321 2349
-969 -322 2358
-964 -323 2365
-961 -324 2379
-956 -325 2387
-954 -327 2404
-948 -328 2409
-948 -330 2429
-942 -331 2437
-938 -332 2448
-934 -333 2458
-928 -334 2465
-927 -336 2483
-923 -337 2495
-915 -338 2499
-908 -338 2501
-907 -340 2522
-905 -343 2541
-899 -343 2546
-893 -344 2554
-889 -345 2566
-886 -347 2582
-881 -348 2592
-873 -348 2595
-868 -349 2604
-859 -349 2605
-855 -351 2616
-847 -351 2620
-845 -353 2638
-838 -354 2646
-832 -355 2653
-828 -356 2667
-819 -356 2667
-809 -355 2660
-801 -355 2664
-797 -357 2676
-794 -359 2695
-777 -355 2669
-778 -359 2699
-766 -358 2689
-749 -353 2657
-756 -360 2712
-733 -353 2661
-723 -352 2654
-718 -354 2666
-705 -351 2649
-697 -352 2652
-687 -350 2645
-681 -351 2652
-672 -351 2651
-662 -349 2640
-652 -349 2635
-644 -349 2636
-636 -349 2637
-625 -347 2624
-620 -348 2635
-609 -347 2625
-603 -348 2634
-591 -345 2616
-582 -344 2610
-573 -343 2604
-565 -344 2606
-557 -343 2606
-549 -343 2604
-540 -342 2597
-530 -341 2587
-523 -341 2594
-517 -343 2605
-507 -341 2589
-497 -339 2578
-491 -340 2588
-482 -339 2580
-472 -338 2572
-463 -336 2561
-455 -337 2562
-447 -336 2557
-440 -336 2562
-432 -336 2563
-425 -337 2566
-417 -336 2559
-408 -335 2555
-400 -334 2550
-392 -334 2546
-385 -334 2549
-376 -333 2543
-369 -333 2543
-360 -332 2536
-352 -331 2527
-345 -332 2533
-337 -332 2533
-329 -331 2527
-321 -330 2522
-313 -330 2518
-304 -328 2506
-297 -328 2504
-289 -328 2502
-283 -329 2515
-274 -327 2498
-266 -326 2494
-260 -328 2506
-253 -328 2507
-245 -327 2496
-238 -327 2501
-230 -327 2495
-223 -327 2499
-214 -325 2481
-206 -323 2470
-199 -324 2475
-192 -323 2470
-185 -324 2474
-177 -323 2469
-170 -323 2469
-163 -323 2467
-155 -322 2460
-148 -322 2456
-141 -321 2455
-133 -321 2454
-126 -320 2447
-119 -321 2451
-112 -320 2446
-105 -321 2449
-97 -320 2442
-91 -320 2446
-83 -319 2438
-76 -319 2434
-69 -320 2440
-62 -320 2442
-55 -319 2432
-48 -318 2428
-41 -319 2432
-34 -319 2432
-27 -318 2428
-19 -317 2418
-13 -317 2421
-6 -318 2426
0 -317 2419
8 -321 2446
14 -314 2394
21 -316 2405
28 -315 2401
35 -315 2396
42 -314 2394
49 -314 2394
56 -313 2384
63 -315 2399
70 -315 2397
77 -315 2394
84 -315 2395
91 -315 2398
97 -313 2380
104 -312 2372
110 -311 2366
117 -311 2363
124 -311 2363
130 -311 2360
139 -314 2382
145 -314 2382
151 -310 2353
156 -307 2326
161 -305 2312
168 -305 2311
175 -306 2318
184 -310 2348
191 -309 2341
198 -310 2344
204 -310 2343
212 -311 2352
218 -309 2337
225 -310 2341
231 -309 2339
237 -308 2328
244 -309 2330
250 -307 2321
257 -308 2324
263 -307 2318
270 -308 2321
277 -308 2322
285 -309 2327
293 -310 2337
298 -308 2321
304 -307 2313
309 -307 2306
316 -307 2305
323 -307 2305
329 -306 2299
338 -308 2316
342 -306 2294
349 -306 2297
356 -306 2295
368 -311 2328
368 -305 2287
375 -305 2286
381 -305 2281
388 -305 2284
392 -304 2271
401 -305 2282
411 -308 2298
417 -308 2296
422 -306 2282
430 -307 2290
433 -305 2269
441 -305 2272
447 -305 2271
454 -305 2270
459 -304 2261
469 -307 2279
473 -305 2262
479 -304 2257
480 -301 2231
482 -298 2209
494 -302 2234
501 -302 2235
507 -301 2228
515 -303 2236
526 -305 2251
529 -303 2237
536 -303 2237
546 -305 2249
555 -307 2258
560 -306 2249
566 -305 2245
572 -305 2244
575 -303 2228
582 -303 2225
588 -303 2224
597 -305 2231
601 -303 2220
606 -302 2211
616 -304 2223
628 -307 2241
632 -306 2230
637 -305 2222
644 -305 2223
650 -305 2218
660 -306 2227
667 -306 2227
666 -303 2201
675 -304 2208
696 -311 2252
686 -303 2197
676 -296 2144
689 -299 2162
697 -300 2165
704 -300 2164
709 -299 2157
717 -300 2161
723 -300 2159
731 -301 2160
737 -300 2156
745 -301 2159
750 -301 2154
756 -300 2149
763 -300 2148
770 -301 2150
777 -301 2147
779 -299 2134
791 -301 2146
792 -300 2130
797 -299 2124
805 -299 2124
814 -300 2129
820 -300 2127
826 -300 2124
832 -300 2119
838 -300 2117
846 -301 2119
850 -300 2110
858 -300 2112
861 -299 2101
870 -300 2103
878 -301 2105
883 -300 2099
888 -300 2093
895 -300 2092
903 -300 2093
911 -301 2096
916 -301 2089
922 -300 2085
932 -301 2089
934 -300 2078
944 -301 2082
949 -301 2077
956 -301 2075
961 -301 2069
985 -306 2105
1007 -311 2135
990 -304 2082
985 -300 2056
997 -302 2064
990 -298 2033
929 -278 1892
896 -266 1811
890 -263 1784
897 -263 1784
906 -264 1788
908 -263 1779
911 -262 1771
915 -262 1765
925 -263 1770
928 -262 1762
932 -262 1758
942 -263 1762
944 -262 1753
950 -262 1752
954 -262 1746
963 -263 1749
967 -263 1744
978 -264 1751
972 -261 1726
-1322 -321 2281
-1334 -326 2318
-1308 -321 2291
-1281 -316 2258
-1278 -318 2270
-1271 -318 2274
-1267 -319 2285
-1243 -315 2259
-1228 -313 2247
-1221 -313 2252
-1212 -312 2252
-1191 -309 2230
-1186 -309 2236
-1178 -309 2238
-1160 -306 2220
-1152 -306 2223
-1132 -303 2199
-1126 -303 2205
-1117 -303 2204
-1095 -299 2178
-1103 -303 2211
-1091 -301 2203
-1080 -300 2198
-1069 -299 2193
-1057 -298 2186
-1046 -297 2181
-1038 -296 2180
-1033 -297 2187
-1026 -297 2188
-1015 -296 2184
-1004 -294 2177
-991 -293 2166
-980 -292 2160
-975 -292 2166
-984 -297 2204
-1000 -304 2258
-999 -306 2273
-994 -306 2281
-986 -306 2281
-986 -308 2300
-979 -309 2305
-978 -310 2320
-974 -312 2331
-969 -312 2339
-968 -314 2357
-969 -317 2379
-958 -316 2373
-955 -318 2386
-954 -319 2403
-951 -321 2418
-944 -321 2421
-942 -323 2438
-938 -324 2448
-935 -326 2463
-931 -327 2473
-926 -328 2482
-919 -329 2486
-920 -332 2512
-912 -332 2514
-910 -334 2531
-906 -335 2543
-901 -336 2553
-893 -336 2555
-890 -338 2571
-882 -338 2573
-878 -339 2585
-874 -341 2599
-867 -341 2603
-864 -343 2619
-853 -342 2613
-851 -344 2632
-844 -345 2636
-838 -346 2644
-829 -345 2643
-822 -346 2650
-817 -347 2660
-812 -349 2673
-805 -349 2676
-797 -349 2680
-787 -348 2674
-776 -347 2666
-777 -351 2699
-764 -349 2684
-748 -345 2657
-755 -352 2711
-715 -337 2595
-723 -345 2656
-715 -345 2657
-707 -345 2659
-699 -345 2659
-688 -343 2648
-680 -343 2647
-671 -342 2644
-662 -342 2642
-652 -341 2635
-648 -343 2653
-637 -341 2641
-627 -340 2632
-618 -340 2631
-610 -339 2629
-600 -338 2621
-595 -339 2632
-581 -336 2609
-575 -337 2614
-568 -338 2622
-562 -339 2629
-550 -336 2612
-541 -335 2606
-533 -335 2605
-525 -335 2604
-518 -336 2610
-508 -334 2595
-497 -332 2581
-489 -331 2577
-482 -332 2581
-472 -330 2569
-477 -339 2639
-456 -329 2566
-448 -329 2565
-441 -330 2570
-433 -329 2566
-425 -329 2562
-416 -328 2556
-409 -328 2558
-401 -328 2560
-392 -326 2546
-385 -327 2550
-374 -324 2530
-368 -325 2536
-361 -326 2544
-353 -325 2536
-345 -325 2534
-336 -323 2525
-329 -323 2525
-321 -322 2519
-313 -322 2518
-305 -322 2516
-298 -322 2514
-289 -320 2501
-282 -320 2504
-274 -320 2502
-269 -322 2516
-260 -320 2501
-253 -321 2510
-245 -319 2496
-238 -320 2505
-231 -320 2505
-222 -318 2487
-214 -318 2483
-207 -317 2478
-199 -316 2469
-192 -317 2477
-184 -315 2462
-177 -316 2468
-170 -315 2465
-163 -316 2469
-154 -313 2450
-148 -315 2465
-141 -315 2460
-134 -315 2462
-126 -313 2447
-119 -314 2454
-112 -314 2452
-105 -314 2453
-97 -313 2445
-91 -313 2448
-83 -313 2445
-76 -313 2441
-69 -313 2442
-62 -313 2441
-55 -312 2434
-48 -313 2442
-41 -312 2433
-34 -312 2438
-26 -311 2424
-20 -311 2427
-12 -310 2419
-5 -312 2431
1 -310 2419
8 -311 2421
14 -309 2409
21 -310 2414
28 -308 2398
35 -308 2403
42 -308 2401
49 -308 2395
56 -307 2392
63 -307 2393
70 -308 2400
77 -309 2401
84 -309 2401
90 -306 2383
97 -307 2384
104 -305 2374
110 -305 2373
117 -305 2369
124 -304 2360
131 -305 2369
138 -305 2369
145 -306 2377
150 -302 2344
154 -297 2302
161 -298 2309
167 -296 2298
175 -299 2316
184 -303 2347
192 -305 2363
197 -302 2338
205 -303 2347
214 -307 2379
218 -302 2337
224 -302 2336
231 -302 2338
237 -301 2329
243 -300 2320
251 -302 2329
257 -301 2325
264 -301 2325
270 -301 2319
279 -303 2339
283 -300 2315
293 -303 2338
298 -301 2320
303 -300 2309
310 -300 2308
316 -299 2303
322 -299 2301
329 -299 2297
335 -299 2297
342 -299 2294
348 -299 2292
354 -298 2286
360 -298 2282
372 -302 2310
375 -299 2287
381 -298 2281
387 -298 2281
393 -297 2272
403 -300 2290
411 -301 2301
417 -300 2293
423 -300 2287
427 -298 2274
433 -298 2268
438 -297 2261
445 -297 2259
451 -296 2255
461 -299 2271
461 -295 2240
474 -299 2268
479 -298 2261
484 -297 2249
496 -300 2276
501 -299 2267
504 -297 2246
508 -296 2237
516 -296 2239
514 -292 2202
522 -293 2208
530 -293 2214
546 -298 2249
553 -299 2249
561 -300 2255
568 -300 2253
573 -299 2248
577 -297 2234
581 -296 2225
587 -296 2221
592 -295 2211
598 -295 2208
601 -293 2193
612 -295 2208
623 -298 2223
628 -297 2218
636 -298 2220
642 -298 2218
649 -298 2216
653 -296 2204
662 -298 2213
666 -297 2202
677 -299 2215
685 -299 2218
679 -294 2176
678 -290 2149
683 -290 2142
696 -293 2162
702 -293 2158
708 -293 2156
717 -293 2160
720 -292 2150
728 -293 2151
739 -294 2162
739 -292 2143
747 -293 2146
753 -292 2141
757 -292 2133
766 -293 2138
771 -292 2131
778 -292 2131
787 -293 2135
792 -293 2131
801 -294 2133
803 -292 2122
811 -293 2123
817 -293 2119
825 -293 2121
831 -293 2117
839 -294 2120
845 -294 2116
847 -292 2103
857 -293 2108
866 -294 2114
869 -293 2103
876 -293 2101
887 -295 2110
890 -294 2100
897 -294 2097
901 -293 2090
912 -295 2098
914 -293 2084
925 -295 2091
930 -294 2086
935 -294 2080
942 -294 2080
950 -295 2080
956 -294 2076
963 -295 2075
982 -299 2098
1007 -304 2136
988 -296 2078
986 -294 2059
994 -294 2058
990 -291 2034
930 -272 1894
892 -259 1803
889 -257 1784
892 -256 1775
909 -259 1794
904 -256 1772
907 -255 1764
914 -256 1764
923 -257 1768
927 -256 1762
935 -257 1763
939 -257 1758
946 -257 1758
952 -257 1755
954 -256 1747
963 -257 1750
968 -257 1746
972 -257 1740
979 -257 1740
-1334 -316 2302
-1312 -313 2282
-1297 -311 2272
-1277 -308 2253
-1274 -309 2265
-1266 -309 2267
-1257 -309 2267
-1243 -307 2260
-1213 -302 2221
-1221 -305 2252
-1198 -301 2226
-1203 -305 2252
-1182 -301 2229
-1169 -300 2222
-1158 -299 2218
-1139 -296 2199
-1143 -299 2222
-1132 -298 2219
-1118 -296 2207
-1113 -296 2215
-1107 -297 2219
-1087 -293 2196
-1080 -293 2199
-1080 -295 2217
-1065 -293 2202
-1059 -293 2208
-1042 -291 2190
-1036 -291 2193
-1032 -292 2203
-1019 -290 2192
-1009 -289 2189
-997 -288 2180
-978 -284 2157
-976 -286 2170
-987 -291 2212
-999 -297 2257
-996 -298 2269
-996 -300 2286
-989 -300 2291
-989 -302 2309
-984 -303 2318
-980 -304 2327
-975 -305 2335
-972 -306 2346
-971 -308 2365
-966 -309 2374
-960 -309 2378
-957 -311 2392
-952 -312 2400
-947 -313 2409
-943 -313 2418
-943 -316 2440
-936 -316 2444
-935 -319 2464
-926 -318 2462
-926 -321 2484
-922 -322 2496
-916 -323 2502
-912 -324 2513
-907 -325 2525
-902 -326 2532
-899 -328 2549
-897 -330 2567
-888 -330 2567
-882 -330 2574
-877 -331 2583
-871 -332 2589
-867 -334 2605
-859 -334 2607
-855 -335 2618
-845 -334 2615
-842 -336 2631
-839 -338 2648
-832 -339 2655
-825 -339 2659
-819 -340 2667
-813 -341 2675
-808 -342 2688
-799 -342 2686
-786 -340 2671
-775 -339 2663
-778 -343 2703
-768 -343 2699
-750 -338 2665
-732 -334 2630
-725 -334 2634
-726 -338 2666
-718 -338 2670
-707 -337 2660
-699 -337 2662
-689 -336 2654
-681 -336 2654
-671 -335 2648
-662 -334 2646
-649 -331 2624
-646 -334 2645
-637 -333 2642
-626 -332 2630
-622 -334 2645
-610 -331 2628
-603 -332 2635
-592 -330 2623
-583 -329 2616
-574 -329 2614
-570 -331 2630
-563 -331 2633
-552 -329 2620
-541 -328 2606
-533 -327 2604
-526 -328 2610
-518 -328 2610
-507 -326 2593
-498 -325 2585
-491 -325 2588
-479 -322 2569
-472 -323 2573
-464 -322 2569
-457 -323 2577
-449 -323 2572
-440 -321 2564
-433 -322 2567
-424 -321 2560
-417 -321 2561
-409 -321 2560
-400 -319 2550
-393 -320 2553
-385 -319 2550
-376 -318 2543
-369 -318 2544
-359 -317 2532
-352 -317 2536
-345 -317 2535
-336 -316 2526
-330 -317 2535
-320 -315 2519
-314 -316 2530
-306 -315 2522
-298 -315 2516
-289 -313 2505
-283 -314 2514
-275 -313 2507
-267 -313 2506
-261 -314 2510
-252 -313 2500
-244 -311 2486
-237 -312 2493
-230 -313 2502
-222 -312 2492
-214 -310 2481
-207 -310 2478
-199 -310 2477
-192 -309 2472
-184 -308 2464
-177 -309 2470
-170 -308 2468
-163 -308 2468
-155 -307 2459
-148 -307 2459
-141 -308 2465
-133 -307 2457
-126 -307 2455
-119 -308 2462
-113 -308 2466
-105 -307 2458
-98 -307 2453
-90 -306 2449
-83 -306 2443
-76 -305 2441
-69 -306 2449
-62 -305 2440
-55 -305 2437
-48 -305 2435
-41 -305 2433
-34 -305 2435
-27 -305 2434
-19 -304 2427
-12 -304 2429
-5 -304 2424
1 -303 2415
8 -303 2415
15 -303 2415
21 -302 2406
28 -302 2409
35 -302 2407
42 -301 2399
49 -301 2396
56 -301 2397
63 -300 2393
70 -301 2400
77 -301 2396
84 -300 2390
90 -300 2387
97 -300 2387
104 -299 2377
110 -297 2365
117 -298 2367
124 -299 2373
131 -297 2364
138 -298 2371
145 -299 2372
153 -300 2385
156 -293 2329
162 -293 2323
168 -290 2304
176 -294 2333
184 -296 2344
192 -297 2355
197 -295 2337
205 -297 2351
211 -296 2341
218 -295 2338
225 -296 2344
232 -296 2345
238 -296 2340
244 -295 2329
251 -295 2328
257 -294 2326
264 -295 2327
271 -295 2329
277 -294 2316
284 -295 2322
292 -296 2332
297 -294 2317
304 -294 2313
310 -294 2311
317 -293 2309
322 -292 2300
329 -293 2302
336 -293 2301
343 -293 2299
350 -293 2304
353 -290 2279
353 -285 2238
362 -287 2252
374 -291 2281
381 -291 2282
387 -291 2278
394 -291 2279
402 -292 2287
410 -294 2296
415 -292 2283
421 -292 2281
428 -292 2277
434 -292 2275
440 -292 2272
446 -291 2264
453 -291 2264
459 -291 2262
465 -290 2257
473 -292 2265
479 -291 2258
484 -290 2252
491 -291 2253
496 -290 2244
504 -290 2246
511 -291 2249
505 -284 2194
524 -291 2246
533 -292 2252
521 -282 2173
537 -287 2214
548 -289 2229
559 -292 2247
567 -293 2251
569 -290 2232
578 -291 2238
584 -291 2235
588 -290 2224
593 -289 2217
603 -291 2229
606 -289 2214
607 -287 2193
621 -290 2218
628 -290 2217
634 -290 2215
642 -291 2218
651 -292 2224
653 -290 2207
659 -290 2204
671 -292 2218
675 -291 2209
684 -292 2213
694 -293 2223
686 -287 2176
695 -288 2181
698 -287 2168
707 -288 2176
713 -288 2173
724 -290 2183
736 -292 2197
741 -292 2192
760 -296 2224
766 -296 2222
769 -295 2210
770 -293 2192
766 -288 2157
771 -288 2151
776 -287 2146
780 -287 2137
784 -286 2129
792 -286 2130
798 -286 2127
805 -287 2127
812 -287 2127
815 -285 2114
824 -286 2118
831 -287 2119
838 -287 2118
845 -287 2117
852 -287 2114
859 -287 2114
864 -287 2108
869 -287 2102
876 -287 2102
880 -286 2094
890 -287 2099
899 -288 2102
906 -288 2102
909 -287 2092
917 -288 2091
927 -289 2098
930 -288 2088
938 -288 2089
940 -287 2076
951 -288 2083
954 -288 2073
953 -285 2053
985 -293 2105
1010 -299 2143
991 -291 2085
983 -287 2053
996 -288 2062
992 -286 2039
935 -267 1905
900 -256 1819
885 -250 1774
896 -251 1784
904 -252 1786
906 -251 1776
908 -250 1767
905 -248 1746
928 -253 1778
927 -251 1763
929 -250 1753
938 -251 1757
944 -251 1754
953 -252 1758
950 -250 1740
969 -253 1760
971 -252 1751
975 -252 1745
978 -251 1738
-1307 -303 2256
-1298 -302 2258
-1299 -304 2277
-1291 -304 2280
-1270 -301 2259
-1255 -299 2248
-1251 -300 2259
-1241 -299 2256
-1237 -300 2265
-1214 -296 2241
-1204 -296 2239
-1190 -294 2230
-1189 -296 2243
-1176 -294 2236
-1169 -294 2239
-1155 -293 2230
-1146 -292 2229
-1135 -291 2226
-1121 -290 2214
-1118 -291 2226
-1104 -289 2215
-1093 -288 2210
-1088 -288 2217
-1072 -286 2201
-1061 -285 2196
-1057 -286 2204
-1048 -285 2203
-1038 -285 2200
-1021 -282 2180
-1020 -283 2196
-1010 -283 2192
-995 -280 2177
-980 -278 2161
-977 -279 2173
-990 -285 2219
-1004 -291 2269
-995 -290 2266
-997 -293 2289
-993 -294 2300
-986 -294 2304
-986 -297 2323
-980 -297 2329
-974 -297 2332
-972 -299 2349
-967 -300 2356
-965 -301 2371
-961 -303 2383
-955 -303 2387
-957 -306 2414
-952 -307 2421
-942 -306 2417
-939 -307 2431
-942 -311 2462
-934 -311 2462
-928 -311 2469
-925 -313 2483
-921 -314 2495
-916 -315 2504
-915 -318 2525
-907 -317 2524
-903 -319 2538
-899 -320 2550
-891 -320 2551
-889 -322 2571
-884 -323 2579
-878 -324 2589
-869 -324 2587
-866 -325 2602
-862 -327 2616
-855 -327 2622
-848 -327 2624
-841 -328 2629
-837 -330 2645
-830 -330 2648
-818 -328 2639
-814 -330 2652
-814 -333 2680
-802 -332 2669
-802 -335 2697
-792 -334 2694
-773 -330 2657
-772 -333 2682
-767 -334 2695
-751 -331 2670
-736 -327 2643
-725 -326 2633
-725 -330 2666
-714 -328 2656
-708 -329 2664
-699 -329 2663
-689 -328 2653
-679 -327 2647
-673 -328 2655
-662 -326 2644
-652 -325 2640
-647 -327 2651
-638 -326 2647
-628 -325 2638
-620 -325 2638
-612 -325 2639
-604 -325 2642
-593 -323 2628
-583 -322 2616
-574 -321 2612
-566 -321 2612
-564 -324 2639
-551 -321 2616
-541 -320 2607
-532 -319 2600
-529 -322 2623
-518 -320 2610
-509 -319 2602
-498 -317 2589
-490 -317 2587
-482 -317 2586
-473 -316 2580
-454 -308 2518
-457 -315 2573
-449 -315 2572
-441 -315 2571
-433 -314 2568
-426 -315 2571
-416 -313 2556
-406 -311 2544
-401 -313 2558
-393 -312 2555
-386 -313 2562
-376 -311 2545
-368 -311 2543
-360 -310 2537
-352 -310 2536
-344 -309 2532
-337 -309 2532
-329 -309 2526
-322 -310 2534
-314 -309 2530
-307 -309 2527
-298 -307 2517
-291 -307 2518
-282 -306 2503
-275 -306 2507
-267 -305 2500
-260 -306 2503
-251 -304 2493
-245 -305 2498
-238 -305 2502
-231 -306 2507
-223 -305 2499
-215 -304 2491
-207 -303 2484
-200 -303 2482
-193 -304 2489
-185 -302 2476
-177 -301 2465
-170 -301 2467
-163 -302 2473
-155 -301 2467
-148 -301 2464
-141 -301 2464
-134 -300 2460
-126 -300 2455
-119 -299 2453
-112 -300 2453
-105 -300 2453
-98 -300 2454
-91 -300 2454
-83 -299 2447
-76 -299 2444
-69 -299 2446
-62 -299 2443
-55 -298 2435
-48 -299 2442
-41 -298 2435
-34 -298 2437
-26 -297 2432
-19 -295 2414
-12 -295 2414
-5 -296 2418
1 -294 2407
8 -296 2421
15 -296 2419
22 -295 2412
29 -295 2412
35 -294 2402
42 -294 2401
49 -293 2393
56 -292 2382
63 -294 2396
70 -293 2389
77 -294 2394
83 -292 2383
90 -293 2385
97 -291 2375
103 -291 2370
110 -291 2372
117 -289 2357
124 -291 2366
131 -291 2369
138 -292 2376
145 -292 2375
152 -293 2379
158 -291 2368
165 -290 2360
171 -289 2349
178 -289 2349
185 -289 2350
191 -289 2348
198 -290 2353
205 -289 2345
211 -289 2342
218 -289 2345
225 -290 2346
232 -289 2342
237 -288 2328
244 -288 2330
251 -288 2329
258 -288 2329
264 -288 2327
271 -288 2325
271 -280 2265
281 -285 2298
289 -286 2305
297 -287 2312
303 -287 2310
311 -287 2316
316 -286 2307
323 -287 2308
330 -286 2305
336 -286 2303
343 -287 2306
349 -286 2296
353 -284 2278
352 -277 2227
361 -279 2242
364 -277 2219
380 -284 2280
386 -284 2276
394 -284 2278
406 -289 2311
407 -285 2277
416 -286 2287
422 -286 2283
428 -286 2281
435 -286 2279
440 -285 2271
446 -284 2266
453 -285 2268
460 -285 2268
466 -284 2262
473 -285 2263
479 -284 2259
482 -282 2243
491 -284 2251
496 -283 2243
502 -283 2241
509 -283 2243
517 -284 2246
530 -287 2272
531 -284 2246
535 -283 2233
537 -280 2213
549 -283 2234
552 -281 2218
564 -284 2241
579 -289 2272
577 -284 2235
580 -283 2221
589 -284 2228
594 -283 2219
597 -281 2207
602 -281 2200
609 -281 2200
623 -284 2224
630 -285 2224
635 -284 2217
645 -286 2229
654 -287 2236
656 -285 2217
665 -286 2224
671 -285 2220
677 -285 2215
683 -285 2212
695 -287 2228
682 -279 2164
695 -282 2182
675 -271 2099
708 -282 2179
710 -280 2162
710 -278 2141
711 -276 2124
729 -280 2156
730 -278 2137
734 -277 2130
738 -276 2121
755 -280 2148
767 -282 2162
767 -280 2142
768 -278 2125
778 -279 2132
782 -279 2124
794 -281 2137
799 -280 2130
805 -280 2127
813 -281 2130
819 -280 2124
825 -280 2123
830 -280 2116
833 -279 2107
844 -280 2115
849 -280 2108
857 -280 2111
865 -281 2112
871 -281 2107
876 -280 2102
885 -281 2106
890 -281 2099
899 -282 2104
905 -281 2099
909 -281 2092
913 -280 2083
921 -281 2085
930 -281 2087
937 -281 2086
943 -282 2084
948 -281 2077
963 -284 2093
956 -280 2060
979 -285 2094
1016 -294 2157
993 -285 2090
982 -280 2050
989 -280 2050
