VERSION 0.7
FIELDS x y z
SIZE 4 4 4
TYPE I I I
COUNT 1 1 1
WIDTH 3427
HEIGHT 1
VIEWPOINT 0.0 0.0 0.0 1.0 0.0 0.0 0.0
POINTS 3427
DATA ascii
-210 -1131 3108
-202 -1139 3131
-192 -1136 3124
-182 -1133 3115
-173 -1132 3114
-165 -1142 3140
-154 -1135 3122
-145 -1138 3129
-137 -1146 3153
-127 -1140 3137
-117 -1135 3123
-107 -1129 3106
-99 -1148 3157
-89 -1148 3158
-80 -1144 3148
-70 -1147 3156
-61 -1150 3162
-51 -1146 3153
-42 -1150 3162
-33 -1155 3176
-23 -1142 3141
-13 -1148 3158
-4 -1150 3163
5 -1138 3130
14 -1144 3146
24 -1152 3168
33 -1141 3137
43 -1155 3175
51 -1127 3098
59 -1101 3025
52 -828 2276
54 -750 2061
55 -690 1896
58 -651 1788
60 -623 1710
69 -654 1797
68 -600 1647
74 -606 1662
78 -599 1645
86 -624 1713
91 -618 1696
96 -621 1702
115 -707 1938
132 -776 2127
198 -1113 3050
216 -1162 3185
231 -1191 3262
239 -1180 3234
248 -1177 3223
262 -1197 3276
266 -1168 3198
277 -1174 3214
293 -1200 3284
300 -1190 3254
309 -1187 3246
322 -1199 3277
330 -1191 3254
339 -1191 3252
350 -1194 3259
365 -1211 3305
371 -1198 3268
384 -1208 3294
390 -1194 3256
401 -1198 3266
406 -1183 3223
417 -1187 3232
428 -1190 3240
448 -1220 3320
0 0 0
451 -1174 3193
460 -1173 3187
467 -1166 3168
484 -1184 3214
491 -1177 3193
507 -1193 3236
513 -1184 3212
525 -1189 3223
534 -1187 3214
539 -1176 3184
551 -1181 3196
563 -1185 3206
576 -1193 3225
586 -1193 3223
593 -1188 3209
602 -1185 3199
621 -1205 3250
628 -1199 3231
642 -1207 3251
646 -1195 3219
661 -1204 3241
662 -1188 3195
661 -1169 3141
646 -1126 3024
643 -1105 2967
633 -1073 2879
608 -1016 2723
584 -962 2578
599 -974 2607
567 -910 2435
563 -892 2384
468 -730 1950
0 0 0
165 -247 659
88 -128 341
137 -199 530
151 -217 577
122 -172 458
83 -115 304
121 -167 444
43 -56 147
89 -118 314
0 0 0
0 0 0
0 0 0
0 0 0
0 0 0
0 0 0
0 0 0
0 0 0
0 0 0
0 0 0
0 0 0
0 0 0
0 0 0
0 0 0
0 0 0
0 0 0
0 0 0
0 0 0
0 0 0
0 0 0
0 0 0
0 0 0
0 0 0
0 0 0
0 0 0
0 0 0
0 0 0
0 0 0
1014 -1057 2727
1064 -1100 2836
1080 -1108 2851
1079 -1096 2819
1076 -1085 2786
1113 -1113 2855
1090 -1082 2771
1095 -1077 2756
1116 -1089 2784
1106 -1071 2733
1093 -1050 2677
1087 -1036 2637
1062 -1004 2554
1053 -988 2510
1105 -1029 2611
1093 -1010 2559
1094 -1004 2539
1096 -997 2520
1121 -1013 2556
1128 -1012 2550
1109 -988 2485
1116 -986 2479
1116 -979 2458
1097 -956 2396
1094 -946 2368
1121 -963 2407
1135 -968 2416
1125 -953 2374
1109 -933 2321
1102 -921 2288
1103 -916 2272
1108 -914 2263
1119 -916 2266
1128 -917 2265
1122 -907 2236
1121 -900 2215
1117 -891 2190
1117 -885 2172
1113 -876 2147
1116 -873 2135
1122 -872 2129
1134 -876 2136
1131 -868 2112
1137 -867 2108
1125 -853 2068
1123 -846 2049
1134 -849 2053
1118 -832 2008
1142 -844 2034
1140 -838 2015
1145 -837 2009
1139 -827 1983
1144 -826 1977
1140 -818 1954
1158 -826 1969
1157 -821 1953
1148 -810 1923
-774 -514 1250
-761 -509 1239
-751 -505 1232
-726 -491 1200
-645 -439 1074
-496 -339 832
-493 -339 834
-488 -338 831
-471 -328 809
-494 -346 854
-484 -341 844
-483 -343 848
-473 -337 837
-461 -331 823
-463 -334 832
-462 -336 838
-462 -338 844
-463 -341 852
-474 -351 879
-464 -346 867
-521 -390 981
-888 -670 1687
-1065 -808 2038
-1056 -807 2037
-1053 -810 2047
-1045 -809 2050
-1039 -810 2053
-1032 -810 2057
-1023 -808 2055
-1013 -805 2051
-1009 -808 2060
-1002 -807 2062
-989 -803 2052
-983 -803 2057
-972 -800 2051
-952 -789 2025
-957 -799 2054
-957 -805 2071
-947 -802 2067
-937 -799 2063
-926 -796 2056
-906 -784 2028
-899 -783 2030
-878 -771 1999
-879 -778 2020
-872 -777 2021
-856 -769 2001
-856 -775 2019
-841 -767 2002
-825 -759 1982
-813 -753 1970
-804 -751 1965
-799 -752 1970
-811 -769 2018
-781 -747 1962
-781 -753 1980
-759 -738 1942
-751 -736 1940
-757 -749 1974
-745 -743 1961
-743 -747 1975
-751 -762 2014
-750 -767 2031
-734 -758 2008
-721 -750 1990
-721 -757 2009
-726 -769 2044
-711 -760 2022
-698 -753 2006
-690 -751 2002
-698 -767 2045
-683 -757 2021
-682 -764 2041
-668 -756 2020
-655 -748 2002
-661 -761 2039
-649 -756 2026
-649 -763 2046
-639 -758 2035
-632 -758 2036
-626 -758 2039
-616 -754 2029
-611 -756 2036
-608 -759 2046
-605 -764 2061
-597 -763 2059
-589 -760 2053
-574 -749 2025
-564 -744 2013
-562 -750 2029
-559 -755 2045
-559 -763 2069
-557 -770 2087
-545 -761 2065
-537 -759 2061
-530 -758 2061
-524 -759 2064
-520 -762 2073
-510 -758 2062
-509 -764 2082
-495 -754 2056
-493 -760 2072
-486 -759 2072
-479 -759 2071
-475 -763 2084
-476 -775 2118
-483 -796 2177
-470 -786 2150
-546 -925 2532
-582 -1000 2739
-624 -1089 2984
-628 -1111 3044
-598 -1075 2947
-599 -1093 2999
-621 -1151 3158
-618 -1162 3191
-689 -1317 3616
-691 -1342 3689
0 0 0
0 0 0
0 0 0
0 0 0
0 0 0
0 0 0
0 0 0
0 0 0
-585 -1331 3670
-619 -1435 3959
-608 -1439 3971
-598 -1444 3985
-587 -1447 3995
-571 -1436 3965
-562 -1445 3993
-548 -1440 3980
-541 -1452 4014
-531 -1459 4034
-513 -1444 3994
-506 -1458 4032
-497 -1466 4057
-483 -1463 4048
-468 -1453 4022
-459 -1464 4052
-448 -1468 4064
-435 -1466 4059
-416 -1441 3992
-403 -1438 3985
-390 -1437 3983
-398 -1511 4189
-415 -1626 4509
-1 -14 40
-398 -1671 4633
-291 -1269 3519
-251 -1136 3151
-235 -1108 3072
-223 -1091 3028
-217 -1107 3071
-207 -1104 3064
-193 -1079 2994
-187 -1094 3037
-178 -1097 3046
-168 -1092 3032
-161 -1111 3083
-150 -1096 3044
-145 -1123 3118
-134 -1113 3091
-124 -1111 3086
-114 -1104 3065
-108 -1134 3149
-98 -1132 3143
-88 -1121 3112
-80 -1140 3166
-70 -1129 3134
-60 -1132 3142
-52 -1154 3205
-42 -1142 3172
-32 -1134 3149
-23 -1137 3157
-13 -1145 3178
-4 -1133 3146
5 -1151 3195
14 -1135 3150
24 -1144 3175
33 -1125 3121
43 -1135 3150
51 -1118 3101
58 -1072 2975
55 -868 2408
56 -778 2159
58 -717 1989
60 -675 1871
63 -646 1790
71 -667 1850
76 -662 1835
77 -629 1742
89 -682 1889
95 -683 1890
96 -646 1790
111 -713 1973
122 -741 2052
142 -823 2278
204 -1137 3145
218 -1159 3206
230 -1173 3244
237 -1159 3204
250 -1178 3255
257 -1164 3216
268 -1167 3224
276 -1163 3211
290 -1178 3252
300 -1180 3257
307 -1168 3222
317 -1172 3232
327 -1172 3233
338 -1176 3242
355 -1202 3311
356 -1172 3228
367 -1174 3233
381 -1187 3267
392 -1192 3281
398 -1180 3245
410 -1185 3259
416 -1176 3231
424 -1169 3211
419 -1131 3106
441 -1162 3191
441 -1138 3123
456 -1153 3164
465 -1152 3157
479 -1162 3185
488 -1160 3177
499 -1163 3183
512 -1171 3205
524 -1175 3215
536 -1181 3229
545 -1180 3223
557 -1183 3232
562 -1173 3203
573 -1177 3212
587 -1185 3231
596 -1183 3225
604 -1180 3215
620 -1192 3245
633 -1197 3257
635 -1183 3218
651 -1195 3247
658 -1189 3231
655 -1167 3167
656 -1151 3123
645 -1115 3022
626 -1067 2890
623 -1046 2833
591 -978 2647
584 -954 2581
572 -922 2492
568 -903 2438
554 -869 2345
490 -758 2045
0 0 0
157 -234 629
137 -200 539
137 -197 531
0 0 0
0 0 0
0 0 0
0 0 0
0 0 0
64 -83 221
7 -4 10
1264 -1702 4548
0 0 0
0 0 0
0 0 0
0 0 0
0 0 0
0 0 0
0 0 0
0 0 0
0 0 0
0 0 0
0 0 0
0 0 0
0 0 0
0 0 0
0 0 0
0 0 0
0 0 0
0 0 0
0 0 0
0 0 0
0 0 0
0 0 0
0 0 0
0 0 0
0 0 0
0 0 0
1023 -1057 2753
1073 -1101 2863
1076 -1094 2842
1087 -1096 2844
1088 -1088 2819
1099 -1090 2822
1097 -1079 2790
1103 -1076 2781
1085 -1050 2709
1051 -1009 2600
1103 -1050 2704
1056 -998 2564
1071 -1005 2579
1084 -1009 2588
1123 -1037 2655
1087 -996 2548
1118 -1017 2597
1119 -1010 2577
1103 -988 2518
1100 -978 2489
1115 -985 2503
1108 -971 2463
1103 -960 2433
1113 -962 2433
1086 -932 2355
1081 -921 2324
1099 -930 2343
1051 -883 2222
1103 -921 2312
1113 -922 2313
1112 -916 2293
1109 -907 2268
1122 -911 2275
1128 -910 2268
1136 -910 2265
1134 -903 2245
1123 -888 2204
1114 -876 2169
1119 -874 2161
1120 -869 2146
1126 -868 2140
1121 -858 2112
1137 -866 2127
1124 -850 2085
1113 -836 2048
1126 -841 2057
1132 -840 2051
1141 -842 2051
1139 -835 2032
1153 -840 2040
1136 -823 1995
1146 -826 1997
1151 -824 1991
1148 -817 1969
1153 -816 1964
1146 -807 1937
1146 -802 1923
-722 -476 1169
-710 -471 1158
-657 -438 1079
-620 -415 1025
-563 -380 939
-500 -339 840
-489 -334 828
-492 -337 838
-488 -337 839
-479 -333 830
-471 -329 823
-471 -331 828
-475 -336 841
-467 -333 835
-463 -332 834
-455 -328 826
-454 -329 830
-463 -338 854
-497 -365 923
-459 -339 860
-551 -409 1039
-1002 -749 1905
-1067 -804 2046
-1065 -807 2058
-1052 -802 2049
-1051 -806 2062
-1042 -805 2061
-1031 -802 2056
-1022 -800 2055
-1016 -801 2061
-1009 -801 2063
-1001 -800 2062
-992 -798 2062
-987 -800 2069
-966 -788 2040
-950 -781 2025
-960 -795 2063
-952 -794 2063
-945 -793 2064
-937 -792 2065
-923 -786 2050
-905 -776 2027
-882 -762 1993
-882 -768 2012
-879 -771 2021
-875 -774 2031
-865 -770 2024
-859 -770 2027
-836 -756 1992
-824 -751 1981
-821 -754 1992
-817 -756 1999
-807 -753 1993
-807 -759 2012
-793 -752 1993
-766 -732 1943
-730 -704 1870
-760 -739 1966
-760 -745 1983
-756 -747 1990
-751 -749 1997
-758 -762 2034
-755 -766 2047
-719 -735 1968
-706 -728 1950
-728 -758 2033
-721 -758 2033
-710 -753 2021
-709 -759 2040
-690 -745 2004
-688 -750 2018
-684 -752 2027
-682 -757 2042
-666 -746 2014
-661 -748 2020
-655 -748 2024
-654 -755 2043
-652 -759 2057
-642 -756 2049
-629 -748 2030
-618 -743 2017
-614 -745 2025
-613 -752 2045
-609 -754 2052
-604 -756 2059
-602 -762 2075
-592 -758 2066
-577 -746 2036
-567 -742 2025
-559 -740 2021
-563 -753 2060
-559 -756 2069
-551 -754 2065
-543 -753 2062
-536 -751 2058
-532 -755 2072
-525 -754 2071
-517 -751 2064
-509 -749 2058
-509 -758 2085
-494 -746 2054
-490 -750 2063
-487 -755 2078
-477 -749 2064
-472 -752 2072
-474 -765 2110
-515 -843 2326
-555 -920 2540
-550 -925 2555
-582 -992 2742
-602 -1041 2878
-603 -1058 2927
-620 -1104 3056
-614 -1111 3077
-604 -1109 3073
-617 -1151 3189
-691 -1309 3629
-722 -1391 3857
0 0 0
0 0 0
0 0 0
0 0 0
0 0 0
0 0 0
0 0 0
0 0 0
-575 -1299 3616
-601 -1382 3849
-594 -1395 3884
-595 -1425 3969
-587 -1435 4000
-573 -1430 3985
-567 -1447 4034
-550 -1433 3998
-542 -1443 4025
-529 -1442 4025
-520 -1452 4052
-510 -1456 4065
-493 -1443 4029
-484 -1453 4058
-468 -1442 4030
-457 -1446 4042
-445 -1446 4041
-431 -1442 4031
-417 -1434 4009
-403 -1428 3994
-395 -1444 4038
-396 -1490 4170
-429 -1667 4664
-4 -26 72
0 -9 25
-350 -1508 4222
-257 -1156 3236
-242 -1129 3162
-225 -1095 3066
-219 -1111 3111
-210 -1112 3114
-201 -1113 3119
-192 -1115 3123
-180 -1104 3093
-172 -1109 3108
-162 -1107 3103
-149 -1079 3024
-145 -1116 3128
-135 -1111 3115
-126 -1113 3120
-115 -1098 3078
-105 -1096 3070
-97 -1104 3094
-87 -1103 3092
-79 -1121 3140
-70 -1117 3130
-60 -1121 3140
-51 -1115 3124
-41 -1111 3113
-32 -1127 3158
-22 -1114 3120
-13 -1121 3141
-4 -1121 3140
5 -1120 3138
14 -1118 3133
24 -1120 3136
33 -1122 3143
41 -1092 3058
51 -1105 3095
57 -1030 2885
55 -870 2434
63 -875 2449
70 -866 2425
76 -848 2373
73 -747 2091
78 -728 2036
86 -747 2089
89 -719 2010
100 -757 2116
115 -821 2296
121 -816 2281
120 -766 2141
123 -741 2071
167 -964 2693
204 -1128 3150
215 -1137 3176
228 -1155 3225
236 -1147 3201
247 -1151 3210
257 -1153 3216
266 -1152 3211
280 -1168 3256
291 -1173 3268
296 -1155 3218
309 -1166 3246
323 -1184 3296
330 -1172 3263
340 -1174 3265
347 -1162 3233
357 -1165 3240
368 -1167 3245
376 -1163 3232
382 -1151 3198
404 -1187 3296
413 -1183 3285
423 -1184 3284
425 -1163 3224
446 -1194 3309
0 0 0
452 -1157 3203
462 -1157 3204
471 -1155 3198
478 -1150 3182
491 -1156 3197
499 -1153 3186
514 -1165 3219
523 -1165 3215
534 -1167 3222
544 -1168 3222
553 -1165 3211
564 -1167 3216
576 -1174 3233
587 -1175 3233
594 -1170 3218
605 -1173 3224
615 -1172 3222
621 -1165 3199
637 -1176 3228
641 -1166 3199
654 -1172 3213
651 -1150 3150
657 -1142 3128
655 -1123 3075
627 -1059 2897
630 -1050 2869
614 -1009 2756
572 -927 2529
580 -927 2528
568 -896 2443
584 -909 2476
529 -812 2212
0 0 0
0 0 0
0 0 0
0 0 0
0 0 0
0 0 0
0 0 0
0 0 0
0 0 0
45 -56 150
31 -36 98
0 0 0
0 0 0
0 0 0
0 0 0
0 0 0
0 0 0
0 0 0
0 0 0
0 0 0
0 0 0
0 0 0
0 0 0
0 0 0
0 0 0
0 0 0
0 0 0
0 0 0
0 0 0
0 0 0
0 0 0
0 0 0
1084 -1172 3101
1050 -1124 2972
1029 -1093 2885
0 0 0
0 0 0
0 0 0
995 -1020 2681
1070 -1088 2858
1075 -1084 2842
1085 -1085 2841
1087 -1077 2819
1103 -1085 2835
1090 -1063 2775
1112 -1076 2807
1087 -1043 2716
1062 -1011 2629
1105 -1044 2712
1091 -1023 2654
1109 -1031 2673
1082 -998 2583
1111 -1018 2631
1110 -1008 2604
1101 -993 2560
1106 -990 2551
1116 -992 2551
1110 -980 2516
1119 -980 2513
1107 -963 2466
1148 -991 2535
1074 -920 2351
1065 -906 2312
1111 -939 2391
1100 -923 2347
1105 -920 2338
1109 -918 2327
1101 -905 2290
1119 -913 2309
1118 -907 2289
1126 -906 2285
1131 -904 2276
1131 -899 2258
1138 -898 2254
1121 -879 2202
1119 -872 2181
1114 -862 2153
1120 -861 2147
1123 -858 2137
1129 -857 2130
1119 -844 2094
1127 -845 2094
1126 -839 2075
1121 -831 2050
1129 -831 2048
1137 -832 2046
1141 -830 2038
1144 -827 2027
1138 -818 2002
1142 -816 1993
1139 -809 1972
1157 -817 1988
1143 -802 1948
1149 -801 1943
1146 -795 1925
-703 -460 1139
-694 -456 1133
-684 -452 1125
-659 -438 1092
-530 -355 885
-499 -336 839
-487 -330 826
-482 -328 823
-481 -330 829
-483 -333 838
-475 -329 831
-472 -329 831
-473 -332 839
-465 -328 831
-470 -334 847
-466 -333 847
-470 -338 861
-447 -323 824
-457 -333 850
-477 -349 894
-586 -432 1108
-1046 -776 1991
-1070 -798 2053
-1067 -801 2063
-1056 -798 2058
-1053 -801 2069
-1039 -796 2059
-1030 -794 2057
-1026 -797 2066
-1018 -796 2067
-1010 -795 2067
-996 -790 2056
-991 -791 2062
-979 -787 2054
-966 -782 2043
-953 -776 2032
-957 -785 2058
-950 -785 2059
-946 -788 2070
-939 -787 2071
-928 -783 2064
-903 -768 2025
-894 -766 2022
-884 -763 2018
-887 -771 2042
-870 -763 2021
-863 -762 2023
-856 -762 2023
-838 -751 1997
-838 -758 2017
-844 -768 2048
-826 -759 2024
-818 -757 2022
-814 -759 2030
-784 -737 1974
-761 -721 1933
-751 -718 1926
-759 -731 1964
-756 -735 1976
-756 -741 1994
-752 -744 2003
-750 -748 2017
-748 -752 2030
-723 -733 1981
-716 -732 1980
-728 -752 2034
-728 -758 2053
-708 -744 2018
-707 -750 2036
-697 -746 2027
-686 -741 2015
-683 -745 2026
-689 -758 2064
-666 -740 2017
-660 -741 2021
-658 -746 2036
-654 -748 2043
-648 -749 2048
-639 -745 2040
-629 -742 2033
-622 -740 2029
-616 -741 2033
-609 -740 2032
-606 -745 2046
-604 -750 2061
-600 -753 2071
-591 -750 2066
-580 -744 2050
-568 -736 2030
-566 -743 2049
-559 -742 2048
-554 -744 2054
-553 -751 2075
-546 -750 2075
-534 -742 2054
-531 -747 2067
-522 -744 2061
-516 -744 2064
-514 -750 2080
-502 -742 2061
-497 -744 2067
-487 -739 2054
-482 -740 2058
-479 -747 2077
-481 -760 2114
-482 -770 2145
-526 -853 2377
-570 -937 2611
-615 -1025 2858
-601 -1016 2835
-609 -1045 2918
-622 -1082 3022
-607 -1073 2998
-616 -1105 3090
-611 -1114 3114
-627 -1159 3244
-705 -1325 3709
-700 -1337 3745
0 0 0
0 0 0
0 0 0
0 0 0
0 0 0
0 0 0
0 0 0
0 0 0
-556 -1245 3497
-559 -1277 3588
-563 -1311 3687
-595 -1412 3971
-585 -1417 3985
-576 -1425 4009
-569 -1439 4050
-557 -1439 4051
-540 -1426 4017
-527 -1425 4013
-518 -1434 4040
-505 -1430 4031
-489 -1420 4002
-477 -1421 4008
-466 -1424 4017
-452 -1419 4002
-438 -1413 3987
-431 -1427 4028
-416 -1419 4006
-403 -1416 3998
-399 -1445 4080
-405 -1514 4275
-435 -1678 4739
-5 -32 90
-5 -31 87
-389 -1661 4694
-266 -1184 3345
-237 -1100 3108
-229 -1104 3120
-215 -1083 3061
-208 -1092 3088
-201 -1105 3123
-190 -1099 3107
-183 -1108 3134
-173 -1106 3127
-163 -1103 3118
-154 -1106 3128
-143 -1090 3084
-136 -1112 3145
-126 -1107 3130
-117 -1109 3137
-110 -1131 3200
-98 -1106 3129
-88 -1105 3126
-79 -1103 3120
-69 -1096 3100
-59 -1096 3101
-51 -1106 3128
-41 -1091 3086
-32 -1101 3115
-22 -1106 3129
-13 -1099 3109
-4 -1106 3127
5 -1101 3115
14 -1094 3093
23 -1097 3103
33 -1099 3108
42 -1083 3061
51 -1079 3049
58 -1046 2955
61 -944 2668
69 -951 2687
78 -960 2712
86 -959 2708
82 -832 2348
96 -901 2545
105 -910 2568
104 -843 2379
118 -895 2526
135 -960 2708
149 -999 2819
147 -935 2638
155 -932 2627
191 -1098 3095
204 -1119 3154
216 -1132 3190
228 -1145 3226
237 -1140 3211
246 -1137 3201
256 -1140 3208
268 -1148 3231
278 -1148 3230
287 -1148 3228
299 -1155 3248
309 -1155 3248
318 -1153 3240
328 -1156 3248
340 -1163 3268
350 -1163 3266
359 -1160 3256
370 -1163 3264
375 -1150 3225
385 -1151 3227
392 -1141 3198
409 -1164 3260
416 -1156 3237
425 -1153 3228
438 -1162 3252
0 0 0
448 -1136 3177
456 -1133 3166
466 -1133 3166
480 -1144 3194
485 -1133 3161
500 -1147 3199
511 -1148 3202
523 -1153 3214
530 -1149 3201
538 -1144 3184
554 -1159 3225
556 -1142 3176
575 -1160 3224
579 -1150 3195
595 -1161 3224
601 -1154 3204
613 -1159 3214
624 -1162 3220
630 -1154 3196
640 -1154 3197
660 -1172 3243
658 -1151 3184
655 -1130 3125
644 -1095 3025
633 -1060 2928
615 -1015 2801
616 -1004 2768
584 -939 2586
585 -927 2553
574 -897 2469
563 -869 2389
496 -754 2072
0 0 0
0 0 0
0 0 0
0 0 0
0 0 0
0 0 0
0 0 0
0 0 0
0 0 0
38 -47 128
0 0 0
1264 -1674 4558
1276 -1670 4544
0 0 0
0 0 0
0 0 0
0 0 0
0 0 0
0 0 0
0 0 0
0 0 0
0 0 0
0 0 0
0 0 0
0 0 0
0 0 0
0 0 0
0 0 0
0 0 0
0 0 0
0 0 0
1055 -1141 3051
1064 -1140 3046
1067 -1133 3024
1084 -1141 3041
0 0 0
0 0 0
0 0 0
0 0 0
1062 -1071 2839
1071 -1070 2834
1085 -1075 2845
1092 -1074 2837
1080 -1053 2780
1118 -1081 2850
1086 -1041 2741
1090 -1037 2727
1089 -1028 2700
1075 -1006 2640
1098 -1021 2674
1104 -1018 2663
1120 -1025 2679
1114 -1012 2640
1118 -1007 2626
1106 -990 2576
1121 -995 2587
1104 -973 2526
1095 -958 2483
1093 -949 2457
1082 -933 2412
1084 -928 2396
1097 -932 2403
1095 -924 2378
1094 -916 2356
1111 -924 2372
1102 -910 2334
1121 -920 2355
1119 -911 2330
1124 -910 2322
1136 -913 2328
1119 -894 2274
1132 -898 2282
1124 -885 2246
1126 -882 2233
1123 -873 2209
1105 -854 2157
1109 -851 2146
1119 -854 2149
1117 -846 2127
1135 -855 2145
1127 -843 2112
1122 -834 2086
1131 -836 2087
1136 -835 2080
1144 -836 2079
1134 -823 2044
1140 -822 2039
1145 -821 2031
1144 -815 2014
1147 -812 2003
1144 -806 1984
1143 -801 1967
1143 -795 1951
1150 -796 1949
1141 -785 1919
-702 -455 1139
-707 -461 1155
-701 -459 1154
-676 -446 1122
-525 -348 878
-494 -329 831
-499 -335 846
-489 -330 836
-487 -331 839
-480 -328 833
-474 -326 830
-465 -321 820
-472 -328 839
-468 -328 839
-459 -323 829
-464 -329 844
-480 -342 880
-480 -344 887
-459 -332 855
-477 -347 896
-637 -465 1204
-1061 -780 2022
-1071 -792 2057
-1062 -791 2056
-1055 -791 2060
-1047 -790 2061
-1041 -790 2064
-1030 -787 2059
-1026 -789 2067
-1014 -786 2062
-1008 -786 2065
-997 -784 2060
-987 -781 2055
-982 -782 2062
-969 -778 2053
-948 -766 2024
-955 -777 2057
-947 -776 2056
-943 -778 2065
-933 -775 2060
-918 -769 2046
-897 -757 2015
-897 -762 2033
-883 -755 2017
-880 -759 2029
-869 -755 2020
-858 -751 2013
-852 -752 2017
-844 -750 2014
-838 -751 2018
-839 -757 2039
-830 -755 2035
-820 -752 2029
-810 -750 2024
-794 -740 2000
-777 -730 1975
-762 -722 1956
-773 -739 2003
-767 -739 2005
-755 -733 1992
-754 -739 2009
-753 -745 2027
-736 -734 2000
-713 -717 1956
-705 -715 1953
-718 -735 2008
-730 -754 2063
-702 -732 2004
-700 -736 2016
-696 -739 2027
-693 -742 2037
-686 -741 2036
-677 -739 2032
-665 -733 2018
-651 -724 1994
-650 -730 2013
-651 -738 2037
-646 -740 2042
-640 -741 2047
-638 -746 2063
-620 -733 2028
-619 -738 2044
-616 -743 2058
-609 -742 2057
-604 -744 2066
-600 -747 2075
-585 -735 2044
-577 -734 2041
-566 -728 2027
-567 -738 2055
-560 -737 2053
-561 -746 2081
-547 -736 2055
-546 -744 2076
-536 -739 2065
-537 -749 2094
-528 -746 2087
-515 -736 2060
-509 -737 2065
-498 -730 2047
-494 -734 2057
-492 -740 2076
-483 -736 2067
-479 -739 2076
-474 -742 2085
-490 -777 2185
-537 -864 2429
-571 -931 2619
-605 -1000 2815
-616 -1032 2908
-623 -1060 2987
-623 -1076 3033
-603 -1057 2982
-609 -1084 3058
-602 -1088 3072
-629 -1155 3261
-694 -1293 3654
-694 -1314 3714
-674 -1297 3668
0 0 0
0 0 0
0 0 0
0 0 0
0 0 0
0 0 0
-554 -1206 3420
-535 -1189 3372
-552 -1249 3543
-566 -1306 3707
-600 -1414 4013
-596 -1431 4064
-578 -1419 4032
-570 -1428 4059
-555 -1422 4043
-538 -1410 4009
-524 -1404 3992
-513 -1407 4003
-501 -1407 4003
-488 -1405 3999
-477 -1408 4008
-464 -1406 4002
-451 -1403 3994
-439 -1404 4000
-426 -1400 3989
-415 -1405 4003
-403 -1404 4002
-400 -1437 4095
-411 -1520 4334
1 -4 12
-5 -32 91
-3 -26 73
-383 -1623 4628
-254 -1123 3203
-235 -1080 3082
-223 -1068 3047
-215 -1071 3057
-207 -1080 3082
-194 -1061 3028
-189 -1080 3082
-177 -1066 3043
-173 -1095 3127
-161 -1083 3093
-151 -1079 3080
-145 -1100 3141
-134 -1088 3107
-126 -1095 3128
-117 -1101 3144
-107 -1094 3125
-96 -1078 3079
-88 -1099 3140
-79 -1094 3124
-69 -1095 3127
-59 -1089 3109
-50 -1091 3117
-41 -1093 3121
-32 -1090 3113
-22 -1103 3149
-13 -1091 3115
-3 -1083 3092
5 -1099 3137
14 -1084 3093
23 -1089 3108
32 -1071 3056
42 -1078 3077
51 -1070 3052
59 -1051 2998
65 -1011 2885
72 -979 2793
79 -961 2742
88 -977 2787
96 -966 2755
105 -981 2796
115 -991 2825
122 -978 2788
126 -948 2700
142 -1006 2864
151 -1004 2859
164 -1031 2937
175 -1047 2981
194 -1104 3141
206 -1117 3177
215 -1118 3180
227 -1129 3210
236 -1123 3194
247 -1132 3217
258 -1139 3236
267 -1133 3220
277 -1134 3222
282 -1119 3176
294 -1127 3198
306 -1137 3226
314 -1130 3205
325 -1132 3211
336 -1139 3228
352 -1158 3281
349 -1117 3165
366 -1142 3235
376 -1141 3230
388 -1148 3248
395 -1140 3224
406 -1143 3232
408 -1122 3171
426 -1145 3236
417 -1097 3097
0 0 0
431 -1084 3060
452 -1114 3142
466 -1125 3171
475 -1122 3164
491 -1137 3203
498 -1132 3189
510 -1137 3201
518 -1134 3191
533 -1144 3218
544 -1147 3223
548 -1136 3190
557 -1135 3186
569 -1139 3197
583 -1148 3219
592 -1145 3209
601 -1145 3207
614 -1151 3223
619 -1142 3196
633 -1150 3217
635 -1135 3174
648 -1141 3189
654 -1135 3170
643 -1100 3070
646 -1089 3037
645 -1071 2985
636 -1041 2900
597 -963 2681
581 -925 2572
586 -920 2557
587 -910 2527
576 -882 2447
0 0 0
0 0 0
0 0 0
0 0 0
0 0 0
0 0 0
0 0 0
0 0 0
132 -176 485
118 -156 429
63 -79 219
51 -63 174
1271 -1668 4586
0 0 0
0 0 0
0 0 0
0 0 0
0 0 0
0 0 0
0 0 0
0 0 0
0 0 0
0 0 0
0 0 0
0 0 0
0 0 0
0 0 0
0 0 0
0 0 0
0 0 0
0 0 0
0 0 0
1092 -1171 3161
1092 -1160 3129
1092 -1150 3098
1073 -1120 3014
1090 -1127 3031
0 0 0
0 0 0
0 0 0
1058 -1058 2831
1061 -1051 2810
1087 -1068 2852
1087 -1059 2825
1080 -1044 2781
1102 -1057 2812
1050 -998 2654
1107 -1045 2774
1105 -1034 2742
1105 -1026 2718
1097 -1011 2673
1102 -1007 2661
1103 -1001 2641
1101 -991 2611
1099 -982 2584
1106 -981 2577
1112 -979 2570
1104 -965 2529
1096 -950 2488
1094 -941 2461
1092 -933 2437
1084 -920 2399
1095 -922 2402
1114 -932 2423
1107 -920 2387
1114 -918 2381
1117 -915 2368
1115 -907 2344
1139 -920 2376
1129 -906 2335
1114 -888 2286
1118 -885 2274
1114 -876 2247
1119 -874 2240
1108 -860 2200
1092 -842 2150
1106 -847 2160
1117 -850 2165
1118 -845 2149
1121 -842 2137
1128 -843 2135
1138 -844 2135
1119 -825 2082
1125 -824 2078
1142 -832 2094
1130 -818 2054
1143 -822 2063
1138 -813 2036
1138 -809 2022
1151 -813 2028
1143 -803 1999
1147 -801 1990
1141 -792 1964
1142 -788 1951
1136 -779 1927
1137 -776 1915
-735 -472 1194
-728 -470 1191
-718 -467 1184
-692 -452 1150
-514 -338 861
-492 -326 830
-503 -335 855
-488 -327 836
-485 -327 838
-472 -320 821
-470 -320 823
-480 -329 847
-472 -325 839
-461 -320 827
-459 -320 829
-461 -324 840
-466 -329 855
-477 -339 883
-484 -347 903
-500 -360 940
-711 -515 1346
-1071 -780 2043
-1068 -784 2055
-1064 -785 2062
-1056 -785 2064
-1047 -783 2063
-1040 -783 2065
-1030 -781 2063
-1023 -781 2065
-1013 -778 2061
-1008 -780 2068
-997 -777 2062
-990 -776 2064
-981 -774 2062
-958 -762 2030
-951 -761 2032
-958 -773 2065
-951 -772 2067
-943 -772 2068
-937 -772 2072
-921 -764 2053
-894 -747 2011
-893 -753 2027
-876 -744 2005
-879 -751 2028
-872 -751 2029
-869 -754 2041
-854 -747 2023
-846 -745 2021
-837 -743 2019
-832 -745 2024
-834 -753 2048
-812 -739 2012
-816 -748 2040
-792 -732 1999
-756 -705 1925
-752 -706 1932
-768 -728 1993
-763 -729 1998
-760 -733 2010
-750 -729 2001
-753 -738 2029
-755 -746 2052
-716 -714 1966
-713 -717 1978
-716 -727 2006
-716 -733 2024
-709 -732 2024
-699 -729 2017
-694 -730 2022
-695 -738 2045
-682 -731 2028
-676 -731 2031
-660 -721 2005
-656 -724 2014
-649 -723 2012
-652 -733 2043
-645 -733 2043
-640 -735 2050
-630 -730 2039
-621 -727 2031
-616 -728 2037
-607 -726 2032
-606 -732 2051
-602 -735 2061
-600 -740 2077
-589 -735 2063
-573 -723 2030
-571 -729 2048
-573 -739 2077
-556 -725 2040
-552 -729 2052
-550 -734 2070
-540 -730 2058
-528 -721 2035
-529 -731 2064
-524 -733 2072
-520 -736 2081
-509 -731 2067
-499 -726 2054
-497 -731 2070
-489 -728 2064
-485 -732 2075
-480 -735 2086
-486 -754 2138
-505 -794 2253
-586 -934 2654
-600 -969 2752
-604 -990 2815
-625 -1038 2952
-611 -1030 2931
-611 -1045 2976
-603 -1047 2982
-610 -1076 3066
-601 -1077 3069
-636 -1156 3297
-697 -1288 3676
-674 -1266 3612
0 0 0
0 0 0
0 0 0
0 0 0
0 0 0
0 0 0
0 0 0
-542 -1172 3355
-545 -1200 3437
-551 -1236 3540
-565 -1294 3708
-599 -1399 4011
-590 -1407 4033
-578 -1407 4036
-570 -1416 4062
-553 -1405 4030
-542 -1408 4041
-526 -1398 4015
-515 -1402 4025
-503 -1402 4027
-490 -1400 4023
-479 -1402 4029
-465 -1397 4016
-454 -1400 4024
-441 -1396 4014
-428 -1396 4014
-414 -1389 3995
-407 -1405 4041
-403 -1434 4127
-416 -1526 4391
-6 -33 94
-11 -53 153
1 -3 9
-376 -1582 4556
-259 -1133 3263
-239 -1089 3138
-228 -1082 3117
-219 -1082 3119
-208 -1073 3093
-199 -1077 3104
-190 -1079 3108
-179 -1066 3072
-171 -1079 3108
-163 -1084 3124
-152 -1074 3095
-143 -1076 3102
-134 -1082 3118
-125 -1080 3112
-114 -1070 3085
-106 -1076 3102
-96 -1071 3089
-87 -1079 3112
-78 -1074 3097
-69 -1081 3117
-59 -1076 3101
-50 -1078 3106
-41 -1084 3126
-32 -1086 3130
-22 -1078 3109
-13 -1076 3101
-3 -1076 3101
5 -1082 3119
14 -1081 3114
23 -1074 3093
32 -1062 3059
42 -1060 3055
50 -1056 3042
59 -1052 3029
68 -1039 2993
73 -988 2845
84 -1013 2917
93 -1020 2936
99 -996 2866
107 -990 2850
117 -999 2874
124 -985 2833
133 -992 2854
144 -1007 2895
156 -1032 2968
165 -1032 2966
181 -1075 3088
195 -1098 3155
207 -1114 3199
216 -1111 3191
225 -1107 3178
235 -1109 3183
245 -1113 3193
255 -1115 3199
260 -1096 3144
272 -1107 3173
285 -1120 3211
292 -1107 3172
301 -1108 3173
309 -1102 3157
321 -1110 3178
337 -1131 3237
344 -1121 3208
354 -1125 3216
361 -1116 3192
373 -1123 3209
384 -1126 3217
392 -1123 3208
404 -1130 3226
410 -1117 3189
424 -1130 3223
433 -1129 3219
445 -1134 3234
429 -1070 3047
453 -1105 3148
465 -1113 3168
479 -1122 3192
484 -1113 3165
496 -1118 3177
504 -1113 3162
521 -1130 3208
531 -1131 3210
531 -1110 3151
549 -1128 3199
557 -1125 3188
575 -1142 3235
580 -1132 3205
593 -1138 3221
602 -1137 3216
612 -1137 3213
621 -1134 3205
624 -1124 3173
635 -1126 3177
655 -1143 3224
660 -1136 3202
656 -1112 3132
653 -1091 3070
647 -1065 2997
625 -1015 2855
599 -959 2696
615 -971 2726
589 -918 2575
584 -898 2518
0 0 0
0 0 0
0 0 0
0 0 0
0 0 0
0 0 0
0 0 0
0 0 0
0 0 0
100 -131 365
0 0 0
53 -66 182
40 -48 133
4 -1 2
0 0 0
0 0 0
0 0 0
0 0 0
0 0 0
0 0 0
0 0 0
0 0 0
0 0 0
0 0 0
0 0 0
0 0 0
0 0 0
0 0 0
0 0 0
0 0 0
0 0 0
0 0 0
0 0 0
1074 -1142 3112
1093 -1152 3136
1070 -1117 3039
1090 -1128 3064
1101 -1130 3066
0 0 0
0 0 0
0 0 0
1047 -1037 2803
1081 -1063 2868
1097 -1069 2883
1094 -1057 2847
1069 -1025 2756
1066 -1013 2722
1112 -1048 2813
1098 -1027 2752
1104 -1024 2742
1091 -1005 2687
1087 -993 2652
1102 -999 2665
1105 -994 2649
1108 -989 2632
1094 -969 2576
1061 -933 2476
1074 -937 2484
1062 -920 2435
1098 -944 2494
1105 -943 2489
1066 -903 2380
1108 -932 2454
1122 -937 2463
1124 -932 2447
1126 -928 2432
1123 -918 2403
1123 -912 2383
1118 -902 2354
1114 -892 2325
1117 -889 2313
1122 -886 2303
1120 -879 2281
1118 -872 2259
1109 -859 2222
1109 -853 2203
1095 -837 2159
1109 -843 2169
1112 -839 2157
1115 -836 2145
1119 -833 2135
1125 -832 2130
1128 -830 2119
1129 -825 2104
1130 -821 2090
1133 -818 2078
1137 -816 2070
1137 -811 2053
1142 -810 2048
1135 -800 2019
1131 -792 1995
1136 -791 1989
1137 -787 1976
1131 -779 1951
1128 -772 1931
1145 -779 1945
1135 -767 1912
-757 -482 1231
-748 -479 1226
-734 -473 1211
-681 -441 1132
-510 -332 855
-492 -322 830
-492 -324 837
-485 -322 832
-487 -325 841
-477 -320 830
-469 -317 822
-472 -321 834
-469 -320 835
-467 -321 838
-470 -325 851
-471 -328 858
-470 -329 864
-464 -327 860
-460 -326 858
-511 -365 961
-810 -582 1536
-1072 -775 2048
-1068 -776 2056
-1059 -775 2055
-1055 -777 2065
-1046 -775 2063
-1041 -777 2069
-1028 -772 2060
-1019 -771 2059
-1013 -771 2063
-1003 -769 2060
-1000 -772 2070
-988 -768 2062
-981 -768 2066
-945 -745 2006
-949 -753 2030
-958 -766 2068
-950 -765 2067
-942 -764 2068
-933 -762 2064
-909 -748 2030
-895 -742 2015
-898 -750 2039
-888 -747 2033
-874 -740 2018
-864 -738 2015
-860 -740 2021
-846 -734 2007
-833 -728 1993
-841 -741 2031
-837 -743 2039
-825 -738 2027
-821 -740 2036
-808 -734 2022
-785 -719 1983
-753 -695 1919
-771 -718 1984
-773 -726 2008
-765 -725 2006
-753 -719 1994
-753 -725 2011
-751 -729 2024
-748 -732 2035
-726 -717 1995
-728 -726 2020
-709 -713 1987
-710 -720 2009
-710 -727 2029
-709 -733 2048
-700 -730 2043
-681 -717 2008
-688 -731 2049
-679 -728 2042
-661 -716 2009
-653 -714 2005
-648 -716 2012
-651 -726 2041
-650 -732 2060
-637 -725 2041
-631 -725 2043
-620 -720 2032
-619 -726 2050
-611 -724 2047
-606 -726 2054
-603 -729 2064
-596 -729 2064
-587 -725 2056
-570 -713 2023
-569 -719 2041
-568 -726 2060
-563 -728 2068
-556 -728 2069
-549 -727 2068
-545 -730 2078
-534 -723 2060
-534 -732 2086
-518 -719 2050
-512 -720 2054
-509 -725 2069
-503 -725 2072
-494 -721 2062
-491 -725 2075
-480 -719 2057
-477 -725 2075
-489 -752 2154
-501 -781 2239
-591 -933 2675
-629 -1007 2888
-610 -990 2843
-629 -1037 2977
-628 -1050 3017
-627 -1064 3057
-596 -1027 2953
-593 -1037 2984
-587 -1042 3000
-606 -1093 3149
-626 -1146 3302
-588 -1095 3154
0 0 0
0 0 0
0 0 0
0 0 0
0 0 0
0 0 0
0 0 0
-556 -1192 3444
-548 -1196 3458
-550 -1224 3539
-568 -1290 3731
-611 -1413 4089
-594 -1403 4062
-583 -1407 4074
-569 -1402 4060
-554 -1396 4045
-545 -1402 4064
-532 -1403 4066
-520 -1402 4064
-508 -1403 4069
-496 -1404 4072
-484 -1404 4072
-473 -1408 4087
-461 -1410 4094
-452 -1421 4124
-448 -1448 4205
-448 -1488 4322
-422 -1444 4194
0 0 0
0 0 0
-67 -262 760
0 0 0
0 0 0
-262 -1098 3193
-244 -1062 3087
-239 -1079 3138
-227 -1065 3098
-219 -1074 3123
-208 -1065 3098
-198 -1064 3095
-190 -1070 3113
-178 -1053 3063
-171 -1070 3114
-162 -1067 3105
-153 -1073 3124
-142 -1063 3093
-133 -1065 3100
-124 -1063 3093
-115 -1064 3097
-106 -1074 3125
-96 -1065 3099
-87 -1062 3090
-78 -1074 3127
-69 -1069 3111
-60 -1076 3131
-50 -1063 3094
-40 -1062 3090
-32 -1078 3137
-22 -1051 3058
-13 -1069 3110
-3 -1057 3074
5 -1058 3080
14 -1061 3087
23 -1063 3092
33 -1064 3096
42 -1058 3076
51 -1061 3084
61 -1063 3092
69 -1057 3073
77 -1034 3007
85 -1024 2975
93 -1017 2955
103 -1026 2980
113 -1035 3008
121 -1029 2989
132 -1042 3025
137 -1011 2936
149 -1031 2993
155 -1017 2952
170 -1051 3051
185 -1088 3156
194 -1085 3147
203 -1084 3144
212 -1082 3137
223 -1091 3162
233 -1090 3158
240 -1078 3124
252 -1091 3161
261 -1088 3150
269 -1084 3137
281 -1094 3166
290 -1091 3156
298 -1085 3138
307 -1083 3132
322 -1102 3186
329 -1095 3165
339 -1096 3166
343 -1080 3119
355 -1086 3136
366 -1092 3152
378 -1098 3167
386 -1096 3160
396 -1095 3157
405 -1094 3153
415 -1097 3161
423 -1094 3149
427 -1079 3106
455 -1124 3233
447 -1083 3113
463 -1098 3155
470 -1091 3136
485 -1105 3172
499 -1114 3199
500 -1095 3141
515 -1108 3177
525 -1109 3178
534 -1106 3170
548 -1116 3194
558 -1115 3192
570 -1122 3209
579 -1120 3201
583 -1108 3165
603 -1128 3221
609 -1121 3199
618 -1120 3195
631 -1126 3210
641 -1126 3210
649 -1123 3199
646 -1102 3135
650 -1092 3107
658 -1090 3097
652 -1064 3024
625 -1006 2855
602 -955 2711
574 -898 2547
617 -953 2701
0 0 0
0 0 0
0 0 0
0 0 0
0 0 0
0 0 0
0 0 0
0 0 0
0 0 0
165 -221 621
123 -162 454
66 -83 234
60 -74 207
17 -17 48
0 0 0
0 0 0
0 0 0
0 0 0
0 0 0
0 0 0
0 0 0
0 0 0
0 0 0
0 0 0
0 0 0
0 0 0
0 0 0
0 0 0
0 0 0
0 0 0
0 0 0
0 0 0
0 0 0
0 0 0
1061 -1118 3077
1072 -1120 3078
1083 -1121 3078
1085 -1113 3052
1029 -1046 2866
0 0 0
0 0 0
1035 -1025 2799
1048 -1029 2808
1065 -1038 2828
1086 -1049 2857
1082 -1036 2818
1104 -1049 2850
1080 -1017 2760
1083 -1012 2743
1093 -1013 2742
1088 -1001 2707
1087 -992 2678
1101 -997 2689
1104 -992 2671
1074 -958 2577
1068 -945 2538
1105 -970 2604
1112 -969 2596
1104 -955 2557
1104 -948 2534
1078 -918 2451
1094 -926 2468
1099 -923 2456
1105 -921 2449
1106 -916 2431
1120 -921 2441
1123 -916 2426
1111 -901 2381
1115 -898 2370
1122 -897 2366
1108 -880 2315
1119 -883 2320
1110 -870 2282
1086 -845 2214
1109 -857 2242
1116 -857 2238
1108 -845 2204
1109 -841 2189
1108 -834 2169
1111 -831 2157
1120 -833 2158
1119 -826 2138
1127 -827 2137
1135 -828 2134
1142 -828 2131
1136 -818 2103
1139 -815 2092
1141 -812 2080
1150 -813 2079
1139 -800 2044
1145 -800 2039
1130 -785 1996
1148 -793 2013
1122 -770 1952
1148 -783 1982
1126 -764 1929
1116 -753 1897
1119 -750 1887
-770 -486 1254
-744 -472 1220
-744 -475 1229
-647 -416 1078
-495 -320 830
-483 -314 817
-492 -322 839
-488 -321 837
-482 -319 834
-475 -316 829
-464 -311 816
-471 -317 834
-458 -310 817
-461 -314 829
-468 -321 847
-472 -325 861
-477 -331 878
-462 -322 856
-467 -328 873
-524 -371 987
-893 -636 1696
-1075 -770 2056
-1069 -771 2062
-1062 -770 2063
-1054 -770 2065
-1041 -765 2055
-1039 -769 2068
-1027 -765 2061
-1018 -763 2059
-1016 -767 2072
-1003 -762 2062
-994 -761 2061
-984 -758 2057
-981 -761 2067
-939 -734 1995
-957 -753 2050
-957 -759 2069
-951 -759 2072
-943 -758 2071
-936 -758 2075
-912 -744 2039
-894 -735 2016
-885 -732 2011
-879 -733 2016
-873 -733 2018
-866 -733 2020
-865 -738 2036
-860 -739 2042
-840 -727 2012
-835 -729 2018
-837 -736 2040
-827 -733 2035
-822 -735 2042
-809 -728 2026
-787 -715 1990
-769 -704 1963
-767 -708 1976
-768 -715 1997
-740 -695 1942
-749 -709 1983
-751 -717 2009
-744 -716 2008
-734 -713 2002
-728 -713 2003
-717 -708 1992
-720 -718 2020
-713 -718 2022
-705 -716 2018
-690 -707 1996
-687 -710 2006
-690 -719 2034
-687 -723 2046
-674 -716 2028
-666 -715 2025
-656 -711 2016
-659 -721 2047
-652 -721 2047
-645 -720 2048
-638 -720 2048
-627 -714 2033
-623 -717 2042
-619 -719 2051
-606 -712 2032
-601 -713 2037
-598 -718 2051
-596 -722 2065
-584 -716 2048
-575 -713 2041
-572 -717 2055
-567 -719 2062
-559 -717 2057
-553 -717 2058
-547 -718 2063
-537 -712 2048
-539 -724 2082
-527 -717 2063
-520 -716 2061
-512 -713 2054
-507 -715 2061
-504 -719 2076
-496 -717 2070
-492 -721 2081
-482 -716 2068
-483 -727 2101
-502 -765 2214
-587 -907 2626
-618 -967 2799
-597 -948 2746
-627 -1009 2925
-625 -1021 2961
-617 -1022 2965
-614 -1033 2997
-593 -1012 2938
-594 -1029 2989
-575 -1012 2942
-585 -1045 3040
-575 -1044 3036
-547 -1010 2938
0 0 0
0 0 0
0 0 0
0 0 0
0 0 0
0 0 0
0 0 0
-535 -1136 3315
-548 -1185 3461
-550 -1213 3541
-591 -1328 3880
-611 -1401 4095
-593 -1389 4060
-580 -1386 4054
-568 -1388 4059
-557 -1390 4067
-547 -1396 4085
-533 -1392 4076
-519 -1389 4065
-508 -1390 4071
-495 -1390 4071
-482 -1386 4061
-469 -1385 4059
-459 -1390 4074
-450 -1400 4105
-452 -1448 4245
-453 -1492 4375
-455 -1545 4531
-101 -361 1060
-128 -470 1379
-145 -547 1607
0 0 0
-270 -1080 3171
-256 -1064 3124
-245 -1057 3103
-236 -1055 3099
-227 -1060 3112
-215 -1044 3067
-210 -1066 3130
-200 -1062 3119
-190 -1058 3108
-181 -1062 3119
-169 -1045 3071
-161 -1053 3093
-153 -1059 3113
-144 -1068 3138
-134 -1057 3107
-125 -1065 3130
-115 -1060 3116
-105 -1055 3099
-97 -1069 3143
-87 -1059 3112
-78 -1067 3136
-69 -1060 3116
-60 -1073 3152
-50 -1053 3095
-41 -1057 3106
-31 -1064 3127
-22 -1071 3147
-13 -1054 3097
-3 -1067 3134
5 -1071 3148
14 -1054 3095
24 -1066 3130
33 -1067 3133
42 -1060 3113
52 -1062 3119
62 -1074 3153
71 -1071 3143
80 -1068 3134
90 -1069 3136
99 -1065 3125
109 -1077 3159
118 -1070 3138
128 -1073 3148
137 -1075 3151
147 -1078 3161
156 -1071 3141
165 -1069 3132
175 -1073 3145
186 -1083 3174
193 -1068 3127
205 -1083 3170
214 -1081 3165
226 -1095 3205
235 -1091 3193
245 -1091 3191
253 -1086 3176
265 -1098 3211
275 -1100 3214
282 -1089 3183
294 -1098 3206
305 -1101 3214
313 -1098 3204
323 -1099 3206
334 -1101 3211
346 -1110 3236
354 -1105 3221
365 -1107 3226
374 -1107 3225
383 -1104 3215
393 -1105 3217
403 -1105 3215
415 -1113 3237
413 -1082 3145
420 -1074 3122
425 -1065 3094
434 -1063 3087
447 -1073 3114
461 -1082 3141
475 -1094 3172
484 -1091 3163
498 -1102 3193
502 -1090 3159
513 -1094 3167
523 -1093 3163
534 -1097 3172
542 -1093 3160
555 -1101 3182
572 -1115 3221
580 -1112 3211
590 -1113 3210
593 -1100 3172
611 -1114 3211
618 -1110 3198
620 -1096 3156
646 -1125 3236
651 -1117 3211
640 -1081 3107
638 -1062 3051
640 -1050 3015
642 -1039 2981
620 -988 2833
614 -966 2768
626 -971 2779
0 0 0
0 0 0
0 0 0
0 0 0
0 0 0
0 0 0
0 0 0
0 0 0
0 0 0
0 0 0
0 0 0
0 0 0
86 -109 310
82 -103 291
17 -17 49
0 0 0
0 0 0
0 0 0
0 0 0
0 0 0
0 0 0
0 0 0
1039 -1231 3464
1064 -1247 3506
1093 -1269 3563
0 0 0
0 0 0
0 0 0
0 0 0
0 0 0
0 0 0
0 0 0
0 0 0
0 0 0
0 0 0
0 0 0
0 0 0
0 0 0
0 0 0
0 0 0
0 0 0
0 0 0
0 0 0
1029 -1002 2760
1073 -1036 2852
1083 -1037 2850
1087 -1032 2834
1102 -1038 2846
1092 -1020 2795
1075 -996 2726
1081 -994 2717
1080 -985 2689
1094 -990 2699
1089 -977 2661
1102 -982 2670
1096 -969 2631
1091 -957 2596
1019 -887 2403
1059 -915 2476
1109 -951 2570
1108 -943 2544
1100 -930 2506
1100 -922 2483
1102 -917 2466
1112 -920 2469
1119 -918 2461
1120 -913 2443
1112 -900 2406
1120 -900 2403
1123 -896 2390
1108 -878 2337
1104 -869 2310
1119 -875 2322
1106 -859 2276
1120 -864 2286
1095 -839 2216
1112 -846 2233
1105 -835 2200
1121 -842 2215
1111 -829 2177
1113 -825 2163
1113 -820 2147
1114 -815 2130
1121 -815 2127
1136 -821 2139
1147 -824 2143
1143 -816 2119
1128 -800 2074
1131 -798 2063
1128 -791 2042
1126 -784 2022
1124 -778 2003
1121 -771 1982
1134 -776 1990
1117 -760 1945
1133 -766 1958
1133 -762 1943
1141 -763 1941
1134 -754 1916
-766 -479 1249
-759 -478 1247
-724 -458 1198
-609 -388 1015
-518 -332 870
-497 -320 842
-493 -319 841
-489 -319 841
-473 -310 819
-476 -314 831
-474 -314 834
-479 -320 850
-474 -318 846
-460 -311 828
-452 -307 819
-469 -320 857
-472 -325 869
-484 -335 898
-468 -326 876
-543 -381 1025
-972 -685 1846
-1073 -762 2055
-1065 -761 2055
-1059 -761 2060
-1051 -761 2061
-1042 -759 2060
-1035 -759 2062
-1028 -759 2066
-1019 -757 2064
-1012 -758 2067
-1002 -755 2063
-995 -754 2064
-985 -752 2061
-977 -751 2061
-943 -730 2006
-955 -745 2049
-955 -750 2066
-951 -753 2075
-939 -748 2066
-936 -751 2076
-908 -734 2032
-900 -733 2030
-898 -736 2043
-880 -728 2021
-877 -730 2030
-867 -727 2026
-859 -726 2023
-854 -728 2031
-841 -722 2017
-827 -716 2002
-827 -721 2020
-816 -718 2011
-821 -728 2042
-810 -723 2031
-783 -705 1983
-747 -678 1910
-757 -692 1951
-772 -712 2009
-752 -700 1975
-721 -676 1911
-752 -711 2012
-747 -713 2020
-730 -703 1992
-703 -683 1938
-709 -695 1973
-721 -713 2025
-720 -718 2044
-712 -716 2039
-697 -708 2018
-696 -713 2035
-684 -707 2019
-679 -709 2027
-673 -709 2027
-653 -695 1989
-656 -705 2018
-656 -711 2039
-657 -719 2064
-649 -718 2062
-632 -706 2029
-626 -707 2032
-620 -707 2035
-614 -708 2038
-615 -716 2062
-600 -706 2037
-597 -710 2050
-591 -710 2052
-585 -711 2056
-570 -700 2024
-566 -703 2034
-567 -712 2062
-564 -717 2078
-556 -714 2072
-547 -711 2064
-548 -721 2092
-537 -714 2075
-531 -715 2079
-519 -708 2060
-513 -708 2061
-508 -711 2070
-498 -705 2055
-498 -714 2081
-485 -704 2055
-485 -713 2082
-482 -719 2099
-517 -781 2281
-593 -908 2653
-593 -920 2689
-618 -972 2844
-632 -1008 2951
-614 -994 2911
-605 -993 2910
-600 -1001 2933
-618 -1046 3067
-610 -1048 3074
-582 -1015 2979
-569 -1008 2960
-592 -1066 3132
-570 -1044 3067
0 0 0
0 0 0
0 0 0
0 0 0
0 0 0
0 0 0
-492 -1016 2994
-540 -1136 3348
-550 -1181 3480
-552 -1207 3559
-599 -1336 3941
-608 -1384 4083
-596 -1383 4082
-582 -1380 4073
-568 -1375 4060
-557 -1379 4073
-544 -1376 4067
-531 -1375 4063
-519 -1376 4067
-506 -1372 4058
-492 -1369 4048
-481 -1373 4060
-469 -1373 4063
-457 -1373 4062
-448 -1384 4098
-440 -1397 4137
-442 -1444 4277
-428 -1440 4266
-417 -1447 4285
0 0 0
0 0 0
-252 -968 2868
-264 -1048 3107
-255 -1049 3111
-247 -1056 3130
-234 -1039 3082
-230 -1062 3149
-217 -1046 3103
-210 -1057 3134
-198 -1044 3098
-188 -1043 3093
-181 -1053 3123
-169 -1040 3085
-162 -1049 3112
-152 -1049 3111
-142 -1040 3086
-134 -1054 3126
-125 -1055 3131
-115 -1046 3103
-106 -1055 3130
-96 -1048 3109
-86 -1042 3092
-79 -1067 3165
-68 -1050 3114
-60 -1059 3141
-50 -1045 3101
-40 -1049 3111
-31 -1039 3082
-22 -1045 3101
-13 -1054 3127
-3 -1060 3144
5 -1063 3152
14 -1059 3140
24 -1060 3143
33 -1052 3120
42 -1054 3125
52 -1056 3130
61 -1043 3091
70 -1048 3106
80 -1054 3124
89 -1051 3113
100 -1069 3168
109 -1067 3161
117 -1053 3119
127 -1058 3134
136 -1051 3113
146 -1061 3142
157 -1069 3164
166 -1068 3161
174 -1059 3134
185 -1067 3155
195 -1070 3164
203 -1061 3138
214 -1073 3172
225 -1077 3183
231 -1061 3134
243 -1075 3175
253 -1074 3172
263 -1077 3181
273 -1081 3190
283 -1083 3195
292 -1081 3189
300 -1075 3169
315 -1094 3225
326 -1096 3230
334 -1091 3213
345 -1096 3228
353 -1091 3212
364 -1096 3227
377 -1105 3250
383 -1095 3220
396 -1102 3241
401 -1090 3203
413 -1097 3223
424 -1101 3233
422 -1071 3145
0 0 0
438 -1062 3116
440 -1046 3067
458 -1067 3127
472 -1077 3153
483 -1080 3160
493 -1081 3163
502 -1079 3157
510 -1078 3150
528 -1095 3200
538 -1094 3196
541 -1083 3161
556 -1093 3190
565 -1092 3186
571 -1084 3159
574 -1072 3124
575 -1057 3079
591 -1069 3111
602 -1072 3118
604 -1059 3077
616 -1063 3087
618 -1051 3051
617 -1032 2996
624 -1029 2984
609 -990 2869
577 -925 2679
621 -981 2840
616 -961 2780
0 0 0
0 0 0
0 0 0
0 0 0
0 0 0
0 0 0
0 0 0
0 0 0
0 0 0
0 0 0
104 -136 392
139 -181 520
0 0 0
0 0 0
50 -60 172
65 -78 224
1228 -1556 4446
0 0 0
0 0 0
0 0 0
0 0 0
0 0 0
0 0 0
1073 -1260 3581
1068 -1241 3523
1077 -1239 3514
0 0 0
0 0 0
0 0 0
0 0 0
0 0 0
0 0 0
0 0 0
0 0 0
0 0 0
0 0 0
0 0 0
0 0 0
0 0 0
0 0 0
0 0 0
0 0 0
0 0 0
0 0 0
1051 -1015 2823
1066 -1020 2836
1079 -1024 2842
1077 -1014 2811
1091 -1019 2821
1086 -1006 2783
1089 -1001 2765
1095 -998 2754
1076 -972 2680
1087 -975 2684
1116 -993 2730
1104 -975 2677
1093 -957 2627
1075 -934 2560
1082 -934 2555
1089 -932 2547
1092 -928 2532
1105 -932 2541
1101 -922 2511
1111 -924 2511
1099 -907 2463
1110 -909 2466
1108 -902 2441
1113 -899 2432
1123 -901 2432
1109 -883 2381
1076 -851 2292
1137 -893 2401
1059 -826 2218
1067 -827 2216
1106 -851 2279
1088 -832 2222
1108 -841 2245
1117 -843 2245
1112 -833 2217
1117 -832 2210
1112 -822 2180
1116 -820 2172
1114 -814 2151
1121 -813 2146
1125 -811 2138
1130 -810 2131
1135 -808 2123
1136 -804 2108
1122 -789 2065
1132 -791 2067
1123 -780 2035
1126 -778 2026
1110 -762 1981
1134 -774 2007
1122 -761 1971
1130 -762 1970
1113 -746 1926
1143 -762 1963
1148 -761 1956
1146 -755 1938
-766 -475 1250
-764 -476 1256
-741 -464 1227
-574 -362 957
-488 -309 821
-492 -314 834
-489 -314 835
-482 -311 830
-482 -313 835
-479 -313 837
-469 -308 826
-465 -308 825
-467 -311 835
-459 -307 828
-468 -315 849
-466 -316 853
-479 -327 884
-475 -326 883
-468 -323 877
-568 -395 1073
-1029 -719 1957
-1070 -753 2052
-1066 -755 2061
-1060 -755 2064
-1049 -752 2059
-1045 -755 2069
-1034 -751 2062
-1028 -752 2068
-1022 -753 2072
-1004 -745 2053
-1004 -749 2068
-990 -744 2058
-985 -745 2062
-976 -744 2062
-948 -728 2020
-959 -741 2059
-954 -743 2066
-952 -746 2078
-943 -745 2077
-929 -739 2064
-914 -732 2047
-902 -728 2038
-889 -723 2026
-875 -717 2012
-867 -716 2011
-871 -724 2037
-864 -724 2038
-852 -719 2027
-844 -718 2027
-838 -718 2030
-831 -718 2031
-823 -717 2030
-809 -711 2014
-807 -714 2026
-779 -695 1973
-764 -687 1954
-758 -687 1956
-755 -690 1967
-727 -670 1912
-747 -695 1984
-747 -700 2001
-739 -699 1999
-724 -691 1977
-700 -673 1930
-717 -696 1996
-712 -697 2002
-710 -702 2017
-703 -701 2016
-705 -710 2044
-702 -713 2055
-680 -697 2011
-682 -706 2038
-675 -705 2035
-661 -697 2015
-656 -698 2020
-656 -706 2043
-655 -711 2061
-647 -709 2056
-631 -699 2029
-627 -702 2038
-624 -705 2049
-615 -703 2044
-609 -702 2045
-603 -704 2050
-595 -701 2043
-590 -703 2050
-580 -699 2040
-572 -696 2034
-574 -707 2066
-570 -709 2074
-557 -701 2052
-551 -702 2055
-547 -705 2067
-543 -707 2074
-534 -704 2066
-531 -709 2080
-519 -702 2061
-509 -697 2049
-507 -702 2066
-502 -705 2073
-493 -700 2063
-494 -711 2096
-487 -710 2094
-488 -722 2128
-504 -754 2225
-602 -914 2697
-632 -973 2872
-638 -995 2939
-636 -1006 2974
-624 -1002 2963
-614 -1000 2957
-619 -1022 3026
-614 -1029 3048
-600 -1021 3025
-579 -1002 2969
-586 -1030 3055
-617 -1102 3268
0 0 0
0 0 0
0 0 0
0 0 0
0 0 0
0 0 0
0 0 0
-519 -1064 3165
-526 -1098 3269
-545 -1159 3451
-553 -1198 3569
-598 -1321 3936
-616 -1387 4134
-592 -1362 4058
-579 -1360 4055
-567 -1362 4062
-555 -1362 4063
-542 -1358 4053
-529 -1359 4055
-518 -1361 4064
-506 -1360 4062
-495 -1364 4073
-481 -1361 4066
-468 -1359 4061
-456 -1359 4062
-446 -1364 4078
-434 -1367 4087
-425 -1376 4115
-412 -1375 4111
-400 -1374 4110
-370 -1314 3932
-302 -1108 3316
-272 -1032 3089
-269 -1059 3171
-253 -1033 3092
-245 -1036 3100
-235 -1032 3091
-227 -1039 3112
-217 -1035 3101
-208 -1037 3106
-199 -1039 3112
-187 -1024 3068
-182 -1052 3150
-170 -1037 3106
-160 -1029 3083
-150 -1026 3075
-143 -1042 3122
-134 -1045 3130
-124 -1041 3119
-114 -1029 3085
-106 -1043 3126
-96 -1034 3098
-87 -1035 3101
-77 -1031 3089
-69 -1042 3123
-58 -1030 3087
-50 -1041 3119
-40 -1024 3069
-31 -1034 3099
-22 -1043 3124
-13 -1051 3147
-3 -1039 3112
5 -1041 3119
14 -1032 3089
24 -1037 3106
33 -1035 3099
43 -1047 3136
52 -1043 3121
61 -1048 3137
71 -1056 3162
80 -1049 3139
90 -1053 3150
100 -1054 3154
108 -1045 3127
118 -1047 3133
127 -1046 3128
138 -1057 3162
146 -1053 3149
155 -1047 3129
167 -1063 3177
176 -1060 3166
185 -1060 3165
196 -1066 3182
204 -1061 3167
214 -1063 3174
226 -1073 3202
233 -1060 3163
245 -1071 3196
254 -1070 3190
263 -1067 3181
275 -1077 3208
286 -1082 3225
293 -1074 3200
303 -1076 3204
312 -1072 3190
325 -1084 3227
333 -1079 3209
343 -1079 3208
353 -1083 3219
363 -1083 3218
370 -1074 3192
385 -1089 3234
394 -1088 3230
403 -1085 3219
409 -1077 3196
419 -1077 3195
426 -1071 3173
0 0 0
427 -1027 3042
446 -1050 3107
461 -1063 3145
472 -1067 3155
484 -1072 3170
489 -1063 3141
501 -1069 3156
506 -1059 3128
522 -1072 3163
534 -1077 3176
545 -1080 3183
558 -1087 3202
563 -1078 3175
556 -1046 3079
425 -785 2309
278 -503 1480
301 -536 1576
318 -557 1637
379 -656 1925
402 -685 2008
387 -649 1903
385 -637 1868
427 -696 2038
437 -703 2058
509 -807 2361
515 -807 2358
0 0 0
0 0 0
0 0 0
0 0 0
0 0 0
0 0 0
0 0 0
0 0 0
0 0 0
110 -147 426
95 -125 363
105 -136 394
97 -124 360
128 -164 474
58 -70 203
18 -18 52
47 -54 157
0 0 0
0 0 0
0 0 0
0 0 0
0 0 0
0 0 0
0 0 0
1068 -1243 3567
1053 -1213 3477
1057 -1205 3451
0 0 0
0 0 0
0 0 0
0 0 0
0 0 0
0 0 0
0 0 0
0 0 0
0 0 0
0 0 0
0 0 0
0 0 0
0 0 0
0 0 0
0 0 0
0 0 0
0 0 0
0 0 0
1045 -999 2808
1065 -1010 2835
1077 -1013 2840
1083 -1010 2829
1088 -1007 2816
1086 -996 2784
1088 -991 2765
1091 -985 2746
1094 -980 2727
1078 -958 2665
1122 -989 2747
1078 -943 2615
1111 -965 2673
1070 -922 2552
1107 -946 2615
1097 -931 2569
1103 -929 2560
1107 -926 2549
1099 -912 2509
1100 -906 2488
1108 -906 2484
1102 -895 2451
1102 -889 2430
1101 -881 2406
1090 -867 2363
1100 -869 2365
1088 -853 2319
1107 -862 2340
1100 -851 2306
1100 -845 2287
1091 -832 2249
1143 -866 2338
1126 -848 2285
1129 -844 2271
1116 -829 2228
1124 -829 2225
1112 -815 2183
1117 -814 2176
1120 -811 2165
1116 -803 2140
1120 -801 2131
1131 -804 2135
1137 -802 2128
1136 -797 2111
1126 -785 2076
1137 -788 2079
1129 -778 2049
1133 -775 2039
1129 -768 2017
1141 -772 2022
1133 -762 1993
1125 -752 1964
1140 -757 1974
1140 -753 1959
1137 -746 1939
1155 -754 1956
-762 -468 1245
-757 -468 1246
-720 -448 1195
-549 -343 918
-509 -320 858
-493 -312 837
-478 -304 817
-490 -313 844
-485 -312 841
-475 -307 831
-479 -312 844
-471 -309 837
-466 -307 834
-465 -309 840
-460 -307 836
-469 -315 859
-474 -321 876
-477 -325 888
-475 -325 890
-601 -413 1135
-1051 -728 2002
-1073 -748 2060
-1065 -747 2060
-1061 -749 2069
-1050 -746 2064
-1042 -745 2064
-1037 -747 2070
-1027 -745 2068
-1019 -744 2068
-1008 -741 2064
-1004 -743 2071
-991 -738 2061
-982 -737 2060
-973 -735 2058
-949 -722 2024
-958 -734 2059
-956 -737 2072
-946 -735 2069
-939 -735 2071
-930 -733 2068
-909 -722 2038
-896 -717 2027
-890 -717 2029
-882 -716 2030
-873 -714 2027
-858 -707 2008
-857 -712 2024
-854 -714 2034
-843 -711 2026
-843 -716 2045
-831 -711 2033
-825 -712 2037
-819 -713 2040
-806 -707 2025
-781 -691 1982
-751 -670 1923
-764 -686 1974
-762 -691 1988
-746 -681 1963
-745 -686 1979
-751 -698 2016
-747 -700 2022
-732 -692 2001
