VERSION 0.7
FIELDS x y z
SIZE 4 4 4
TYPE I I I
COUNT 1 1 1
WIDTH 3303
HEIGHT 1
VIEWPOINT 0.0 0.0 0.0 1.0 0.0 0.0 0.0
POINTS 3303
DATA ascii
-214 -353 2471
-207 -353 2477
-200 -353 2472
-192 -353 2472
-184 -351 2458
-177 -351 2463
-170 -351 2459
-163 -352 2464
-155 -350 2455
-148 -350 2452
-140 -349 2444
-134 -350 2450
-126 -349 2447
-119 -349 2445
-112 -349 2446
-105 -347 2435
-97 -346 2427
-90 -347 2432
-83 -346 2427
-76 -346 2424
-69 -346 2422
-62 -347 2432
-55 -346 2426
-48 -346 2425
-41 -345 2419
-34 -345 2413
-27 -345 2418
-20 -345 2415
-13 -345 2416
-6 -344 2408
0 -343 2399
7 -344 2403
14 -343 2398
21 -343 2398
28 -344 2403
35 -343 2398
42 -342 2390
49 -341 2385
55 -341 2381
63 -343 2394
70 -343 2399
76 -340 2377
83 -341 2380
90 -340 2370
97 -340 2370
103 -339 2364
110 -339 2367
117 -339 2363
124 -339 2364
130 -338 2356
137 -339 2360
145 -340 2371
150 -336 2343
152 -327 2277
160 -328 2286
167 -329 2289
175 -333 2318
184 -337 2343
190 -336 2333
199 -339 2353
205 -337 2343
210 -336 2331
217 -336 2330
224 -335 2327
230 -335 2328
238 -336 2332
243 -335 2321
250 -335 2320
257 -335 2320
263 -335 2318
270 -334 2314
276 -333 2308
282 -333 2304
288 -332 2294
296 -333 2302
303 -334 2310
309 -333 2301
316 -333 2301
322 -333 2299
329 -333 2297
335 -333 2294
342 -333 2295
348 -333 2291
355 -333 2291
360 -331 2276
365 -330 2269
374 -332 2282
379 -330 2270
386 -331 2271
392 -330 2265
404 -335 2296
416 -339 2325
423 -340 2328
431 -340 2330
438 -340 2328
443 -339 2320
445 -336 2296
449 -334 2280
454 -332 2269
467 -337 2298
468 -333 2271
472 -331 2258
484 -335 2283
488 -333 2266
491 -331 2250
497 -330 2245
508 -333 2261
515 -334 2266
525 -335 2276
535 -338 2291
544 -339 2297
550 -338 2291
552 -336 2271
554 -333 2251
563 -335 2261
571 -335 2266
577 -335 2260
589 -338 2279
586 -332 2239
594 -333 2243
596 -331 2225
609 -334 2247
613 -333 2235
621 -334 2239
627 -333 2235
638 -335 2247
643 -335 2241
657 -339 2266
660 -337 2250
668 -338 2254
672 -336 2244
682 -338 2253
687 -337 2243
694 -337 2245
682 -328 2181
676 -322 2139
692 -327 2169
701 -328 2174
707 -327 2170
701 -322 2132
721 -328 2170
724 -327 2158
727 -325 2146
732 -325 2140
743 -326 2150
753 -328 2160
759 -328 2155
759 -325 2136
765 -325 2130
775 -326 2139
783 -327 2143
785 -325 2128
791 -325 2124
795 -324 2115
806 -326 2124
814 -327 2127
812 -323 2104
818 -323 2099
839 -329 2135
846 -329 2133
852 -329 2129
856 -328 2123
850 -323 2088
866 -327 2109
874 -327 2110
876 -326 2097
884 -326 2098
890 -327 2096
900 -328 2102
904 -327 2093
912 -327 2093
919 -328 2094
927 -328 2093
914 -321 2047
940 -328 2089
937 -325 2064
951 -328 2078
950 -325 2059
949 -323 2041
985 -333 2103
1010 -339 2137
982 -327 2062
993 -329 2069
993 -327 2053
987 -323 2024
942 -306 1915
891 -288 1798
895 -287 1791
898 -286 1784
906 -287 1786
904 -284 1768
910 -284 1765
919 -286 1770
928 -287 1774
934 -287 1773
933 -285 1757
936 -284 1748
948 -286 1758
951 -285 1751
957 -285 1748
960 -285 1741
974 -287 1753
982 -288 1754
979 -285 1736
-1295 -344 2229
-1281 -342 2222
-1269 -341 2217
-1261 -341 2220
-1243 -337 2203
-1238 -338 2211
-1223 -336 2201
-1212 -335 2198
-1198 -333 2188
-1196 -335 2201
-1183 -333 2193
-1170 -331 2186
-1160 -331 2184
-1148 -329 2177
-1143 -330 2184
-1131 -328 2177
-1126 -329 2185
-1112 -327 2175
-1100 -326 2168
-1096 -326 2175
-1098 -329 2196
-1085 -327 2187
-1072 -326 2178
-1072 -328 2195
-1066 -328 2200
-1060 -328 2205
-1060 -331 2223
-1052 -330 2224
-1040 -329 2216
-1037 -330 2226
-1019 -327 2207
-1005 -324 2194
-981 -319 2159
-980 -321 2172
-986 -325 2205
-998 -331 2250
-994 -332 2259
-993 -335 2276
-987 -335 2280
-984 -336 2292
-979 -337 2301
-981 -340 2323
-974 -340 2327
-971 -342 2339
-965 -342 2344
-962 -344 2357
-963 -347 2381
-951 -345 2370
-953 -349 2398
-942 -347 2390
-943 -351 2414
-940 -352 2426
-936 -354 2440
-933 -355 2454
-929 -357 2464
-926 -358 2478
-914 -357 2469
-915 -360 2495
-909 -361 2502
-909 -364 2525
-901 -364 2526
-896 -365 2534
-891 -366 2547
-889 -369 2564
-885 -370 2578
-880 -371 2587
-873 -372 2592
-869 -374 2606
-858 -372 2599
-856 -375 2617
-850 -376 2624
-846 -377 2638
-840 -379 2649
-830 -378 2643
-828 -380 2663
-826 -383 2684
-815 -382 2678
-805 -381 2672
-801 -383 2687
-797 -385 2703
-781 -381 2677
-775 -382 2687
-761 -379 2668
-748 -377 2652
-740 -377 2653
-732 -377 2655
-719 -374 2635
-715 -376 2651
-705 -375 2648
-708 -381 2690
-688 -375 2646
-678 -373 2636
-666 -371 2624
-656 -370 2615
-652 -372 2633
-643 -371 2630
-634 -371 2625
-625 -370 2622
-617 -370 2619
-609 -370 2621
-601 -369 2620
-593 -369 2622
-583 -368 2611
-574 -367 2608
-567 -368 2611
-558 -367 2605
-549 -366 2600
-537 -363 2584
-532 -365 2595
-521 -363 2582
-513 -363 2581
-508 -364 2592
-499 -363 2584
-489 -361 2574
-481 -361 2575
-472 -360 2568
-463 -359 2562
-455 -359 2558
-449 -360 2564
-441 -359 2563
-433 -360 2565
-423 -357 2548
-415 -357 2548
-408 -357 2550
-400 -356 2545
-391 -356 2541
-385 -357 2547
-376 -355 2537
-369 -356 2543
-360 -354 2529
-352 -354 2530
-345 -354 2527
-337 -353 2527
-328 -352 2515
-320 -351 2513
-313 -351 2512
-305 -351 2510
-298 -352 2515
-290 -351 2508
-283 -351 2509
-275 -349 2498
-267 -349 2498
-260 -349 2496
-251 -348 2487
-245 -348 2494
-236 -346 2477
-229 -347 2483
-222 -346 2479
-214 -345 2469
-207 -345 2471
-199 -345 2470
-192 -345 2473
-184 -344 2460
-177 -345 2467
-170 -344 2462
-162 -343 2457
-155 -342 2449
-148 -343 2455
-140 -341 2443
-133 -341 2442
-126 -342 2447
-119 -341 2443
-112 -342 2444
-104 -340 2435
-97 -340 2436
-90 -340 2433
-83 -341 2439
-76 -339 2426
-69 -339 2423
-62 -339 2424
-55 -339 2423
-48 -339 2421
-41 -340 2428
-34 -338 2419
-27 -339 2421
-20 -340 2431
-13 -338 2413
-6 -338 2415
0 -336 2404
7 -337 2407
14 -336 2399
21 -336 2401
28 -336 2396
35 -335 2392
42 -335 2393
49 -334 2384
56 -335 2388
63 -335 2390
70 -335 2391
77 -336 2395
83 -335 2391
90 -333 2376
97 -333 2374
103 -331 2356
110 -332 2365
117 -331 2360
124 -332 2361
131 -332 2366
138 -333 2372
145 -334 2375
148 -325 2311
154 -323 2298
160 -322 2292
166 -321 2284
176 -327 2322
184 -329 2339
191 -330 2343
198 -332 2352
205 -332 2354
209 -327 2320
217 -329 2334
223 -328 2325
230 -328 2325
237 -328 2323
244 -328 2325
251 -329 2327
257 -328 2322
263 -327 2315
270 -328 2317
270 -320 2262
286 -330 2333
290 -327 2310
296 -327 2304
304 -328 2313
311 -328 2314
316 -327 2301
323 -328 2307
330 -328 2308
336 -327 2301
344 -328 2309
350 -327 2302
355 -326 2293
363 -328 2301
369 -327 2293
375 -326 2289
380 -324 2276
386 -324 2269
392 -323 2265
401 -326 2280
419 -335 2344
424 -333 2333
433 -335 2340
440 -335 2342
438 -328 2293
445 -329 2296
453 -329 2297
460 -330 2302
466 -329 2295
474 -330 2299
477 -328 2282
483 -328 2279
499 -334 2319
500 -330 2289
505 -329 2283
511 -328 2277
516 -327 2269
520 -326 2255
530 -328 2271
538 -329 2274
542 -327 2259
549 -327 2260
554 -326 2253
562 -327 2258
572 -329 2268
574 -326 2248
585 -329 2262
586 -325 2239
590 -324 2228
598 -325 2234
606 -326 2236
616 -328 2248
618 -325 2229
635 -330 2263
635 -327 2238
642 -327 2238
653 -330 2251
661 -331 2256
668 -331 2255
673 -330 2248
683 -331 2256
687 -330 2245
695 -331 2247
684 -322 2188
677 -316 2145
692 -320 2168
692 -317 2149
701 -318 2153
706 -318 2147
719 -321 2165
731 -323 2180
738 -323 2178
741 -322 2165
731 -315 2117
754 -322 2161
764 -324 2172
765 -321 2153
767 -319 2139
779 -322 2152
778 -318 2129
790 -321 2141
802 -323 2154
798 -319 2124
806 -319 2125
816 -321 2134
821 -320 2127
826 -320 2122
832 -320 2118
838 -320 2115
845 -320 2114
854 -321 2117
855 -319 2102
864 -320 2105
872 -320 2107
878 -320 2104
884 -320 2100
891 -320 2099
896 -320 2094
906 -321 2099
911 -321 2092
919 -321 2093
925 -321 2089
932 -321 2089
939 -321 2086
944 -321 2082
958 -323 2094
950 -319 2060
947 -316 2038
984 -326 2100
1010 -332 2140
984 -322 2068
987 -320 2056
995 -321 2056
987 -316 2024
931 -296 1895
894 -283 1805
888 -279 1778
899 -281 1786
906 -281 1786
905 -279 1771
913 -280 1773
920 -280 1773
922 -279 1762
928 -279 1760
933 -279 1758
945 -281 1766
947 -280 1757
952 -280 1752
956 -279 1746
967 -281 1755
971 -281 1749
969 -279 1732
983 -281 1743
-1283 -333 2211
-1280 -334 2221
-1259 -331 2201
-1259 -333 2217
-1241 -330 2202
-1233 -330 2204
-1224 -329 2203
-1221 -330 2214
-1203 -328 2199
-1201 -329 2211
-1180 -325 2190
-1177 -326 2200
-1172 -327 2208
-1165 -327 2210
-1155 -326 2208
-1152 -328 2220
-1145 -328 2223
-1147 -330 2243
-1125 -326 2218
-1116 -326 2218
-1121 -329 2244
-1107 -327 2233
-1087 -323 2209
-1081 -323 2214
-1071 -323 2211
-1068 -324 2223
-1051 -321 2204
-1048 -322 2216
-1033 -320 2202
-1015 -316 2181
-1001 -314 2167
-1001 -316 2185
-978 -311 2152
-975 -312 2163
-987 -318 2208
-998 -324 2251
-996 -326 2265
-994 -328 2279
-989 -328 2285
-982 -328 2288
-984 -331 2312
-978 -332 2317
-973 -333 2325
-972 -335 2344
-971 -337 2362
-958 -335 2348
-961 -339 2377
-956 -340 2385
-953 -341 2397
-947 -342 2405
-945 -344 2419
-942 -346 2435
-936 -346 2441
-933 -348 2455
-930 -350 2469
-924 -350 2474
-918 -351 2481
-917 -353 2501
-908 -353 2499
-908 -356 2522
-897 -355 2517
-897 -358 2540
-892 -359 2548
-888 -361 2563
-883 -361 2571
-874 -361 2571
-871 -363 2587
-867 -365 2600
-865 -367 2619
-861 -369 2634
-850 -368 2625
-844 -369 2636
-841 -371 2651
-831 -370 2646
-824 -371 2652
-821 -373 2670
-813 -373 2672
-805 -373 2672
-802 -375 2694
-789 -373 2679
-782 -374 2683
-775 -374 2689
-768 -374 2691
-751 -370 2662
-741 -369 2659
-733 -369 2660
-719 -366 2638
-718 -370 2664
-697 -363 2617
-691 -364 2624
-690 -368 2653
-689 -371 2680
-650 -355 2562
-668 -368 2663
-651 -364 2630
-642 -363 2625
-638 -365 2641
-625 -362 2623
-617 -362 2623
-609 -362 2622
-599 -361 2613
-592 -361 2618
-582 -360 2608
-573 -359 2605
-567 -360 2611
-559 -360 2612
-549 -358 2603
-541 -358 2600
-532 -358 2599
-523 -357 2591
-517 -357 2599
-505 -355 2581
-497 -355 2580
-488 -354 2574
-482 -354 2579
-472 -353 2567
-464 -352 2567
-456 -352 2566
-448 -352 2563
-439 -351 2557
-431 -350 2552
-423 -350 2549
-416 -350 2555
-408 -350 2550
-399 -348 2539
-391 -348 2538
-385 -349 2546
-376 -348 2537
-367 -347 2530
-360 -347 2530
-352 -347 2532
-344 -346 2527
-336 -345 2518
-328 -345 2517
-320 -344 2514
-313 -344 2513
-305 -343 2508
-298 -344 2516
-290 -343 2505
-283 -344 2511
-274 -341 2493
-267 -341 2494
-260 -342 2502
-252 -342 2498
-244 -340 2485
-237 -341 2493
-229 -339 2481
-222 -340 2488
-214 -339 2480
-206 -338 2471
-198 -337 2461
-192 -338 2470
-184 -337 2463
-176 -336 2453
-170 -337 2462
-163 -337 2466
-156 -337 2464
-148 -336 2460
-140 -334 2445
-133 -335 2447
-126 -335 2450
-119 -335 2445
-111 -333 2437
-104 -333 2436
-98 -335 2446
-90 -333 2437
-83 -333 2431
-76 -332 2428
-69 -333 2431
-62 -332 2428
-55 -332 2423
-48 -331 2421
-41 -332 2428
-34 -332 2423
-27 -331 2420
-20 -331 2418
-13 -332 2422
-6 -331 2414
0 -328 2393
7 -330 2410
14 -329 2397
21 -329 2403
28 -329 2398
35 -329 2398
42 -328 2392
49 -328 2387
56 -328 2392
63 -329 2400
70 -329 2399
77 -329 2393
84 -328 2391
90 -327 2379
97 -326 2373
103 -324 2358
110 -324 2356
117 -325 2362
124 -326 2367
131 -325 2362
138 -326 2368
145 -328 2382
147 -317 2302
152 -312 2269
161 -318 2306
167 -316 2294
176 -320 2322
183 -322 2336
190 -322 2337
197 -323 2339
205 -325 2354
211 -323 2340
218 -323 2337
224 -323 2337
231 -322 2329
237 -322 2326
243 -321 2319
251 -322 2331
257 -321 2322
264 -322 2326
271 -322 2324
276 -320 2313
284 -322 2319
290 -321 2314
296 -320 2305
304 -321 2314
309 -320 2303
316 -320 2303
323 -320 2302
329 -319 2297
339 -323 2323
341 -319 2290
349 -320 2295
355 -319 2288
362 -319 2290
370 -320 2298
378 -322 2309
380 -318 2276
386 -318 2274
391 -316 2264
401 -319 2280
413 -323 2307
426 -328 2341
434 -329 2347
436 -326 2323
439 -323 2301
450 -326 2323
452 -322 2294
457 -321 2287
460 -318 2265
466 -318 2263
474 -319 2266
482 -320 2271
486 -318 2259
492 -318 2253
501 -319 2262
504 -317 2247
514 -319 2260
518 -318 2247
523 -317 2239
530 -317 2240
537 -317 2242
547 -319 2252
557 -321 2264
559 -319 2246
574 -323 2275
575 -320 2252
579 -319 2242
588 -320 2250
591 -318 2235
596 -317 2225
604 -318 2231
614 -320 2240
619 -319 2232
632 -322 2254
643 -324 2266
642 -321 2241
650 -322 2243
665 -325 2268
671 -325 2264
677 -325 2260
680 -323 2246
690 -325 2255
694 -324 2245
669 -309 2140
681 -311 2157
687 -311 2154
693 -311 2150
709 -315 2178
701 -309 2134
728 -318 2192
727 -315 2169
736 -316 2174
733 -312 2143
748 -315 2167
756 -316 2169
761 -315 2161
768 -316 2162
777 -317 2168
774 -313 2138
778 -312 2129
787 -313 2134
794 -313 2133
798 -312 2125
808 -314 2133
817 -315 2136
823 -314 2132
828 -314 2126
837 -315 2130
841 -314 2122
847 -314 2120
854 -314 2118
863 -315 2123
868 -315 2116
877 -315 2119
878 -314 2104
886 -314 2104
892 -314 2102
899 -314 2100
904 -314 2095
916 -316 2104
923 -316 2104
927 -315 2096
935 -316 2096
940 -315 2090
949 -316 2093
953 -315 2084
960 -316 2083
956 -312 2057
985 -319 2103
1014 -327 2148
980 -314 2059
987 -314 2057
994 -314 2057
989 -310 2029
924 -288 1881
891 -276 1800
887 -273 1778
904 -276 1797
901 -274 1777
906 -274 1773
914 -274 1775
916 -273 1766
922 -274 1764
928 -274 1761
935 -274 1762
944 -275 1766
945 -274 1753
955 -275 1760
957 -274 1750
961 -274 1744
969 -275 1746
975 -274 1743
985 -276 1749
-1290 -328 2223
-1283 -328 2227
-1270 -327 2222
-1268 -328 2234
-1241 -323 2202
-1249 -327 2234
-1235 -325 2224
-1239 -328 2248
-1235 -329 2258
-1227 -329 2260
-1215 -327 2254
-1196 -324 2237
-1191 -325 2243
-1176 -323 2233
-1184 -327 2265
-1169 -325 2254
-1165 -326 2263
-1137 -320 2224
-1135 -322 2239
-1107 -316 2199
-1105 -317 2212
-1101 -318 2221
-1080 -314 2198
-1080 -316 2214
-1059 -312 2187
-1052 -312 2190
-1040 -311 2183
-1031 -310 2180
-1019 -309 2173
-1006 -307 2162
-1004 -308 2176
-990 -306 2161
-978 -304 2153
-979 -307 2172
-986 -311 2206
-1000 -318 2255
-998 -320 2270
-992 -320 2275
-986 -320 2279
-984 -322 2294
-982 -324 2309
-976 -324 2315
-974 -326 2329
-970 -327 2340
-964 -328 2344
-963 -330 2362
-962 -332 2381
-954 -332 2380
-951 -333 2394
-945 -334 2401
-947 -337 2427
-941 -338 2433
-938 -339 2445
-932 -340 2453
-928 -341 2464
-923 -342 2474
-920 -344 2487
-916 -345 2499
-915 -348 2521
-907 -348 2520
-901 -349 2527
-901 -352 2551
-893 -352 2553
-886 -352 2558
-883 -354 2573
-878 -355 2584
-872 -356 2590
-871 -359 2613
-862 -358 2611
-857 -360 2624
-850 -360 2629
-846 -362 2641
-837 -361 2640
-832 -362 2650
-824 -363 2654
-819 -364 2663
-811 -364 2668
-808 -366 2683
-793 -363 2664
-791 -366 2687
-781 -365 2679
-779 -368 2703
-763 -364 2677
-748 -361 2654
-743 -362 2667
-731 -360 2652
-717 -357 2630
-717 -361 2664
-703 -358 2639
-696 -359 2646
-689 -359 2649
-679 -358 2642
-669 -357 2637
-660 -356 2634
-660 -360 2664
-644 -356 2633
-636 -356 2635
-626 -355 2628
-619 -355 2630
-610 -355 2628
-601 -354 2623
-593 -354 2621
-582 -352 2610
-576 -353 2618
-567 -352 2612
-558 -351 2607
-549 -351 2604
-540 -350 2598
-533 -351 2604
-522 -348 2589
-514 -348 2585
-504 -346 2575
-498 -347 2582
-489 -347 2579
-482 -347 2579
-469 -343 2553
-461 -343 2553
-456 -345 2566
-447 -343 2558
-439 -343 2554
-431 -343 2556
-424 -343 2557
-416 -343 2556
-409 -343 2556
-400 -342 2551
-391 -341 2542
-383 -340 2535
-376 -340 2537
-368 -340 2538
-359 -339 2527
-352 -339 2533
-344 -339 2529
-335 -337 2514
-329 -339 2527
-321 -338 2523
-314 -338 2523
-305 -336 2512
-298 -336 2510
-289 -335 2502
-282 -335 2504
-274 -335 2500
-267 -334 2499
-259 -334 2495
-251 -333 2486
-244 -334 2493
-237 -333 2490
-230 -334 2496
-222 -333 2488
-213 -330 2469
-206 -331 2472
-199 -331 2472
-192 -330 2470
-184 -329 2458
-177 -330 2465
-169 -329 2458
-162 -329 2460
-156 -330 2465
-147 -328 2448
-141 -329 2458
-133 -327 2443
-126 -328 2454
-119 -327 2444
-112 -327 2446
-105 -327 2442
-97 -326 2434
-90 -326 2437
-83 -326 2437
-76 -325 2427
-69 -326 2431
-62 -324 2419
-55 -325 2426
-48 -326 2431
-41 -325 2424
-34 -326 2436
-27 -324 2421
-20 -324 2416
-13 -324 2417
-6 -325 2422
0 -323 2406
7 -327 2441
14 -317 2364
21 -323 2409
28 -321 2396
35 -322 2401
42 -322 2400
49 -320 2384
56 -319 2378
63 -321 2388
70 -321 2391
77 -322 2398
84 -321 2391
90 -321 2387
97 -320 2377
103 -319 2371
110 -318 2365
117 -318 2364
124 -319 2368
131 -318 2362
138 -319 2366
145 -320 2378
148 -312 2314
153 -309 2291
160 -309 2295
167 -311 2303
174 -311 2305
183 -314 2329
193 -320 2372
197 -316 2339
206 -319 2361
213 -319 2362
217 -316 2334
225 -316 2339
230 -314 2322
237 -314 2322
244 -316 2332
250 -314 2322
257 -314 2319
263 -314 2319
270 -314 2316
276 -313 2308
285 -316 2328
291 -315 2322
296 -313 2305
303 -314 2311
310 -314 2312
317 -314 2309
323 -313 2302
328 -312 2290
333 -311 2281
339 -309 2271
348 -312 2291
354 -311 2283
363 -314 2299
372 -315 2311
375 -313 2291
381 -312 2281
387 -311 2278
392 -310 2266
403 -313 2291
415 -318 2320
420 -316 2307
430 -319 2326
439 -320 2335
438 -315 2295
444 -314 2289
449 -313 2282
457 -314 2286
457 -310 2253
460 -307 2233
471 -310 2254
479 -311 2258
478 -306 2219
487 -308 2231
500 -312 2259
508 -313 2265
508 -309 2233
519 -311 2251
520 -308 2228
528 -309 2232
538 -311 2244
545 -311 2244
555 -313 2256
563 -314 2262
572 -315 2269
579 -315 2268
581 -313 2250
584 -311 2233
590 -311 2231
601 -313 2245
605 -312 2235
614 -313 2240
622 -314 2245
631 -315 2250
637 -315 2249
644 -315 2248
648 -314 2236
657 -315 2244
667 -317 2252
673 -316 2246
681 -317 2249
685 -316 2240
691 -315 2235
682 -308 2182
678 -304 2150
691 -307 2168
692 -304 2149
700 -305 2152
703 -304 2140
704 -301 2122
716 -303 2135
729 -306 2153
731 -304 2138
731 -302 2119
750 -307 2152
757 -307 2153
762 -307 2145
768 -306 2141
775 -307 2142
773 -303 2116
786 -306 2132
791 -306 2127
799 -306 2127
806 -307 2128
812 -306 2123
821 -307 2129
827 -307 2125
830 -306 2115
837 -306 2112
845 -307 2113
853 -307 2117
858 -307 2111
863 -306 2105
870 -307 2103
876 -306 2100
885 -307 2104
891 -307 2100
896 -307 2093
902 -307 2091
912 -308 2097
916 -307 2087
925 -308 2092
929 -307 2084
938 -308 2085
937 -306 2068
949 -307 2076
956 -308 2075
960 -307 2068
985 -313 2105
1016 -321 2153
988 -310 2078
984 -307 2053
994 -308 2058
985 -303 2022
926 -283 1885
889 -270 1796
891 -269 1786
895 -268 1780
904 -269 1783
907 -268 1777
920 -271 1788
919 -268 1771
924 -268 1768
926 -267 1759
935 -268 1762
940 -268 1759
944 -268 1752
950 -268 1751
955 -268 1746
965 -269 1752
965 -268 1739
974 -269 1742
981 -269 1741
-1311 -326 2260
-1293 -323 2247
-1283 -322 2245
-1280 -324 2257
-1272 -323 2259
-1271 -325 2274
-1251 -322 2254
-1244 -322 2258
-1228 -320 2247
-1246 -327 2297
-1213 -320 2252
-1213 -322 2270
-1191 -318 2244
-1172 -315 2227
-1171 -316 2240
-1161 -316 2239
-1150 -315 2234
-1137 -313 2227
-1117 -309 2203
-1113 -310 2213
-1092 -306 2187
-1084 -306 2188
-1068 -304 2173
-1070 -306 2194
-1051 -303 2172
-1047 -304 2181
-1044 -305 2191
-1028 -302 2176
-1015 -301 2166
-1009 -301 2170
-995 -299 2156
-992 -300 2167
-979 -298 2156
-971 -298 2156
-987 -305 2209
-999 -311 2255
-997 -312 2268
-992 -313 2276
-988 -314 2286
-985 -315 2297
-980 -316 2306
-975 -317 2312
-976 -319 2334
-970 -320 2340
-966 -321 2349
-967 -324 2372
-960 -324 2376
-958 -326 2392
-953 -327 2399
-950 -328 2413
-944 -329 2418
-940 -330 2430
-934 -331 2437
-931 -332 2451
-931 -335 2473
-929 -337 2489
-920 -337 2489
-918 -339 2505
-913 -339 2514
-910 -341 2530
-903 -342 2533
-900 -344 2550
-895 -345 2560
-886 -344 2558
-885 -347 2581
-882 -349 2595
-873 -348 2593
-867 -349 2601
-861 -350 2611
-856 -351 2620
-849 -352 2625
-845 -353 2639
-836 -353 2637
-835 -356 2662
-825 -355 2656
-817 -355 2659
-808 -354 2656
-806 -357 2679
-802 -359 2696
-789 -357 2679
-778 -356 2670
-775 -358 2688
-768 -358 2693
-748 -353 2656
-722 -344 2592
-738 -356 2680
-722 -352 2652
-714 -352 2653
-705 -351 2648
-697 -351 2650
-687 -350 2643
-680 -351 2650
-671 -350 2646
-660 -349 2635
-650 -347 2626
-644 -348 2633
-635 -348 2630
-626 -347 2630
-618 -347 2628
-607 -346 2617
-601 -346 2622
-591 -345 2615
-582 -344 2610
-575 -345 2615
-567 -344 2613
-560 -345 2619
-549 -343 2605
-542 -344 2609
-532 -342 2599
-524 -342 2596
-517 -342 2601
-506 -340 2584
-496 -339 2575
-490 -339 2582
-480 -338 2569
-469 -336 2554
-461 -335 2552
-455 -336 2560
-447 -336 2558
-440 -336 2562
-432 -336 2562
-426 -337 2569
-416 -335 2555
-408 -335 2550
-400 -335 2550
-392 -334 2545
-385 -335 2553
-377 -334 2549
-369 -333 2542
-360 -332 2536
-352 -332 2530
-345 -332 2530
-336 -331 2524
-329 -331 2523
-321 -330 2520
-313 -330 2519
-304 -328 2503
-298 -329 2513
-290 -328 2505
-282 -328 2508
-274 -327 2498
-266 -326 2490
-260 -327 2501
-253 -328 2502
-244 -326 2492
-236 -325 2480
-230 -327 2497
-223 -327 2502
-215 -325 2485
-207 -324 2475
-199 -324 2472
-192 -323 2471
-184 -322 2463
-177 -322 2462
-170 -323 2467
-163 -323 2471
-155 -322 2456
-148 -321 2453
-140 -320 2445
-133 -321 2452
-126 -320 2447
-119 -320 2447
-112 -320 2446
-105 -320 2446
-98 -320 2447
-90 -320 2441
-83 -320 2442
-76 -320 2440
-69 -320 2440
-62 -319 2439
-55 -318 2427
-48 -318 2429
-41 -319 2433
-34 -318 2426
-26 -317 2420
-19 -317 2418
-12 -317 2417
-5 -317 2418
0 -318 2421
7 -310 2366
14 -316 2410
21 -315 2397
28 -316 2406
35 -314 2395
42 -314 2389
49 -313 2386
56 -314 2393
63 -315 2395
70 -314 2389
77 -315 2398
84 -314 2391
90 -314 2387
97 -313 2382
104 -313 2380
110 -311 2366
117 -312 2369
124 -312 2370
131 -311 2364
138 -312 2367
145 -314 2383
149 -308 2335
155 -305 2316
162 -306 2321
167 -303 2298
176 -306 2321
184 -310 2348
191 -309 2341
198 -310 2344
205 -311 2353
210 -307 2323
218 -310 2342
224 -309 2335
232 -310 2345
237 -308 2325
243 -308 2322
250 -308 2322
258 -309 2329
263 -307 2317
271 -308 2324
276 -307 2313
285 -309 2325
292 -309 2326
297 -307 2315
303 -307 2309
309 -306 2303
317 -308 2313
322 -306 2300
329 -306 2300
334 -304 2283
342 -306 2296
348 -305 2290
356 -307 2299
361 -305 2283
371 -308 2306
374 -305 2284
381 -305 2284
388 -305 2282
393 -304 2274
401 -305 2282
413 -309 2308
418 -308 2300
425 -309 2302
428 -306 2278
433 -305 2269
439 -304 2265
447 -305 2268
453 -305 2268
459 -304 2262
458 -299 2222
473 -305 2261
480 -305 2263
481 -302 2237
495 -306 2270
499 -305 2258
506 -305 2258
501 -298 2204
512 -300 2220
525 -304 2248
531 -304 2247
536 -304 2239
545 -305 2245
555 -306 2256
560 -306 2251
566 -305 2245
571 -305 2240
575 -303 2228
583 -304 2230
587 -303 2220
594 -303 2219
602 -304 2223
607 -303 2215
616 -304 2222
629 -308 2246
628 -304 2217
637 -305 2221
644 -305 2221
654 -306 2231
658 -306 2224
669 -308 2237
669 -305 2211
686 -309 2242
692 -309 2241
682 -302 2184
681 -298 2157
702 -305 2203
699 -301 2172
704 -300 2165
708 -299 2156
717 -300 2159
724 -300 2161
731 -300 2159
737 -300 2156
750 -303 2175
750 -301 2154
758 -301 2154
761 -300 2144
771 -301 2150
776 -301 2146
781 -300 2139
789 -301 2140
792 -299 2129
798 -299 2127
805 -299 2124
813 -300 2127
820 -301 2128
827 -301 2127
831 -300 2116
836 -299 2111
844 -300 2112
851 -300 2111
858 -300 2110
864 -300 2108
874 -301 2113
878 -301 2106
883 -300 2100
890 -300 2098
898 -301 2099
902 -300 2092
908 -300 2088
916 -300 2088
927 -302 2096
930 -301 2087
937 -301 2084
940 -300 2075
952 -302 2084
955 -301 2073
963 -301 2075
985 -306 2104
1012 -313 2145
985 -302 2072
986 -300 2056
998 -302 2067
986 -297 2025
921 -275 1876
893 -265 1804
887 -262 1779
895 -262 1781
899 -262 1775
908 -263 1778
917 -264 1783
919 -263 1772
923 -262 1766
932 -264 1772
937 -263 1767
939 -262 1756
947 -263 1760
952 -263 1754
956 -263 1750
970 -265 1761
961 -261 1732
973 -263 1741
987 -265 1753
-1339 -325 2310
-1328 -324 2309
-1292 -317 2262
-1295 -320 2284
-1296 -322 2302
-1275 -319 2282
-1254 -315 2260
-1234 -312 2242
-1234 -314 2259
-1207 -309 2225
-1203 -310 2234
-1189 -308 2225
-1182 -308 2229
-1157 -304 2199
-1151 -304 2203
-1148 -305 2214
-1135 -304 2207
-1139 -307 2231
-1117 -303 2206
-1115 -304 2218
-1096 -301 2197
-1087 -300 2195
-1073 -298 2184
-1065 -298 2184
-1054 -297 2180
-1058 -300 2205
-1035 -295 2174
-1033 -297 2187
-1029 -298 2196
-1016 -296 2186
-1006 -295 2181
-995 -294 2175
-980 -292 2159
-973 -291 2161
-989 -298 2214
-1000 -304 2258
-996 -305 2267
-994 -306 2281
-988 -307 2287
-986 -308 2301
-979 -309 2304
-979 -311 2323
-973 -311 2329
-971 -313 2344
-967 -314 2353
-964 -315 2366
-960 -317 2377
-955 -317 2385
-952 -319 2399
-949 -320 2412
-947 -322 2428
-945 -324 2445
-936 -324 2444
-936 -326 2465
-929 -327 2470
-924 -328 2478
-920 -329 2490
-918 -331 2506
-913 -332 2517
-910 -334 2531
-902 -334 2534
-903 -337 2558
-892 -336 2554
-887 -337 2561
-884 -339 2577
-878 -339 2585
-873 -341 2597
-867 -341 2604
-862 -342 2613
-856 -343 2621
-850 -344 2630
-844 -345 2638
-836 -345 2638
-828 -345 2642
-823 -346 2651
-816 -347 2658
-813 -349 2676
-804 -348 2673
-801 -351 2693
-792 -350 2691
-776 -347 2665
-777 -351 2698
-766 -350 2689
-750 -346 2663
-730 -340 2621
-726 -342 2635
-723 -345 2657
-715 -345 2657
-703 -343 2644
-699 -345 2660
-690 -344 2656
-681 -343 2654
-672 -343 2649
-662 -342 2641
-650 -340 2626
-646 -342 2643
-638 -342 2644
-627 -340 2631
-619 -340 2633
-608 -338 2622
-601 -339 2625
-593 -339 2625
-580 -336 2603
-575 -337 2614
-568 -337 2619
-561 -338 2624
-550 -336 2612
-542 -336 2610
-532 -335 2600
-526 -336 2609
-516 -334 2599
-506 -332 2586
-497 -332 2582
-488 -331 2576
-482 -332 2583
-471 -329 2564
-457 -325 2529
-456 -329 2565
-448 -330 2568
-440 -329 2564
-432 -328 2560
-423 -328 2555
-416 -328 2555
-409 -328 2558
-400 -327 2554
-392 -327 2549
-383 -326 2542
-377 -327 2550
-368 -325 2536
-361 -325 2541
-352 -324 2532
-344 -324 2529
-337 -324 2528
-328 -323 2521
-320 -322 2515
-313 -322 2517
-305 -322 2516
-298 -322 2519
-290 -321 2512
-282 -321 2506
-275 -321 2509
-267 -321 2505
-260 -321 2505
-252 -320 2502
-244 -319 2491
-238 -320 2503
-231 -321 2507
-222 -319 2491
-215 -318 2489
-206 -317 2475
-200 -317 2479
-192 -316 2469
-184 -315 2459
-177 -316 2471
-169 -315 2460
-163 -316 2467
-154 -313 2449
-148 -315 2462
-141 -314 2457
-134 -315 2463
-126 -314 2456
-119 -314 2454
-112 -314 2456
-105 -314 2451
-98 -314 2453
-90 -313 2442
-83 -313 2443
-76 -313 2448
-69 -313 2445
-62 -312 2439
-55 -312 2433
-48 -312 2433
-41 -311 2427
-33 -311 2424
-27 -312 2434
-19 -310 2422
-12 -311 2426
-5 -311 2430
1 -310 2420
8 -309 2412
14 -308 2405
22 -310 2415
28 -309 2408
35 -309 2408
42 -308 2398
49 -307 2391
56 -307 2394
63 -308 2395
70 -309 2407
77 -308 2400
84 -308 2400
90 -307 2388
97 -307 2388
104 -306 2376
110 -305 2369
117 -305 2368
124 -304 2363
131 -305 2368
138 -305 2367
146 -308 2390
148 -298 2317
154 -297 2308
163 -300 2329
168 -298 2314
174 -297 2304
183 -301 2331
192 -305 2359
197 -301 2332
205 -303 2344
210 -301 2329
217 -302 2334
225 -303 2343
231 -303 2339
237 -302 2331
244 -301 2326
251 -301 2326
257 -301 2324
264 -301 2325
271 -301 2322
278 -302 2330
285 -302 2324
292 -302 2327
297 -301 2317
304 -301 2314
310 -301 2313
316 -300 2305
323 -300 2305
328 -299 2294
336 -300 2301
342 -299 2298
349 -299 2296
355 -299 2293
358 -295 2264
369 -300 2296
374 -298 2285
380 -297 2276
387 -298 2276
393 -297 2272
402 -300 2289
411 -301 2301
417 -301 2294
422 -300 2285
427 -298 2273
433 -298 2268
440 -298 2268
444 -296 2253
453 -298 2269
454 -294 2238
463 -296 2249
473 -298 2265
479 -298 2258
480 -295 2234
487 -295 2234
504 -301 2279
502 -296 2238
504 -293 2216
513 -295 2229
517 -293 2215
522 -292 2208
534 -296 2230
547 -299 2252
553 -299 2251
562 -300 2258
563 -297 2234
574 -299 2250
576 -297 2232
583 -297 2229
586 -296 2216
592 -295 2213
603 -298 2228
597 -291 2178
609 -294 2197
625 -299 2232
629 -298 2221
637 -298 2222
643 -298 2219
648 -297 2211
655 -297 2211
659 -296 2203
668 -297 2209
676 -298 2211
681 -298 2206
688 -298 2204
679 -291 2151
684 -290 2145
698 -294 2169
700 -292 2152
709 -293 2160
717 -293 2161
722 -293 2154
728 -293 2151
737 -294 2159
740 -293 2147
747 -293 2145
754 -293 2144
759 -292 2137
767 -293 2141
772 -293 2135
778 -292 2131
786 -293 2134
789 -292 2122
800 -293 2131
804 -292 2122
810 -292 2120
819 -294 2125
825 -293 2120
833 -294 2123
839 -294 2119
844 -293 2114
847 -292 2104
856 -293 2106
863 -293 2104
868 -293 2100
875 -293 2098
884 -294 2103
894 -295 2108
896 -294 2095
905 -294 2098
911 -294 2095
915 -294 2088
922 -294 2085
930 -294 2087
935 -294 2081
941 -294 2078
948 -294 2076
954 -294 2072
953 -292 2054
986 -300 2108
1017 -307 2156
988 -297 2078
982 -293 2050
996 -295 2063
987 -291 2029
928 -271 1891
897 -261 1813
890 -257 1785
891 -256 1774
898 -256 1773
904 -256 1772
909 -256 1768
914 -256 1764
924 -257 1770
926 -256 1760
939 -258 1771
936 -256 1752
944 -256 1754
957 -259 1765
950 -255 1739
956 -255 1737
971 -258 1751
979 -258 1752
976 -256 1735
-1331 -316 2298
-1313 -313 2282
-1306 -313 2287
-1277 -308 2253
-1271 -308 2259
-1261 -308 2258
-1243 -305 2242
-1232 -304 2238
-1223 -304 2239
-1209 -302 2230
-1205 -303 2239
-1200 -304 2247
-1164 -297 2196
-1172 -300 2228
-1156 -298 2214
-1156 -300 2230
-1130 -295 2198
-1133 -298 2221
-1121 -296 2213
-1112 -296 2213
-1107 -297 2220
-1097 -296 2217
-1082 -294 2204
-1080 -295 2218
-1059 -291 2191
-1055 -292 2200
-1044 -291 2193
-1030 -289 2182
-1023 -289 2183
-1019 -290 2193
-1003 -288 2177
-997 -288 2180
-976 -284 2152
-977 -286 2171
-988 -291 2213
-1000 -297 2259
-994 -297 2264
-991 -298 2276
-989 -300 2290
-983 -300 2295
-985 -303 2320
-978 -303 2321
-975 -305 2333
-972 -306 2346
-971 -308 2366
-966 -309 2371
-962 -310 2382
-953 -309 2380
-954 -312 2405
-947 -312 2408
-947 -315 2429
-942 -316 2438
-936 -316 2444
-934 -318 2461
-932 -320 2478
-924 -320 2478
-924 -323 2500
-915 -322 2501
-911 -324 2513
-911 -326 2534
-904 -327 2538
-899 -328 2550
-896 -329 2563
-889 -330 2568
-886 -331 2584
-878 -332 2587
-871 -332 2591
-867 -334 2605
-861 -334 2611
-857 -336 2627
-848 -335 2624
-845 -337 2642
-836 -337 2640
-832 -339 2655
-821 -338 2647
-820 -340 2670
-813 -341 2675
-805 -341 2678
-801 -343 2694
-791 -342 2689
-780 -341 2680
-775 -342 2691
-766 -342 2691
-749 -338 2660
-751 -342 2698
-752 -347 2733
-725 -338 2665
-718 -338 2670
-706 -336 2656
-699 -336 2658
-690 -336 2658
-680 -335 2650
-672 -335 2651
-662 -334 2645
-652 -333 2637
-647 -334 2648
-638 -334 2644
-627 -332 2635
-618 -332 2631
-611 -332 2636
-601 -331 2625
-594 -332 2632
-582 -329 2613
-573 -328 2607
-569 -331 2627
-561 -330 2626
-550 -328 2610
-542 -329 2613
-535 -329 2615
-527 -328 2613
-518 -328 2610
-507 -326 2593
-499 -325 2591
-490 -324 2584
-480 -323 2574
-474 -324 2581
-464 -322 2570
-457 -323 2574
-448 -322 2568
-441 -322 2568
-432 -321 2564
-423 -320 2554
-417 -321 2564
-407 -319 2550
-401 -320 2556
-392 -319 2549
-384 -319 2544
-377 -319 2549
-369 -319 2546
-360 -318 2538
-353 -318 2540
-345 -317 2535
-336 -316 2528
-329 -316 2527
-321 -315 2522
-313 -315 2515
-305 -315 2517
-298 -314 2514
-291 -315 2516
-283 -314 2513
-275 -314 2509
-267 -313 2501
-260 -313 2504
-253 -313 2506
-244 -311 2488
-237 -311 2492
-231 -313 2504
-223 -313 2501
-215 -312 2492
-207 -311 2488
-199 -310 2477
-191 -309 2469
-184 -308 2465
-177 -308 2467
-169 -308 2461
-162 -308 2463
-155 -308 2462
-148 -308 2461
-141 -308 2466
-134 -308 2461
-126 -306 2449
-119 -307 2453
-112 -308 2459
-105 -306 2449
-98 -307 2454
-90 -306 2448
-83 -305 2441
-76 -305 2441
-69 -306 2443
-62 -305 2441
-55 -305 2440
-48 -305 2440
-41 -305 2438
-34 -304 2428
-27 -304 2430
-20 -305 2433
-12 -304 2425
-5 -304 2428
1 -303 2418
8 -302 2412
15 -302 2408
22 -302 2410
28 -301 2400
36 -303 2417
42 -301 2397
49 -301 2399
56 -300 2388
63 -300 2393
70 -301 2399
77 -301 2396
84 -301 2395
90 -299 2384
97 -301 2392
103 -298 2369
110 -297 2366
117 -298 2369
124 -298 2367
131 -298 2367
138 -298 2371
146 -300 2385
150 -296 2349
155 -292 2318
162 -292 2317
168 -291 2309
176 -293 2325
184 -296 2347
192 -297 2357
199 -298 2362
204 -295 2334
212 -297 2355
218 -296 2339
225 -296 2343
231 -296 2338
238 -295 2335
244 -295 2332
251 -295 2330
258 -295 2328
264 -294 2323
271 -295 2325
278 -295 2326
284 -295 2323
293 -297 2338
297 -294 2314
304 -294 2316
310 -293 2310
317 -293 2308
322 -292 2301
329 -292 2298
336 -292 2298
342 -292 2294
348 -292 2292
352 -290 2275
356 -287 2254
361 -286 2244
373 -291 2278
381 -291 2281
387 -291 2280
394 -291 2279
402 -293 2289
410 -293 2292
423 -298 2327
424 -294 2292
429 -293 2286
434 -292 2274
439 -291 2264
445 -290 2259
452 -290 2261
458 -290 2260
466 -291 2261
473 -291 2263
477 -290 2252
484 -290 2251
492 -291 2254
497 -290 2250
505 -291 2252
505 -287 2220
517 -290 2244
520 -289 2230
530 -290 2240
539 -291 2249
544 -291 2242
553 -292 2252
565 -295 2273
563 -290 2233
571 -291 2240
576 -290 2230
582 -290 2229
589 -290 2227
594 -290 2221
613 -296 2266
604 -288 2206
607 -286 2191
624 -292 2229
628 -290 2218
632 -289 2205
642 -291 2217
651 -292 2225
656 -291 2217
660 -290 2205
667 -291 2207
676 -291 2212
683 -292 2211
690 -292 2211
682 -286 2163
687 -285 2156
697 -287 2165
709 -289 2181
713 -288 2172
724 -290 2182
735 -291 2194
742 -292 2194
758 -296 2219
764 -295 2215
768 -294 2205
768 -292 2186
763 -287 2149
769 -287 2147
779 -289 2154
777 -286 2130
784 -286 2129
793 -287 2134
799 -287 2130
806 -287 2130
809 -286 2119
820 -287 2127
825 -287 2121
828 -286 2112
838 -287 2118
844 -287 2114
851 -287 2113
859 -287 2114
863 -287 2105
870 -287 2105
879 -288 2109
880 -286 2094
892 -288 2104
895 -287 2093
907 -289 2104
907 -287 2086
916 -287 2089
925 -288 2092
931 -288 2089
935 -287 2081
941 -287 2078
952 -289 2086
952 -287 2068
959 -287 2068
985 -293 2107
1015 -300 2153
988 -290 2080
984 -287 2053
996 -288 2062
988 -284 2031
930 -266 1895
896 -254 1812
892 -252 1789
896 -251 1784
901 -251 1781
905 -251 1774
913 -251 1777
921 -252 1777
922 -251 1766
919 -249 1748
928 -250 1751
942 -252 1764
943 -251 1753
952 -251 1756
955 -251 1748
961 -251 1747
965 -250 1740
971 -251 1739
983 -252 1747
-1322 -306 2283
-1305 -304 2270
-1295 -303 2269
-1279 -301 2258
-1255 -297 2231
-1255 -299 2247
-1239 -297 2236
-1230 -297 2236
-1231 -299 2255
-1224 -299 2258
-1206 -296 2243
-1202 -297 2251
-1186 -295 2238
-1173 -294 2232
-1168 -294 2239
-1154 -293 2228
-1145 -292 2227
-1140 -293 2235
-1127 -291 2226
-1119 -291 2227
-1102 -288 2210
-1092 -288 2207
-1086 -288 2213
-1077 -287 2212
-1066 -286 2206
-1060 -287 2212
-1048 -285 2203
-1033 -283 2189
-1032 -285 2204
-1014 -282 2184
-1007 -282 2185
-996 -281 2180
-985 -279 2172
-974 -278 2165
-986 -284 2211
-1005 -291 2270
-1001 -292 2280
-992 -292 2279
-990 -293 2293
-984 -294 2298
-982 -295 2313
-979 -296 2325
-975 -298 2335
-971 -299 2346
-965 -299 2352
-969 -302 2380
-962 -303 2384
-958 -304 2395
-959 -306 2417
-945 -304 2404
-946 -307 2429
-942 -308 2438
-938 -309 2449
-932 -310 2458
-928 -311 2469
-926 -313 2486
-922 -314 2496
-916 -315 2504
-915 -317 2523
-910 -318 2534
-903 -319 2536
-898 -320 2548
-896 -322 2565
-890 -323 2574
-878 -321 2564
-881 -325 2596
-869 -323 2586
-866 -325 2601
-860 -326 2611
-852 -326 2613
-848 -327 2624
-843 -329 2638
-838 -330 2648
-831 -330 2653
-822 -330 2652
-817 -331 2664
-808 -331 2659
-803 -332 2673
-795 -332 2675
-791 -334 2691
-777 -331 2669
-771 -332 2679
-766 -334 2691
-750 -330 2665
-740 -329 2658
-737 -331 2677
-723 -329 2659
-713 -328 2650
-709 -330 2666
-697 -328 2652
-688 -327 2651
-680 -327 2649
-672 -327 2652
-661 -326 2641
-653 -326 2642
-647 -327 2649
-638 -326 2648
-628 -325 2641
-620 -325 2638
-611 -324 2636
-604 -325 2639
-591 -322 2620
-583 -322 2619
-572 -320 2604
-567 -322 2618
-561 -323 2627
-550 -321 2614
-543 -321 2615
-533 -320 2608
-526 -320 2609
-517 -320 2606
-507 -318 2596
-497 -317 2584
-491 -317 2590
-481 -316 2581
-474 -316 2581
-464 -315 2569
-457 -316 2577
-448 -314 2569
-441 -315 2572
-434 -315 2576
-424 -313 2562
-415 -312 2552
-408 -312 2553
-400 -312 2551
-393 -313 2559
-384 -311 2548
-376 -311 2541
-368 -310 2540
-360 -310 2537
-353 -310 2539
-345 -310 2539
-337 -309 2533
-329 -309 2531
-322 -309 2531
-314 -309 2528
-306 -308 2522
-298 -307 2516
-290 -307 2515
-282 -306 2508
-275 -307 2511
-266 -305 2495
-260 -305 2502
-253 -306 2507
-245 -305 2501
-237 -304 2494
-231 -307 2512
-222 -304 2491
-215 -304 2490
-206 -302 2476
-200 -303 2481
-192 -302 2478
-184 -301 2466
-176 -300 2459
-170 -301 2469
-163 -302 2473
-156 -302 2474
-148 -301 2463
-141 -300 2460
-134 -301 2465
-126 -300 2456
-119 -299 2451
-112 -300 2455
-105 -300 2455
-98 -300 2457
-90 -298 2442
-83 -299 2450
-76 -299 2446
-69 -299 2444
-62 -298 2442
-55 -300 2452
-48 -299 2444
-41 -298 2436
-34 -299 2443
-27 -298 2440
-19 -296 2420
-12 -296 2423
-5 -296 2416
1 -296 2421
8 -296 2418
15 -296 2420
22 -295 2406
28 -294 2398
35 -295 2408
42 -294 2397
49 -294 2396
56 -293 2388
63 -294 2398
70 -293 2387
77 -293 2390
84 -293 2391
90 -292 2383
97 -292 2378
104 -291 2374
110 -291 2372
117 -290 2365
124 -291 2368
131 -291 2369
138 -292 2373
145 -293 2382
152 -293 2383
157 -288 2344
166 -293 2383
172 -291 2364
178 -289 2349
185 -290 2351
191 -289 2347
199 -290 2355
205 -289 2347
211 -289 2342
218 -289 2341
225 -289 2340
231 -288 2336
237 -287 2326
245 -288 2333
251 -288 2331
258 -288 2333
264 -288 2327
271 -288 2325
275 -285 2302
280 -284 2290
289 -285 2303
297 -287 2312
303 -287 2311
311 -287 2314
317 -287 2314
323 -287 2308
329 -286 2298
337 -287 2308
342 -286 2299
348 -285 2287
351 -282 2268
346 -273 2190
362 -281 2253
367 -279 2240
381 -285 2282
387 -284 2279
393 -284 2277
400 -284 2274
412 -288 2303
419 -289 2308
423 -287 2292
429 -286 2285
434 -285 2277
440 -285 2271
447 -285 2271
454 -285 2271
461 -285 2270
466 -284 2264
473 -285 2264
478 -284 2257
483 -283 2248
491 -284 2252
497 -283 2247
503 -283 2244
510 -283 2244
517 -284 2245
513 -278 2199
526 -282 2226
530 -280 2212
539 -281 2221
542 -280 2206
560 -285 2251
566 -285 2246
574 -286 2251
578 -285 2239
580 -282 2220
586 -282 2218
593 -283 2219
602 -284 2223
601 -280 2196
605 -279 2184
622 -284 2220
632 -285 2230
636 -284 2222
644 -285 2223
653 -286 2231
654 -284 2211
663 -285 2215
669 -285 2213
672 -283 2201
680 -284 2203
693 -286 2220
692 -283 2194
691 -280 2170
703 -283 2186
701 -279 2157
710 -280 2162
722 -282 2177
712 -276 2127
724 -278 2139
725 -276 2124
733 -277 2125
742 -278 2131
757 -281 2153
765 -282 2156
765 -279 2137
769 -278 2127
779 -280 2134
783 -279 2126
792 -280 2130
798 -280 2129
805 -280 2128
809 -279 2119
815 -279 2116
826 -281 2125
830 -280 2115
834 -279 2109
844 -280 2115
852 -281 2116
857 -280 2110
864 -281 2110
872 -281 2109
878 -281 2107
881 -280 2096
891 -281 2102
897 -281 2100
902 -280 2092
907 -280 2087
919 -282 2097
920 -280 2082
931 -282 2090
935 -281 2082
941 -281 2078
945 -280 2071
955 -281 2076
951 -278 2050
979 -285 2094
1013 -293 2150
994 -285 2093
984 -280 2055
990 -280 2051
990 -279 2036
941 -263 1919
893 -248 1806
891 -246 1788
900 -247 1793
905 -247 1788
901 -244 1766
912 -245 1775
916 -245 1769
920 -245 1763
930 -246 1768
934 -245 1762
937 -245 1756
947 -246 1762
947 -244 1747
957 -246 1752
962 -245 1748
967 -245 1745
971 -245 1739
972 -244 1728
-1315 -297 2272
-1296 -294 2254
-1287 -294 2256
-1275 -293 2251
-1273 -294 2265
-1263 -294 2263
-1250 -293 2258
-1234 -290 2244
-1237 -293 2267
-1219 -290 2250
-1215 -291 2260
-1201 -290 2252
-1190 -289 2247
-1177 -287 2240
-1166 -286 2235
-1159 -287 2239
-1150 -286 2238
-1135 -284 2225
-1119 -282 2212
-1114 -283 2219
-1105 -282 2218
-1096 -282 2218
-1088 -281 2218
-1076 -280 2211
-1068 -280 2211
-1055 -278 2201
-1052 -279 2212
-1040 -278 2205
-1027 -277 2195
-1018 -276 2194
-1005 -274 2182
-999 -275 2186
-979 -271 2160
-979 -273 2177
-994 -279 2229
-997 -282 2254
-998 -284 2274
-995 -285 2286
-991 -287 2297
-985 -287 2301
-981 -288 2312
-983 -290 2334
-978 -291 2343
-973 -292 2351
-969 -293 2362
-963 -294 2368
-965 -296 2392
-956 -296 2391
-955 -298 2410
-950 -299 2416
-946 -300 2429
-942 -301 2439
-941 -303 2458
-933 -303 2460
-927 -303 2466
-921 -304 2473
-924 -308 2504
-917 -308 2506
-911 -308 2513
-908 -310 2527
-903 -311 2539
-897 -312 2546
-893 -313 2559
-889 -314 2570
-885 -316 2584
-879 -316 2591
-874 -317 2602
-866 -317 2603
-861 -318 2613
-857 -320 2628
-848 -320 2625
-843 -321 2637
-835 -321 2638
-828 -321 2644
-824 -323 2659
-815 -323 2658
-809 -323 2666
-802 -324 2671
-797 -325 2682
-784 -323 2667
-775 -322 2664
-770 -324 2676
-768 -327 2700
-750 -322 2664
-738 -321 2654
-740 -325 2690
-723 -321 2658
-717 -322 2667
-710 -322 2673
-698 -320 2658
-690 -320 2660
-680 -320 2653
-672 -319 2653
-662 -318 2646
-656 -319 2653
-646 -319 2649
-640 -319 2655
-629 -318 2644
-619 -316 2634
-608 -315 2623
-603 -317 2637
-595 -317 2639
-584 -315 2624
-573 -313 2610
-567 -314 2619
-563 -316 2636
-551 -314 2620
-541 -312 2606
-533 -312 2607
-526 -313 2613
-519 -313 2615
-507 -310 2594
-498 -310 2588
-490 -309 2585
-482 -309 2585
-473 -308 2578
-452 -300 2507
-457 -308 2576
-448 -307 2571
-442 -308 2576
-434 -308 2577
-426 -307 2574
-417 -306 2563
-409 -306 2563
-400 -305 2556
-393 -305 2559
-386 -306 2564
-377 -305 2553
-368 -303 2541
-360 -303 2541
-353 -303 2545
-345 -303 2538
-336 -301 2529
-329 -301 2528
-322 -302 2531
-314 -301 2525
-306 -300 2520
-298 -300 2515
-290 -300 2514
-283 -299 2513
-274 -298 2503
-266 -297 2496
-259 -298 2502
-253 -299 2506
-245 -298 2503
-238 -299 2510
-231 -299 2510
-223 -298 2501
-215 -297 2493
-206 -295 2473
-199 -296 2482
-192 -296 2483
-184 -294 2468
-177 -294 2471
-170 -294 2466
-162 -294 2467
-155 -293 2459
-148 -294 2465
-141 -293 2462
-133 -293 2460
-126 -293 2455
-119 -293 2462
-112 -293 2462
-105 -292 2453
-98 -292 2453
-90 -292 2450
-83 -292 2449
-76 -293 2454
-69 -293 2454
-62 -292 2450
-55 -292 2448
-48 -291 2443
-40 -290 2432
-33 -291 2435
-26 -291 2435
-19 -289 2425
-12 -289 2420
-5 -289 2419
1 -288 2413
8 -288 2411
15 -288 2411
22 -288 2409
28 -287 2403
35 -288 2406
42 -288 2405
49 -287 2397
56 -286 2394
63 -287 2398
70 -287 2396
77 -286 2387
84 -286 2389
90 -285 2381
97 -286 2385
104 -286 2383
110 -284 2371
117 -284 2369
124 -284 2367
130 -283 2360
139 -286 2383
146 -286 2383
152 -285 2377
159 -286 2380
165 -284 2361
172 -284 2359
178 -284 2359
184 -282 2349
191 -282 2344
198 -282 2343
204 -282 2342
211 -281 2336
218 -282 2344
225 -282 2341
231 -282 2340
238 -282 2336
244 -281 2333
251 -281 2330
258 -282 2334
264 -281 2325
270 -280 2316
269 -272 2253
275 -271 2244
281 -271 2238
297 -281 2318
304 -281 2318
310 -280 2312
317 -280 2309
322 -279 2301
330 -280 2311
336 -279 2303
342 -279 2299
349 -279 2296
355 -279 2293
353 -272 2237
358 -271 2225
374 -278 2283
380 -278 2280
387 -278 2283
394 -278 2282
407 -283 2318
408 -279 2285
415 -279 2282
422 -279 2287
429 -279 2283
435 -279 2279
440 -278 2271
444 -276 2257
453 -278 2266
460 -278 2266
466 -277 2262
473 -278 2266
480 -279 2267
485 -277 2255
491 -277 2254
499 -278 2258
504 -277 2249
510 -277 2245
516 -276 2240
524 -277 2246
529 -276 2238
540 -279 2256
539 -275 2224
548 -276 2232
558 -278 2242
564 -278 2241
575 -280 2254
574 -276 2223
581 -276 2225
585 -275 2212
591 -275 2210
598 -275 2212
604 -275 2205
605 -272 2184
626 -279 2236
629 -277 2220
639 -279 2230
644 -278 2225
648 -277 2213
659 -279 2229
665 -279 2222
668 -278 2211
675 -278 2211
682 -278 2209
692 -279 2219
684 -274 2171
691 -274 2171
687 -269 2134
702 -273 2161
712 -274 2168
707 -270 2134
712 -269 2126
725 -272 2143
726 -270 2126
728 -268 2111
734 -268 2109
748 -271 2130
751 -270 2116
763 -272 2131
762 -270 2109
780 -274 2138
793 -276 2154
789 -272 2124
797 -273 2126
801 -272 2116
810 -273 2122
815 -273 2116
825 -274 2123
831 -273 2119
834 -273 2110
840 -272 2105
854 -275 2121
855 -273 2107
862 -273 2104
868 -273 2101
875 -274 2101
885 -275 2106
888 -274 2095
894 -274 2093
903 -274 2096
912 -275 2099
918 -275 2096
923 -275 2090
927 -274 2082
934 -274 2081
938 -273 2072
943 -273 2067
964 -277 2095
962 -275 2076
979 -278 2095
1012 -285 2147
997 -279 2100
982 -273 2052
986 -273 2044
990 -272 2037
939 -256 1916
898 -243 1816
885 -238 1777
900 -241 1792
898 -239 1776
908 -240 1780
908 -239 1766
913 -238 1763
924 -240 1772
927 -239 1764
934 -240 1764
943 -241 1768
939 -238 1746
949 -239 1752
954 -239 1748
962 -240 1749
968 -240 1748
962 -237 1723
969 -238 1724
-1323 -291 2287
-1313 -291 2286
-1303 -290 2285
-1286 -288 2272
-1281 -289 2280
-1270 -288 2277
-1256 -287 2268
-1247 -286 2269
-1231 -284 2256
-1222 -284 2256
-1207 -282 2246
-1203 -283 2256
-1192 -282 2251
-1175 -280 2237
-1166 -279 2236
-1155 -279 2232
-1143 -277 2226
-1136 -277 2228
-1127 -277 2227
-1119 -277 2229
-1107 -276 2222
-1099 -275 2223
-1086 -274 2214
-1071 -272 2201
-1065 -272 2207
-1056 -272 2205
-1045 -271 2200
-1035 -270 2196
-1021 -268 2183
-1015 -268 2188
-1007 -268 2188
-996 -267 2182
-976 -264 2155
-976 -265 2171
-993 -272 2228
-1001 -276 2264
-997 -277 2274
-991 -277 2278
-991 -279 2296
-986 -280 2305
-984 -281 2318
-978 -282 2325
-979 -284 2347
-973 -285 2353
-967 -285 2357
-968 -288 2381
-964 -289 2390
-958 -289 2396
-958 -291 2418
-950 -291 2419
-943 -291 2421
-940 -293 2436
-935 -294 2444
-935 -296 2467
-928 -296 2469
-926 -298 2487
-918 -298 2489
-914 -299 2501
-912 -301 2519
-905 -301 2520
-904 -304 2543
-899 -305 2552
-889 -304 2547
-887 -306 2566
-882 -307 2577
-878 -308 2590
-873 -309 2599
-867 -310 2608
-857 -309 2604
-853 -311 2618
-848 -312 2629
-841 -312 2632
-837 -314 2646
-831 -314 2654
-822 -314 2652
-816 -315 2661
-808 -315 2663
-802 -316 2670
-798 -317 2687
-788 -316 2680
-773 -314 2659
-766 -314 2663
-767 -318 2697
-751 -315 2671
-736 -312 2647
-734 -314 2670
-721 -312 2654
-714 -312 2656
-710 -314 2673
-699 -313 2662
-688 -312 2653
-682 -313 2661
-671 -311 2651
-662 -310 2646
-652 -310 2641
-647 -311 2653
-641 -312 2661
-629 -310 2645
-619 -309 2637
-610 -308 2633
-603 -309 2638
-595 -309 2639
-584 -307 2625
-577 -307 2627
-568 -307 2622
-562 -308 2632
-552 -306 2622
-542 -305 2613
-535 -306 2617
-526 -305 2613
-517 -304 2605
-506 -302 2592
-497 -301 2582
-489 -301 2582
-482 -301 2586
-473 -301 2583
-458 -296 2539
-456 -299 2570
-449 -300 2574
-440 -299 2569
-433 -299 2568
-424 -299 2566
-414 -297 2550
-408 -298 2561
-400 -297 2553
-393 -298 2558
-385 -297 2553
-376 -296 2547
-368 -296 2545
-360 -296 2542
-353 -295 2539
-344 -294 2529
-338 -295 2539
-329 -294 2527
-322 -294 2531
-313 -293 2525
-306 -294 2526
-297 -292 2514
-290 -293 2518
-283 -292 2516
-275 -292 2513
-267 -292 2509
-260 -292 2509
-252 -291 2507
-245 -291 2503
-237 -290 2494
-229 -290 2492
-222 -290 2496
-214 -289 2488
-207 -289 2488
-199 -288 2482
-192 -288 2477
-184 -287 2467
-177 -287 2469
-170 -287 2474
-163 -288 2475
-155 -286 2464
-148 -286 2461
-141 -287 2466
-134 -286 2462
-126 -286 2459
-119 -286 2462
-112 -286 2464
-105 -286 2464
-97 -284 2444
-90 -285 2449
-83 -285 2451
-76 -285 2452
-69 -285 2451
-62 -284 2444
-55 -284 2441
-48 -283 2435
-40 -283 2433
-33 -283 2429
-26 -283 2427
-19 -283 2433
-12 -283 2426
-5 -281 2413
1 -281 2415
8 -282 2420
15 -282 2418
22 -281 2407
29 -281 2408
35 -280 2404
42 -280 2399
49 -280 2397
56 -280 2396
63 -279 2392
70 -280 2395
77 -280 2394
84 -279 2391
91 -279 2390
97 -278 2377
104 -277 2371
110 -277 2371
117 -277 2372
124 -276 2364
131 -277 2370
138 -278 2375
145 -277 2367
151 -277 2362
158 -277 2368
164 -276 2354
172 -277 2364
178 -276 2356
185 -276 2354
191 -275 2345
198 -275 2342
204 -275 2343
211 -275 2345
218 -275 2342
225 -276 2345
232 -275 2342
238 -275 2336
245 -275 2337
252 -275 2337
258 -275 2336
264 -274 2327
271 -274 2323
277 -273 2315
276 -266 2257
289 -273 2309
297 -273 2316
304 -274 2316
311 -274 2319
316 -273 2308
323 -273 2309
331 -274 2314
337 -274 2311
343 -273 2302
349 -272 2297
356 -273 2298
362 -272 2295
368 -271 2287
375 -272 2290
380 -271 2280
387 -271 2281
394 -271 2281
402 -272 2286
413 -275 2309
418 -274 2299
424 -274 2295
429 -273 2287
435 -273 2284
442 -273 2284
449 -273 2282
457 -274 2288
463 -273 2284
469 -273 2277
475 -273 2276
483 -273 2278
489 -273 2276
497 -274 2280
502 -273 2271
508 -273 2268
514 -272 2264
526 -275 2287
528 -273 2265
536 -273 2268
537 -270 2242
545 -271 2246
550 -271 2241
563 -274 2263
566 -272 2249
574 -273 2253
581 -273 2251
584 -271 2237
590 -271 2235
597 -271 2234
605 -272 2237
604 -268 2208
617 -271 2228
625 -272 2234
641 -276 2263
645 -275 2253
642 -271 2219
657 -274 2244
667 -276 2255
665 -272 2224
676 -274 2236
678 -272 2221
692 -275 2241
691 -272 2215
