VERSION 0.7
FIELDS x y z
SIZE 4 4 4
TYPE I I I
COUNT 1 1 1
WIDTH 3258
HEIGHT 1
VIEWPOINT 0.0 0.0 0.0 1.0 0.0 0.0 0.0
POINTS 3258
DATA ascii
-645 -850 2840
-635 -848 2835
-624 -844 2823
-617 -846 2830
-607 -846 2829
-597 -843 2821
-589 -843 2825
-580 -842 2823
-570 -841 2819
-561 -841 2819
-550 -837 2808
-541 -836 2806
-532 -834 2800
-524 -836 2807
-514 -833 2798
-503 -828 2784
-496 -831 2795
-487 -830 2792
-478 -830 2792
-468 -827 2782
-459 -825 2778
-450 -823 2771
-441 -822 2769
-432 -820 2764
-424 -822 2771
-415 -820 2765
-406 -819 2763
-395 -814 2747
-388 -816 2752
-379 -814 2749
-370 -812 2741
-362 -813 2744
-354 -813 2745
-345 -811 2740
-336 -810 2738
-328 -811 2740
-319 -809 2734
-310 -807 2728
-303 -809 2736
-294 -807 2731
-285 -804 2721
-277 -805 2723
-268 -802 2716
-260 -803 2719
-250 -797 2698
-243 -800 2710
-234 -796 2696
-226 -798 2702
-218 -797 2700
-210 -798 2702
-202 -796 2695
-193 -795 2692
-185 -793 2687
-177 -792 2684
-169 -792 2683
-161 -791 2681
-152 -788 2671
-144 -789 2675
-137 -790 2677
-128 -784 2657
-120 -786 2663
-112 -786 2663
-104 -785 2660
-96 -784 2657
-88 -783 2655
-80 -781 2649
-72 -783 2654
-64 -780 2645
-56 -781 2648
-49 -782 2649
-41 -781 2647
-33 -775 2627
-25 -776 2631
-17 -775 2625
-9 -775 2626
-2 -776 2629
5 -775 2627
13 -776 2627
21 -773 2617
29 -773 2617
36 -771 2610
44 -771 2611
52 -769 2605
59 -770 2606
67 -771 2610
75 -768 2600
82 -767 2595
89 -763 2581
97 -766 2590
105 -764 2584
112 -763 2580
120 -760 2570
127 -761 2572
135 -760 2569
143 -761 2570
150 -762 2573
158 -760 2568
165 -758 2559
173 -759 2563
180 -759 2561
187 -756 2550
195 -755 2548
202 -755 2546
210 -756 2549
217 -755 2544
224 -751 2531
232 -754 2540
239 -752 2532
247 -754 2537
253 -751 2526
260 -749 2520
268 -751 2524
275 -748 2516
282 -747 2510
291 -750 2520
297 -748 2513
305 -747 2509
312 -747 2508
319 -746 2504
326 -746 2501
333 -745 2498
341 -746 2500
348 -743 2490
355 -744 2492
362 -742 2483
369 -742 2482
377 -743 2486
384 -742 2480
391 -741 2476
398 -741 2475
404 -738 2464
413 -741 2471
419 -738 2462
426 -738 2461
434 -739 2463
442 -740 2463
448 -738 2457
455 -738 2454
460 -734 2440
470 -738 2450
477 -738 2449
485 -738 2449
489 -733 2430
497 -734 2434
506 -737 2443
512 -735 2434
520 -736 2434
524 -731 2419
533 -733 2424
539 -732 2419
547 -733 2421
556 -735 2424
562 -733 2415
568 -731 2409
576 -732 2411
583 -732 2408
589 -731 2404
596 -730 2399
602 -729 2393
610 -730 2395
617 -729 2391
624 -730 2390
633 -731 2392
637 -728 2381
645 -728 2379
654 -730 2386
659 -728 2375
668 -730 2379
674 -728 2373
680 -727 2367
688 -728 2368
696 -729 2369
701 -727 2360
710 -728 2362
716 -727 2355
723 -727 2354
728 -724 2344
738 -727 2352
743 -725 2342
752 -727 2345
758 -726 2340
767 -727 2342
774 -727 2341
779 -726 2333
788 -727 2335
794 -726 2329
801 -726 2327
809 -727 2328
816 -726 2323
823 -726 2321
831 -727 2319
838 -726 2316
845 -726 2314
851 -725 2308
858 -726 2306
868 -727 2309
873 -726 2301
881 -727 2302
887 -725 2295
894 -726 2294
900 -724 2286
908 -725 2287
915 -725 2284
924 -727 2287
932 -727 2284
938 -726 2279
945 -726 2276
949 -724 2266
958 -725 2267
968 -728 2272
975 -727 2268
979 -725 2257
987 -726 2257
990 -722 2243
1002 -726 2252
1006 -723 2241
1034 -739 2286
1031 -731 2259
1032 -727 2244
1036 -725 2232
1047 -727 2237
1055 -728 2237
1061 -727 2230
1065 -725 2221
1070 -724 2213
1025 -688 2102
945 -630 1921
901 -596 1817
895 -589 1791
895 -585 1777
904 -587 1780
911 -588 1779
922 -591 1787
920 -587 1770
923 -585 1761
936 -589 1771
943 -590 1771
940 -584 1751
950 -587 1756
962 -591 1765
965 -589 1758
963 -585 1741
975 -588 1749
978 -587 1741
987 -589 1743
985 -584 1726
998 -588 1735
1002 -587 1729
1010 -588 1730
-2000 -1094 3313
-1987 -1093 3316
-1958 -1083 3291
-1942 -1080 3289
-1922 -1075 3280
-1914 -1077 3291
-1896 -1073 3284
-1882 -1071 3284
-1861 -1066 3273
-1842 -1062 3265
-1826 -1058 3260
-1805 -1053 3248
-1789 -1050 3244
-1772 -1046 3238
-1757 -1044 3235
-1736 -1038 3222
-1726 -1038 3227
-1701 -1029 3205
-1690 -1029 3210
-1670 -1024 3196
-1661 -1024 3204
-1633 -1013 3174
-1628 -1017 3189
-1609 -1012 3177
-1591 -1007 3166
-1584 -1009 3177
-1565 -1004 3165
-1548 -999 3156
-1541 -1002 3168
-1517 -993 3143
-1496 -986 3125
-1490 -989 3138
-1476 -986 3134
-1460 -982 3124
-1446 -979 3120
-1426 -972 3103
-1421 -976 3117
-1404 -971 3106
-1385 -965 3091
-1375 -965 3093
-1359 -960 3083
-1349 -961 3087
-1334 -957 3079
-1323 -956 3080
-1310 -954 3076
-1295 -950 3066
-1284 -949 3068
-1265 -943 3050
-1252 -940 3045
-1244 -941 3052
-1232 -940 3050
-1216 -935 3037
-1208 -936 3043
-1193 -932 3033
-1173 -924 3010
-1168 -927 3024
-1156 -925 3021
-1146 -925 3023
-1130 -920 3008
-1121 -920 3012
-1108 -917 3004
-1094 -913 2996
-1084 -912 2995
-1069 -908 2985
-1056 -905 2977
-1048 -906 2982
-1033 -901 2969
-1025 -902 2974
-1009 -896 2957
-991 -888 2934
-960 -868 2871
-828 -756 2501
-790 -728 2412
-817 -760 2520
-889 -836 2771
-924 -877 2910
-924 -885 2939
-914 -884 2938
-902 -882 2933
-890 -879 2926
-880 -878 2924
-868 -875 2916
-857 -873 2912
-849 -873 2915
-838 -871 2910
-823 -865 2891
-815 -866 2896
-804 -864 2893
-796 -865 2896
-784 -861 2884
-774 -860 2883
-762 -857 2875
-757 -861 2891
-747 -860 2888
-735 -856 2878
-724 -853 2869
-714 -852 2866
-705 -851 2864
-695 -850 2862
-684 -846 2852
-675 -846 2853
-666 -846 2853
-655 -843 2845
-645 -842 2843
-634 -838 2833
-627 -840 2840
-616 -837 2829
-606 -836 2827
-597 -834 2823
-587 -832 2819
-579 -833 2822
-571 -834 2826
-559 -829 2812
-551 -829 2813
-541 -827 2807
-532 -827 2806
-522 -824 2798
-513 -824 2797
-504 -823 2795
-495 -821 2790
-486 -820 2790
-478 -820 2789
-468 -817 2781
-457 -813 2766
-450 -816 2778
-442 -816 2780
-432 -813 2770
-423 -811 2763
-414 -810 2761
-406 -811 2765
-397 -810 2763
-387 -807 2752
-381 -810 2762
-371 -807 2756
-362 -805 2747
-353 -804 2746
-344 -801 2734
-335 -800 2734
-327 -800 2735
-319 -801 2738
-310 -799 2731
-302 -797 2726
-293 -795 2719
-285 -797 2724
-277 -797 2727
-267 -792 2710
-259 -791 2705
-251 -792 2709
-243 -792 2712
-234 -789 2702
-226 -789 2701
-218 -790 2703
-210 -788 2699
-202 -788 2697
-193 -786 2691
-185 -784 2686
-177 -786 2692
-168 -782 2677
-160 -781 2674
-153 -784 2686
-144 -781 2674
-136 -778 2664
-128 -778 2665
-120 -778 2664
-112 -780 2672
-104 -776 2659
-96 -774 2651
-88 -772 2645
-80 -771 2643
-72 -772 2645
-64 -769 2636
-56 -772 2643
-48 -770 2638
-41 -770 2637
-33 -766 2623
-25 -769 2635
-17 -770 2638
-9 -765 2621
-1 -766 2623
5 -767 2628
13 -762 2608
21 -764 2616
29 -764 2614
36 -762 2608
44 -764 2613
51 -759 2599
59 -761 2605
67 -759 2598
74 -758 2591
82 -758 2593
90 -756 2585
97 -755 2582
105 -756 2584
113 -758 2591
120 -753 2575
127 -751 2567
135 -754 2575
142 -751 2565
150 -754 2575
158 -752 2567
164 -748 2554
172 -750 2559
180 -749 2555
187 -748 2549
195 -748 2550
202 -749 2552
209 -747 2545
217 -746 2540
224 -746 2542
232 -745 2538
239 -745 2535
246 -745 2534
253 -742 2523
261 -743 2528
268 -742 2521
275 -741 2517
282 -739 2512
290 -742 2519
298 -742 2520
303 -737 2500
312 -740 2512
319 -738 2503
326 -738 2501
333 -736 2493
341 -738 2498
348 -738 2498
355 -736 2491
363 -738 2496
369 -735 2486
378 -738 2493
384 -735 2482
390 -732 2472
398 -733 2475
405 -732 2471
413 -734 2475
420 -732 2468
426 -730 2460
435 -733 2467
442 -732 2465
446 -728 2447
455 -729 2452
463 -731 2457
469 -729 2447
476 -728 2444
485 -731 2451
490 -727 2437
495 -724 2426
504 -726 2432
512 -727 2434
519 -727 2431
524 -724 2419
532 -725 2422
540 -725 2422
546 -724 2416
556 -727 2424
561 -725 2416
568 -724 2412
574 -722 2404
582 -723 2405
591 -725 2410
597 -724 2404
603 -723 2400
612 -725 2403
616 -721 2389
624 -721 2389
631 -722 2388
639 -722 2388
646 -722 2386
655 -724 2392
661 -723 2385
667 -722 2379
675 -722 2378
682 -722 2377
688 -720 2368
695 -720 2366
703 -721 2367
708 -719 2359
714 -718 2352
724 -720 2359
731 -720 2357
737 -719 2350
745 -720 2349
752 -719 2347
757 -717 2338
766 -720 2343
774 -720 2344
780 -719 2336
787 -719 2334
793 -718 2329
800 -718 2325
807 -718 2323
815 -718 2322
821 -717 2317
828 -717 2314
838 -720 2320
843 -718 2311
852 -719 2314
860 -720 2313
866 -719 2308
870 -716 2296
878 -717 2297
888 -719 2300
895 -719 2297
899 -716 2287
909 -719 2291
917 -720 2291
922 -718 2284
931 -719 2285
935 -716 2273
942 -717 2271
951 -718 2271
961 -720 2276
965 -718 2267
973 -718 2264
978 -717 2257
983 -715 2249
982 -710 2229
1000 -717 2249
1002 -714 2235
1008 -713 2229
1024 -719 2245
1027 -716 2234
1038 -719 2239
1047 -720 2240
1055 -721 2239
1058 -718 2227
1065 -718 2223
1074 -719 2223
1030 -685 2114
950 -627 1934
899 -590 1816
891 -580 1784
901 -583 1790
904 -581 1781
909 -581 1777
914 -580 1774
914 -577 1759
932 -585 1780
935 -583 1771
938 -581 1764
944 -581 1761
952 -582 1762
955 -581 1754
964 -583 1757
960 -576 1735
965 -576 1731
978 -581 1743
991 -585 1752
990 -581 1737
992 -578 1726
1003 -582 1733
1001 -577 1716
-2004 -1084 3323
-1982 -1079 3312
-1955 -1070 3290
-1937 -1066 3284
-1923 -1065 3285
-1908 -1063 3284
-1889 -1058 3276
-1877 -1058 3279
-1861 -1055 3277
-1836 -1047 3257
-1826 -1048 3264
-1799 -1038 3240
-1792 -1041 3253
-1771 -1035 3239
-1757 -1033 3239
-1733 -1025 3218
-1713 -1020 3207
-1704 -1021 3214
-1687 -1017 3206
-1671 -1014 3202
-1657 -1011 3199
-1642 -1008 3194
-1628 -1007 3193
-1610 -1002 3182
-1592 -997 3171
-1577 -994 3167
-1559 -989 3156
-1543 -986 3149
-1532 -985 3151
-1513 -980 3138
-1499 -977 3133
-1487 -976 3133
-1473 -974 3131
-1457 -970 3122
-1442 -967 3116
-1427 -963 3108
-1417 -963 3111
-1397 -957 3095
-1388 -957 3101
-1373 -953 3091
-1359 -951 3086
-1348 -950 3087
-1332 -946 3077
-1317 -942 3069
-1304 -939 3063
-1293 -939 3065
-1282 -938 3066
-1264 -932 3049
-1254 -932 3053
-1241 -929 3046
-1223 -923 3030
-1209 -920 3023
-1202 -922 3031
-1191 -920 3029
-1178 -918 3025
-1166 -916 3022
-1153 -913 3015
-1142 -912 3014
-1130 -910 3010
-1118 -908 3006
-1105 -905 3001
-1090 -900 2987
-1083 -902 2996
-1070 -900 2989
-1060 -899 2989
-1048 -897 2986
-1034 -892 2973
-1024 -892 2975
-1008 -886 2957
-997 -885 2955
-975 -873 2918
-832 -752 2516
-762 -695 2328
-768 -708 2373
-823 -766 2568
-913 -857 2877
-919 -872 2928
-914 -876 2943
-899 -869 2924
-889 -868 2923
-880 -869 2927
-868 -866 2918
-856 -862 2909
-847 -863 2913
-837 -862 2910
-825 -859 2903
-813 -855 2893
-803 -854 2891
-795 -855 2895
-785 -854 2893
-776 -853 2892
-764 -850 2883
-752 -847 2874
-742 -845 2869
-732 -844 2867
-722 -843 2865
-712 -840 2859
-702 -839 2856
-694 -840 2859
-683 -838 2854
-674 -836 2851
-664 -835 2847
-653 -832 2841
-644 -832 2840
-637 -833 2847
-624 -827 2827
-616 -828 2831
-607 -828 2831
-596 -824 2820
-586 -823 2816
-577 -822 2816
-568 -822 2815
-560 -821 2814
-550 -820 2812
-540 -817 2802
-531 -817 2804
-521 -814 2796
-513 -815 2798
-503 -812 2789
-494 -811 2788
-485 -810 2786
-477 -810 2786
-467 -808 2781
-459 -808 2780
-450 -808 2782
-441 -805 2772
-433 -806 2777
-422 -802 2763
-414 -801 2761
-405 -800 2758
-396 -799 2755
-388 -799 2756
-379 -798 2754
-370 -797 2749
-361 -795 2744
-352 -793 2739
-344 -794 2741
-335 -792 2737
-326 -789 2725
-318 -789 2727
-309 -788 2724
-301 -787 2721
-293 -788 2724
-284 -786 2718
-276 -787 2720
-266 -781 2700
-260 -785 2715
-250 -781 2701
-242 -781 2703
-234 -781 2703
-226 -782 2706
-217 -777 2689
-209 -776 2686
-201 -776 2685
-193 -778 2692
-185 -776 2687
-176 -773 2678
-168 -774 2679
-161 -775 2684
-152 -773 2676
-144 -771 2672
-136 -771 2671
-128 -773 2677
-120 -770 2667
-112 -768 2661
-104 -768 2659
-96 -769 2664
-88 -767 2658
-80 -766 2653
-72 -763 2643
-64 -764 2646
-56 -764 2647
-48 -764 2647
-40 -760 2632
-33 -762 2638
-25 -760 2631
-17 -758 2626
-9 -759 2629
-1 -757 2621
5 -757 2621
13 -756 2616
21 -755 2615
29 -759 2627
36 -754 2609
44 -754 2608
52 -753 2606
59 -751 2600
67 -752 2601
74 -749 2592
82 -748 2586
89 -747 2581
97 -750 2591
105 -745 2576
113 -748 2586
120 -746 2577
127 -744 2568
135 -746 2577
143 -745 2574
150 -745 2571
157 -743 2566
165 -743 2563
172 -740 2554
180 -743 2563
187 -742 2557
194 -739 2549
202 -741 2554
209 -738 2541
216 -737 2538
223 -735 2531
230 -733 2523
238 -734 2528
245 -734 2525
253 -735 2529
261 -736 2531
268 -734 2522
275 -732 2516
283 -735 2526
290 -732 2513
296 -730 2507
305 -733 2515
312 -731 2509
318 -730 2502
326 -730 2502
332 -727 2489
340 -728 2495
347 -728 2491
356 -730 2497
363 -730 2497
369 -727 2486
376 -726 2479
384 -727 2482
390 -725 2476
398 -725 2474
403 -722 2462
412 -725 2472
419 -723 2465
428 -726 2472
434 -725 2468
441 -723 2460
448 -724 2461
455 -722 2454
461 -720 2447
469 -721 2447
476 -720 2444
484 -722 2448
491 -721 2444
498 -721 2443
504 -719 2435
512 -720 2435
518 -718 2427
526 -719 2429
533 -719 2428
539 -716 2418
546 -716 2416
553 -717 2417
560 -716 2413
566 -714 2405
575 -717 2411
581 -716 2406
589 -716 2406
596 -715 2401
603 -716 2402
611 -716 2400
615 -712 2387
625 -716 2397
632 -715 2393
639 -715 2390
644 -712 2380
650 -711 2374
659 -713 2379
667 -714 2378
672 -711 2369
680 -712 2369
688 -713 2371
694 -712 2363
702 -713 2365
708 -711 2358
714 -710 2353
721 -710 2351
728 -710 2349
734 -708 2341
744 -712 2351
750 -711 2345
757 -710 2340
765 -711 2339
772 -711 2339
780 -711 2338
785 -710 2330
793 -711 2330
800 -710 2326
807 -710 2323
812 -708 2316
821 -710 2318
827 -709 2313
838 -712 2321
842 -710 2310
851 -711 2314
857 -710 2307
866 -711 2308
871 -710 2302
878 -710 2298
890 -713 2307
892 -709 2291
902 -711 2295
907 -710 2288
914 -710 2286
922 -710 2283
928 -709 2279
935 -710 2276
944 -710 2276
951 -711 2274
959 -711 2273
967 -712 2272
970 -709 2260
976 -708 2255
985 -709 2256
986 -705 2239
998 -708 2246
998 -704 2229
1011 -707 2237
1019 -708 2237
1028 -709 2237
1037 -711 2240
1041 -709 2230
1051 -711 2232
1061 -712 2234
1067 -712 2230
1070 -709 2218
1044 -687 2146
962 -629 1960
900 -584 1818
892 -575 1788
896 -574 1781
902 -574 1779
912 -577 1785
912 -573 1770
921 -575 1775
932 -578 1781
932 -575 1767
936 -574 1762
942 -574 1758
949 -574 1757
952 -573 1750
960 -574 1751
966 -575 1749
977 -578 1756
975 -573 1738
979 -572 1733
986 -573 1731
995 -575 1734
1003 -576 1734
1003 -572 1721
-2003 -1073 3324
-1954 -1053 3268
-1900 -1030 3202
-1871 -1019 3175
-1901 -1042 3251
-1903 -1049 3278
-1885 -1045 3271
-1872 -1044 3274
-1851 -1039 3262
-1835 -1036 3258
-1821 -1034 3258
-1800 -1028 3245
-1784 -1026 3242
-1765 -1020 3230
-1752 -1019 3231
-1734 -1015 3223
-1717 -1011 3217
-1698 -1006 3205
-1684 -1004 3204
-1669 -1002 3200
-1656 -1001 3201
-1637 -995 3188
-1620 -992 3181
-1606 -989 3178
-1591 -986 3173
-1574 -982 3163
-1558 -979 3157
-1543 -976 3152
-1525 -971 3140
-1518 -973 3151
-1505 -971 3149
-1488 -967 3139
-1469 -961 3124
-1456 -959 3122
-1439 -955 3112
-1424 -951 3104
-1409 -948 3096
-1398 -947 3100
-1387 -947 3101
-1373 -944 3095
-1358 -940 3087
-1347 -940 3088
-1327 -933 3069
-1315 -931 3067
-1302 -929 3062
-1292 -929 3066
-1276 -924 3053
-1263 -921 3048
-1255 -923 3057
-1241 -920 3051
-1223 -913 3032
-1210 -911 3027
-1201 -911 3031
-1188 -909 3027
-1174 -905 3016
-1165 -905 3021
-1155 -906 3024
-1139 -900 3010
-1131 -901 3015
-1117 -898 3006
-1106 -897 3006
-1091 -892 2991
-1077 -888 2982
-1066 -887 2980
-1056 -886 2981
-1043 -884 2974
-1034 -883 2976
-1024 -883 2977
-1012 -881 2972
-999 -877 2963
-973 -862 2916
-901 -806 2727
-781 -706 2389
-760 -693 2347
-785 -722 2450
-863 -802 2723
-915 -859 2917
-912 -865 2939
-902 -864 2938
-888 -859 2922
-877 -857 2920
-869 -857 2922
-858 -856 2919
-847 -854 2914
-836 -852 2909
-823 -847 2896
-815 -848 2901
-802 -845 2890
-793 -844 2889
-782 -842 2885
-773 -842 2885
-763 -840 2882
-754 -840 2882
-743 -837 2876
-734 -837 2877
-722 -833 2864
-714 -834 2868
-702 -831 2859
-694 -831 2863
-684 -830 2859
-672 -825 2845
-660 -822 2834
-654 -825 2845
-644 -822 2839
-632 -819 2828
-626 -822 2839
-615 -819 2833
-606 -818 2829
-597 -817 2828
-586 -815 2820
-580 -818 2833
-570 -815 2823
-558 -811 2812
-547 -807 2800
-541 -810 2810
-530 -807 2800
-521 -806 2799
-513 -806 2799
-505 -807 2802
-494 -803 2789
-485 -802 2788
-476 -801 2784
-467 -799 2781
-460 -802 2790
-450 -799 2780
-440 -796 2773
-431 -795 2770
-422 -793 2763
-413 -793 2763
-404 -790 2753
-394 -788 2747
-386 -787 2745
-379 -790 2754
-370 -788 2750
-361 -787 2747
-352 -786 2743
-344 -785 2742
-336 -785 2741
-326 -782 2730
-318 -783 2734
-310 -781 2728
-301 -779 2723
-293 -780 2725
-284 -779 2722
-276 -778 2719
-267 -775 2709
-259 -776 2714
-251 -776 2715
-242 -774 2707
-235 -775 2711
-226 -774 2709
-218 -773 2705
-209 -771 2698
-201 -770 2695
-192 -767 2684
-184 -767 2685
-176 -767 2684
-168 -766 2682
-161 -768 2690
-152 -764 2675
-143 -761 2665
-136 -764 2676
-128 -763 2672
-120 -760 2663
-112 -761 2664
-104 -759 2659
-96 -758 2654
-88 -759 2657
-80 -758 2654
-72 -754 2641
-64 -754 2641
-56 -754 2641
-48 -754 2639
-40 -753 2638
-33 -752 2632
-25 -751 2631
-17 -748 2620
-9 -752 2633
-1 -750 2626
5 -747 2614
13 -747 2613
21 -744 2604
29 -748 2617
36 -746 2610
44 -742 2595
52 -744 2604
59 -742 2596
67 -740 2589
74 -742 2594
82 -742 2595
90 -742 2592
97 -738 2578
105 -740 2585
112 -739 2582
120 -738 2577
128 -739 2581
134 -734 2563
142 -736 2570
150 -735 2564
157 -735 2565
164 -732 2553
172 -733 2557
180 -736 2568
188 -734 2560
194 -731 2547
201 -729 2541
208 -727 2531
217 -730 2543
224 -729 2539
231 -728 2535
238 -726 2527
246 -728 2533
254 -729 2535
260 -726 2525
267 -725 2518
275 -726 2523
283 -726 2522
290 -725 2518
297 -724 2514
303 -721 2500
311 -722 2505
318 -721 2498
326 -721 2500
333 -720 2495
340 -721 2495
348 -721 2496
354 -719 2489
362 -719 2487
369 -719 2485
376 -719 2483
384 -720 2487
392 -720 2485
398 -719 2479
405 -718 2475
412 -717 2473
418 -715 2464
426 -715 2462
432 -713 2454
440 -714 2457
449 -716 2463
455 -715 2456
462 -715 2456
469 -715 2453
475 -712 2444
483 -713 2445
491 -714 2446
497 -712 2440
504 -712 2436
510 -710 2430
519 -712 2435
525 -710 2427
530 -707 2415
538 -709 2419
545 -708 2416
552 -708 2413
560 -709 2415
567 -708 2411
575 -709 2412
582 -709 2410
588 -707 2401
596 -708 2403
601 -706 2395
608 -705 2389
615 -705 2387
623 -706 2388
628 -704 2381
637 -706 2385
646 -707 2388
651 -705 2381
660 -707 2385
664 -704 2372
671 -703 2368
679 -704 2367
687 -705 2370
694 -705 2367
700 -703 2359
707 -704 2359
714 -703 2355
722 -703 2354
730 -705 2357
736 -703 2350
742 -703 2346
750 -703 2346
758 -704 2347
765 -704 2344
771 -703 2338
777 -702 2331
787 -704 2337
795 -705 2337
801 -704 2332
808 -704 2329
815 -704 2326
822 -704 2323
828 -703 2318
835 -703 2315
842 -702 2313
850 -703 2310
858 -703 2310
863 -702 2303
870 -701 2299
879 -703 2302
888 -704 2304
892 -702 2292
901 -704 2296
909 -704 2294
914 -702 2286
923 -704 2290
927 -702 2278
936 -703 2280
944 -704 2281
950 -703 2275
956 -702 2268
964 -702 2266
970 -702 2263
977 -702 2258
985 -702 2257
991 -701 2252
1000 -702 2253
1003 -700 2241
1024 -710 2269
1016 -699 2232
1005 -687 2190
1034 -702 2234
1043 -703 2236
1051 -703 2233
1054 -701 2223
1062 -701 2220
1069 -701 2217
1052 -686 2164
969 -627 1976
899 -577 1818
893 -570 1791
899 -570 1790
902 -568 1780
917 -574 1796
910 -566 1768
920 -568 1773
926 -569 1772
928 -567 1762
930 -564 1752
948 -572 1771
946 -567 1754
960 -572 1767
959 -568 1752
962 -566 1743
978 -572 1758
969 -564 1730
976 -564 1728
989 -568 1737
991 -567 1729
999 -568 1729
1002 -566 1721
-1978 -1048 3287
-1911 -1018 3198
-1803 -966 3040
-1807 -974 3070
-1885 -1022 3228
-1906 -1040 3288
-1886 -1035 3277
-1870 -1032 3274
-1850 -1027 3263
-1829 -1022 3251
-1814 -1019 3249
-1801 -1018 3251
-1783 -1014 3243
-1762 -1008 3228
-1745 -1004 3222
-1739 -1007 3236
-1710 -997 3206
-1699 -997 3211
-1685 -994 3208
-1666 -990 3199
-1655 -989 3201
-1633 -982 3183
-1619 -980 3182
-1601 -976 3171
-1591 -976 3177
-1576 -973 3172
-1562 -971 3167
-1541 -965 3152
-1523 -959 3139
-1507 -956 3131
-1497 -956 3136
-1481 -952 3127
-1466 -949 3122
-1456 -949 3125
-1435 -942 3105
-1420 -939 3098
-1414 -941 3110
-1392 -934 3089
-1381 -933 3090
-1369 -931 3089
-1355 -929 3084
-1346 -929 3089
-1328 -923 3074
-1316 -922 3071
-1305 -921 3073
-1291 -918 3065
-1274 -913 3051
-1263 -912 3053
-1250 -909 3046
-1239 -909 3048
-1227 -907 3046
-1214 -904 3038
-1196 -898 3021
-1187 -899 3026
-1178 -899 3030
-1159 -892 3009
-1150 -892 3014
-1138 -890 3009
-1127 -889 3007
-1111 -883 2992
-1101 -883 2993
-1091 -883 2995
-1079 -881 2992
-1068 -879 2988
-1054 -875 2977
-1043 -874 2974
-1031 -871 2970
-1022 -872 2974
-1011 -870 2972
-995 -864 2952
-978 -858 2934
-939 -831 2844
-864 -772 2644
-769 -694 2377
-757 -690 2365
-813 -748 2569
-905 -841 2887
-910 -854 2935
-898 -851 2928
-887 -849 2923
-877 -848 2921
-866 -846 2917
-854 -843 2909
-842 -840 2900
-835 -842 2910
-823 -838 2898
-816 -841 2908
-804 -838 2900
-792 -834 2888
-780 -831 2880
-776 -836 2899
-762 -831 2882
-753 -830 2882
-743 -828 2877
-733 -827 2875
-721 -823 2862
-711 -822 2861
-702 -822 2861
-692 -821 2858
-682 -818 2851
-674 -819 2857
-662 -815 2844
-652 -814 2840
-644 -815 2844
-633 -812 2836
-626 -813 2840
-616 -812 2838
-606 -809 2830
-596 -807 2824
-585 -804 2814
-577 -806 2821
-569 -806 2824
-558 -802 2810
-548 -800 2804
-540 -801 2809
-531 -799 2804
-521 -798 2800
-512 -796 2796
-503 -796 2795
-492 -791 2780
-485 -794 2790
-474 -790 2777
-466 -789 2775
-458 -790 2778
-448 -788 2774
-441 -789 2777
-431 -787 2771
-422 -785 2766
-412 -782 2755
-403 -781 2752
-395 -781 2752
-386 -780 2752
-378 -779 2748
-369 -779 2749
-360 -777 2741
-352 -777 2743
-344 -776 2740
-335 -775 2735
-326 -774 2732
-318 -775 2737
-310 -773 2733
-301 -771 2723
-292 -771 2724
-284 -769 2719
-276 -770 2722
-267 -768 2715
-259 -766 2709
-250 -766 2708
-242 -764 2703
-234 -766 2709
-225 -762 2695
-217 -762 2697
-209 -760 2691
-201 -761 2693
-193 -761 2694
-185 -760 2690
-176 -757 2682
-168 -758 2682
-160 -755 2673
-152 -757 2679
-144 -756 2677
-135 -752 2662
-127 -752 2662
-119 -751 2660
-112 -751 2661
-103 -749 2652
-96 -751 2659
-88 -750 2654
-80 -748 2647
-72 -749 2652
-64 -746 2640
-56 -746 2640
-48 -745 2638
-40 -745 2637
-32 -744 2635
-25 -743 2631
-17 -741 2623
-9 -744 2632
-1 -741 2623
5 -739 2616
13 -737 2607
21 -740 2617
29 -739 2613
36 -736 2606
44 -734 2596
52 -736 2604
59 -735 2599
67 -732 2588
75 -734 2595
82 -733 2590
89 -729 2575
97 -731 2582
105 -731 2584
112 -731 2583
120 -729 2575
127 -730 2578
135 -728 2569
142 -727 2567
150 -727 2567
157 -726 2563
164 -725 2556
172 -724 2553
180 -726 2559
187 -722 2547
194 -723 2549
202 -724 2551
210 -724 2551
217 -722 2544
224 -721 2539
231 -721 2538
238 -719 2529
245 -718 2526
253 -719 2527
260 -717 2519
268 -718 2523
274 -714 2510
281 -715 2510
289 -716 2514
296 -714 2505
304 -715 2508
311 -715 2506
317 -712 2497
326 -714 2501
333 -715 2503
339 -710 2487
347 -712 2492
354 -712 2492
362 -713 2492
368 -710 2481
376 -711 2485
384 -711 2484
389 -708 2470
399 -712 2485
404 -708 2470
412 -709 2471
420 -710 2472
426 -708 2466
432 -706 2457
440 -707 2460
445 -703 2446
454 -706 2455
458 -701 2436
469 -706 2450
476 -705 2448
482 -703 2439
489 -704 2440
496 -703 2436
504 -704 2437
511 -704 2435
518 -703 2429
525 -703 2428
531 -701 2421
538 -701 2418
544 -700 2413
554 -703 2422
559 -700 2410
567 -701 2412
573 -699 2405
580 -699 2401
587 -699 2400
595 -699 2401
603 -700 2401
610 -700 2399
617 -700 2396
620 -695 2378
631 -700 2394
638 -699 2388
644 -698 2384
650 -697 2377
658 -697 2378
662 -694 2365
671 -696 2369
680 -697 2372
688 -699 2374
693 -696 2365
700 -696 2362
708 -697 2363
715 -697 2360
722 -696 2357
729 -697 2356
736 -696 2351
742 -695 2346
749 -695 2344
758 -696 2346
765 -696 2344
773 -697 2344
778 -695 2335
783 -694 2328
790 -693 2325
799 -695 2329
807 -695 2326
812 -694 2320
820 -694 2318
829 -696 2323
835 -695 2315
841 -694 2312
847 -693 2305
858 -696 2312
863 -695 2305
872 -696 2307
878 -695 2300
887 -697 2304
889 -692 2288
898 -694 2290
907 -696 2293
913 -695 2287
924 -697 2293
930 -696 2287
933 -693 2275
942 -695 2275
946 -693 2267
957 -695 2273
958 -691 2256
970 -694 2263
972 -691 2249
984 -694 2257
989 -693 2250
1004 -698 2265
990 -684 2215
1018 -698 2257
1015 -691 2233
1030 -696 2246
1030 -692 2228
1044 -696 2238
1048 -694 2229
1056 -695 2229
1066 -696 2230
1070 -695 2222
1054 -679 2169
984 -630 2008
906 -576 1834
892 -563 1791
901 -565 1794
893 -557 1765
902 -559 1768
916 -564 1781
927 -567 1789
920 -559 1761
934 -564 1774
933 -560 1759
942 -562 1761
953 -565 1769
955 -563 1760
960 -563 1755
960 -559 1742
964 -558 1734
978 -563 1746
978 -560 1733
985 -561 1733
986 -558 1722
1001 -563 1735
1007 -563 1731
-1971 -1034 3279
-1839 -970 3082
-1736 -921 2932
-1772 -945 3014
-1878 -1007 3218
-1891 -1021 3265
-1888 -1025 3284
-1861 -1016 3262
-1849 -1016 3266
-1834 -1013 3263
-1814 -1008 3252
-1795 -1004 3242
-1779 -1001 3238
-1766 -1000 3239
-1750 -997 3234
-1727 -990 3217
-1713 -988 3216
-1695 -984 3207
-1679 -980 3200
-1664 -978 3198
-1649 -975 3193
-1631 -971 3183
-1617 -969 3181
-1600 -965 3172
-1584 -961 3165
-1571 -960 3164
-1556 -957 3160
-1537 -952 3146
-1526 -951 3147
-1507 -946 3134
-1491 -942 3125
-1480 -941 3128
-1469 -941 3130
-1454 -938 3124
-1435 -932 3108
-1423 -931 3108
-1409 -928 3102
-1398 -928 3106
-1384 -925 3099
-1365 -918 3081
-1353 -917 3081
-1337 -913 3071
-1331 -915 3082
-1312 -910 3066
-1300 -908 3064
-1286 -905 3056
-1273 -903 3053
-1260 -900 3047
-1251 -900 3052
-1236 -897 3044
-1225 -896 3043
-1210 -892 3033
-1201 -893 3038
-1185 -887 3023
-1177 -889 3030
-1164 -886 3023
-1148 -881 3010
-1137 -880 3008
-1127 -880 3011
-1111 -874 2996
-1101 -874 2997
-1095 -877 3010
-1076 -869 2985
-1067 -869 2989
-1053 -866 2979
-1044 -865 2981
-1033 -864 2978
-1021 -861 2972
-1009 -859 2966
-998 -858 2964
-978 -849 2936
-966 -846 2929
-926 -819 2838
-832 -742 2574
-765 -690 2393
-806 -734 2548
-889 -817 2838
-907 -842 2926
-900 -843 2934
-887 -840 2925
-876 -838 2921
-865 -836 2914
-857 -837 2919
-845 -834 2913
-836 -834 2915
-821 -828 2895
-813 -829 2899
-802 -827 2895
-791 -824 2886
-780 -822 2880
-772 -822 2884
-762 -822 2884
-750 -818 2873
-741 -818 2873
-731 -817 2871
-721 -815 2865
-711 -814 2863
-701 -812 2858
-692 -812 2859
-678 -805 2839
-671 -807 2847
-664 -809 2855
-651 -804 2837
-641 -802 2832
-632 -802 2832
-624 -803 2837
-616 -803 2840
-604 -798 2825
-595 -798 2823
-587 -799 2830
-576 -795 2815
-566 -793 2810
-558 -793 2812
-547 -790 2802
-538 -790 2801
-531 -791 2807
-521 -789 2803
-512 -789 2801
-502 -786 2793
-493 -785 2791
-485 -786 2793
-475 -783 2785
-467 -783 2787
-459 -784 2791
-448 -779 2773
-439 -778 2769
-431 -779 2774
-422 -778 2771
-412 -774 2758
-403 -772 2751
-394 -771 2749
-387 -774 2760
-376 -768 2739
-369 -769 2744
-359 -766 2735
-351 -766 2734
-343 -767 2738
-335 -767 2740
-326 -766 2736
-317 -764 2730
-308 -761 2718
-301 -763 2727
-292 -762 2723
-284 -760 2719
-275 -759 2715
-266 -757 2707
-259 -759 2716
-251 -759 2716
-241 -755 2700
-233 -755 2702
-224 -752 2691
-217 -753 2695
-209 -753 2696
-200 -752 2690
-192 -749 2681
-184 -751 2689
-176 -748 2676
-168 -748 2679
-160 -747 2676
-152 -748 2679
-144 -747 2676
-136 -747 2677
-127 -744 2663
-119 -744 2665
-111 -742 2658
-103 -740 2651
-96 -743 2662
-87 -741 2652
-80 -740 2652
-71 -737 2640
-64 -739 2645
-56 -737 2639
-48 -734 2629
-40 -736 2637
-32 -736 2636
-25 -735 2630
-17 -731 2618
-9 -735 2629
-1 -731 2616
6 -733 2622
13 -731 2616
21 -731 2617
29 -730 2610
36 -728 2606
44 -727 2602
52 -729 2607
59 -728 2603
67 -726 2597
74 -725 2591
82 -726 2595
90 -724 2586
97 -722 2581
105 -722 2578
113 -725 2591
120 -722 2578
128 -722 2579
135 -719 2567
142 -718 2564
150 -721 2571
157 -717 2560
165 -717 2559
172 -718 2562
179 -716 2554
187 -717 2556
194 -715 2547
202 -715 2547
209 -714 2544
216 -712 2537
223 -712 2533
230 -711 2530
238 -710 2525
245 -711 2527
253 -712 2531
260 -709 2520
267 -707 2513
275 -709 2519
282 -708 2514
289 -708 2513
295 -705 2502
304 -707 2508
311 -707 2506
318 -706 2501
325 -706 2501
333 -705 2498
340 -705 2495
347 -706 2497
353 -703 2486
361 -703 2487
368 -703 2485
376 -703 2483
382 -701 2476
390 -702 2476
398 -703 2481
404 -700 2469
412 -702 2474
418 -700 2465
426 -700 2465
432 -698 2456
440 -699 2460
446 -697 2449
453 -697 2450
460 -696 2446
469 -699 2452
475 -696 2443
481 -695 2438
490 -697 2443
495 -695 2434
504 -696 2438
511 -696 2436
517 -695 2429
526 -697 2434
530 -692 2417
538 -693 2419
545 -693 2418
553 -694 2420
560 -693 2415
566 -692 2408
572 -691 2404
579 -691 2400
587 -692 2403
595 -692 2404
602 -692 2400
608 -690 2393
614 -689 2387
623 -691 2392
628 -689 2382
638 -692 2391
644 -691 2385
651 -691 2383
659 -691 2384
664 -688 2372
673 -691 2377
679 -689 2370
684 -687 2362
692 -688 2362
702 -690 2369
706 -687 2357
714 -689 2359
721 -689 2357
727 -687 2351
734 -687 2347
743 -688 2349
748 -687 2342
756 -687 2341
762 -687 2338
772 -689 2343
776 -687 2333
783 -686 2328
790 -686 2326
798 -686 2326
806 -687 2327
813 -687 2323
818 -685 2315
828 -688 2321
833 -686 2313
841 -687 2313
849 -687 2312
853 -685 2301
860 -684 2297
868 -686 2299
878 -688 2304
883 -686 2294
889 -685 2290
898 -686 2291
908 -689 2296
914 -688 2290
920 -687 2285
926 -686 2279
935 -688 2281
942 -688 2279
947 -686 2271
957 -688 2273
964 -688 2271
972 -688 2270
977 -687 2263
982 -685 2254
988 -685 2249
997 -686 2251
1002 -685 2243
1006 -682 2232
1016 -684 2236
1016 -680 2217
1028 -683 2226
1045 -690 2244
1048 -687 2230
1060 -690 2238
1064 -688 2228
1073 -689 2230
1060 -676 2185
987 -625 2017
903 -568 1829
891 -557 1791
899 -558 1793
910 -562 1801
909 -557 1783
917 -558 1784
920 -557 1776
926 -557 1775
927 -554 1762
936 -556 1765
945 -558 1769
946 -555 1758
956 -558 1763
955 -554 1746
964 -556 1750
972 -557 1751
974 -555 1742
985 -558 1747
994 -559 1749
993 -556 1734
1000 -556 1734
1007 -557 1733
-1840 -955 3064
-1734 -905 2908
-1682 -883 2843
-1728 -912 2943
-1808 -960 3102
-1826 -975 3156
-1851 -994 3223
-1849 -999 3244
-1816 -987 3210
-1785 -976 3180
-1793 -986 3218
-1793 -992 3242
-1777 -989 3238
-1762 -987 3235
-1747 -984 3232
-1729 -980 3224
-1710 -976 3212
-1692 -971 3203
-1682 -972 3210
-1655 -962 3183
-1644 -962 3186
-1632 -961 3188
-1614 -956 3177
-1598 -953 3170
-1586 -952 3172
-1565 -946 3155
-1555 -946 3161
-1544 -946 3162
-1520 -937 3138
-1509 -937 3141
-1496 -935 3138
-1479 -931 3129
-1459 -924 3111
-1450 -925 3119
-1438 -924 3119
-1428 -924 3122
-1405 -916 3097
-1395 -916 3102
-1381 -913 3096
-1369 -911 3094
-1354 -908 3086
-1336 -903 3071
-1326 -903 3075
-1314 -901 3072
-1299 -897 3064
-1287 -896 3063
-1273 -893 3054
-1262 -892 3055
-1248 -889 3047
-1231 -884 3032
-1223 -885 3041
-1212 -884 3041
-1194 -878 3021
-1188 -880 3032
-1173 -876 3022
-1161 -875 3020
-1146 -871 3009
-1136 -870 3009
-1126 -870 3011
-1110 -864 2994
-1107 -869 3015
-1087 -861 2989
-1074 -858 2981
-1066 -859 2989
-1057 -859 2990
-1044 -856 2983
-1033 -855 2982
-1017 -850 2965
-1004 -846 2957
-994 -845 2955
-980 -842 2944
-969 -840 2940
-946 -828 2901
-915 -808 2835
-863 -769 2700
-814 -733 2575
-859 -781 2746
-897 -824 2898
-895 -830 2921
-886 -830 2924
-878 -831 2929
-862 -825 2908
-853 -824 2909
-843 -823 2906
-831 -820 2898
-821 -819 2895
-812 -819 2899
-802 -817 2894
-790 -815 2886
-782 -815 2890
-770 -813 2882
-760 -811 2879
-751 -811 2880
-743 -811 2883
-732 -809 2877
-723 -808 2875
-711 -805 2865
-698 -800 2850
-694 -805 2869
-682 -802 2858
-672 -800 2852
-661 -797 2844
-653 -798 2848
-642 -795 2841
-632 -793 2834
-623 -793 2834
-613 -790 2827
-604 -791 2829
-594 -789 2823
-585 -787 2818
-575 -786 2815
-568 -787 2821
-556 -783 2807
-546 -780 2799
-538 -780 2801
-529 -781 2802
-519 -777 2792
-512 -779 2800
-501 -776 2789
-494 -778 2796
-483 -774 2785
-473 -771 2773
-465 -771 2775
-456 -771 2774
-447 -769 2770
-439 -769 2771
-430 -768 2768
-422 -768 2769
-413 -768 2768
-403 -765 2758
-395 -765 2758
-386 -764 2755
-376 -761 2744
-368 -760 2745
-360 -761 2746
-351 -758 2735
-342 -757 2734
-335 -759 2742
-326 -758 2738
-318 -757 2734
-309 -755 2727
-301 -755 2728
-291 -752 2717
-283 -751 2715
-275 -752 2719
-267 -751 2717
-259 -751 2718
-249 -747 2704
-241 -746 2700
-233 -747 2702
-225 -745 2695
-217 -745 2695
-208 -743 2689
-200 -743 2691
-193 -744 2695
-183 -740 2678
-176 -742 2686
-168 -741 2683
-159 -739 2676
-151 -739 2675
-143 -735 2663
-136 -738 2673
-127 -737 2668
-119 -735 2661
-112 -736 2667
-103 -734 2658
-95 -734 2657
-87 -731 2649
-79 -731 2649
-72 -731 2648
-64 -729 2642
-56 -729 2639
-48 -729 2639
-40 -728 2637
-32 -724 2622
-24 -726 2630
-17 -726 2628
-9 -723 2619
-1 -724 2622
6 -721 2609
13 -726 2628
21 -721 2608
29 -720 2607
36 -718 2598
44 -720 2606
52 -720 2605
59 -720 2604
67 -716 2589
75 -718 2596
82 -717 2593
90 -717 2590
97 -714 2579
105 -716 2587
112 -714 2581
120 -714 2581
127 -712 2573
135 -712 2572
142 -709 2561
150 -710 2563
157 -712 2568
165 -711 2564
172 -709 2556
179 -709 2555
186 -706 2545
194 -708 2550
202 -707 2548
209 -707 2546
216 -705 2539
223 -704 2536
231 -703 2531
239 -706 2539
245 -703 2529
253 -703 2530
259 -699 2514
268 -703 2525
275 -701 2519
282 -700 2514
289 -701 2516
295 -698 2504
304 -699 2509
310 -696 2497
317 -697 2498
325 -698 2501
332 -696 2492
339 -696 2493
347 -697 2493
354 -697 2493
361 -695 2484
368 -694 2482
374 -692 2474
382 -694 2477
390 -694 2479
397 -694 2477
404 -693 2472
410 -691 2462
418 -692 2466
425 -691 2462
432 -691 2460
439 -691 2459
446 -690 2453
451 -687 2441
460 -690 2450
468 -690 2449
474 -689 2444
482 -690 2446
488 -687 2435
495 -687 2432
500 -684 2421
508 -685 2425
517 -687 2430
522 -684 2417
532 -688 2429
539 -688 2428
544 -684 2413
552 -686 2418
558 -684 2410
563 -682 2400
572 -684 2406
579 -683 2400
586 -683 2399
594 -683 2399
602 -684 2401
610 -685 2402
613 -680 2383
622 -683 2391
629 -683 2389
635 -681 2381
644 -683 2385
650 -682 2381
657 -682 2379
663 -680 2371
669 -680 2366
676 -679 2362
684 -680 2363
689 -678 2355
697 -679 2357
706 -680 2358
710 -677 2347
721 -681 2359
728 -680 2353
733 -679 2346
741 -680 2348
749 -680 2345
758 -682 2350
764 -681 2344
770 -680 2337
776 -679 2334
784 -679 2332
790 -679 2328
798 -679 2328
808 -681 2333
814 -680 2327
820 -679 2321
828 -680 2322
835 -680 2320
842 -680 2316
847 -679 2309
855 -679 2308
863 -680 2307
867 -678 2298
877 -679 2301
881 -677 2291
888 -677 2289
897 -679 2292
905 -679 2291
911 -678 2284
920 -680 2287
927 -680 2284
936 -681 2286
938 -677 2270
947 -679 2272
951 -677 2262
963 -680 2270
971 -681 2270
979 -681 2268
979 -676 2250
982 -674 2238
1023 -697 2312
1027 -695 2301
1011 -678 2245
1027 -684 2261
1032 -683 2255
1029 -677 2230
1044 -682 2242
1047 -679 2231
1059 -682 2238
1064 -681 2231
1069 -679 2222
1067 -673 2200
999 -626 2042
915 -569 1854
887 -548 1783
901 -553 1797
907 -554 1796
907 -550 1782
919 -554 1791
919 -551 1777
922 -549 1769
928 -549 1766
938 -552 1772
941 -550 1763
946 -549 1758
954 -550 1759
957 -549 1753
963 -549 1749
973 -552 1754
973 -549 1742
976 -547 1734
990 -552 1745
993 -550 1737
994 -547 1725
1003 -549 1727
-1685 -865 2808
-1649 -851 2768
-1644 -853 2781
-1668 -871 2843
-1688 -886 2898
-1715 -906 2967
-1742 -925 3036
-1750 -935 3074
-1724 -927 3051
-1702 -921 3035
-1747 -950 3138
-1781 -975 3223
-1769 -974 3226
-1754 -972 3224
-1741 -970 3224
-1724 -967 3218
-1714 -967 3223
-1696 -963 3214
-1675 -957 3199
-1659 -954 3192
-1646 -953 3193
-1620 -944 3167
-1612 -945 3177
-1595 -941 3168
-1583 -940 3169
-1563 -935 3154
-1547 -931 3146
-1540 -933 3157
-1518 -926 3138
-1507 -925 3140
-1489 -921 3128
-1482 -922 3137
-1460 -915 3117
-1447 -913 3114
-1432 -910 3108
-1419 -908 3104
-1406 -907 3103
-1388 -901 3087
-1381 -903 3098
-1362 -897 3081
-1352 -897 3085
-1338 -894 3078
-1325 -892 3076
-1315 -892 3077
-1297 -887 3063
-1287 -886 3065
-1271 -882 3053
-1262 -882 3058
-1248 -879 3050
-1234 -876 3043
-1221 -874 3038
-1205 -869 3025
-1195 -869 3027
-1185 -869 3030
-1175 -868 3030
-1160 -864 3019
-1144 -859 3004
-1135 -860 3010
-1124 -858 3007
-1110 -855 2999
-1102 -856 3003
-1086 -851 2988
-1074 -849 2983
-1065 -849 2988
-1054 -847 2984
-1042 -845 2980
-1030 -843 2975
-1018 -841 2969
-1008 -840 2969
-993 -836 2955
-982 -834 2951
-973 -834 2956
-960 -831 2945
-943 -824 2923
-913 -805 2859
-860 -766 2722
-816 -734 2609
-879 -799 2842
-896 -822 2927
-883 -818 2916
-875 -820 2923
-864 -817 2916
-855 -817 2918
-842 -813 2905
-834 -815 2913
-821 -810 2898
-814 -812 2907
-802 -809 2897
-791 -807 2892
-782 -807 2893
-771 -805 2887
-761 -803 2885
-751 -801 2879
-741 -800 2876
-731 -799 2875
-718 -795 2860
-711 -796 2867
-700 -794 2860
-690 -792 2856
-679 -790 2849
-671 -790 2851
-661 -789 2848
-651 -787 2841
-639 -783 2829
-632 -785 2838
-622 -783 2833
-615 -784 2838
-604 -781 2828
-593 -778 2818
-583 -776 2812
-574 -776 2813
-565 -775 2811
-555 -773 2805
-547 -774 2807
-539 -774 2808
-529 -771 2801
-519 -770 2797
-510 -768 2791
-502 -769 2794
-492 -766 2787
-481 -763 2775
-473 -763 2778
-465 -763 2778
-455 -760 2768
-447 -761 2772
-438 -760 2770
-429 -759 2765
-420 -756 2757
-411 -756 2758
-402 -755 2752
-394 -755 2752
-385 -753 2748
-376 -752 2744
-369 -754 2752
-359 -751 2743
-351 -750 2740
-343 -750 2741
-334 -749 2735
-325 -746 2728
-317 -747 2730
-308 -746 2727
-299 -743 2718
-291 -742 2714
-283 -742 2715
-275 -743 2717
-266 -741 2711
-258 -740 2709
-250 -740 2707
-242 -740 2710
-233 -739 2705
-224 -735 2692
-217 -737 2698
-208 -736 2696
-200 -734 2686
-192 -733 2683
-184 -734 2687
-175 -732 2679
-168 -733 2686
-159 -730 2673
-151 -731 2676
-144 -731 2677
-135 -727 2664
-127 -726 2660
-119 -726 2658
-111 -726 2660
-103 -726 2661
-95 -723 2647
-88 -727 2664
-80 -724 2654
-71 -720 2639
-63 -721 2640
-56 -720 2638
-48 -720 2636
-40 -719 2632
-32 -717 2625
-24 -718 2629
-17 -717 2627
-9 -715 2618
-1 -715 2618
6 -715 2616
13 -714 2613
21 -713 2611
29 -713 2609
36 -712 2605
44 -712 2604
52 -712 2606
59 -711 2601
67 -711 2602
74 -708 2590
82 -710 2596
89 -706 2580
97 -706 2581
104 -704 2574
112 -706 2581
120 -705 2577
127 -704 2570
135 -705 2575
142 -702 2564
150 -702 2565
157 -700 2556
164 -701 2559
172 -701 2557
179 -699 2549
187 -699 2550
194 -698 2543
201 -698 2545
209 -699 2546
216 -696 2537
223 -697 2538
231 -697 2538
238 -695 2529
246 -697 2534
253 -695 2528
259 -693 2520
267 -692 2517
275 -694 2524
282 -693 2516
288 -691 2509
296 -691 2508
303 -691 2508
309 -687 2491
318 -690 2502
324 -688 2493
332 -688 2494
338 -686 2486
347 -689 2493
354 -688 2491
360 -687 2484
367 -685 2476
375 -686 2479
381 -685 2473
389 -685 2475
396 -684 2468
404 -685 2472
411 -686 2472
417 -683 2460
424 -683 2460
432 -684 2463
439 -684 2460
446 -682 2453
453 -682 2453
461 -683 2455
467 -681 2444
473 -680 2440
481 -681 2441
489 -681 2441
495 -680 2437
503 -681 2438
509 -678 2428
516 -679 2427
523 -678 2423
531 -679 2426
538 -678 2421
544 -677 2416
551 -677 2413
557 -675 2404
564 -676 2406
572 -676 2406
580 -677 2406
585 -674 2396
594 -676 2400
602 -677 2402
607 -675 2394
615 -676 2395
623 -677 2397
628 -675 2387
635 -674 2382
642 -674 2381
648 -672 2373
659 -676 2386
663 -673 2373
671 -674 2374
678 -674 2372
687 -676 2377
689 -671 2356
700 -674 2368
706 -673 2360
712 -672 2356
719 -672 2352
727 -673 2354
734 -672 2351
739 -671 2342
747 -671 2341
756 -673 2347
762 -672 2339
770 -672 2340
773 -669 2325
784 -672 2335
790 -671 2329
797 -672 2327
804 -671 2324
811 -671 2321
818 -671 2319
825 -671 2315
836 -674 2324
841 -672 2315
846 -670 2307
855 -672 2310
861 -671 2304
868 -671 2302
872 -668 2290
880 -669 2291
891 -672 2297
894 -669 2284
906 -672 2293
911 -671 2285
917 -670 2280
926 -672 2284
932 -671 2276
940 -671 2276
950 -673 2280
956 -672 2274
961 -671 2267
969 -672 2266
977 -672 2265
979 -669 2251
987 -670 2251
991 -667 2239
1017 -680 2279
1020 -678 2268
1015 -669 2237
1033 -677 2259
1033 -672 2238
1040 -672 2236
1048 -672 2234
1055 -672 2231
1063 -673 2231
1069 -672 2224
1067 -666 2202
1012 -628 2071
917 -564 1860
892 -546 1796
897 -545 1790
906 -547 1794
896 -538 1762
913 -544 1780
918 -544 1776
928 -547 1782
924 -541 1759
934 -543 1764
928 -536 1739
945 -543 1758
950 -543 1755
955 -542 1750
960 -542 1746
965 -541 1742
966 -539 1730
981 -544 1743
986 -544 1740
993 -544 1738
998 -544 1734
1001 -542 1725
-1623 -823 2707
-1609 -821 2704
-1613 -828 2732
-1624 -838 2770
-1630 -846 2801
-1635 -854 2832
-1644 -864 2868
-1645 -870 2892
-1637 -870 2899
-1654 -885 2952
-1686 -907 3032
-1727 -935 3129
-1733 -944 3163
-1744 -956 3208
-1734 -956 3215
-1724 -956 3221
-1707 -953 3213
-1692 -951 3211
-1672 -945 3196
-1660 -944 3199
-1644 -941 3193
-1626 -937 3182
-1608 -932 3171
-1597 -932 3174
-1579 -928 3164
-1562 -924 3156
-1547 -921 3148
-1540 -923 3160
-1520 -917 3144
-1503 -913 3135
-1489 -911 3131
-1476 -909 3129
-1463 -907 3125
-1449 -905 3122
-1431 -899 3107
-1420 -899 3109
-1403 -894 3097
-1389 -892 3093
-1379 -892 3097
-1363 -888 3086
-1348 -885 3078
-1334 -882 3073
-1327 -884 3083
-1314 -881 3077
-1300 -879 3071
-1287 -876 3066
-1273 -874 3060
-1257 -870 3049
-1247 -869 3050
-1233 -866 3043
-1222 -865 3043
-1209 -863 3037
-1195 -859 3028
-1183 -858 3025
-1167 -853 3013
-1159 -854 3019
-1145 -851 3010
-1132 -848 3003
-1123 -848 3007
-1111 -847 3004
-1102 -847 3008
-1087 -842 2994
-1074 -839 2986
-1065 -840 2989
-1049 -835 2975
-1042 -836 2983
-1031 -835 2979
-1018 -832 2972
-1004 -828 2961
-991 -824 2950
-981 -824 2950
-972 -824 2953
-962 -823 2953
-948 -820 2942
-927 -809 2906
-893 -787 2829
-823 -732 2635
-843 -757 2727
-890 -808 2910
-888 -814 2935
-875 -810 2923
-863 -808 2916
-855 -809 2921
-841 -804 2906
-830 -802 2902
-819 -799 2893
-812 -802 2903
-803 -801 2904
-792 -799 2897
-780 -796 2888
-770 -795 2885
-760 -793 2880
-750 -793 2881
-736 -787 2861
-730 -790 2874
-720 -789 2871
-711 -787 2868
-697 -782 2851
-689 -782 2852
-679 -781 2851
-669 -779 2845
-660 -779 2844
-651 -778 2844
-641 -776 2837
-631 -775 2835
-622 -774 2832
-612 -772 2827
-603 -772 2827
-594 -771 2824
-585 -771 2826
-574 -767 2814
-565 -767 2813
-555 -764 2804
-546 -764 2805
-539 -765 2810
-529 -763 2803
-520 -763 2803
-509 -758 2787
-500 -758 2788
-492 -758 2787
-483 -758 2789
-475 -758 2791
-464 -753 2772
-456 -753 2775
-448 -755 2780
-439 -753 2775
-428 -749 2760
-420 -749 2762
-411 -748 2759
-403 -748 2758
-394 -747 2756
-384 -744 2745
-377 -745 2750
-368 -744 2748
-359 -742 2741
-351 -742 2740
-342 -740 2735
-334 -740 2734
-324 -737 2726
-316 -737 2724
-308 -737 2725
-299 -734 2717
-290 -733 2710
-282 -732 2710
-275 -735 2720
-266 -733 2713
-258 -734 2715
-249 -729 2699
-241 -730 2702
-232 -728 2698
-224 -726 2688
-216 -726 2687
-208 -728 2695
-199 -724 2683
-191 -724 2681
-184 -725 2684
-175 -723 2680
-167 -723 2678
-159 -721 2673
-152 -724 2681
-143 -721 2673
-135 -719 2666
-127 -719 2666
-119 -720 2667
-111 -718 2660
-103 -718 2663
-95 -718 2663
-87 -714 2645
-79 -715 2649
-71 -714 2645
-64 -714 2646
-56 -713 2641
-48 -713 2643
-40 -711 2634
-32 -707 2621
-24 -708 2624
-17 -710 2631
-9 -707 2619
-1 -708 2623
6 -708 2622
13 -705 2610
21 -705 2610
29 -705 2609
36 -706 2615
44 -702 2600
52 -704 2606
59 -702 2599
67 -702 2597
74 -699 2586
82 -700 2590
90 -699 2586
97 -696 2574
105 -700 2588
112 -698 2579
119 -694 2566
127 -695 2570
135 -697 2576
142 -695 2568
149 -693 2559
157 -693 2560
164 -692 2553
171 -690 2547
179 -692 2554
187 -692 2552
194 -691 2548
202 -692 2550
208 -689 2541
216 -689 2541
223 -688 2534
231 -690 2539
237 -686 2524
246 -689 2535
252 -686 2524
259 -684 2516
267 -686 2522
275 -686 2523
282 -686 2520
288 -684 2511
297 -686 2518
303 -683 2506
309 -680 2496
317 -680 2494
324 -680 2494
332 -682 2498
339 -681 2494
345 -679 2486
353 -679 2487
360 -679 2486
369 -681 2492
374 -676 2472
381 -677 2475
389 -678 2477
397 -678 2476
402 -675 2465
410 -677 2468
418 -677 2469
425 -676 2462
432 -675 2460
438 -675 2456
445 -674 2453
452 -674 2450
460 -674 2450
466 -673 2444
474 -673 2443
480 -671 2435
487 -671 2435
493 -669 2425
502 -672 2433
510 -672 2434
516 -671 2429
522 -670 2423
528 -668 2413
538 -671 2424
545 -671 2424
551 -669 2413
558 -670 2413
566 -670 2413
571 -668 2404
578 -667 2400
587 -670 2407
593 -668 2400
600 -668 2397
608 -669 2398
616 -669 2399
620 -666 2386
628 -666 2386
633 -664 2376
641 -666 2380
647 -664 2372
655 -665 2375
664 -667 2377
671 -666 2374
672 -661 2353
683 -664 2363
689 -663 2358
697 -664 2357
706 -666 2361
711 -664 2355
720 -665 2357
725 -664 2349
733 -664 2347
740 -665 2348
745 -662 2338
754 -664 2342
761 -664 2338
768 -664 2336
774 -663 2331
781 -663 2328
789 -664 2329
797 -664 2328
802 -662 2318
811 -664 2324
818 -664 2321
824 -663 2315
830 -662 2310
837 -662 2307
846 -663 2310
855 -665 2311
859 -662 2301
868 -664 2303
874 -663 2297
882 -664 2298
892 -666 2303
896 -663 2292
904 -664 2292
912 -665 2291
918 -664 2285
923 -663 2278
933 -664 2280
938 -663 2274
947 -665 2276
953 -664 2270
957 -661 2258
968 -664 2267
974 -663 2261
980 -662 2254
987 -662 2251
992 -661 2245
989 -655 2219
1001 -657 2226
1012 -660 2232
1012 -655 2213
1049 -675 2277
1037 -663 2232
1048 -665 2237
1051 -663 2225
1059 -663 2224
1070 -666 2229
1067 -659 2205
1019 -625 2087
928 -565 1885
889 -538 1790
895 -538 1789
897 -536 1779
906 -538 1782
914 -539 1784
923 -541 1787
916 -534 1761
927 -537 1767
932 -536 1763
940 -538 1764
949 -539 1767
951 -537 1758
952 -534 1745
967 -540 1760
968 -537 1749
980 -541 1756
981 -538 1744
979 -534 1728
999 -542 1751
994 -536 1729
1001 -536 1727
-1609 -808 2688
-1610 -812 2708
-1609 -817 2728
-1609 -822 2748
-1606 -825 2763
-1614 -833 2797
-1605 -834 2802
-1605 -839 2824
-1598 -840 2833
-1602 -848 2862
-1621 -863 2918
-1637 -876 2968
-1667 -898 3046
-1684 -912 3100
-1698 -926 3150
-1694 -929 3167
-1698 -937 3198
-1690 -939 3210
-1669 -933 3194
-1662 -935 3205
-1637 -927 3181
-1623 -925 3180
-1611 -924 3180
-1595 -921 3174
-1576 -915 3160
-1561 -913 3155
-1548 -911 3155
-1533 -909 3149
-1517 -905 3141
-1503 -903 3137
-1489 -900 3132
-1470 -895 3119
-1462 -896 3126
-1444 -892 3114
-1432 -890 3113
-1417 -887 3106
-1404 -885 3103
-1390 -883 3098
-1376 -880 3091
-1362 -878 3087
-1350 -876 3086
-1337 -874 3081
-1322 -871 3073
-1306 -866 3061
-1293 -865 3059
-1282 -864 3058
-1267 -860 3049
-1256 -859 3048
-1245 -858 3048
-1232 -856 3043
-1220 -854 3041
-1206 -851 3031
-1197 -852 3038
-1179 -846 3020
-1171 -846 3024
-1159 -845 3021
-1145 -841 3012
-1132 -839 3005
-1118 -835 2997
-1110 -837 3004
-1097 -834 2996
-1086 -833 2995
-1075 -831 2992
-1064 -830 2991
-1050 -826 2980
-1038 -824 2975
-1026 -822 2968
-1018 -823 2974
-1003 -818 2960
-991 -816 2953
-986 -819 2967
-968 -812 2944
-956 -809 2938
-949 -811 2946
-936 -807 2935
-908 -791 2877
-856 -754 2744
-815 -724 2638
-871 -782 2851
-882 -800 2918
-873 -800 2920
-865 -800 2924
-854 -798 2918
-844 -798 2918
-829 -792 2899
-822 -793 2906
-812 -792 2903
-801 -791 2901
-789 -787 2889
-778 -785 2883
-770 -786 2887
-760 -784 2883
-749 -782 2877
-737 -779 2867
-726 -776 2859
-721 -780 2874
-709 -777 2865
-700 -776 2863
-690 -775 2858
-679 -772 2849
-668 -770 2844
-661 -771 2850
-652 -771 2850
-638 -765 2828
-633 -769 2847
-621 -764 2830
-612 -764 2831
-601 -761 2819
-593 -761 2822
-582 -758 2811
-574 -758 2813
-565 -758 2813
-557 -758 2815
-547 -756 2809
-538 -756 2810
-528 -753 2801
-520 -754 2802
-507 -748 2782
-500 -750 2790
-492 -750 2790
-483 -749 2788
-471 -743 2769
-463 -744 2771
-457 -747 2782
-447 -744 2774
-437 -742 2765
-429 -742 2767
-421 -742 2770
-411 -740 2763
-403 -740 2764
-393 -737 2753
-386 -738 2758
-376 -735 2744
-368 -735 2745
-359 -734 2742
-350 -733 2741
-342 -733 2741
-334 -733 2741
-325 -730 2731
-316 -729 2728
-307 -727 2721
-300 -728 2725
-290 -725 2713
-283 -727 2720
-274 -726 2717
-266 -724 2710
-256 -721 2700
-250 -725 2717
-241 -722 2704
-232 -718 2690
-224 -720 2699
-217 -721 2702
-208 -719 2693
-200 -718 2692
-191 -715 2681
-183 -717 2687
-175 -714 2675
-167 -713 2674
-159 -712 2669
-151 -714 2675
-143 -712 2668
-135 -712 2668
-127 -711 2665
-119 -709 2657
-111 -710 2663
-103 -709 2658
-95 -708 2654
-87 -707 2649
-79 -707 2649
-71 -706 2647
-63 -704 2639
-56 -704 2640
-48 -702 2631
-40 -702 2633
-32 -702 2632
-24 -700 2624
-17 -702 2630
-9 -698 2617
-1 -699 2620
6 -700 2623
13 -698 2615
21 -698 2614
29 -695 2603
36 -697 2610
44 -696 2607
52 -696 2604
59 -693 2596
67 -691 2586
74 -692 2590
82 -693 2593
90 -691 2587
97 -691 2584
105 -690 2580
