VERSION 0.7
FIELDS x y z
SIZE 4 4 4
TYPE I I I
COUNT 1 1 1
WIDTH 3578
HEIGHT 1
VIEWPOINT 0.0 0.0 0.0 1.0 0.0 0.0 0.0
POINTS 3578
DATA ascii
-645 543 2751
-635 541 2744
-626 540 2740
-615 538 2731
-607 537 2730
-600 539 2740
-593 539 2743
-581 536 2729
-572 535 2726
-563 534 2720
-555 534 2724
-547 534 2726
-536 531 2711
-530 533 2722
-522 533 2726
-512 530 2712
-501 528 2700
-488 522 2672
-477 518 2654
-472 522 2675
-458 515 2639
-451 515 2642
-445 518 2657
-433 513 2634
-427 515 2643
-416 511 2625
-410 512 2633
-402 512 2632
-391 508 2612
-384 509 2621
-375 507 2609
-371 512 2635
-362 511 2631
-355 511 2636
-345 508 2620
-337 508 2618
-327 504 2603
-323 510 2632
-316 510 2633
-301 499 2575
-298 506 2616
-290 505 2611
-281 503 2601
-275 505 2611
-269 508 2630
-263 512 2648
-253 508 2628
-245 506 2622
-237 506 2620
-227 502 2599
-222 505 2619
-212 500 2595
-204 500 2593
-197 501 2600
-190 501 2601
-181 497 2581
-173 497 2580
-166 499 2590
-158 497 2583
-151 499 2591
-143 497 2583
-135 497 2584
-128 496 2580
-120 494 2569
-112 494 2570
-104 492 2557
-97 492 2557
-90 493 2566
-82 491 2556
-74 491 2557
-67 490 2552
-59 487 2536
-52 488 2541
-44 489 2547
-37 488 2541
-29 486 2533
-22 484 2522
-15 484 2521
-7 484 2523
0 485 2525
6 485 2528
14 482 2512
21 484 2522
28 482 2512
36 483 2516
43 481 2507
50 482 2514
58 481 2511
65 482 2515
72 479 2498
79 480 2503
87 480 2504
93 478 2492
101 481 2508
108 477 2487
115 478 2491
122 476 2484
130 477 2490
136 476 2480
144 475 2480
151 474 2474
158 476 2480
165 474 2474
172 474 2472
179 473 2469
186 473 2466
193 472 2459
201 473 2466
208 473 2464
214 472 2458
221 471 2454
228 470 2451
234 468 2440
243 471 2455
250 471 2453
256 469 2443
264 469 2444
270 468 2439
277 468 2438
285 469 2442
292 469 2439
299 468 2436
306 468 2436
313 468 2433
319 466 2422
326 466 2422
334 467 2426
341 467 2428
347 465 2416
354 465 2415
361 465 2417
369 466 2419
375 464 2412
382 464 2411
388 464 2407
395 463 2403
400 461 2390
407 461 2389
414 460 2385
421 460 2386
426 458 2374
434 459 2378
440 458 2373
449 460 2381
433 436 2257
441 438 2264
469 459 2374
475 458 2366
481 457 2363
488 457 2359
495 456 2357
502 457 2357
509 457 2357
515 456 2353
522 456 2352
530 456 2353
540 459 2364
545 457 2354
554 459 2363
557 456 2344
566 457 2351
574 458 2354
579 456 2345
586 456 2342
591 455 2335
598 455 2333
603 453 2322
605 449 2302
614 451 2309
620 450 2305
625 449 2296
633 450 2300
642 451 2307
649 451 2303
654 450 2296
660 449 2291
667 449 2292
673 448 2285
679 448 2282
687 449 2284
694 448 2282
700 448 2278
706 447 2272
714 448 2273
719 447 2268
728 448 2271
732 446 2261
740 447 2263
747 447 2260
755 448 2263
761 447 2257
765 445 2247
775 447 2255
782 447 2254
787 446 2245
795 446 2247
802 446 2245
804 444 2231
815 446 2240
820 445 2233
826 444 2227
833 445 2226
841 445 2227
846 444 2221
845 440 2197
844 436 2174
869 445 2220
870 442 2203
882 445 2214
890 445 2213
895 444 2208
899 443 2197
909 444 2203
914 444 2197
921 443 2194
929 444 2194
936 444 2193
942 443 2187
947 443 2182
957 444 2186
963 444 2182
967 442 2173
972 442 2166
972 439 2149
985 441 2158
1014 451 2204
1025 453 2210
1051 461 2248
1043 454 2215
1047 453 2204
1038 446 2168
1037 443 2149
1042 442 2141
1014 427 2067
927 388 1874
979 407 1965
996 411 1983
762 313 1504
701 286 1370
708 287 1373
699 282 1347
707 283 1350
717 285 1360
830 328 1564
924 363 1729
941 367 1748
950 368 1751
954 368 1746
962 369 1747
969 369 1746
979 370 1751
978 368 1737
977 365 1721
987 367 1727
-1329 512 2276
-1333 516 2301
-1315 512 2286
-1301 510 2278
-1294 510 2283
-1286 510 2287
-1275 508 2284
-1259 505 2272
-1241 500 2256
-1233 500 2259
-1227 501 2264
-1218 500 2266
-1204 497 2256
-1194 496 2254
-1181 493 2247
-1168 491 2240
-1155 489 2232
-1144 487 2227
-1137 487 2231
-1119 482 2213
-1101 478 2195
-1025 448 2059
-979 430 1982
-962 425 1962
-971 432 1997
-976 437 2023
-973 439 2034
-971 441 2045
-968 442 2055
-967 445 2071
-976 452 2107
-999 465 2173
-993 466 2177
-979 462 2164
-967 460 2156
-973 466 2187
-984 475 2231
-981 476 2241
-981 479 2260
-974 480 2264
-970 481 2273
-970 485 2293
-958 482 2284
-961 487 2311
-954 487 2315
-956 492 2338
-951 493 2346
-946 494 2354
-941 495 2363
-936 496 2371
-935 499 2389
-931 501 2400
-927 503 2411
-923 505 2423
-919 507 2434
-918 510 2454
-913 512 2464
-907 512 2471
-907 517 2495
-904 519 2508
-896 519 2510
-897 524 2536
-887 523 2533
-887 527 2558
-882 529 2568
-874 528 2568
-872 532 2589
-870 535 2607
-866 538 2621
-859 539 2628
-855 541 2640
-849 542 2650
-840 541 2649
-840 547 2677
-834 548 2684
-828 549 2694
-818 548 2688
-815 551 2708
-811 554 2726
-807 557 2742
-798 556 2739
-792 558 2749
-789 561 2769
-780 561 2768
-768 558 2759
-760 558 2760
-755 560 2774
-751 563 2790
-743 564 2796
-732 561 2785
-716 556 2759
-711 558 2772
-697 554 2754
-692 556 2766
-683 556 2766
-672 553 2754
-662 551 2748
-652 550 2743
-643 549 2741
-635 550 2745
-626 548 2740
-618 549 2743
-610 549 2745
-600 546 2736
-592 546 2738
-584 546 2739
-574 545 2732
-565 544 2731
-557 544 2730
-549 544 2732
-541 544 2733
-532 543 2732
-517 535 2695
-504 530 2671
-496 530 2670
-486 528 2659
-479 528 2665
-464 521 2628
-458 523 2641
-449 522 2634
-441 521 2631
-431 518 2619
-421 516 2607
-412 514 2600
-410 521 2638
-402 520 2632
-394 520 2632
-384 516 2615
-376 516 2617
-368 516 2615
-361 516 2618
-353 516 2620
-341 509 2585
-338 517 2624
-325 509 2586
-318 510 2590
-312 511 2600
-302 508 2584
-297 511 2602
-287 507 2582
-281 511 2600
-274 511 2602
-266 511 2604
-257 508 2588
-251 510 2602
-243 509 2598
-235 508 2594
-228 512 2610
-222 513 2619
-212 508 2596
-203 506 2583
-195 503 2571
-188 506 2586
-180 504 2574
-172 501 2561
-165 504 2577
-156 500 2558
-150 502 2569
-141 499 2553
-134 500 2557
-127 500 2559
-119 498 2549
-111 498 2551
-103 496 2540
-96 497 2548
-89 496 2540
-81 497 2544
-74 497 2545
-66 495 2537
-59 496 2543
-51 493 2529
-44 492 2521
-37 492 2525
-29 492 2523
-22 493 2527
-14 491 2520
-7 490 2513
0 490 2513
7 491 2518
14 491 2519
21 491 2521
28 490 2517
36 489 2509
43 488 2507
50 489 2512
58 489 2510
65 486 2497
72 487 2500
79 487 2499
86 486 2494
94 485 2492
101 486 2496
108 485 2490
116 486 2494
122 484 2483
130 484 2486
136 482 2477
144 484 2483
151 482 2477
158 481 2471
165 482 2472
172 480 2466
179 480 2466
186 480 2466
193 480 2463
201 480 2463
208 480 2464
215 479 2460
221 477 2449
228 477 2448
235 477 2445
242 476 2443
251 479 2460
257 477 2446
263 476 2440
271 477 2448
278 476 2441
285 476 2442
292 475 2437
299 476 2438
306 476 2436
312 474 2426
319 473 2422
326 473 2422
334 474 2428
341 474 2429
347 473 2420
354 473 2418
362 473 2419
368 472 2413
374 471 2407
381 470 2404
388 471 2405
395 470 2402
401 469 2395
408 469 2395
415 468 2390
421 467 2385
428 467 2385
435 467 2380
443 468 2385
449 467 2380
439 450 2291
443 446 2273
470 467 2376
474 464 2363
481 464 2361
488 464 2360
495 464 2359
502 464 2356
508 463 2352
514 462 2347
523 463 2352
532 465 2360
537 464 2353
545 464 2354
551 463 2347
559 464 2350
566 464 2351
574 465 2354
580 464 2346
587 464 2347
594 464 2344
598 462 2333
603 460 2321
608 459 2314
614 458 2308
621 458 2307
629 459 2310
634 457 2302
641 457 2301
648 457 2300
655 457 2298
659 455 2287
667 456 2288
673 455 2283
681 456 2287
687 456 2283
695 456 2283
703 457 2287
706 454 2272
717 457 2284
723 456 2278
729 455 2273
733 454 2264
740 454 2261
747 454 2260
754 454 2259
760 453 2254
767 453 2253
772 452 2246
781 453 2249
790 454 2254
795 453 2247
803 454 2247
807 452 2238
813 452 2232
820 452 2232
829 453 2235
837 453 2236
841 452 2226
847 451 2222
867 458 2254
852 447 2195
876 456 2237
875 452 2214
882 452 2213
888 451 2207
896 452 2209
901 451 2202
909 451 2201
916 451 2201
923 451 2197
930 451 2194
939 452 2197
942 450 2187
950 451 2186
955 450 2181
962 450 2177
966 449 2168
953 440 2122
990 453 2186
980 446 2147
1014 458 2204
1046 469 2254
1043 464 2230
1043 461 2213
1047 460 2204
1037 452 2164
1040 451 2153
1046 450 2148
1007 431 2051
927 394 1873
983 415 1972
978 410 1947
771 321 1519
703 291 1373
706 290 1369
717 293 1380
723 294 1381
766 309 1452
854 342 1608
929 370 1737
948 375 1759
948 373 1747
951 372 1739
960 374 1743
969 375 1744
969 373 1732
979 374 1737
986 375 1737
992 374 1733
-1342 525 2298
-1327 522 2288
-1312 519 2280
-1298 516 2273
-1293 517 2281
-1282 516 2278
-1276 516 2284
-1251 509 2256
-1245 509 2262
-1230 506 2253
-1227 508 2264
-1212 505 2253
-1196 501 2240
-1194 503 2253
-1178 500 2241
-1170 499 2243
-1158 497 2236
-1146 495 2230
-1142 496 2240
-1128 493 2229
-1110 488 2211
-1040 461 2089
-979 437 1982
-964 433 1966
-970 438 1994
-972 442 2013
-969 443 2024
-969 446 2040
-964 447 2045
-967 451 2068
-975 458 2102
-1000 473 2175
-995 474 2181
-978 469 2161
-970 468 2162
-976 474 2193
-983 481 2226
-977 481 2232
-977 485 2251
-974 487 2262
-973 490 2279
-966 490 2283
-960 490 2288
-964 496 2316
-956 495 2316
-955 499 2335
-952 500 2347
-948 502 2359
-944 504 2370
-939 505 2378
-935 507 2390
-933 510 2406
-929 512 2417
-926 514 2431
-922 516 2443
-917 517 2452
-916 521 2470
-908 521 2473
-905 523 2486
-903 526 2504
-898 528 2516
-895 531 2531
-888 531 2534
-882 532 2541
-881 536 2563
-880 540 2585
-872 540 2587
-866 541 2595
-864 545 2615
-859 546 2625
-853 548 2634
-848 549 2645
-844 552 2659
-838 553 2668
-833 555 2680
-826 556 2685
-821 558 2699
-812 557 2696
-812 563 2727
-803 562 2726
-797 564 2736
-792 566 2750
-783 566 2749
-777 567 2758
-773 570 2773
-767 571 2783
-759 572 2789
-745 568 2769
-743 572 2793
-731 570 2783
-719 566 2770
-708 564 2761
-698 563 2757
-690 563 2758
-680 562 2753
-671 561 2751
-663 560 2752
-654 560 2749
-646 560 2753
-635 557 2741
-626 556 2738
-618 557 2742
-610 557 2745
-602 557 2746
-591 554 2734
-582 553 2731
-573 552 2729
-566 553 2732
-556 551 2727
-548 551 2728
-539 550 2724
-516 535 2649
-506 533 2639
-497 531 2634
-484 526 2608
-483 533 2646
-471 528 2622
-470 536 2662
-466 539 2682
-448 528 2624
-439 527 2621
-432 528 2626
-424 526 2622
-418 529 2634
-406 524 2611
-399 525 2616
-392 525 2620
-386 527 2630
-380 529 2643
-369 526 2626
-361 524 2618
-353 523 2616
-346 525 2628
-334 518 2591
-327 520 2602
-320 520 2603
-311 518 2593
-306 522 2616
-294 515 2579
-289 518 2599
-282 520 2608
-274 519 2604
-265 517 2596
-257 515 2583
-248 513 2576
-242 516 2590
-233 513 2578
-226 514 2580
-219 516 2593
-210 513 2577
-203 512 2575
-196 514 2588
-188 512 2577
-180 510 2568
-172 510 2567
-164 508 2558
-156 507 2551
-148 503 2533
-140 502 2531
-133 505 2543
-126 505 2546
-118 505 2545
-111 506 2552
-103 499 2519
-96 502 2535
-88 498 2515
-80 499 2516
-73 501 2529
-66 497 2508
-58 499 2520
-51 498 2516
-44 498 2514
-37 500 2525
-29 502 2534
-22 498 2515
-14 493 2493
-7 495 2501
0 497 2510
7 497 2512
14 497 2514
21 498 2515
28 496 2508
36 498 2518
43 494 2495
50 495 2503
58 495 2504
65 496 2507
72 491 2482
79 493 2491
86 493 2493
94 493 2495
101 492 2487
108 493 2491
115 492 2489
123 492 2490
130 492 2487
137 492 2486
145 493 2491
151 489 2472
158 489 2471
166 491 2483
173 490 2477
179 488 2469
187 489 2472
194 488 2465
201 487 2463
207 486 2457
214 485 2453
222 486 2458
228 485 2450
236 485 2450
243 484 2447
250 485 2448
257 484 2443
264 484 2445
270 482 2436
277 482 2435
285 483 2437
291 481 2429
299 482 2431
306 482 2431
312 480 2421
318 479 2416
326 481 2423
333 481 2423
341 481 2423
348 480 2420
354 479 2415
361 479 2414
368 479 2414
374 478 2407
381 477 2400
388 477 2400
395 477 2400
400 475 2390
407 475 2387
414 475 2387
421 474 2383
428 474 2381
434 473 2375
442 475 2383
451 477 2392
441 458 2300
445 456 2285
470 473 2374
475 472 2366
482 471 2362
489 472 2362
496 472 2363
501 470 2352
509 470 2352
514 469 2343
524 471 2355
532 472 2359
538 471 2352
547 473 2360
554 473 2358
560 472 2354
567 472 2354
575 472 2354
580 471 2348
585 469 2336
593 470 2340
596 467 2322
603 467 2323
609 466 2318
615 466 2313
621 465 2307
628 465 2304
635 465 2303
643 466 2308
649 465 2303
653 462 2289
662 464 2295
668 464 2293
675 463 2289
683 464 2292
688 463 2283
696 464 2287
701 462 2277
707 462 2273
713 461 2270
722 462 2272
727 461 2266
735 461 2266
741 461 2264
746 460 2256
754 461 2257
759 459 2250
766 459 2247
776 461 2255
781 460 2248
785 459 2239
797 461 2250
803 461 2246
808 460 2240
816 460 2240
825 461 2243
830 460 2237
835 459 2229
843 460 2229
846 458 2218
847 455 2201
861 458 2216
869 459 2216
875 458 2212
885 460 2217
890 459 2211
896 458 2206
902 458 2203
910 459 2204
917 459 2202
927 460 2206
930 458 2193
937 458 2192
942 457 2184
952 459 2190
957 458 2184
962 457 2175
979 461 2196
974 456 2168
976 454 2155
988 456 2164
1015 465 2205
1029 469 2217
1034 467 2208
1044 469 2212
1047 467 2200
1034 458 2157
1043 459 2158
1043 456 2141
1003 436 2043
930 401 1878
993 426 1991
953 406 1895
748 316 1473
700 294 1367
698 291 1352
715 297 1376
717 296 1369
741 304 1404
857 349 1613
939 380 1755
941 378 1745
951 380 1751
952 378 1739
965 381 1750
966 379 1737
969 378 1731
988 383 1752
984 380 1732
980 376 1711
-1336 530 2285
-1322 527 2278
-1314 527 2281
-1289 520 2254
-1286 522 2267
-1276 521 2266
-1272 522 2275
-1259 520 2269
-1237 514 2247
-1237 517 2263
-1221 513 2252
-1213 512 2253
-1199 510 2244
-1189 509 2243
-1182 509 2246
-1170 506 2241
-1153 502 2226
-1141 500 2218
-1134 500 2223
-1126 500 2224
-1107 494 2203
-1055 474 2116
-986 446 1995
-964 439 1965
-963 441 1978
-971 448 2012
-971 451 2027
-972 454 2045
-967 455 2052
-964 456 2062
-974 464 2099
-993 476 2158
-992 479 2173
-979 476 2163
-968 474 2156
-976 481 2191
-981 487 2222
-977 488 2230
-975 491 2245
-973 493 2258
-970 495 2271
-967 497 2283
-964 500 2297
-966 504 2321
-958 504 2321
-952 504 2327
-951 508 2345
-942 507 2343
-940 509 2359
-940 513 2379
-934 514 2386
-933 517 2403
-929 519 2415
-920 518 2412
-922 524 2442
-917 525 2449
-914 527 2464
-909 529 2475
-907 532 2492
-903 534 2504
-898 536 2514
-894 538 2526
-893 542 2547
-884 541 2546
-884 545 2569
-881 549 2587
-871 547 2582
-866 549 2593
-866 554 2620
-859 555 2626
-852 555 2629
-847 557 2642
-843 559 2654
-837 561 2664
-833 563 2678
-828 565 2690
-820 566 2695
-820 571 2724
-810 570 2718
-803 571 2725
-796 571 2729
-794 575 2753
-784 574 2750
-778 576 2759
-770 576 2764
-769 582 2791
-758 580 2784
-751 581 2792
-744 581 2796
-735 581 2795
-718 574 2765
-710 574 2767
-699 572 2758
-691 572 2760
-683 572 2764
-674 571 2761
-663 569 2751
-655 569 2754
-646 568 2751
-636 567 2746
-627 566 2745
-618 565 2741
-610 565 2743
-600 564 2738
-591 562 2732
-583 562 2734
-574 562 2733
-564 559 2723
-557 561 2731
-547 558 2722
-525 544 2654
-474 499 2435
-459 491 2396
-457 496 2423
-470 518 2533
-457 512 2501
-454 517 2526
-443 513 2509
-452 531 2602
-421 504 2470
-420 511 2503
-418 518 2539
-413 521 2557
-407 523 2564
-400 523 2567
-396 527 2590
-381 518 2547
-383 531 2612
-375 530 2607
-364 525 2585
-355 524 2579
-352 530 2611
-344 530 2610
-334 527 2595
-327 526 2594
-318 525 2589
-313 529 2611
-305 528 2604
-297 527 2599
-287 523 2583
-283 530 2617
-273 524 2591
-267 527 2607
-257 524 2592
-249 522 2579
-242 523 2587
-233 520 2572
-226 520 2576
-218 520 2574
-211 521 2582
-203 520 2578
-195 519 2574
-187 519 2570
-179 517 2565
-171 514 2550
-164 515 2557
-156 514 2549
-148 511 2536
-140 511 2538
-133 513 2547
-126 513 2546
-118 510 2533
-110 508 2523
-102 505 2507
-96 510 2535
-88 508 2526
-81 510 2534
-73 506 2517
-66 510 2534
-59 508 2527
-51 508 2527
-44 506 2515
-36 504 2509
-29 506 2516
-21 501 2495
-14 491 2444
-7 494 2457
0 504 2509
7 503 2505
14 506 2520
21 506 2518
29 504 2511
36 504 2507
43 504 2507
50 502 2502
58 503 2506
65 502 2502
72 500 2492
79 501 2498
87 501 2494
94 499 2487
101 500 2488
108 500 2488
116 501 2496
123 499 2487
130 500 2489
137 498 2481
144 498 2481
151 498 2478
158 497 2476
165 495 2466
173 497 2474
179 495 2467
186 495 2463
194 495 2465
201 494 2459
207 492 2451
215 493 2454
223 495 2463
229 493 2454
235 491 2444
243 493 2453
250 493 2450
257 492 2448
264 490 2440
271 491 2440
278 490 2437
285 491 2440
292 491 2439
299 490 2435
305 488 2426
313 489 2431
319 487 2421
327 489 2427
335 490 2434
341 488 2425
347 487 2418
354 487 2416
362 487 2417
367 485 2405
374 485 2403
381 484 2400
389 485 2404
395 484 2400
401 483 2393
409 484 2397
415 482 2387
421 482 2385
427 481 2378
435 481 2381
442 481 2377
449 481 2380
443 467 2308
445 462 2282
471 482 2379
475 479 2365
482 479 2363
490 479 2364
496 478 2358
502 478 2355
510 478 2356
517 478 2354
524 479 2357
531 478 2354
539 479 2356
545 478 2351
551 477 2346
560 479 2354
565 478 2345
572 477 2343
579 477 2340
585 476 2336
592 477 2335
597 474 2324
606 476 2332
610 474 2320
615 473 2311
622 472 2309
629 473 2308
637 473 2309
640 471 2296
649 472 2301
655 471 2294
663 472 2297
668 470 2288
673 469 2283
683 471 2289
688 470 2283
693 468 2275
700 469 2274
709 470 2277
716 470 2277
722 469 2273
726 467 2260
734 468 2264
740 468 2260
750 469 2267
756 469 2262
762 468 2257
769 468 2255
776 468 2255
783 468 2253
791 469 2252
796 468 2247
800 466 2237
813 470 2252
814 466 2233
823 467 2236
830 467 2234
836 466 2229
844 467 2231
849 466 2223
850 463 2207
866 468 2228
861 462 2196
875 465 2212
881 465 2208
890 466 2209
897 466 2207
906 467 2211
911 466 2203
918 466 2202
925 466 2199
933 466 2200
940 466 2197
944 465 2188
952 466 2189
957 465 2182
970 467 2192
974 466 2184
989 470 2200
990 467 2184
992 465 2170
1015 472 2203
1023 472 2201
1036 475 2213
1043 475 2210
1046 473 2198
1038 467 2164
1039 464 2149
1041 462 2136
1002 442 2039
929 407 1875
1000 435 2003
927 401 1842
724 311 1425
704 300 1375
722 306 1398
711 299 1366
720 301 1373
749 311 1418
873 361 1642
930 382 1736
939 383 1739
945 384 1739
952 384 1738
956 383 1731
967 385 1739
974 386 1739
977 385 1730
981 384 1726
990 385 1729
-1308 526 2236
-1352 547 2329
-1308 532 2269
-1291 528 2257
-1284 528 2261
-1269 525 2251
-1266 527 2263
-1242 520 2237
-1242 523 2255
-1235 523 2258
-1219 519 2246
-1210 519 2246
-1196 516 2237
-1195 518 2253
-1180 515 2242
-1167 512 2233
-1160 512 2237
-1142 508 2219
-1139 509 2231
-1128 508 2226
-1112 504 2213
-1062 484 2129
-994 456 2009
-963 445 1963
-967 450 1986
-968 453 2004
-975 459 2034
-970 460 2040
-967 461 2050
-962 462 2055
-970 469 2090
-990 482 2151
-992 486 2173
-975 481 2152
-970 482 2159
-975 488 2188
-979 493 2215
-981 498 2239
-973 497 2239
-979 503 2271
-970 503 2270
-964 503 2275
-960 505 2285
-956 506 2295
-960 512 2324
-955 513 2332
-952 516 2346
-948 517 2356
-941 517 2360
-940 521 2378
-933 521 2382
-934 525 2405
-928 526 2411
-926 529 2428
-919 529 2432
-918 533 2451
-916 536 2469
-908 536 2469
-904 538 2482
-901 541 2497
-897 543 2509
-893 545 2521
-890 548 2536
-886 550 2551
-882 552 2564
-881 556 2586
-873 556 2586
-871 560 2607
-865 561 2615
-860 563 2626
-856 565 2640
-852 568 2654
-844 568 2656
-841 572 2677
-833 572 2678
-826 573 2685
-825 577 2708
-816 576 2708
-810 578 2717
-804 579 2725
-795 579 2725
-793 583 2748
-785 583 2752
-780 586 2766
-773 587 2773
-768 589 2787
-752 583 2759
-751 589 2789
-744 590 2795
-733 588 2788
-718 582 2764
-708 581 2758
-700 581 2763
-690 579 2754
-683 580 2762
-674 580 2760
-664 578 2756
-654 577 2749
-646 577 2751
-637 575 2747
-628 575 2745
-618 574 2742
-610 573 2741
-599 571 2731
-591 571 2732
-584 571 2738
-574 570 2731
-563 567 2719
-556 568 2725
-548 568 2727
-511 537 2579
-455 486 2336
-450 488 2346
0 0 0
-435 487 2342
-439 499 2404
-410 473 2280
0 0 0
0 0 0
0 0 0
0 0 0
0 0 0
-378 484 2337
-388 506 2448
-352 469 2265
-366 495 2396
-356 492 2382
-361 508 2462
-340 488 2365
-344 505 2448
-334 500 2423
-332 507 2460
-319 498 2418
-324 519 2517
-317 519 2520
-305 511 2481
-300 515 2501
-290 510 2481
-284 511 2487
-283 524 2548
-272 517 2515
-264 515 2507
-259 520 2534
-251 518 2524
-244 520 2534
-237 520 2532
-231 523 2551
-223 521 2542
-217 525 2560
-207 519 2532
-201 523 2555
-194 524 2558
-186 522 2547
-178 521 2544
-169 515 2515
-161 514 2510
-155 519 2536
-147 517 2528
-140 517 2529
-132 515 2521
-126 520 2542
-118 518 2533
-110 515 2521
-104 521 2551
-95 516 2527
-88 515 2522
-81 516 2525
-73 516 2526
-66 513 2513
-58 512 2509
-51 514 2519
-44 512 2510
-36 514 2521
-29 512 2510
-21 499 2446
-14 491 2405
-7 501 2457
0 511 2504
7 511 2504
14 512 2512
21 514 2523
29 512 2513
36 511 2506
43 509 2499
51 511 2508
58 510 2501
65 510 2503
72 508 2494
80 509 2499
87 509 2498
94 508 2494
101 506 2484
108 507 2486
116 507 2487
123 506 2484
130 506 2483
137 506 2485
144 504 2475
151 505 2477
158 504 2472
166 505 2477
173 504 2471
180 503 2467
187 503 2469
194 503 2468
201 503 2467
208 501 2459
215 501 2458
222 500 2453
229 500 2452
237 501 2458
243 499 2447
251 501 2455
257 498 2440
264 499 2446
271 497 2437
279 499 2443
286 499 2443
293 498 2440
300 498 2437
306 497 2431
314 497 2435
319 494 2417
327 496 2425
336 498 2436
341 495 2421
348 495 2422
355 495 2420
362 495 2418
367 492 2406
374 492 2404
382 492 2404
389 492 2404
396 493 2405
401 489 2387
408 489 2387
414 489 2385
422 490 2388
430 490 2390
435 488 2377
441 487 2372
449 489 2379
445 476 2318
444 468 2276
469 486 2365
477 488 2373
482 486 2363
488 485 2355
497 487 2364
501 483 2347
509 484 2350
516 485 2352
524 486 2356
532 486 2356
537 484 2346
544 484 2345
551 484 2345
558 484 2344
564 483 2338
572 484 2340
579 484 2339
584 482 2330
591 482 2328
597 482 2323
604 482 2324
611 482 2323
616 480 2314
623 480 2311
626 477 2296
635 479 2303
642 479 2301
650 480 2304
654 477 2291
664 479 2299
667 477 2285
673 476 2281
680 476 2281
687 476 2279
695 477 2280
700 475 2271
710 477 2280
717 477 2278
724 478 2278
730 476 2271
735 475 2264
743 476 2267
749 475 2261
756 475 2260
764 476 2261
768 474 2252
775 475 2251
783 475 2251
790 475 2249
796 474 2245
804 475 2246
809 474 2238
816 474 2236
824 475 2238
828 473 2228
837 474 2232
845 474 2231
851 474 2228
858 474 2227
869 476 2235
872 474 2222
878 474 2217
884 473 2212
890 473 2209
897 473 2207
905 473 2206
913 474 2206
919 473 2202
926 473 2201
932 473 2197
938 473 2192
945 472 2189
949 471 2181
957 471 2180
976 477 2205
969 471 2172
988 476 2195
991 474 2185
1010 480 2209
1023 483 2218
1035 485 2226
1038 483 2215
1043 482 2209
1046 480 2197
1038 473 2162
1041 472 2151
1039 468 2130
996 445 2025
936 416 1887
1003 442 2007
898 394 1783
713 310 1401
699 303 1364
693 298 1341
720 308 1384
709 301 1351
755 319 1429
884 371 1662
933 389 1741
941 390 1742
949 391 1744
952 390 1736
962 391 1742
969 392 1741
975 392 1738
982 392 1738
982 390 1726
990 391 1727
-1328 542 2269
-1305 535 2246
-1304 538 2262
-1289 535 2252
-1281 535 2255
-1264 530 2241
-1257 531 2246
-1247 530 2245
-1249 533 2265
-1225 526 2238
-1219 527 2245
-1213 527 2251
-1203 526 2249
-1189 523 2239
-1177 521 2235
-1167 520 2232
-1159 519 2235
-1152 519 2238
-1131 513 2214
-1123 513 2216
-1118 514 2223
-1074 497 2153
-1003 467 2025
-969 454 1972
-965 455 1980
-970 460 2007
-974 465 2030
-972 467 2043
-969 469 2054
-965 470 2062
-966 474 2080
-980 484 2127
-991 493 2169
-984 492 2172
-975 491 2169
-976 495 2190
-981 501 2218
-978 503 2231
-974 505 2240
-975 509 2261
-971 510 2271
-965 511 2277
-963 513 2290
-960 515 2303
-954 516 2308
-952 519 2324
-953 523 2346
-945 523 2348
-944 526 2366
-938 527 2370
-934 529 2382
-931 531 2397
-924 531 2399
-924 536 2421
-921 538 2435
-919 541 2454
-914 543 2461
-911 545 2477
-905 546 2484
-903 549 2500
-899 552 2513
-896 555 2529
-889 555 2534
-887 559 2553
-881 560 2560
-878 562 2575
-870 563 2579
-870 568 2604
-865 569 2613
-864 574 2639
-856 574 2641
-850 575 2647
-844 576 2656
-841 580 2676
-834 580 2679
-827 581 2687
-821 582 2693
-816 585 2708
-811 587 2718
-806 589 2733
-797 588 2731
-794 593 2752
-786 592 2754
-779 593 2761
-774 596 2773
-765 595 2774
-756 595 2773
-747 594 2772
-746 600 2801
-734 597 2788
-720 592 2769
-709 590 2762
-700 589 2760
-692 589 2761
-683 589 2760
-673 587 2757
-663 585 2748
-655 585 2751
-645 584 2745
-636 583 2743
-628 583 2746
-619 583 2745
-611 583 2746
-601 581 2739
-593 580 2740
-583 579 2734
-574 578 2730
-567 579 2735
-556 576 2726
-546 574 2717
-519 553 2620
-437 473 2241
-455 500 2369
0 0 0
0 0 0
0 0 0
0 0 0
0 0 0
-387 469 2229
-395 486 2312
0 0 0
-387 494 2348
0 0 0
-364 482 2298
-356 481 2290
-346 475 2265
-330 462 2204
-339 485 2313
-336 490 2340
-315 468 2237
-325 494 2360
-296 459 2195
-316 501 2394
-305 495 2365
-297 493 2360
-285 485 2320
-264 461 2204
-266 474 2271
-265 486 2328
-252 474 2271
-243 469 2247
-243 481 2307
-229 467 2240
-228 479 2299
-222 481 2308
-214 477 2288
-208 479 2302
-208 494 2372
-199 491 2358
-195 497 2391
-188 498 2392
-177 486 2338
-174 497 2392
-168 498 2398
-162 502 2416
-154 501 2412
-147 499 2401
-142 505 2433
-135 507 2441
-128 508 2446
-120 506 2438
-113 503 2427
-107 507 2445
-100 509 2453
-93 509 2458
-86 513 2475
-79 512 2468
-72 513 2474
-64 512 2473
-58 515 2488
-49 507 2447
-42 508 2452
-35 505 2441
-28 506 2446
-20 496 2394
-13 491 2369
-7 508 2454
0 518 2503
7 522 2521
14 520 2513
21 521 2520
29 519 2510
36 518 2502
43 517 2498
51 518 2504
58 517 2501
65 518 2502
72 517 2500
80 516 2496
87 515 2488
94 514 2487
101 515 2492
108 514 2486
115 514 2484
122 512 2474
130 512 2478
137 513 2480
144 512 2476
152 513 2482
159 512 2476
166 511 2472
172 510 2465
180 510 2465
187 511 2468
194 509 2461
202 511 2470
208 509 2460
215 507 2451
222 508 2454
229 507 2447
236 507 2449
244 508 2453
251 508 2454
257 506 2444
264 506 2444
272 506 2443
279 506 2443
286 506 2441
292 504 2434
299 503 2428
306 504 2432
313 503 2426
319 501 2417
326 502 2419
334 503 2425
341 503 2424
348 502 2417
354 500 2410
361 500 2409
368 500 2408
376 501 2411
382 500 2406
389 499 2403
395 498 2397
400 496 2385
408 497 2388
414 496 2382
422 497 2387
428 495 2377
435 495 2376
441 494 2370
449 495 2377
448 486 2331
444 475 2276
471 495 2375
475 492 2359
483 494 2364
491 494 2367
496 493 2359
502 492 2353
505 488 2332
516 492 2350
525 493 2356
535 496 2367
538 492 2349
546 493 2354
553 493 2353
558 491 2342
566 492 2344
573 492 2344
578 490 2332
586 491 2337
592 490 2330
598 490 2327
606 490 2328
610 488 2317
616 487 2312
620 485 2298
630 487 2309
634 485 2297
644 487 2305
649 485 2298
658 487 2302
662 485 2291
667 484 2285
674 484 2283
683 485 2287
689 484 2284
697 485 2283
702 484 2278
708 483 2273
715 483 2271
722 483 2270
728 482 2264
735 482 2263
741 482 2259
751 483 2266
755 482 2256
761 481 2251
770 483 2256
774 481 2246
782 482 2248
791 482 2250
794 480 2239
803 481 2240
810 481 2240
815 480 2233
823 481 2235
830 481 2232
837 481 2229
844 481 2228
857 484 2242
861 482 2232
876 487 2250
883 487 2249
876 480 2212
886 481 2217
892 481 2213
897 479 2204
903 479 2202
913 480 2205
918 479 2198
923 479 2193
931 479 2193
940 480 2194
947 480 2192
950 478 2181
942 471 2144
979 486 2211
963 474 2155
970 474 2153
989 480 2178
1004 484 2194
1018 488 2207
1032 491 2220
1037 490 2211
1042 489 2204
1047 488 2197
1040 481 2165
1039 478 2146
1035 472 2119
988 448 2008
952 429 1920
1010 452 2020
870 387 1726
726 321 1426
698 307 1362
699 305 1353
705 306 1354
732 315 1394
772 330 1460
895 381 1681
935 395 1743
943 396 1744
950 397 1746
952 395 1735
966 399 1747
964 395 1731
969 395 1727
974 395 1723
988 398 1735
995 398 1734
-1344 556 2295
-1318 549 2268
-1294 542 2243
-1295 545 2261
-1266 536 2227
-1263 538 2239
-1264 541 2256
-1251 539 2251
-1238 536 2245
-1243 541 2270
-1216 533 2237
-1208 532 2240
-1200 532 2242
-1186 529 2233
-1177 528 2233
-1169 528 2236
-1164 529 2243
-1146 524 2225
-1135 522 2220
-1125 521 2219
-1114 519 2213
-1083 508 2169
-1011 477 2041
-968 460 1969
-963 460 1975
-969 466 2003
-973 471 2028
-971 473 2039
-965 473 2043
-962 475 2053
-962 478 2069
-976 489 2118
-994 501 2174
-984 499 2169
-973 497 2163
-974 501 2184
-980 508 2216
-979 511 2231
-976 512 2243
-972 514 2253
-967 515 2260
-967 519 2280
-962 520 2288
-962 524 2307
-958 526 2318
-956 529 2334
-951 529 2340
-947 531 2351
-944 534 2365
-936 533 2366
-937 538 2390
-929 537 2390
-927 540 2405
-927 545 2427
-925 548 2446
-918 548 2449
-911 548 2451
-907 551 2464
-902 552 2473
-902 557 2498
-900 560 2514
-893 561 2520
-894 566 2547
-887 567 2552
-883 568 2563
-882 573 2586
-875 573 2590
-873 578 2612
-863 576 2608
-861 580 2627
-858 583 2644
-850 583 2648
-845 585 2659
-837 585 2660
-836 590 2684
-823 587 2672
-824 593 2703
-814 592 2701
-810 595 2715
-802 595 2718
-801 600 2744
-790 598 2737
-787 602 2757
-776 599 2748
-773 604 2771
-766 604 2775
-754 601 2765
-747 602 2771
-744 607 2794
-735 606 2791
-720 601 2770
-710 599 2763
-701 598 2763
-691 597 2756
-681 595 2751
-672 594 2749
-666 597 2761
-655 594 2750
-645 592 2743
-639 594 2756
-628 591 2744
-619 591 2743
-610 589 2738
-603 591 2746
-592 588 2735
-582 586 2728
-573 585 2723
-566 585 2728
-555 583 2719
-548 584 2723
-515 558 2602
-445 490 2285
-435 485 2267
0 0 0
-425 489 2285
-395 462 2162
0 0 0
0 0 0
-383 470 2203
0 0 0
0 0 0
0 0 0
0 0 0
-336 451 2118
-345 472 2216
-345 481 2259
-323 460 2159
-310 450 2114
-307 455 2139
-311 470 2213
0 0 0
-297 469 2207
-281 452 2131
-280 462 2176
-279 470 2216
-262 453 2136
-260 459 2166
-247 448 2114
-253 469 2215
-239 457 2156
-243 475 2246
-235 473 2234
-209 433 2047
-218 464 2196
-211 463 2190
-204 462 2186
-188 441 2084
-191 462 2188
-189 473 2242
-179 463 2192
-177 475 2251
-167 466 2211
-154 448 2124
-156 471 2232
-148 467 2214
-147 484 2295
-136 470 2230
-126 457 2167
-124 475 2255
-114 460 2185
-112 478 2271
-103 470 2231
-95 460 2187
-91 473 2245
-84 473 2246
-78 475 2258
-73 480 2282
-65 475 2259
-58 474 2252
-53 483 2297
-46 481 2288
-40 485 2309
-34 500 2379
-27 500 2378
-20 494 2352
-13 496 2362
-7 516 2457
0 526 2507
7 528 2517
14 528 2516
22 529 2521
29 528 2515
36 526 2508
43 526 2506
51 525 2500
58 526 2505
65 523 2493
73 526 2506
80 523 2492
87 524 2499
94 523 2495
101 522 2487
109 524 2495
116 521 2484
123 521 2481
130 521 2483
137 520 2480
144 520 2479
151 518 2471
159 519 2473
165 518 2466
173 518 2467
180 518 2466
187 518 2469
194 517 2462
201 517 2462
208 515 2455
215 516 2460
222 515 2451
230 516 2456
237 515 2452
243 514 2449
251 515 2453
258 514 2446
265 513 2443
271 513 2440
279 513 2441
286 513 2440
293 512 2437
300 512 2434
306 511 2429
313 511 2427
319 508 2416
327 510 2421
335 511 2429
342 511 2428
348 509 2417
355 509 2415
361 507 2405
369 508 2412
375 507 2407
382 506 2401
388 506 2397
396 506 2400
401 504 2388
408 503 2383
416 505 2391
422 504 2384
428 502 2378
435 502 2377
442 503 2377
450 503 2381
450 495 2341
446 484 2286
470 502 2370
478 503 2373
483 500 2362
488 498 2351
497 501 2361
502 498 2348
509 498 2349
514 497 2341
523 499 2349
532 501 2356
539 501 2355
546 500 2354
551 498 2340
559 499 2343
567 500 2347
573 499 2341
579 498 2335
587 499 2338
591 496 2326
597 495 2320
606 497 2328
612 497 2324
616 494 2309
623 494 2308
629 493 2304
638 495 2310
643 493 2301
650 493 2298
657 493 2300
665 494 2301
669 492 2289
678 493 2293
683 492 2286
691 492 2287
696 491 2279
704 491 2281
710 491 2276
715 489 2268
724 491 2273
729 490 2268
736 490 2266
744 490 2267
749 490 2260
756 489 2258
763 489 2256
770 489 2254
777 489 2252
783 489 2249
791 489 2250
796 488 2242
804 489 2243
808 487 2233
815 487 2232
824 488 2236
831 488 2234
837 488 2229
843 487 2225
848 486 2218
848 482 2198
868 490 2230
875 490 2228
876 486 2210
887 488 2217
891 487 2209
899 487 2208
908 488 2211
914 488 2207
918 486 2198
926 487 2199
934 488 2199
938 486 2188
949 488 2197
951 486 2183
963 488 2191
966 486 2180
974 486 2179
997 495 2213
977 481 2151
1014 496 2214
1014 492 2195
1029 497 2212
1039 498 2214
1044 497 2207
1047 495 2196
1040 488 2163
1039 485 2145
1038 481 2124
980 451 1989
964 441 1942
1015 461 2029
842 380 1669
700 314 1373
707 315 1377
719 318 1391
720 317 1382
715 313 1361
791 343 1494
913 394 1714
934 401 1741
946 403 1750
948 402 1740
958 403 1744
962 403 1740
967 402 1735
977 404 1740
983 404 1737
980 401 1719
997 405 1737
-1349 566 2301
-1331 561 2288
-1314 557 2276
-1307 558 2281
-1277 548 2245
-1277 551 2261
-1257 546 2243
-1231 537 2212
-1232 541 2231
-1221 539 2228
-1208 537 2222
-1204 538 2230
-1185 533 2212
-1179 533 2218
-1177 536 2232
-1163 532 2222
-1147 528 2209
-1144 530 2220
-1129 526 2207
-1127 529 2221
-1114 526 2212
-1088 517 2178
-1019 487 2055
-977 470 1987
-966 468 1980
-968 472 2000
-973 477 2025
-968 478 2031
-966 481 2045
-962 482 2052
-965 486 2075
-975 495 2114
-992 507 2169
-987 507 2174
-970 503 2156
-976 509 2188
-978 513 2208
-982 519 2238
-975 519 2240
-972 521 2252
-966 521 2256
-963 524 2270
-963 528 2288
-957 528 2294
-957 532 2314
-952 533 2320
-954 538 2346
-950 540 2358
-943 540 2360
-942 544 2378
-937 545 2388
-930 546 2392
-929 549 2410
-927 552 2427
-922 554 2437
-915 554 2439
-914 558 2458
-911 561 2474
-910 565 2494
-902 564 2495
-897 566 2506
-891 567 2513
-891 572 2536
-886 573 2546
-885 578 2568
-878 578 2572
-874 581 2588
-867 581 2591
-865 585 2610
-860 588 2624
-854 588 2630
-849 591 2643
-843 592 2651
-841 596 2671
-838 600 2691
-828 599 2688
-821 599 2694
-821 605 2720
-815 607 2731
-803 604 2720
-797 605 2730
-791 607 2739
-786 609 2752
-781 612 2767
-772 611 2763
-771 617 2794
-761 615 2788
-752 615 2789
-748 618 2805
-736 616 2796
-719 608 2763
-710 607 2762
-700 606 2758
-690 604 2752
-682 604 2753
-674 604 2756
-667 605 2763
-657 604 2757
-647 602 2752
-637 600 2744
-628 600 2744
-617 597 2731
-611 599 2744
-601 597 2738
-594 598 2740
-583 595 2729
-573 593 2725
-566 594 2731
-557 594 2728
-547 591 2719
-523 573 2637
-434 484 2227
-428 485 2231
0 0 0
0 0 0
0 0 0
0 0 0
0 0 0
0 0 0
0 0 0
0 0 0
0 0 0
0 0 0
-350 477 2208
-338 469 2170
-347 490 2269
-324 467 2162
-302 445 2062
-291 438 2028
-318 487 2258
-313 489 2269
0 0 0
-298 486 2258
-301 502 2332
-286 489 2274
-270 472 2196
-251 451 2096
-251 461 2147
-253 476 2215
-235 455 2116
-237 470 2191
-220 450 2097
-227 477 2224
-214 463 2160
-216 482 2247
-199 458 2136
-193 459 2142
-190 465 2170
-181 460 2149
-181 476 2225
-170 463 2164
-166 470 2196
-158 466 2178
-155 476 2226
-143 459 2144
-137 460 2151
-129 453 2119
-128 470 2197
-120 463 2169
-116 473 2213
-109 471 2207
-104 478 2239
-92 451 2113
-87 461 2160
-83 469 2198
-76 466 2181
-68 459 2151
-63 468 2194
-56 463 2170
-51 472 2211
-44 467 2189
-39 480 2252
-34 500 2344
-27 504 2364
-20 501 2350
-13 506 2374
-7 522 2450
0 536 2518
7 538 2525
14 537 2520
22 536 2519
29 535 2512
36 534 2506
44 535 2512
51 533 2504
58 531 2495
66 534 2510
73 532 2498
80 531 2494
87 529 2485
94 530 2490
101 530 2490
108 529 2484
116 528 2483
123 530 2489
130 529 2484
137 526 2472
144 527 2475
152 527 2476
159 526 2470
166 527 2475
173 526 2472
180 525 2468
187 525 2464
195 525 2467
201 523 2458
208 524 2458
215 523 2457
222 522 2450
230 523 2454
237 522 2451
244 523 2455
251 522 2449
257 520 2439
264 519 2433
271 519 2433
279 521 2444
285 519 2432
293 520 2436
300 520 2437
306 518 2428
313 517 2421
319 516 2417
328 519 2431
335 518 2428
342 518 2423
349 518 2422
355 515 2411
361 515 2407
370 517 2416
376 515 2410
382 514 2402
389 514 2404
396 513 2397
401 511 2385
409 512 2390
414 510 2379
422 511 2384
430 511 2386
435 509 2375
441 508 2367
450 511 2380
451 503 2343
445 489 2278
472 510 2377
476 508 2365
482 506 2355
489 507 2357
495 506 2351
502 505 2349
510 506 2352
518 507 2356
523 505 2346
533 508 2355
541 509 2361
547 508 2356
553 507 2347
560 507 2348
566 506 2342
574 507 2344
579 505 2335
587 506 2338
593 505 2332
598 503 2324
607 505 2329
610 502 2313
616 500 2307
622 500 2304
633 503 2315
637 501 2306
644 501 2302
649 499 2293
658 501 2299
662 499 2290
670 500 2292
678 500 2293
684 499 2288
689 498 2281
696 498 2280
703 498 2276
711 498 2278
718 499 2278
724 498 2275
729 497 2267
735 496 2261
743 496 2261
748 496 2255
755 495 2252
764 497 2256
772 497 2258
776 495 2247
782 495 2245
791 496 2247
797 496 2244
805 497 2246
810 495 2238
818 496 2239
825 496 2237
830 495 2229
837 494 2226
847 496 2233
847 492 2214
867 500 2246
856 489 2196
863 490 2196
878 494 2213
886 495 2214
893 495 2211
901 496 2213
906 494 2205
913 494 2203
918 493 2195
926 494 2196
936 495 2201
938 493 2188
948 494 2191
955 495 2191
964 495 2191
961 490 2166
968 490 2165
991 499 2199
989 494 2174
1000 496 2181
1018 502 2204
1054 515 2262
1040 505 2214
1045 504 2207
1044 500 2187
1036 493 2154
1042 493 2150
1037 487 2122
973 454 1975
971 450 1955
1016 468 2029
839 384 1661
716 325 1404
686 310 1336
707 317 1366
710 317 1361
725 321 1379
806 355 1523
919 402 1724
927 403 1725
942 407 1740
955 410 1752
956 408 1740
970 412 1752
967 408 1735
970 407 1727
974 406 1720
987 409 1731
986 406 1716
-1348 573 2299
-1331 569 2287
-1328 571 2299
-1305 564 2275
-1306 568 2295
-1272 556 2251
-1267 557 2259
-1247 552 2240
-1251 557 2265
-1222 547 2228
-1218 549 2239
-1197 542 2217
-1194 544 2228
-1177 540 2214
-1168 539 2214
-1163 539 2220
-1146 535 2206
-1146 538 2222
-1128 533 2205
-1119 532 2204
-1109 531 2200
-1090 525 2180
-1022 495 2060
-977 477 1985
-960 472 1967
-967 478 1997
-973 484 2026
-969 485 2034
-969 488 2049
-964 489 2055
-963 492 2070
-970 499 2102
-990 512 2162
-986 514 2171
-973 511 2161
-971 513 2175
-979 521 2211
-984 527 2239
-974 526 2235
-975 530 2257
-971 531 2266
-967 533 2277
-963 535 2287
-960 537 2300
-955 538 2306
-953 541 2322
-953 545 2343
-945 545 2343
-944 549 2362
-934 547 2357
-935 551 2381
-929 552 2388
-932 559 2417
-923 557 2415
-919 560 2427
-917 563 2443
-911 564 2451
-912 569 2475
-906 570 2481
-905 574 2503
-900 576 2513
-893 576 2516
-892 580 2539
-888 583 2553
-883 584 2561
-878 586 2571
-876 590 2593
-870 591 2598
-869 596 2622
-862 597 2628
-857 599 2640
-852 601 2651
-849 604 2667
-839 603 2664
-831 603 2667
-826 605 2679
-820 607 2688
-816 609 2702
-812 613 2720
-803 612 2720
-801 616 2741
-792 616 2742
-785 617 2747
-781 620 2763
-775 622 2774
-768 623 2780
-760 623 2784
-753 624 2792
-746 626 2800
-735 623 2789
-719 616 2761
-710 616 2763
-700 614 2757
-694 617 2768
-682 613 2753
-676 614 2763
-665 612 2752
-658 614 2763
-648 612 2756
-636 608 2742
-629 609 2748
-622 610 2752
-610 606 2737
-603 607 2744
-592 604 2732
-585 605 2739
-574 602 2727
-566 602 2727
-557 602 2727
-547 599 2718
-522 580 2631
-447 506 2293
-413 475 2154
-426 497 2255
0 0 0
0 0 0
0 0 0
0 0 0
0 0 0
0 0 0
0 0 0
0 0 0
0 0 0
0 0 0
0 0 0
0 0 0
-337 492 2249
-324 484 2211
-323 491 2246
-302 469 2145
-315 499 2284
-293 475 2172
-304 503 2305
-290 490 2246
-279 483 2213
-282 499 2289
-256 466 2138
-253 472 2166
-262 501 2298
-238 468 2147
-240 483 2218
-228 472 2167
-232 494 2269
-215 471 2163
-207 468 2150
-204 476 2191
-207 497 2289
-196 488 2246
-188 483 2223
-178 475 2187
-169 468 2156
-166 475 2188
-156 466 2148
-149 463 2134
-141 456 2104
-142 482 2223
-130 462 2130
-126 472 2177
-120 471 2173
-119 492 2269
-109 478 2206
-100 468 2160
-95 472 2181
-88 468 2163
-82 474 2188
-75 470 2173
-68 468 2161
-62 469 2167
-56 471 2179
-50 469 2169
-43 465 2148
-39 495 2291
-34 510 2360
-27 515 2384
-20 518 2398
-13 524 2424
-7 533 2466
0 541 2503
7 543 2514
14 542 2511
22 543 2512
29 541 2506
36 543 2514
43 539 2497
51 541 2506
58 540 2500
65 541 2505
73 540 2501
80 540 2500
87 538 2493
95 540 2500
101 537 2486
108 535 2481
116 536 2485
123 536 2485
130 535 2478
138 537 2487
144 533 2470
152 534 2474
159 535 2480
166 532 2465
173 534 2471
180 533 2467
187 532 2465
195 532 2466
202 532 2463
208 531 2456
215 530 2451
223 532 2462
230 531 2456
237 530 2451
243 528 2444
251 530 2451
258 530 2449
265 528 2443
272 529 2446
279 527 2436
286 527 2438
294 528 2441
300 527 2434
307 526 2432
314 525 2427
319 523 2414
328 525 2423
334 524 2420
343 526 2430
349 524 2418
355 523 2413
362 523 2410
368 522 2405
375 522 2405
381 520 2395
388 519 2391
396 520 2395
403 521 2398
409 519 2389
415 518 2384
422 517 2378
429 518 2381
437 518 2382
442 516 2372
451 519 2383
452 511 2349
448 499 2292
474 520 2385
477 516 2367
483 514 2358
490 515 2361
496 514 2354
504 514 2357
510 513 2348
518 514 2352
523 512 2342
531 513 2345
541 516 2360
547 515 2351
553 514 2346
560 514 2344
566 513 2341
576 515 2351
581 514 2342
584 510 2325
592 511 2328
601 513 2336
605 510 2319
610 509 2312
617 508 2310
625 509 2313
629 507 2301
637 508 2304
643 507 2300
650 507 2297
656 506 2292
663 506 2292
669 505 2286
678 507 2291
685 507 2289
690 506 2283
696 505 2277
705 506 2281
709 504 2270
716 504 2269
722 504 2265
729 504 2264
735 503 2259
744 505 2265
751 504 2262
755 502 2251
762 502 2249
771 504 2254
778 504 2252
784 503 2249
792 504 2249
797 502 2241
802 501 2235
811 503 2238
817 502 2234
824 502 2232
829 501 2226
836 501 2224
846 503 2229
859 506 2243
861 503 2228
867 503 2224
875 503 2224
878 501 2211
886 502 2213
890 500 2202
899 501 2205
905 501 2202
914 502 2204
920 501 2199
923 499 2189
934 501 2195
939 500 2188
948 501 2191
953 500 2184
959 500 2179
965 499 2173
983 505 2197
984 502 2180
985 499 2164
985 495 2148
999 499 2160
1037 514 2224
1039 512 2211
1045 511 2205
1043 507 2184
1038 501 2155
1043 500 2150
1033 492 2112
969 459 1965
973 457 1957
1012 473 2020
803 373 1589
708 326 1388
723 331 1407
693 315 1338
715 323 1370
746 335 1418
810 362 1529
925 410 1733
941 415 1751
949 416 1752
949 413 1739
955 414 1737
968 417 1747
959 410 1718
975 415 1735
975 412 1722
977 411 1712
996 416 1732
-1359 585 2315
-1329 576 2282
-1328 578 2297
-1311 574 2284
-1306 575 2293
-1290 572 2282
-1280 571 2281
-1266 568 2273
-1251 564 2263
-1238 562 2257
-1230 561 2259
-1214 557 2246
-1192 551 2224
-1189 552 2233
-1168 546 2212
-1154 543 2203
-1153 545 2216
-1143 544 2215
-1129 541 2205
-1112 536 2189
-1109 538 2199
-1097 535 2192
-1025 503 2064
-982 485 1994
-968 482 1981
-964 483 1988
-970 489 2019
-968 492 2030
-968 494 2045
-966 497 2058
-962 498 2067
-963 502 2086
-984 516 2147
-984 520 2167
-975 518 2163
-969 519 2169
-975 526 2201
-980 532 2230
-976 534 2239
-976 538 2258
-969 537 2260
-965 539 2272
-963 542 2285
-963 546 2306
-955 546 2306
-952 548 2319
-949 550 2331
-945 552 2343
-941 554 2353
-941 558 2373
-937 560 2385
-931 561 2390
-930 565 2410
-926 567 2422
-920 568 2428
-915 569 2437
-913 573 2454
-909 574 2465
-905 577 2478
-903 581 2496
-895 580 2496
-897 586 2527
-889 586 2528
-886 589 2544
-883 592 2559
-880 596 2577
-875 598 2588
-870 599 2598
-867 603 2617
-862 605 2626
-851 603 2620
-852 609 2648
-841 607 2641
-844 614 2678
-835 614 2677
-827 614 2682
-822 616 2694
-819 620 2712
-813 622 2722
-804 621 2720
-796 621 2724
-795 627 2750
-789 628 2759
-779 627 2757
-776 631 2777
-766 630 2773
-758 630 2775
-753 633 2791
-744 632 2789
-737 633 2796
-721 627 2771
-712 626 2766
-703 625 2768
-694 624 2765
-684 623 2760
-676 623 2763
-666 621 2756
-656 620 2752
-649 620 2756
-637 617 2745
-630 619 2752
-618 615 2736
-610 614 2736
-604 616 2745
-593 613 2735
-585 614 2739
-574 611 2726
-568 613 2736
-558 611 2730
-549 610 2726
-532 599 2681
-452 517 2314
-444 516 2309
-428 506 2264
0 0 0
0 0 0
0 0 0
-395 498 2234
0 0 0
0 0 0
-351 466 2093
0 0 0
0 0 0
0 0 0
0 0 0
-353 513 2312
-345 510 2299
-335 505 2278
-315 485 2188
-294 464 2090
-305 491 2215
-305 500 2259
-293 491 2219
-281 483 2180
-274 481 2172
-276 496 2242
-266 490 2215
-256 483 2185
-239 464 2099
-241 480 2171
-244 499 2258
-222 466 2113
-214 463 2097
-220 490 2221
-202 463 2101
-207 488 2215
-201 489 2220
-183 462 2098
-185 483 2190
-185 498 2262
-175 490 2225
-166 484 2198
-161 488 2217
-150 472 2146
-145 478 2173
-144 495 2250
-131 472 2147
-128 484 2202
-120 479 2181
-117 491 2237
-108 481 2191
-99 470 2138
-94 475 2165
-90 487 2219
-82 478 2177
-74 470 2141
-70 484 2204
-63 478 2177
-57 485 2211
-50 477 2176
-43 476 2170
-39 496 2264
-33 511 2331
-27 517 2357
-20 520 2373
-13 527 2403
-6 539 2460
0 549 2507
7 549 2506
14 550 2510
22 551 2514
29 548 2505
36 550 2511
44 547 2500
51 547 2500
58 547 2500
66 548 2504
73 547 2500
80 547 2500
87 547 2500
94 545 2491
102 546 2492
109 543 2482
116 545 2489
123 543 2483
130 541 2472
138 543 2480
145 544 2484
152 541 2473
159 543 2480
166 542 2475
174 542 2475
180 539 2463
187 540 2465
195 540 2465
201 539 2459
209 540 2463
216 539 2459
222 537 2451
229 537 2449
237 536 2447
244 537 2450
251 536 2447
259 537 2450
265 535 2442
273 536 2446
280 536 2444
287 536 2445
294 535 2439
300 535 2436
306 531 2420
312 530 2414
320 531 2419
327 532 2421
335 532 2422
342 531 2419
350 533 2425
355 530 2412
361 529 2405
369 530 2411
376 530 2408
382 528 2398
390 529 2403
396 527 2394
402 526 2388
409 526 2386
416 526 2387
422 524 2379
430 526 2384
436 524 2378
443 524 2373
452 526 2385
453 520 2354
449 507 2295
471 524 2373
477 522 2364
483 522 2361
489 520 2351
497 522 2357
502 520 2347
509 519 2345
517 520 2348
524 520 2346
531 520 2345
538 520 2346
548 522 2354
554 522 2352
561 522 2348
567 521 2342
574 521 2344
578 518 2330
587 519 2334
595 521 2339
599 518 2326
605 517 2319
610 515 2311
618 516 2312
624 515 2307
630 515 2305
639 516 2310
642 513 2294
650 514 2295
658 515 2298
663 513 2289
670 513 2289
677 513 2287
684 513 2285
688 511 2274
696 512 2277
703 511 2273
710 512 2273
719 513 2277
722 510 2264
731 512 2270
737 511 2264
742 510 2256
753 513 2268
757 511 2257
765 511 2257
772 511 2257
776 509 2246
783 510 2245
789 509 2241
797 509 2241
804 509 2238
811 510 2238
818 510 2236
824 509 2232
833 510 2233
838 509 2227
844 508 2222
865 517 2258
869 515 2248
867 509 2221
864 504 2194
877 507 2207
886 509 2212
892 508 2206
898 508 2203
904 507 2198
913 508 2199
918 507 2194
927 508 2196
935 509 2195
941 508 2190
948 508 2189
954 507 2184
966 510 2194
948 497 2135
968 504 2162
978 506 2167
994 510 2182
1000 510 2179
1025 519 2216
1018 512 2182
1042 520 2215
1046 519 2206
1044 514 2185
1040 509 2158
1042 506 2146
1033 499 2111
956 459 1938
987 470 1983
997 472 1988
767 361 1516
690 322 1351
718 333 1396
715 330 1380
715 328 1368
707 322 1343
834 378 1574
923 415 1729
943 422 1753
940 418 1735
954 421 1747
958 420 1740
962 420 1736
973 422 1742
970 418 1725
979 419 1726
988 421 1731
1000 424 1738
-1345 587 2290
-1340 588 2298
-1324 584 2288
-1322 587 2302
-1292 577 2267
-1291 580 2282
-1290 583 2298
-1265 575 2270
-1265 578 2287
-1239 570 2258
-1236 571 2268
-1226 570 2267
-1202 562 2239
-1201 565 2256
-1185 561 2243
-1163 554 2218
-1147 550 2203
-1138 549 2203
-1127 547 2199
-1113 543 2188
-1099 540 2178
-1093 540 2183
-1040 518 2094
-987 495 2004
-965 487 1975
-961 488 1981
-968 494 2011
-970 499 2033
-969 502 2047
-965 503 2054
-965 507 2073
-963 509 2085
-973 518 2124
-985 527 2167
-967 521 2144
-969 526 2167
-977 534 2203
-981 540 2232
-976 541 2238
-974 544 2252
-968 544 2258
-964 546 2267
-967 552 2295
-960 551 2296
-957 554 2309
-950 554 2314
-947 557 2326
-947 561 2347
-941 561 2352
-943 567 2376
-936 567 2382
-927 566 2379
-928 571 2404
-921 571 2406
-922 576 2430
-917 578 2441
-913 580 2452
-913 585 2475
-911 588 2492
-901 587 2490
-901 592 2512
-893 592 2514
-893 597 2539
-887 598 2547
-881 599 2554
-883 606 2585
-873 604 2579
-870 608 2598
-864 609 2606
-863 613 2628
-856 614 2633
-850 615 2641
-847 619 2661
-838 618 2658
-836 623 2681
-827 622 2681
-825 626 2700
-816 626 2700
-809 627 2708
-808 632 2733
-799 631 2731
-793 633 2741
-790 638 2764
-783 638 2767
-776 639 2774
-769 641 2782
-763 643 2793
-750 638 2776
-746 642 2794
-738 642 2798
-720 634 2765
-711 633 2761
-700 631 2753
-693 632 2759
-683 630 2753
-673 628 2747
-667 630 2758
-657 629 2754
-647 627 2748
-636 624 2738
-628 625 2742
-620 625 2742
-611 623 2738
-601 622 2734
-594 623 2741
-584 621 2732
-574 619 2725
-567 619 2729
-557 618 2725
-547 615 2715
-521 595 2624
-440 511 2253
-433 510 2252
0 0 0
0 0 0
0 0 0
-400 503 2223
0 0 0
0 0 0
-394 520 2302
0 0 0
0 0 0
0 0 0
-346 492 2181
-347 502 2229
-359 528 2347
-331 497 2207
-346 529 2354
-321 502 2232
-314 501 2227
0 0 0
-314 523 2330
-288 491 2186
0 0 0
-279 496 2212
-271 495 2206
-256 478 2134
-262 502 2241
-244 479 2140
-242 489 2182
-242 501 2237
-231 492 2200
-220 482 2156
-215 484 2162
-209 484 2167
-203 485 2171
-196 485 2169
-189 483 2162
-188 496 2222
-176 483 2162
-170 483 2163
-166 490 2195
-159 487 2184
-153 488 2190
-145 484 2172
-140 490 2197
