VERSION 0.7
FIELDS x y z
SIZE 4 4 4
TYPE I I I
COUNT 1 1 1
WIDTH 3588
HEIGHT 1
VIEWPOINT 0.0 0.0 0.0 1.0 0.0 0.0 0.0
POINTS 3588
DATA ascii
144 100 1682
149 100 1676
154 100 1677
148 93 1564
151 92 1551
155 92 1540
158 91 1527
163 91 1534
168 92 1538
184 98 1646
203 105 1768
215 109 1827
211 104 1747
200 96 1615
196 92 1548
198 91 1529
205 92 1542
204 89 1501
208 89 1500
218 92 1541
220 91 1524
223 90 1511
230 91 1531
238 92 1550
235 90 1504
241 90 1515
242 89 1494
252 91 1524
258 91 1536
257 89 1503
265 91 1524
262 88 1480
273 90 1517
287 93 1567
293 94 1576
289 91 1531
303 94 1578
320 98 1645
371 112 1880
394 116 1963
365 106 1792
365 105 1763
360 102 1716
361 101 1696
370 102 1712
380 103 1735
348 93 1565
345 91 1533
368 96 1613
381 98 1650
390 99 1666
378 95 1591
397 98 1652
396 97 1627
402 97 1631
400 96 1602
380 90 1504
376 88 1467
392 90 1515
381 87 1452
394 89 1487
415 92 1547
432 95 1594
461 100 1679
482 104 1736
477 102 1700
488 103 1721
471 98 1642
472 97 1626
528 108 1800
501 101 1690
527 105 1758
568 112 1877
524 103 1714
497 96 1608
493 95 1578
520 99 1648
523 98 1639
548 102 1701
506 93 1554
496 91 1508
500 91 1505
496 89 1477
501 89 1480
502 88 1468
487 85 1410
490 85 1404
501 86 1423
517 88 1454
536 90 1496
527 88 1457
540 89 1478
547 90 1484
583 95 1567
620 100 1652
615 98 1625
637 101 1669
637 100 1654
637 99 1638
647 100 1651
653 100 1652
659 100 1651
672 101 1669
678 102 1671
682 101 1666
693 102 1679
685 100 1646
703 102 1674
704 101 1663
749 107 1754
705 100 1638
717 101 1652
732 102 1672
767 106 1739
766 106 1722
711 97 1586
742 101 1641
800 108 1756
759 102 1652
736 98 1589
746 98 1597
779 102 1655
768 100 1619
758 98 1585
769 99 1596
766 98 1577
773 98 1578
789 99 1600
808 101 1625
838 104 1673
883 109 1750
894 109 1759
902 110 1760
905 109 1754
918 110 1764
920 110 1755
923 109 1749
926 109 1741
938 110 1750
940 109 1741
946 109 1740
954 110 1741
956 109 1732
967 110 1738
964 109 1720
-1310 170 2283
-1303 170 2288
-1293 169 2287
-1276 168 2272
-1266 168 2272
-1257 167 2272
-1236 166 2252
-1229 166 2254
-1217 165 2249
-1202 164 2239
-1190 163 2234
-1173 162 2217
-1162 161 2214
-1137 159 2183
-1076 151 2080
-997 141 1942
-972 138 1909
-966 138 1912
-965 139 1923
-962 139 1933
-957 139 1937
-949 139 1936
-945 139 1943
-936 139 1938
-921 137 1924
-915 137 1926
-903 136 1915
-899 137 1921
-887 136 1912
-881 136 1914
-872 135 1911
-869 136 1918
-852 134 1896
-848 134 1902
-847 135 1916
-832 133 1897
-821 132 1887
-821 133 1904
-810 133 1895
-804 132 1896
-776 129 1844
-793 133 1902
-778 131 1882
-746 127 1820
-764 130 1879
-764 131 1893
-748 129 1870
-742 129 1873
-736 129 1872
-712 126 1828
-720 128 1865
-705 127 1843
-692 125 1825
-680 124 1809
-686 126 1843
-666 124 1805
-667 125 1823
-669 126 1847
-646 123 1799
-627 120 1762
-621 120 1763
-633 123 1812
-641 126 1854
-609 121 1779
-614 123 1810
-602 121 1792
-611 124 1838
-617 126 1873
-587 121 1800
-577 120 1786
-575 121 1797
-563 120 1779
-548 117 1748
-547 118 1762
-544 119 1774
-540 119 1778
-530 118 1765
-535 120 1799
-517 117 1756
-514 118 1766
-511 118 1776
-507 119 1781
-508 120 1805
-496 119 1783
-486 117 1766
-486 118 1785
-477 118 1773
-481 120 1807
-464 117 1765
-461 117 1773
-457 118 1781
-451 117 1779
-448 118 1787
-432 115 1745
-424 114 1737
-421 115 1746
-422 116 1771
-403 113 1715
-405 115 1745
-403 115 1759
-400 116 1771
-388 114 1741
-384 114 1748
-377 114 1739
-373 114 1743
-360 112 1709
-363 114 1744
-351 112 1714
-352 113 1742
-342 112 1721
-337 112 1723
-330 111 1709
-323 111 1702
-321 111 1715
-320 113 1740
-310 111 1713
-307 112 1728
-304 113 1738
-295 111 1714
-289 111 1710
-287 112 1726
-278 110 1706
-273 110 1704
-271 111 1726
-262 109 1698
-256 109 1695
-251 109 1695
-245 109 1688
-242 109 1698
-239 110 1711
-231 109 1689
-222 107 1663
-224 110 1713
-217 109 1698
-210 108 1687
-206 108 1689
-204 110 1714
-197 109 1700
-194 110 1713
-186 108 1688
-179 107 1669
-174 106 1664
-170 107 1676
-168 109 1702
-161 108 1687
-155 106 1668
-148 105 1650
-144 106 1657
-139 105 1655
-135 106 1662
-125 102 1604
-119 100 1577
-116 102 1608
-108 99 1554
-100 96 1509
-95 95 1495
-93 97 1534
-89 98 1545
-84 97 1523
-80 98 1547
-76 98 1553
-71 97 1538
-68 99 1566
-62 97 1537
-58 98 1554
-56 101 1600
-51 101 1598
-47 102 1615
-39 95 1501
-35 95 1508
-32 99 1571
-27 99 1575
-23 98 1561
-18 98 1546
-14 98 1549
-9 99 1570
-5 104 1648
0 97 1543
3 97 1532
8 96 1518
12 98 1562
17 97 1537
21 98 1553
27 101 1614
29 95 1509
35 99 1580
39 96 1535
43 97 1539
48 98 1559
54 100 1595
56 96 1533
62 99 1577
67 98 1567
73 101 1611
80 104 1662
83 102 1621
88 102 1622
93 103 1641
95 100 1595
109 109 1742
110 105 1673
114 104 1665
121 106 1690
130 109 1751
131 106 1695
132 103 1654
140 105 1688
142 103 1655
145 102 1633
151 103 1648
146 96 1539
146 94 1498
158 98 1568
157 95 1514
159 93 1490
166 95 1517
173 96 1539
191 104 1659
210 111 1786
206 106 1703
198 100 1596
199 98 1572
202 97 1554
206 97 1552
211 97 1555
213 96 1535
219 96 1545
221 96 1531
224 95 1520
230 95 1528
228 93 1489
240 96 1533
248 97 1555
245 94 1507
247 94 1497
258 96 1533
254 93 1485
259 93 1485
270 95 1525
282 98 1565
278 95 1520
279 94 1501
296 98 1568
300 98 1564
313 100 1605
338 107 1709
358 111 1782
357 109 1750
348 105 1683
353 105 1683
356 104 1671
346 100 1599
348 99 1587
329 93 1479
332 92 1475
344 94 1507
352 95 1522
363 97 1547
347 91 1459
362 94 1505
366 94 1501
371 94 1504
368 92 1473
367 91 1449
365 89 1424
365 88 1409
376 90 1432
381 90 1434
391 91 1454
397 92 1461
434 99 1579
436 99 1571
458 102 1630
455 101 1604
485 106 1689
504 109 1738
478 102 1631
497 105 1675
508 106 1695
543 113 1794
545 112 1783
521 106 1684
522 105 1669
512 102 1622
534 105 1674
542 106 1681
500 97 1536
492 95 1497
494 94 1488
497 94 1481
490 92 1447
493 91 1440
495 91 1432
483 88 1386
499 90 1418
502 90 1412
511 90 1424
529 93 1461
521 91 1426
551 95 1494
584 100 1571
629 106 1677
622 105 1644
635 106 1662
646 107 1677
646 106 1662
648 105 1652
649 105 1641
663 106 1661
677 107 1682
679 107 1672
691 108 1687
700 108 1695
703 108 1688
681 104 1621
700 106 1653
715 107 1674
710 106 1648
713 106 1642
735 108 1679
754 110 1708
767 111 1724
726 104 1619
733 105 1620
748 106 1641
724 102 1575
698 98 1506
735 102 1573
850 117 1806
819 112 1726
794 108 1661
783 106 1624
775 104 1596
785 104 1603
807 107 1635
835 110 1679
868 113 1733
889 115 1763
896 115 1761
903 115 1762
910 116 1763
913 115 1755
918 115 1751
927 115 1755
938 116 1762
934 115 1742
945 115 1750
947 115 1740
954 115 1741
960 115 1738
968 115 1740
970 115 1731
-1317 178 2294
-1310 178 2299
-1282 175 2267
-1283 176 2284
-1265 175 2269
-1254 174 2266
-1246 174 2269
-1236 174 2266
-1227 174 2268
-1210 172 2254
-1201 172 2254
-1183 170 2237
-1171 169 2230
-1157 168 2221
-1093 160 2114
-1012 149 1972
-976 145 1915
-972 145 1923
-966 145 1924
-972 147 1952
-954 145 1930
-945 144 1928
-937 144 1927
-927 143 1920
-920 143 1922
-911 143 1916
-900 142 1908
-891 141 1905
-884 141 1905
-875 141 1901
-867 140 1898
-856 140 1891
-852 140 1895
-845 140 1896
-836 139 1890
-828 139 1888
-822 138 1890
-811 138 1880
-807 138 1885
-807 139 1901
-791 137 1879
-793 138 1899
-788 138 1904
-776 137 1892
-761 136 1870
-757 136 1878
-745 135 1864
-745 136 1879
-736 135 1874
-730 135 1875
-712 133 1843
-710 133 1855
-702 133 1851
-693 132 1844
-668 128 1794
-685 133 1857
-673 131 1841
-668 131 1843
-662 131 1844
-649 130 1824
-661 133 1875
-636 129 1822
-624 128 1806
-603 125 1762
-622 130 1832
-612 129 1823
-628 133 1887
-599 128 1819
-587 127 1798
-579 126 1794
-578 127 1808
-559 124 1766
-552 124 1762
-551 125 1777
-549 125 1788
-536 123 1763
-536 125 1785
-536 126 1804
-526 125 1786
-506 121 1739
-507 123 1762
-494 121 1736
-502 124 1782
-482 120 1730
-497 125 1805
-477 122 1754
-463 119 1720
-472 123 1776
-458 121 1743
-456 121 1757
-454 122 1767
-444 121 1749
-453 125 1807
-440 122 1777
-436 123 1783
-426 121 1764
-423 122 1777
-418 122 1776
-418 123 1799
-395 118 1726
-396 120 1752
-388 119 1739
-391 122 1777
-378 119 1743
-374 119 1747
-371 120 1761
-368 121 1772
-362 120 1766
-348 117 1724
-351 120 1765
-343 119 1752
-341 120 1767
-330 118 1738
-325 118 1740
-324 119 1762
-313 117 1732
-311 118 1749
-305 118 1745
-299 118 1740
-295 118 1745
-289 118 1741
-279 115 1709
-274 116 1714
-273 117 1737
-266 116 1727
-260 116 1720
-256 116 1728
-251 116 1728
-245 115 1718
-238 115 1708
-233 114 1703
-228 115 1708
-224 115 1717
-218 114 1706
-212 114 1700
-206 113 1694
-200 113 1685
-196 113 1691
-191 113 1692
-185 112 1682
-180 112 1678
-175 112 1681
-174 115 1716
-164 111 1667
-156 109 1632
-151 109 1633
-147 109 1635
-142 109 1632
-136 108 1621
-130 107 1607
-123 105 1573
-117 104 1562
-112 103 1544
-111 106 1594
-102 102 1535
-94 99 1486
-93 102 1538
-88 101 1520
-83 101 1522
-80 102 1531
-78 105 1590
-68 98 1475
-65 100 1513
-64 104 1574
-60 105 1589
-54 103 1560
-52 107 1624
-46 104 1574
-41 105 1584
-35 101 1522
-31 103 1554
-27 102 1549
-22 102 1540
-18 100 1521
-14 103 1558
-9 104 1573
-4 101 1526
0 101 1540
3 103 1571
8 103 1568
12 101 1529
17 103 1561
21 102 1558
26 103 1566
31 105 1602
34 100 1528
41 107 1628
45 105 1605
50 106 1610
54 105 1591
59 106 1610
65 107 1637
70 108 1650
74 107 1639
78 106 1614
83 106 1624
88 107 1635
92 106 1619
98 107 1639
101 106 1617
107 107 1637
119 114 1739
122 112 1717
121 107 1634
129 109 1670
133 108 1655
140 110 1688
140 107 1635
149 110 1679
155 110 1687
149 103 1578
149 100 1524
151 98 1504
163 103 1575
164 101 1537
167 100 1531
173 101 1542
189 107 1640
213 118 1806
205 111 1700
197 104 1590
202 104 1591
204 103 1576
206 102 1554
206 99 1518
212 100 1527
216 100 1525
219 99 1516
219 97 1485
224 97 1488
234 100 1528
235 98 1505
238 98 1496
244 98 1501
254 100 1534
254 99 1511
253 97 1479
271 102 1554
271 100 1532
277 100 1535
274 98 1498
278 98 1492
297 103 1569
301 102 1566
308 103 1577
334 110 1688
345 112 1717
327 105 1601
332 105 1605
350 109 1668
345 106 1618
336 102 1556
341 102 1555
325 96 1462
333 97 1477
342 98 1498
347 98 1497
356 99 1518
343 95 1445
354 96 1470
354 95 1453
364 97 1476
365 96 1461
365 95 1442
365 94 1426
359 91 1383
369 92 1406
382 95 1438
387 95 1442
393 95 1446
413 99 1505
419 99 1508
443 104 1577
454 105 1599
494 113 1721
491 111 1692
463 104 1576
446 99 1504
515 113 1719
525 114 1733
547 118 1786
532 113 1720
519 109 1659
504 105 1595
530 110 1662
520 107 1613
515 104 1580
491 99 1492
486 97 1463
486 96 1448
491 96 1450
487 95 1424
484 93 1399
488 93 1399
494 93 1402
508 95 1429
518 96 1444
527 97 1455
545 99 1490
544 98 1475
576 103 1549
615 109 1639
621 109 1641
639 111 1672
647 112 1680
657 113 1691
655 112 1671
636 108 1608
665 111 1666
670 111 1663
667 110 1643
692 113 1689
686 111 1662
697 112 1672
694 111 1653
712 113 1681
723 114 1693
725 113 1683
714 111 1643
737 113 1684
764 117 1731
767 116 1725
727 109 1619
781 117 1727
751 111 1646
719 106 1564
725 106 1564
752 109 1610
812 117 1724
818 117 1724
806 115 1686
781 110 1620
764 107 1573
796 111 1625
837 116 1697
849 117 1707
874 119 1746
898 122 1779
899 121 1767
903 121 1761
908 121 1759
911 120 1751
920 121 1754
920 120 1742
931 121 1749
939 121 1751
943 121 1745
944 120 1735
957 121 1746
961 121 1739
969 121 1741
971 121 1733
-1306 184 2275
-1302 185 2285
-1298 185 2294
-1278 183 2276
-1263 182 2266
-1258 182 2274
-1241 181 2258
-1232 181 2260
-1219 180 2253
-1214 180 2261
-1204 179 2258
-1185 178 2239
-1172 177 2231
-1167 177 2238
-1104 169 2134
-1017 156 1980
-980 151 1923
-974 151 1925
-964 151 1921
-957 151 1923
-947 150 1916
-948 151 1933
-939 151 1931
-928 150 1923
-919 149 1918
-913 149 1920
-899 148 1907
-890 147 1902
-885 147 1906
-876 147 1902
-868 146 1901
-861 146 1901
-853 146 1899
-841 145 1886
-840 146 1900
-829 145 1891
-817 143 1877
-811 143 1879
-806 143 1883
-796 143 1876
-792 143 1881
-777 141 1862
-769 141 1859
-765 141 1864
-757 141 1860
-753 141 1867
-744 140 1860
-736 140 1857
-731 140 1861
-719 139 1846
-714 139 1850
-708 139 1851
-706 139 1860
-692 138 1841
-690 138 1853
-682 138 1848
-674 137 1843
-667 137 1840
-660 136 1837
-659 137 1852
-649 136 1841
-641 136 1837
-636 136 1839
-639 138 1864
-617 134 1819
-618 136 1839
-615 136 1848
-597 133 1813
-604 136 1850
-598 136 1850
-588 135 1838
-571 132 1804
-565 132 1804
-549 129 1769
-550 131 1792
-558 134 1837
-534 130 1776
-529 130 1778
-531 131 1803
-515 129 1771
-513 130 1783
-500 127 1756
-501 129 1778
-489 127 1756
-485 128 1762
-473 126 1736
-464 125 1724
-472 128 1773
-469 129 1786
-459 127 1767
-460 129 1791
-453 128 1785
-429 123 1714
-426 124 1721
-422 124 1727
-414 123 1714
-434 130 1820
-417 127 1774
-413 127 1780
-405 126 1766
-386 122 1708
-373 119 1671
-377 122 1713
-387 127 1786
-375 125 1754
-356 120 1691
-358 122 1721
-364 126 1779
-350 123 1735
-343 122 1723
-340 123 1736
-334 123 1733
-338 126 1780
-326 123 1743
-331 127 1801
-318 124 1756
-307 122 1727
-309 125 1767
-299 123 1737
-295 123 1744
-292 124 1760
-286 123 1752
-280 123 1749
-269 121 1714
-270 123 1753
-262 122 1734
-258 122 1739
-256 124 1762
-248 122 1741
-238 120 1705
-238 122 1745
-230 121 1723
-223 120 1708
-223 122 1743
-217 122 1738
-204 117 1673
-199 117 1672
-191 115 1649
-184 114 1630
-182 115 1651
-177 115 1649
-172 115 1645
-167 115 1644
-158 112 1608
-152 111 1590
-149 112 1614
-139 108 1553
-140 112 1612
-132 110 1577
-129 111 1594
-124 110 1589
-118 109 1574
-110 106 1519
-106 106 1524
-102 106 1529
-96 105 1509
-90 103 1490
-88 106 1523
-85 108 1558
-81 108 1555
-72 102 1477
-70 105 1512
-67 107 1548
-61 104 1508
-57 104 1511
-55 110 1596
-48 105 1516
-44 104 1512
-40 107 1550
-36 108 1560
-31 107 1545
-28 109 1582
-22 106 1543
-18 107 1549
-14 110 1597
-9 108 1564
-5 108 1562
0 106 1535
3 105 1521
8 105 1521
13 112 1626
17 106 1538
22 108 1578
26 107 1559
31 109 1586
36 110 1601
40 110 1599
45 110 1598
51 114 1659
53 107 1560
59 110 1599
64 111 1614
70 113 1649
71 108 1569
78 111 1615
84 113 1644
90 114 1672
95 115 1677
101 116 1694
106 115 1687
110 115 1679
117 117 1712
124 119 1741
127 117 1712
134 118 1733
132 113 1653
143 118 1727
148 118 1725
149 115 1680
154 115 1684
152 110 1605
148 104 1516
152 103 1511
157 104 1517
166 107 1563
170 106 1555
175 107 1562
195 116 1699
214 124 1819
202 114 1671
194 107 1564
197 106 1552
204 108 1575
202 104 1523
211 106 1555
211 104 1522
214 103 1509
216 102 1496
226 105 1533
229 104 1524
237 105 1543
232 101 1484
239 102 1498
245 103 1510
250 103 1509
257 104 1528
258 103 1508
262 103 1502
271 105 1532
274 104 1519
282 105 1541
276 101 1482
297 107 1568
299 106 1555
311 109 1596
332 114 1676
350 119 1742
352 118 1728
338 111 1631
339 110 1616
334 107 1566
336 106 1555
342 107 1562
329 101 1478
334 102 1484
334 100 1460
355 105 1532
355 104 1515
345 100 1452
348 99 1445
361 102 1483
367 102 1485
366 100 1464
365 99 1443
366 98 1428
361 95 1390
375 98 1427
380 98 1430
386 99 1435
396 100 1458
412 103 1499
419 104 1507
422 103 1500
442 107 1556
461 110 1604
472 112 1627
448 105 1525
499 116 1682
512 118 1709
529 120 1745
530 119 1733
551 123 1781
512 113 1639
505 110 1597
525 113 1644
530 114 1644
499 106 1530
487 102 1480
499 104 1501
494 102 1470
487 100 1437
485 98 1418
485 97 1402
485 97 1390
493 97 1399
499 98 1403
519 101 1447
525 101 1450
560 107 1533
556 105 1506
579 108 1556
639 118 1702
643 118 1698
635 116 1662
649 117 1683
650 117 1671
653 116 1664
656 116 1656
644 113 1613
635 110 1577
653 113 1607
657 112 1604
686 117 1661
692 117 1661
706 118 1680
717 119 1693
730 120 1708
734 120 1703
733 119 1688
756 122 1726
781 125 1769
791 126 1778
759 120 1692
783 122 1731
791 123 1734
753 116 1638
754 116 1628
761 116 1628
820 124 1742
823 123 1734
811 121 1697
758 112 1571
758 111 1560
797 116 1627
833 121 1688
853 123 1716
878 126 1752
907 129 1796
899 127 1766
904 127 1763
913 127 1767
915 127 1757
921 127 1756
927 127 1755
930 126 1748
937 126 1747
941 126 1742
944 126 1735
951 126 1735
962 127 1741
967 126 1737
965 125 1721
-1309 192 2280
-1300 192 2281
-1284 190 2269
-1277 190 2274
-1272 191 2281
-1260 190 2276
-1237 188 2252
-1231 188 2258
-1216 186 2246
-1205 186 2243
-1197 186 2244
-1183 185 2236
-1175 184 2237
-1164 184 2232
-1112 177 2149
-1029 165 2005
-983 158 1929
-972 157 1922
-994 162 1980
-982 161 1972
-975 161 1973
-952 158 1942
-939 157 1930
-932 156 1930
-918 155 1916
-912 155 1919
-906 155 1920
-896 154 1916
-887 154 1911
-876 153 1903
-869 153 1902
-866 153 1911
-856 152 1905
-845 151 1895
-840 151 1900
-833 151 1899
-826 151 1898
-803 148 1860
-805 149 1880
-804 150 1895
-786 148 1868
-769 145 1842
-783 149 1891
-789 151 1923
-762 147 1872
-763 149 1893
-744 146 1860
-748 148 1887
-698 139 1775
-746 150 1914
-718 145 1859
-714 145 1866
-702 144 1850
-700 145 1863
-660 138 1771
-661 139 1790
-655 139 1789
-673 144 1856
-646 139 1799
-646 140 1815
-644 141 1828
-639 141 1831
-633 141 1830
-624 140 1820
-617 140 1818
-609 139 1812
-599 138 1801
-597 139 1812
-593 139 1817
-583 138 1805
-578 138 1808
-572 138 1807
-566 138 1806
-560 137 1806
-558 138 1819
-548 137 1805
-539 136 1793
-534 136 1794
-529 136 1798
-526 137 1807
-520 137 1806
-513 136 1800
-512 137 1816
-506 137 1816
-501 137 1821
-483 134 1775
-486 136 1806
-479 135 1802
-474 135 1801
-477 138 1836
-464 136 1809
-458 135 1805
-454 136 1812
-438 132 1772
-445 136 1820
-442 137 1830
-423 132 1774
-425 135 1808
-408 131 1757
-405 132 1768
-395 130 1747
-383 128 1720
-381 129 1734
-386 132 1779
-372 129 1738
-379 133 1797
-371 132 1784
-351 127 1713
-343 126 1701
-335 124 1683
-346 131 1767
-327 125 1697
-326 127 1718
-316 125 1689
-310 124 1684
-313 127 1728
-299 124 1682
-302 127 1724
-292 125 1697
-287 125 1699
-295 131 1779
-273 123 1672
-286 131 1785
-268 125 1702
-259 123 1683
-258 125 1708
-257 127 1730
-253 127 1743
-242 124 1699
-241 126 1728
-239 128 1748
-228 125 1708
-224 125 1717
-223 127 1745
-211 123 1691
-200 120 1641
-193 118 1625
-186 117 1606
-183 118 1621
-176 116 1599
-172 117 1607
-168 117 1610
-161 115 1587
-155 115 1579
-151 115 1582
-147 115 1585
-140 113 1561
-140 117 1614
-133 115 1587
-120 108 1489
-122 113 1562
-118 114 1572
-113 113 1559
-108 113 1563
-103 112 1547
-98 111 1543
-92 110 1521
-88 110 1522
-84 110 1528
-78 108 1496
-74 109 1513
-71 110 1531
-64 107 1490
-62 110 1526
-56 107 1486
-53 109 1519
-49 110 1534
-43 108 1499
-40 110 1527
-36 113 1574
-32 112 1558
-27 114 1582
-23 114 1589
-19 114 1595
-14 114 1592
-9 114 1585
-5 113 1581
0 113 1577
3 113 1581
8 113 1577
13 113 1582
17 114 1596
22 114 1587
27 114 1598
31 115 1609
36 115 1605
41 115 1606
45 115 1602
50 115 1603
54 114 1599
59 114 1601
63 114 1598
68 114 1594
73 115 1605
78 115 1616
85 118 1654
90 119 1663
95 119 1673
100 119 1671
105 119 1674
110 120 1681
115 120 1682
120 120 1682
126 121 1694
131 121 1702
136 121 1701
141 121 1700
146 121 1696
152 121 1706
157 122 1711
160 120 1690
156 114 1599
151 107 1500
156 108 1510
152 102 1428
169 110 1546
182 115 1620
198 123 1724
210 127 1781
205 121 1695
197 113 1590
211 119 1667
204 112 1573
206 111 1553
211 110 1551
215 110 1551
214 107 1507
224 110 1550
228 110 1548
228 108 1516
236 109 1535
236 108 1510
238 106 1494
248 109 1527
253 109 1532
251 106 1492
262 109 1532
261 107 1498
270 108 1520
276 109 1531
281 109 1533
296 113 1589
294 111 1556
298 111 1551
317 116 1623
338 122 1708
355 126 1767
369 129 1808
362 125 1751
341 116 1625
333 111 1560
334 110 1546
350 114 1596
330 106 1484
332 105 1470
342 107 1497
355 110 1534
349 106 1487
348 105 1462
350 104 1453
361 106 1480
365 106 1479
367 105 1469
364 103 1438
367 103 1432
370 102 1427
373 102 1419
378 102 1424
385 103 1432
401 106 1476
413 108 1501
425 110 1530
445 114 1583
483 122 1699
474 118 1650
461 114 1588
467 114 1589
485 117 1633
506 121 1688
516 122 1704
547 128 1786
550 128 1777
528 121 1688
513 117 1624
537 121 1683
552 123 1713
518 115 1591
492 108 1495
488 106 1467
497 107 1479
496 106 1462
495 105 1445
484 101 1401
485 101 1389
493 102 1400
495 101 1392
508 103 1415
530 106 1464
535 106 1463
554 109 1502
612 119 1644
664 128 1769
667 128 1761
660 126 1728
665 126 1726
666 125 1712
666 124 1697
664 122 1677
651 119 1631
642 116 1593
643 116 1581
653 117 1592
689 122 1667
700 123 1679
708 124 1685
717 124 1693
732 126 1714
743 127 1726
762 129 1754
806 135 1840
821 137 1860
838 139 1884
834 137 1858
841 137 1860
849 138 1863
810 130 1762
826 132 1783
816 130 1747
823 130 1748
793 124 1670
790 123 1651
765 118 1586
768 118 1580
795 121 1623
834 126 1689
846 127 1701
879 131 1754
907 135 1797
905 133 1779
917 134 1790
915 133 1770
921 133 1770
922 132 1758
928 132 1757
932 132 1750
937 132 1747
944 132 1747
952 132 1748
956 132 1742
965 133 1746
969 132 1740
973 132 1735
-1295 197 2256
-1293 198 2268
-1288 198 2276
-1271 197 2262
-1266 197 2271
-1256 197 2268
-1239 195 2255
-1228 194 2251
-1215 193 2244
-1211 194 2253
-1194 192 2238
-1187 192 2242
-1175 192 2237
-1163 191 2230
-1131 187 2186
-1032 171 2010
-986 165 1934
-976 164 1930
-979 166 1950
-954 162 1915
-949 162 1919
-948 163 1933
-943 163 1938
-929 162 1923
-920 161 1919
-913 161 1920
-901 160 1910
-894 160 1910
-889 160 1915
-880 159 1911
-870 159 1903
-864 159 1906
-854 158 1901
-847 158 1900
-840 157 1898
-832 157 1895
-824 156 1893
-831 159 1926
-799 154 1867
-794 154 1872
-780 152 1853
-769 151 1843
-783 155 1892
-757 151 1845
-767 154 1886
-757 153 1877
-753 153 1881
-727 149 1834
-731 151 1860
-719 150 1846
-702 148 1818
-696 147 1817
-693 148 1826
-713 153 1897
-694 150 1862
-688 150 1863
-678 149 1852
-680 151 1876
-662 148 1843
-656 148 1843
-640 146 1814
-629 144 1801
-623 144 1801
-629 147 1836
-621 146 1831
-614 146 1827
-597 143 1792
-593 143 1799
-602 147 1843
-576 142 1781
-577 143 1804
-574 144 1813
-548 139 1748
-538 137 1734
-560 144 1823
-554 144 1824
-526 138 1748
-530 140 1782
-533 143 1810
-520 141 1787
-522 142 1812
-509 140 1789
-506 141 1797
-478 135 1718
-488 139 1771
-483 139 1774
-477 139 1772
-471 138 1769
-466 138 1774
-458 138 1763
-454 138 1768
-448 138 1767
-444 138 1770
-437 137 1766
-430 137 1760
-424 136 1757
-422 137 1770
-416 137 1767
-407 136 1755
-404 137 1765
-396 136 1754
-390 135 1751
-387 136 1761
-380 135 1751
-379 137 1770
-371 136 1758
-366 136 1760
-364 137 1777
-359 137 1779
-352 136 1771
-355 139 1811
-341 136 1769
-338 137 1783
-335 137 1793
-332 138 1806
-316 134 1746
-316 136 1777
-306 134 1751
-305 135 1772
-303 137 1794
-289 133 1743
-293 137 1794
-279 133 1740
-269 130 1709
-271 134 1755
-262 132 1734
-265 136 1789
-255 133 1755
-250 133 1753
-240 131 1719
-234 130 1713
-228 130 1707
-227 132 1736
-223 132 1742
-207 126 1663
-196 122 1607
-190 121 1601
-174 114 1499
-176 118 1561
-176 121 1603
-171 121 1596
-165 120 1587
-161 120 1588
-155 119 1574
-152 120 1595
-143 117 1548
-143 120 1594
-135 118 1562
-132 119 1576
-127 118 1565
-124 120 1593
-118 118 1574
-117 121 1613
-108 117 1556
-102 116 1543
-99 117 1551
-90 111 1479
-89 115 1533
-83 113 1508
-79 114 1521
-75 114 1520
-70 113 1508
-66 114 1527
-63 116 1550
-58 115 1541
-54 116 1546
-49 115 1542
-46 119 1585
-41 119 1589
-36 118 1574
-32 119 1593
-28 120 1610
-23 121 1616
-19 122 1636
-14 121 1617
-9 119 1599
-5 122 1637
0 120 1606
4 120 1614
8 120 1613
13 120 1608
17 120 1611
22 120 1617
27 120 1617
32 121 1623
36 120 1605
41 120 1612
45 120 1611
50 121 1623
55 120 1620
60 120 1620
64 119 1604
69 120 1615
74 120 1622
79 121 1632
83 121 1626
89 123 1652
94 122 1646
98 122 1643
105 124 1672
109 123 1661
114 123 1660
120 124 1677
125 125 1685
130 124 1677
134 124 1667
140 125 1680
145 125 1683
150 125 1691
157 126 1706
160 125 1688
159 121 1626
157 116 1565
159 114 1538
165 115 1553
171 116 1559
182 120 1625
194 125 1688
203 127 1719
203 124 1674
199 119 1607
199 116 1570
203 116 1563
205 114 1540
210 115 1549
216 116 1560
219 115 1545
227 116 1571
228 114 1542
233 115 1550
230 111 1501
240 114 1531
242 112 1516
248 113 1527
251 113 1518
254 112 1507
259 112 1509
254 108 1458
271 114 1531
273 112 1514
285 116 1558
297 119 1598
295 116 1559
304 117 1581
323 123 1653
338 127 1706
354 131 1761
355 129 1742
349 125 1687
337 119 1602
337 117 1581
338 116 1562
342 116 1560
328 109 1472
335 110 1485
346 113 1515
347 112 1499
348 110 1483
342 107 1439
355 110 1473
357 109 1462
362 109 1464
367 109 1467
367 108 1449
365 106 1424
369 106 1422
376 107 1430
379 107 1427
389 108 1448
401 110 1475
414 112 1505
427 115 1535
428 114 1522
421 111 1482
433 113 1507
444 114 1529
441 112 1502
455 115 1533
477 119 1589
477 118 1574
498 122 1626
517 125 1669
513 123 1639
528 125 1672
545 128 1706
535 124 1658
501 116 1539
486 111 1475
478 108 1437
491 110 1461
487 108 1437
490 108 1430
485 106 1403
490 106 1403
492 105 1395
498 106 1399
516 109 1437
521 109 1438
538 111 1470
536 110 1451
564 115 1515
636 128 1694
648 130 1712
658 131 1722
656 129 1701
661 129 1698
675 131 1719
677 130 1709
690 131 1728
687 130 1705
698 131 1719
723 134 1764
714 132 1728
705 129 1692
713 130 1696
726 131 1712
736 132 1721
740 132 1717
772 136 1776
798 140 1822
826 144 1871
823 142 1849
831 142 1852
848 144 1875
857 145 1879
824 138 1792
825 137 1779
825 136 1766
831 136 1765
805 131 1696
802 130 1676
781 126 1619
779 125 1603
791 126 1615
807 127 1633
835 131 1679
851 132 1698
883 137 1748
894 137 1756
897 137 1749
911 138 1762
908 137 1744
914 137 1743
924 137 1749
929 137 1744
939 138 1750
942 138 1743
950 138 1745
959 138 1747
958 137 1733
968 138 1738
975 138 1737
-1307 207 2275
-1275 203 2237
-1278 204 2257
-1280 206 2278
-1254 203 2249
-1245 202 2249
-1244 203 2263
-1227 202 2249
-1215 201 2244
-1200 199 2232
-1192 199 2235
-1178 198 2225
-1173 198 2233
-1160 197 2225
-1127 193 2178
-1035 178 2015
-982 170 1927
-974 170 1926
-960 168 1913
-948 167 1902
-954 169 1930
-948 169 1932
-935 168 1920
-930 168 1925
-919 167 1917
-915 168 1923
-902 166 1913
-896 166 1915
-885 165 1906
-877 165 1904
-873 165 1909
-863 164 1903
-856 164 1904
-848 164 1901
-840 163 1898
-832 163 1897
-819 161 1881
-807 160 1870
-794 159 1855
-810 163 1908
-793 161 1883
-798 163 1912
-818 168 1976
-766 158 1866
-752 157 1849
-739 155 1833
-757 160 1893
-757 161 1910
-729 157 1856
-709 153 1820
-728 159 1885
-705 155 1840
-699 155 1842
-686 153 1825
-692 156 1857
-689 156 1867
-682 156 1863
-684 158 1887
-668 155 1859
-657 154 1845
-660 156 1871
-636 151 1821
-623 150 1802
-627 152 1831
-622 152 1832
-610 150 1816
-598 149 1795
-592 148 1795
-603 152 1846
-584 149 1808
-586 151 1833
-568 148 1795
-576 151 1836
-575 152 1853
-561 150 1826
-543 147 1789
-537 146 1788
-529 145 1777
-527 146 1792
-513 144 1761
-516 146 1793
-515 147 1809
-514 148 1823
-494 144 1773
-494 146 1794
-484 144 1778
-478 144 1777
-472 144 1775
-477 147 1815
-454 142 1747
-450 142 1753
-451 144 1779
-427 138 1703
-435 142 1757
-434 143 1774
-422 141 1751
-425 144 1784
-414 142 1758
-404 140 1742
-402 141 1754
-396 141 1752
-396 142 1776
-391 142 1775
-376 139 1731
-363 136 1696
-368 140 1746
-377 145 1812
-354 138 1726
-358 141 1771
-343 138 1724
-336 137 1716
-331 137 1718
-327 137 1721
-321 137 1720
-317 137 1721
-313 137 1729
-307 137 1728
-302 137 1726
-295 136 1718
-291 136 1720
-286 137 1724
-281 136 1723
-275 136 1719
-271 137 1726
-265 136 1719
-261 137 1729
-256 136 1724
-249 135 1713
-246 136 1726
-239 135 1716
-235 136 1721
-230 136 1721
-228 137 1741
-223 137 1744
-210 132 1683
-195 126 1602
-187 124 1575
-188 127 1621
-181 126 1601
-178 127 1620
-171 125 1598
-165 124 1584
-161 124 1586
-157 125 1600
-153 125 1597
-144 122 1559
-137 120 1531
-135 122 1552
-134 125 1599
-131 127 1622
-122 122 1566
-121 126 1614
-123 133 1703
-113 127 1622
-103 121 1546
-97 119 1521
-92 119 1519
-86 116 1486
-84 120 1534
-80 120 1543
-75 119 1532
-69 116 1494
-66 118 1520
-62 120 1545
-57 119 1529
-53 119 1535
-49 121 1550
-43 116 1497
-41 122 1575
-37 124 1602
-32 125 1604
-29 129 1661
-24 130 1679
-19 125 1606
-14 127 1633
-10 126 1627
-5 129 1664
0 126 1626
4 128 1658
8 127 1644
13 126 1634
17 124 1598
22 126 1633
27 127 1637
31 125 1614
36 125 1616
41 125 1612
46 127 1648
49 123 1592
54 123 1588
60 125 1616
64 125 1617
70 127 1647
72 122 1584
79 126 1631
82 123 1598
86 123 1590
91 123 1589
95 122 1585
100 123 1590
103 121 1569
108 122 1577
114 123 1590
119 124 1603
124 123 1596
128 123 1594
133 123 1597
138 123 1598
143 123 1602
147 123 1596
151 122 1588
152 120 1550
156 119 1548
161 120 1552
166 120 1555
170 120 1556
177 121 1575
182 122 1578
189 123 1603
191 122 1577
194 120 1563
199 121 1570
202 120 1557
207 120 1561
211 120 1551
213 118 1536
218 118 1537
223 119 1539
227 119 1540
230 118 1526
238 119 1549
239 118 1527
244 118 1531
248 118 1524
256 119 1547
257 117 1523
262 118 1531
267 118 1530
270 117 1523
275 118 1527
279 118 1523
285 118 1528
292 119 1542
297 119 1543
303 120 1550
302 118 1525
310 119 1542
316 119 1546
314 117 1516
319 117 1517
318 115 1489
323 115 1490
321 113 1464
325 113 1459
326 112 1443
335 113 1463
335 112 1444
343 113 1461
344 112 1444
349 112 1449
356 113 1457
354 111 1433
360 112 1439
366 112 1446
367 111 1431
371 111 1430
376 111 1432
380 111 1428
385 111 1432
387 111 1424
393 111 1430
397 111 1427
401 111 1425
408 112 1435
413 112 1435
416 111 1431
417 111 1419
427 112 1438
431 112 1434
435 112 1432
443 113 1444
450 113 1451
456 114 1457
463 114 1462
464 114 1453
464 112 1436
462 111 1416
468 111 1421
471 111 1415
471 110 1401
475 110 1398
476 109 1388
485 110 1401
490 110 1402
493 110 1400
495 109 1392
501 110 1396
504 110 1391
507 109 1385
516 110 1398
532 113 1428
556 117 1479
573 119 1510
590 122 1543
596 122 1545
607 123 1558
617 124 1571
625 125 1578
635 126 1590
637 125 1580
645 126 1586
653 126 1593
675 130 1632
684 130 1641
689 130 1638
700 131 1651
708 132 1656
712 132 1650
720 132 1655
720 131 1643
735 133 1663
744 134 1669
743 132 1653
758 134 1674
770 135 1688
750 131 1630
738 128 1591
743 128 1588
766 131 1625
773 131 1628
779 131 1627
770 129 1595
758 126 1559
776 128 1582
783 129 1585
792 129 1592
812 132 1619
829 133 1639
860 137 1689
864 137 1683
864 136 1671
860 135 1650
872 136 1662
877 136 1659
904 139 1696
933 143 1737
937 142 1732
951 144 1746
954 143 1738
958 143 1732
960 142 1723
968 143 1726
-1297 212 2257
-1284 211 2251
-1278 211 2257
-1258 209 2238
-1256 210 2251
-1243 209 2244
-1238 209 2251
-1214 207 2225
-1211 207 2236
-1204 207 2240
-1194 207 2237
-1189 207 2246
-1168 205 2222
-1162 205 2228
-1125 199 2174
-1028 183 2000
-981 176 1924
-973 176 1923
-972 177 1936
-954 174 1915
-963 177 1947
-946 175 1929
-939 175 1928
-928 174 1922
-922 174 1924
-913 173 1921
-903 173 1915
-896 172 1914
-887 172 1910
-879 171 1908
-871 171 1906
-861 170 1898
-851 169 1892
-844 169 1893
-841 169 1901
-830 168 1891
-809 165 1858
-820 168 1899
-781 162 1824
-782 163 1842
-803 168 1906
-794 168 1901
-781 166 1886
-767 164 1868
-771 166 1894
-739 161 1831
-739 162 1848
-713 158 1799
-744 165 1892
-730 164 1873
-708 160 1832
-706 161 1843
-703 161 1853
-696 161 1851
-692 161 1856
-682 160 1846
-688 163 1881
-668 160 1843
-655 158 1823
-659 160 1852
-659 161 1870
-641 158 1834
-645 160 1864
-620 155 1807
-636 161 1872
-620 158 1843
-614 158 1845
-612 159 1857
-572 150 1753
-585 155 1810
-568 152 1775
-588 158 1856
-571 155 1820
-566 155 1823
-557 154 1813
-566 158 1861
-542 153 1802
-525 150 1765
-522 150 1774
-514 149 1765
-512 151 1779
-507 150 1780
-503 151 1784
-486 147 1744
-492 151 1786
-485 150 1780
-479 150 1779
-459 145 1726
-465 148 1767
-461 149 1775
-448 146 1744
-443 146 1747
-450 150 1795
-447 151 1806
-422 144 1727
-427 148 1768
-421 147 1766
-418 148 1777
-409 147 1761
-402 146 1755
-397 146 1758
-384 143 1720
-382 144 1736
-381 146 1755
-381 148 1780
-368 145 1744
-356 142 1713
-355 144 1734
-341 140 1691
-340 142 1711
-335 141 1708
-328 141 1701
-320 139 1686
-325 144 1740
-314 141 1709
-315 144 1741
-299 138 1680
-301 142 1720
-282 135 1642
-294 143 1739
-282 140 1702
-284 143 1739
-272 139 1698
-269 140 1711
-261 139 1693
-250 136 1654
-247 137 1665
-248 140 1707
-237 137 1668
-241 142 1731
-226 135 1654
-223 137 1671
-217 136 1662
-207 132 1621
-209 137 1678
-198 133 1629
-194 133 1629
-181 128 1565
-180 130 1591
-175 129 1587
-171 130 1600
-166 130 1597
-160 128 1577
-153 127 1559
-150 127 1567
-149 131 1607
-146 132 1631
-144 134 1656
-137 133 1636
-134 134 1650
-130 135 1667
-126 136 1676
-121 136 1676
-116 135 1670
-109 132 1634
-99 126 1555
-93 125 1542
-87 122 1513
-83 123 1523
-80 125 1542
-72 119 1472
-72 126 1561
-67 125 1552
-62 125 1543
-58 126 1556
-53 124 1540
-53 134 1656
-46 128 1588
-43 132 1641
-39 135 1672
-34 135 1677
-30 138 1712
-24 134 1660
-20 135 1676
-15 135 1682
-10 135 1681
-5 134 1673
0 132 1639
4 134 1664
8 133 1653
13 129 1608
18 129 1611
22 131 1631
27 129 1601
32 133 1654
37 131 1631
41 131 1628
45 129 1609
49 127 1585
55 129 1609
59 129 1607
64 128 1600
68 127 1588
72 126 1573
78 129 1613
80 125 1565
86 127 1588
89 125 1559
94 125 1564
100 127 1581
104 127 1587
107 124 1553
111 124 1545
115 123 1536
120 124 1550
123 123 1536
128 123 1541
135 125 1562
137 123 1536
142 123 1540
145 122 1526
151 123 1543
156 124 1548
158 122 1522
163 123 1532
165 121 1510
170 121 1514
178 123 1543
176 119 1489
183 121 1509
191 123 1537
198 125 1559
202 124 1556
203 122 1529
206 121 1515
210 121 1514
216 122 1522
219 121 1509
224 121 1515
228 121 1514
232 121 1508
237 121 1514
237 119 1483
245 121 1507
252 122 1525
252 120 1497
257 120 1500
265 122 1519
265 120 1493
268 119 1486
271 118 1476
277 119 1487
280 118 1477
283 118 1472
287 118 1470
291 117 1465
292 116 1448
298 117 1457
303 117 1459
305 116 1450
309 116 1446
314 116 1450
319 116 1450
318 115 1429
327 116 1447
328 115 1435
333 115 1436
338 116 1437
341 115 1435
344 115 1426
347 114 1422
353 115 1428
354 114 1415
360 114 1421
364 114 1418
367 114 1414
372 114 1415
376 114 1415
377 113 1402
383 114 1407
387 114 1407
389 113 1397
396 114 1406
399 113 1401
403 113 1400
408 113 1400
412 113 1400
416 113 1399
418 113 1391
424 113 1396
429 113 1397
434 114 1399
438 113 1396
439 113 1387
441 112 1377
447 112 1383
452 113 1386
456 112 1382
458 112 1374
464 112 1379
469 113 1382
473 112 1379
477 112 1377
479 112 1372
483 112 1369
488 112 1370
491 112 1366
496 112 1366
500 112 1366
504 112 1365
511 112 1372
518 113 1377
522 113 1376
531 114 1386
538 114 1391
541 114 1387
549 115 1395
556 115 1401
558 115 1396
562 115 1392
565 115 1389
568 114 1383
584 117 1410
601 119 1441
611 120 1450
611 119 1439
612 119 1430
614 118 1422
612 117 1406
614 116 1398
620 117 1401
627 117 1405
628 116 1396
633 117 1397
637 116 1392
643 117 1396
640 115 1378
653 117 1394
662 118 1403
668 118 1405
679 119 1416
677 118 1401
686 119 1409
702 121 1430
697 119 1410
705 120 1415
717 121 1429
715 120 1413
751 125 1474
751 124 1463
756 124 1460
748 122 1434
758 123 1442
771 124 1456
862 138 1616
927 147 1726
946 149 1748
951 149 1746
955 149 1740
959 149 1733
968 149 1738
975 149 1736
-1302 221 2266
-1286 219 2254
-1273 218 2249
-1259 217 2240
-1247 216 2234
-1241 216 2240
-1222 214 2223
-1216 214 2229
-1207 214 2228
-1195 213 2223
-1185 212 2221
-1174 212 2216
-1161 210 2208
-1155 211 2213
-1129 207 2180
-1036 191 2016
-987 183 1936
-974 182 1924
-971 183 1933
-956 181 1918
-965 184 1951
-948 182 1933
-943 182 1936
-932 181 1930
-923 180 1925
-912 179 1917
-906 179 1920
-896 178 1913
-885 177 1906
-878 177 1905
-873 177 1909
-862 176 1902
-853 175 1897
-847 175 1898
-843 176 1905
-837 176 1906
-821 173 1885
-825 175 1910
-815 175 1904
-777 168 1830
-768 167 1823
-780 171 1867
-793 175 1914
-783 174 1908
-772 173 1897
-742 167 1838
-753 171 1883
-729 167 1837
-721 166 1835
-737 171 1890
-715 167 1849
-692 163 1808
-695 165 1830
-692 166 1838
-692 167 1857
-675 164 1826
-661 162 1805
-671 166 1849
-659 164 1833
-654 164 1838
-653 165 1853
-641 164 1834
-645 166 1863
-617 160 1799
-614 161 1808
-618 163 1838
-605 161 1818
-593 160 1800
-600 163 1838
-581 159 1798
-574 159 1794
-559 156 1764
-573 161 1826
-542 154 1748
-542 155 1765
-555 161 1825
-543 159 1805
-538 159 1808
-536 160 1820
-524 158 1801
-519 158 1800
-511 157 1793
-498 155 1767
-490 154 1759
-499 158 1813
-488 156 1790
-483 156 1793
-475 155 1784
-478 158 1818
-462 154 1776
-460 156 1791
-452 155 1782
-450 156 1797
-431 151 1740
-428 152 1750
-416 149 1724
-419 152 1760
-410 151 1742
-405 151 1745
-403 152 1758
-391 149 1728
-383 148 1719
-389 152 1766
-368 146 1697
-373 150 1743
-371 151 1760
-357 148 1719
-352 147 1717
-360 153 1785
-348 150 1751
-337 147 1720
-326 145 1688
-328 148 1726
-321 147 1717
-322 150 1751
-310 146 1715
-310 149 1744
-298 146 1706
-296 147 1721
-288 145 1705
-288 148 1734
-282 147 1728
-268 143 1675
-264 143 1678
-262 144 1697
-263 148 1738
-247 141 1664
-244 142 1678
-242 144 1703
-234 142 1679
-233 144 1706
-228 145 1708
-208 135 1590
-216 143 1689
-206 140 1652
-206 143 1687
-189 134 1590
-182 133 1575
-186 139 1648
-174 134 1582
-172 135 1606
-165 133 1581
-166 138 1639
-156 134 1591
-151 133 1580
-153 139 1655
-150 140 1668
-141 137 1629
-140 140 1667
-132 137 1625
-133 142 1696
-124 138 1645
-119 138 1644
-111 134 1602
-107 136 1616
-107 141 1683
-95 131 1567
-89 129 1544
-84 129 1533
-78 126 1504
-76 130 1554
-71 128 1534
-70 135 1617
-65 135 1619
-61 136 1626
-56 135 1614
-53 138 1652
-47 137 1635
-43 137 1637
-38 136 1624
-33 136 1627
-28 136 1626
-23 135 1615
-19 136 1632
-14 136 1632
-9 134 1614
-5 135 1614
0 135 1627
4 134 1608
8 135 1618
13 135 1622
18 134 1608
22 135 1617
27 136 1630
32 135 1619
36 133 1602
41 133 1605
45 133 1604
50 134 1614
55 134 1607
60 136 1633
64 134 1608
69 134 1615
73 133 1605
78 134 1617
82 133 1599
86 132 1591
91 132 1592
96 133 1605
101 133 1606
106 134 1616
110 133 1608
116 134 1620
121 135 1629
123 132 1590
130 134 1616
132 132 1588
138 132 1596
140 130 1567
146 132 1591
154 135 1629
156 133 1599
160 132 1592
163 131 1577
166 129 1558
169 128 1539
176 130 1569
179 129 1550
184 129 1554
189 130 1563
194 129 1558
197 129 1551
199 127 1534
202 126 1517
206 126 1516
211 126 1520
216 126 1524
219 126 1515
225 127 1526
225 124 1490
225 122 1464
234 124 1491
241 125 1507
248 126 1523
247 124 1491
251 124 1490
252 122 1469
260 124 1488
261 122 1468
268 123 1483
268 121 1460
274 122 1472
277 121 1460
284 122 1473
282 120 1442
290 122 1462
290 120 1439
301 122 1472
303 121 1460
306 121 1451
309 120 1445
311 119 1434
321 122 1460
320 120 1438
324 120 1436
328 120 1435
331 119 1428
336 119 1431
339 119 1423
343 119 1422
350 120 1432
353 119 1426
357 119 1427
360 119 1419
363 118 1415
369 119 1421
373 119 1419
375 118 1411
380 118 1414
383 118 1408
385 117 1397
391 118 1403
397 118 1410
401 118 1407
401 117 1393
406 117 1393
410 117 1394
416 117 1398
417 117 1388
423 117 1393
429 117 1397
429 116 1384
436 117 1391
449 119 1417
434 114 1354
452 118 1398
472 122 1445
454 116 1375
460 117 1382
462 116 1375
466 116 1371
471 116 1373
473 116 1368
480 116 1372
483 116 1368
489 116 1372
489 115 1360
496 116 1366
500 116 1366
500 115 1353
507 116 1359
512 116 1361
518 116 1365
519 116 1356
528 116 1365
529 116 1355
535 116 1360
540 116 1361
544 116 1358
549 116 1359
554 117 1361
554 116 1349
561 116 1355
568 117 1359
572 117 1356
578 117 1361
582 117 1359
584 116 1352
588 116 1351
597 117 1358
597 117 1349
604 117 1352
608 117 1350
614 117 1352
615 117 1344
620 117 1344
622 116 1337
624 116 1331
631 116 1337
638 117 1341
642 117 1338
652 118 1349
646 116 1325
655 117 1334
654 116 1321
670 118 1343
675 118 1343
681 118 1345
690 119 1352
695 119 1351
694 118 1340
696 118 1332
705 119 1341
707 118 1334
821 136 1538
926 153 1725
949 155 1754
956 156 1754
955 154 1739
959 154 1733
963 154 1727
978 155 1742
-1296 227 2255
-1283 226 2248
-1267 224 2237
-1276 227 2269
-1247 223 2234
-1240 223 2239
-1221 221 2221
-1213 221 2221
-1203 220 2220
-1207 222 2244
-1189 220 2227
-1170 218 2208
-1155 216 2196
-1157 218 2218
-1122 213 2167
-1044 199 2032
-989 190 1939
-974 188 1925
-969 188 1929
-965 189 1935
-960 189 1941
-952 189 1940
-938 187 1925
-933 187 1931
-922 186 1924
-911 185 1914
-905 185 1917
-898 185 1917
-888 184 1911
-874 182 1897
-871 183 1906
-862 182 1901
-855 182 1901
-848 181 1899
-841 181 1901
-830 180 1889
-825 180 1895
-799 176 1850
-782 173 1827
-807 180 1901
-795 178 1887
-770 174 1844
-781 178 1886
-766 176 1865
-751 174 1844
-759 177 1881
-756 177 1889
-746 176 1880
-736 175 1871
-716 172 1837
-703 170 1819
-728 177 1900
-714 175 1880
-689 170 1830
-696 174 1868
-689 173 1865
-676 171 1848
-656 167 1807
-658 170 1831
-656 170 1842
-647 169 1834
-635 168 1817
-628 167 1815
-632 170 1844
-615 167 1811
-617 169 1836
-600 165 1801
-599 167 1816
-603 169 1847
-594 168 1838
-577 165 1802
-576 166 1817
-571 166 1819
-546 161 1760
-558 165 1816
-549 164 1804
-529 160 1757
-533 163 1791
-543 167 1845
-525 164 1804
-515 162 1787
-506 161 1776
-503 162 1786
-503 163 1806
-486 159 1765
-485 161 1782
-471 158 1748
-479 162 1798
-460 157 1748
-467 161 1796
-461 161 1794
-445 157 1753
-438 157 1746
-429 155 1734
-433 158 1769
-424 157 1755
-419 157 1759
-414 157 1758
-408 157 1755
-399 155 1740
-391 154 1729
-393 157 1762
-379 153 1723
-379 155 1746
-377 157 1763
-374 158 1773
-362 154 1739
-360 156 1757
-357 157 1768
-336 150 1691
-332 150 1694
-339 156 1757
-331 154 1742
-322 153 1725
-317 152 1725
-316 154 1748
-305 151 1713
-298 150 1702
-299 153 1740
-292 152 1726
-279 148 1683
-280 151 1718
-274 151 1713
-273 153 1737
-266 152 1725
-251 146 1663
-262 155 1765
-247 149 1699
-247 152 1734
-239 150 1715
-231 149 1695
-223 146 1667
-218 146 1673
-214 146 1674
-209 146 1673
-197 142 1620
-191 141 1611
-186 140 1606
-179 138 1581
-182 144 1649
-171 140 1599
-166 139 1597
-165 142 1628
-160 142 1628
-158 144 1649
-154 145 1667
-148 143 1646
-143 143 1647
-139 144 1652
-134 144 1657
-132 146 1684
-125 145 1664
-119 143 1648
-113 142 1633
-107 140 1616
-103 141 1624
-97 139 1601
-92 137 1586
-88 138 1596
-83 139 1604
-79 140 1611
-76 142 1645
-70 139 1610
-65 139 1601
-61 140 1623
-55 138 1601
-52 141 1629
-47 141 1629
-42 140 1626
-37 137 1586
-33 140 1619
-28 141 1638
-24 141 1630
-19 139 1616
-14 137 1591
-9 137 1591
-5 138 1605
0 137 1589
4 136 1574
8 135 1567
13 141 1632
18 139 1611
22 135 1568
27 140 1622
32 139 1616
36 140 1622
42 141 1642
45 138 1604
51 142 1646
54 137 1593
60 141 1639
64 139 1612
66 132 1532
71 135 1565
79 140 1631
79 133 1544
86 135 1575
89 133 1553
94 134 1557
96 131 1528
104 136 1584
108 135 1571
113 135 1573
118 136 1582
122 135 1575
127 135 1574
131 135 1569
135 134 1566
140 134 1566
144 135 1568
149 134 1566
153 134 1566
157 134 1561
162 134 1565
166 133 1552
171 134 1564
176 134 1563
179 133 1554
184 133 1555
189 133 1555
194 134 1560
197 133 1553
203 134 1560
208 134 1561
210 133 1544
215 133 1549
220 133 1554
224 133 1544
227 132 1538
232 132 1538
236 132 1538
241 132 1537
243 131 1524
249 131 1529
253 131 1526
259 132 1537
263 132 1531
266 131 1525
269 130 1518
270 129 1497
272 128 1483
281 130 1508
283 128 1492
289 129 1502
294 129 1504
296 128 1492
299 128 1482
303 128 1481
308 128 1482
309 126 1466
313 126 1463
317 126 1462
323 127 1470
322 125 1445
329 126 1456
332 125 1450
334 124 1442
341 125 1451
343 124 1439
349 125 1448
347 123 1420
355 124 1436
358 123 1427
364 124 1435
368 124 1432
372 124 1434
374 123 1423
378 123 1422
383 123 1422
386 123 1417
389 123 1412
391 122 1404
397 122 1409
401 122 1406
405 122 1405
409 122 1404
410 121 1392
415 121 1394
420 122 1397
423 121 1390
427 121 1391
433 121 1394
435 121 1386
434 119 1368
417 114 1301
437 118 1350
440 118 1348
471 125 1428
458 120 1375
466 121 1385
465 120 1368
472 121 1377
471 119 1361
479 120 1370
486 121 1378
488 120 1369
491 120 1366
499 121 1375
504 121 1375
507 121 1370
514 121 1379
513 120 1362
520 121 1370
521 120 1360
523 120 1353
531 120 1361
533 120 1353
540 121 1361
545 121 1361
544 119 1346
553 121 1358
557 120 1355
560 120 1352
565 120 1352
568 120 1346
573 120 1348
575 120 1341
580 120 1342
586 120 1344
591 120 1344
600 121 1355
599 120 1341
604 120 1342
610 121 1344
618 121 1350
624 122 1353
624 121 1343
627 121 1338
633 121 1339
639 121 1343
637 120 1328
642 120 1326
647 120 1328
652 120 1327
667 122 1347
665 121 1333
669 121 1331
675 121 1333
674 121 1321
681 121 1324
687 121 1325
695 122 1330
696 121 1323
706 122 1332
825 142 1547
922 157 1716
942 160 1740
945 159 1734
957 160 1742
958 160 1730
968 160 1736
976 161 1737
-1312 237 2282
-1293 235 2265
-1296 237 2288
-1266 233 2251
-1255 232 2247
-1266 235 2284
-1235 231 2246
-1224 230 2242
-1213 229 2239
-1193 227 2217
-1189 227 2227
-1165 224 2199
-1165 225 2215
-1161 226 2223
-1125 220 2172
-1052 207 2046
-994 197 1949
-975 194 1925
-975 196 1940
-974 197 1954
-966 196 1953
-959 196 1954
-949 195 1947
-940 195 1945
-929 194 1937
-917 192 1926
-904 191 1914
-896 190 1914
-888 190 1911
-875 188 1898
-872 189 1906
-856 187 1887
-857 188 1904
-846 187 1895
-840 187 1898
-831 186 1892
-827 186 1898
-798 181 1847
-801 183 1870
-824 190 1940
-787 182 1867
-792 185 1897
-774 182 1869
-752 178 1832
-759 181 1865
-753 181 1865
-771 187 1925
-753 184 1898
-730 179 1856
-722 179 1851
-729 182 1887
-715 180 1866
-711 180 1872
-706 180 1876
-690 178 1850
-682 177 1846
-690 181 1885
-670 177 1846
-664 177 1848
-648 174 1820
-645 174 1828
-628 171 1797
-650 179 1876
-630 175 1838
-625 175 1839
-611 172 1816
-595 170 1788
-605 174 1833
-603 175 1845
-600 175 1856
-593 175 1852
-565 168 1783
-567 171 1809
-554 168 1785
-552 169 1797
-547 169 1798
-538 168 1790
-519 164 1745
-520 165 1765
-506 163 1736
-530 172 1838
-515 169 1807
-508 168 1801
-500 167 1793
-496 168 1799
-483 165 1773
-488 169 1813
-467 163 1756
-456 161 1732
-456 163 1753
-454 164 1767
-438 160 1726
-445 165 1775
-438 164 1768
-427 162 1746
-428 164 1772
-410 159 1718
-406 159 1725
-399 159 1718
-402 162 1753
-409 167 1810
-396 163 1773
-377 158 1714
-373 158 1717
-372 160 1736
-370 161 1755
-370 163 1777
-351 157 1712
-338 153 1672
-342 158 1720
-341 159 1742
-334 159 1734
-325 156 1711
-324 158 1732
-312 155 1697
-312 158 1727
-307 157 1724
-297 155 1696
-298 158 1731
-288 155 1705
-287 157 1729
-281 157 1725
-268 152 1674
-270 156 1716
-264 155 1709
-255 153 1685
-256 156 1724
-244 153 1682
-239 152 1678
-244 158 1747
-229 152 1679
-226 153 1695
-223 154 1707
-216 153 1693
-211 153 1690
-207 153 1698
-191 145 1608
-193 150 1666
-191 153 1692
-176 144 1600
-175 147 1629
-173 150 1664
-169 150 1665
-166 152 1688
-159 150 1667
-156 151 1684
-145 145 1617
-142 147 1632
-140 150 1669
-138 153 1704
-129 148 1650
-123 147 1639
-120 148 1655
-117 151 1683
-110 148 1655
-103 146 1626
-100 148 1652
-95 147 1644
-89 145 1624
-84 145 1625
-80 146 1629
-76 147 1643
-70 144 1608
-67 148 1657
-62 147 1648
-58 148 1659
-52 146 1635
-47 144 1615
-42 144 1608
-37 145 1621
-33 147 1644
-28 145 1628
-23 145 1624
-18 143 1603
-14 145 1623
-9 145 1630
-5 143 1610
0 146 1641
4 143 1601
9 147 1654
13 144 1620
17 141 1580
22 141 1582
26 140 1574
31 142 1593
36 142 1591
41 144 1621
45 141 1585
49 140 1576
54 140 1576
58 140 1575
63 140 1580
67 140 1572
74 144 1617
77 141 1587
83 143 1606
84 138 1554
90 140 1571
98 144 1624
99 140 1577
102 138 1549
108 140 1572
112 139 1564
118 140 1582
121 139 1562
124 137 1540
131 140 1574
133 137 1539
140 139 1566
143 138 1555
149 139 1567
153 139 1563
158 139 1562
161 137 1547
165 138 1551
172 139 1569
176 139 1563
180 138 1559
183 137 1543
187 137 1538
193 138 1555
194 135 1524
201 137 1546
206 138 1550
215 140 1578
207 132 1485
223 139 1570
221 136 1526
235 141 1588
224 132 1482
234 135 1521
235 133 1501
245 136 1535
246 134 1510
250 134 1511
260 137 1540
258 134 1503
263 134 1509
267 134 1502
281 138 1556
275 133 1498
287 137 1542
275 129 1448
290 134 1507
297 135 1518
301 135 1514
302 134 1500
307 134 1500
311 133 1497
320 135 1518
320 133 1497
329 135 1519
327 132 1486
331 132 1484
337 133 1491
340 132 1485
344 132 1481
350 133 1490
352 132 1477
357 132 1479
360 132 1476
365 132 1475
368 131 1470
371 131 1463
375 131 1461
381 131 1468
385 131 1466
389 131 1462
390 130 1447
396 130 1454
396 129 1436
402 129 1442
407 130 1446
409 129 1434
413 129 1433
