VERSION 0.7
FIELDS x y z
SIZE 4 4 4
TYPE I I I
COUNT 1 1 1
WIDTH 3538
HEIGHT 1
VIEWPOINT 0.0 0.0 0.0 1.0 0.0 0.0 0.0
POINTS 3538
DATA ascii
997 868 2140
1006 870 2142
1019 875 2153
1024 873 2145
1022 865 2122
1007 846 2073
998 834 2039
983 815 1991
869 716 1744
762 623 1516
736 598 1452
720 581 1409
711 570 1379
747 595 1438
774 612 1478
884 695 1678
928 725 1747
933 724 1743
947 730 1754
947 726 1740
957 729 1745
954 722 1726
964 725 1730
974 728 1735
982 730 1736
986 728 1729
989 726 1722
995 726 1718
1001 726 1716
997 719 1696
1015 728 1714
1018 726 1706
1026 727 1706
1039 732 1716
-850 610 1378
-984 710 1608
-1332 965 2193
-1353 986 2246
-1363 998 2279
-1366 1007 2302
-1356 1005 2303
-1339 998 2290
-1325 994 2284
-1318 994 2291
-1322 1003 2315
-1312 1002 2316
-1311 1007 2332
-1304 1007 2337
-1297 1008 2342
-1275 997 2322
-1273 1002 2336
-1265 1001 2340
-1208 963 2252
-1217 976 2287
-1184 955 2243
-1173 953 2240
-1155 944 2224
-1139 937 2210
-1125 931 2200
-1118 932 2204
-1104 927 2196
-1088 919 2180
-1084 922 2191
-1070 916 2180
-1064 917 2187
-1048 910 2172
-1036 905 2165
-999 879 2105
-968 857 2056
-947 845 2029
-941 845 2033
-937 848 2042
-936 853 2058
-933 856 2068
-931 861 2082
-929 865 2095
-921 864 2094
-912 862 2092
-907 863 2099
-910 873 2126
-898 868 2116
-895 872 2128
-893 876 2142
-896 886 2169
-901 898 2202
-898 902 2214
-905 916 2251
-907 926 2277
-911 938 2310
-907 941 2321
-909 951 2348
-897 946 2338
-900 957 2369
-855 917 2273
-791 856 2121
-742 810 2009
-726 799 1986
-719 799 1988
-712 798 1986
-705 797 1987
-703 802 2000
-694 799 1995
-690 802 2005
-685 803 2011
-680 805 2016
-671 802 2012
-666 803 2016
-661 805 2023
-657 808 2031
-651 808 2035
-646 809 2040
-640 811 2045
-633 810 2045
-629 813 2055
-623 813 2056
-619 816 2067
-614 818 2073
-606 817 2071
-600 817 2075
-595 819 2082
-589 820 2085
-584 822 2092
-577 821 2090
-572 823 2097
-567 825 2105
-562 827 2112
-554 825 2108
-550 828 2118
-543 828 2118
-536 827 2118
-531 830 2126
-525 830 2129
-516 828 2124
-511 829 2129
-505 831 2135
-499 831 2137
-493 833 2144
-488 835 2151
-482 836 2154
-474 834 2151
-470 838 2162
-462 836 2158
-456 838 2165
-451 840 2172
-444 840 2173
-438 841 2176
-430 837 2169
-424 840 2176
-417 838 2173
-412 841 2183
-406 843 2187
-398 841 2185
-391 840 2183
-383 836 2174
-377 840 2184
-372 842 2191
-364 840 2187
-358 840 2189
-352 842 2194
-345 841 2192
-338 842 2196
-333 844 2203
-326 844 2204
-319 844 2204
-311 840 2194
-303 835 2184
-277 781 2043
-262 759 1984
-248 736 1924
-243 736 1926
-241 748 1957
-250 797 2087
-234 763 1999
-219 734 1922
-214 738 1935
-211 747 1960
-208 757 1986
-211 791 2076
-200 775 2034
-195 780 2049
-192 792 2081
-190 811 2130
-188 826 2173
-182 833 2191
-176 833 2192
-169 832 2190
-162 832 2188
-157 837 2203
-149 832 2190
-142 832 2190
-136 833 2195
-129 832 2191
-122 829 2184
-116 832 2192
-108 826 2178
-102 830 2189
-96 830 2188
-89 830 2189
-82 830 2189
-75 825 2178
-69 827 2181
-63 834 2200
-56 831 2194
-50 836 2207
-43 834 2203
-37 839 2216
-30 842 2223
-23 843 2227
-17 844 2230
-10 853 2253
-3 850 2245
3 849 2243
9 832 2199
16 827 2184
23 867 2291
33 946 2499
42 976 2579
49 962 2543
54 919 2428
56 840 2219
59 789 2084
66 789 2084
73 798 2107
79 795 2099
86 799 2110
95 827 2184
103 840 2218
110 838 2212
117 839 2216
121 824 2177
127 818 2160
134 821 2168
139 809 2137
146 815 2151
156 831 2193
166 849 2241
175 863 2277
184 873 2303
185 844 2228
185 812 2141
185 786 2073
193 792 2089
198 789 2079
204 785 2069
208 778 2049
216 782 2060
225 792 2086
242 829 2183
256 856 2255
250 812 2137
255 807 2123
260 802 2110
266 801 2106
280 825 2169
290 836 2197
302 850 2233
316 869 2284
328 883 2319
336 885 2324
346 893 2344
347 877 2301
349 864 2267
358 868 2278
369 878 2303
377 880 2307
385 883 2312
391 881 2308
399 884 2314
400 869 2274
407 869 2272
414 869 2272
423 875 2286
430 874 2283
441 881 2301
448 881 2299
457 885 2310
462 881 2298
470 883 2301
473 876 2282
477 870 2266
470 844 2196
494 875 2277
504 880 2287
510 879 2284
518 880 2286
526 881 2286
530 876 2273
536 875 2268
543 874 2265
549 872 2259
558 876 2267
560 868 2244
567 868 2245
569 860 2223
575 858 2216
577 851 2196
536 781 2013
506 728 1876
503 716 1843
507 714 1836
519 723 1857
528 726 1865
533 725 1861
539 726 1861
546 727 1864
558 735 1882
573 747 1912
577 744 1903
568 726 1854
558 705 1800
570 713 1818
589 730 1860
579 711 1809
594 722 1836
608 731 1859
607 723 1836
616 726 1843
619 723 1833
626 725 1836
630 722 1828
635 721 1824
642 722 1826
648 723 1826
653 722 1820
659 723 1821
674 732 1843
707 762 1916
748 798 2006
764 809 2032
770 808 2027
776 807 2023
788 813 2036
803 822 2055
807 819 2046
815 821 2049
814 813 2027
813 805 2005
830 816 2029
865 844 2096
887 858 2130
897 861 2134
906 863 2138
910 860 2128
914 858 2119
922 858 2117
931 860 2121
939 861 2121
945 860 2114
949 857 2105
963 864 2118
968 862 2112
979 865 2117
985 865 2113
997 869 2121
1009 873 2128
1017 874 2127
1001 854 2077
997 845 2051
990 834 2020
969 810 1960
836 694 1675
743 613 1477
712 583 1403
727 591 1421
735 594 1424
748 601 1439
784 625 1496
902 715 1710
924 728 1737
932 729 1738
944 734 1747
953 737 1750
956 734 1741
957 730 1729
971 736 1741
969 730 1724
981 735 1732
994 740 1743
994 735 1728
1000 736 1725
999 730 1710
1009 733 1714
1014 733 1710
1025 737 1716
1022 730 1698
1035 735 1707
-843 610 1366
-956 695 1560
-1326 968 2181
-1351 992 2240
-1352 999 2259
-1324 984 2229
-1336 998 2265
-1332 1001 2276
-1324 1001 2280
-1312 998 2277
-1304 998 2281
-1304 1003 2298
-1287 997 2287
-1285 1001 2301
-1265 991 2282
-1263 996 2297
-1231 977 2257
-1231 983 2274
-1234 991 2298
-1229 993 2306
-1214 987 2296
-1203 984 2293
-1169 963 2247
-1148 952 2225
-1140 951 2227
-1119 940 2204
-1109 938 2203
-1097 933 2196
-1085 930 2191
-1073 926 2184
-1062 922 2179
-1053 921 2180
-1041 917 2173
-1013 899 2132
-972 868 2063
-951 856 2036
-944 855 2037
-940 857 2045
-937 860 2056
-933 864 2067
-928 865 2072
-923 867 2080
-922 872 2095
-915 872 2099
-911 874 2106
-904 875 2110
-898 875 2114
-886 870 2104
-880 870 2108
-875 872 2116
-864 868 2109
-862 874 2124
-864 882 2147
-872 898 2188
-883 916 2237
-878 918 2243
-889 938 2294
-899 956 2341
-902 967 2371
-878 950 2331
-807 880 2162
-745 820 2016
-728 808 1989
-719 805 1984
-712 804 1984
-710 810 2000
-703 809 1999
-698 810 2004
-691 809 2006
-686 811 2012
-681 813 2018
-675 813 2020
-672 817 2033
-664 814 2028
-658 815 2032
-653 818 2040
-646 816 2039
-641 818 2044
-638 822 2057
-632 823 2061
-626 823 2063
-619 823 2065
-614 825 2070
-605 822 2065
-600 824 2072
-596 826 2080
-589 827 2083
-584 828 2088
-581 833 2104
-572 829 2094
-568 833 2106
-562 833 2109
-552 829 2100
-547 832 2107
-542 834 2114
-532 828 2102
-529 833 2116
-522 833 2116
-518 837 2128
-512 838 2133
-505 837 2132
-499 839 2137
-491 836 2133
-486 839 2141
-480 840 2145
-473 840 2145
-468 842 2153
-460 840 2148
-454 840 2150
-447 840 2152
-442 843 2160
-436 844 2165
-429 842 2162
-422 842 2161
-416 843 2165
-409 842 2164
-400 838 2156
-395 840 2163
-389 843 2169
-381 839 2162
-374 839 2163
-368 841 2168
-361 840 2168
-355 840 2168
-349 842 2175
-341 840 2169
-335 841 2173
-330 844 2182
-323 843 2181
-317 846 2190
-308 839 2173
-294 817 2117
-271 771 1998
-263 767 1988
-256 764 1981
-245 748 1941
-243 760 1973
-249 799 2073
-241 793 2058
-225 760 1975
-219 761 1977
-211 752 1955
-207 760 1975
-211 800 2081
-209 816 2122
-205 825 2147
-201 833 2169
-195 838 2183
-188 834 2172
-182 836 2179
-175 837 2181
-169 838 2186
-162 837 2183
-155 838 2186
-149 841 2194
-142 836 2181
-135 837 2186
-129 836 2182
-121 832 2172
-115 836 2183
-109 834 2180
-102 833 2178
-95 831 2172
-89 833 2176
-82 830 2171
-76 843 2204
-70 841 2199
-63 846 2214
-57 845 2210
-50 841 2199
-43 838 2193
-36 841 2199
-30 846 2215
-23 852 2230
-17 855 2237
-10 857 2244
-3 856 2242
3 856 2242
9 856 2240
16 839 2195
22 831 2176
30 873 2285
40 948 2483
49 967 2534
56 968 2535
61 915 2396
63 844 2211
65 788 2062
71 787 2059
80 815 2135
89 839 2197
99 867 2270
106 865 2265
112 862 2257
118 855 2238
124 851 2228
128 832 2178
132 815 2133
138 815 2132
147 824 2157
156 840 2198
164 847 2216
172 855 2235
181 865 2262
189 867 2267
190 845 2208
192 823 2152
195 806 2107
197 789 2062
202 784 2047
207 780 2037
212 777 2028
221 786 2052
244 843 2200
254 854 2230
251 822 2145
252 806 2101
255 793 2067
262 796 2074
274 812 2115
287 832 2169
302 855 2228
311 863 2248
324 878 2287
332 882 2295
341 886 2306
350 893 2322
352 879 2286
364 890 2315
377 905 2353
388 914 2374
387 896 2327
390 886 2300
397 886 2299
406 890 2309
415 893 2314
420 888 2301
423 881 2283
428 877 2270
439 884 2287
446 884 2286
451 880 2274
455 874 2260
463 877 2266
469 875 2258
470 864 2229
468 847 2186
473 844 2175
493 868 2236
504 875 2255
511 874 2250
518 874 2250
526 876 2251
530 871 2238
538 873 2241
543 869 2231
550 869 2230
556 869 2228
561 866 2219
566 863 2209
574 865 2213
580 863 2206
546 802 2050
516 749 1912
506 726 1851
512 726 1851
533 747 1904
527 732 1862
536 736 1872
538 731 1857
544 731 1856
556 739 1874
563 741 1878
563 732 1855
566 729 1845
571 727 1840
580 731 1848
582 726 1834
585 724 1827
585 717 1807
600 728 1833
589 707 1780
612 728 1830
623 733 1843
600 700 1758
635 734 1842
641 734 1839
634 720 1803
653 735 1838
672 749 1871
661 730 1822
675 739 1844
710 771 1922
750 807 2011
754 804 2001
770 814 2024
777 816 2025
792 824 2045
801 826 2048
805 824 2040
808 820 2028
810 816 2015
812 810 2000
830 822 2026
864 849 2090
882 860 2115
891 862 2118
899 863 2119
905 863 2114
915 865 2118
921 864 2114
930 866 2114
936 865 2111
938 861 2097
944 860 2092
953 861 2093
960 861 2091
966 861 2087
976 863 2090
984 865 2090
1003 875 2113
1003 869 2096
986 848 2041
991 846 2035
974 826 1983
956 805 1930
806 674 1613
741 616 1469
697 575 1371
738 605 1440
715 583 1384
766 620 1472
811 652 1545
914 731 1730
929 737 1744
943 744 1756
948 743 1752
944 736 1731
955 739 1738
958 737 1729
968 740 1734
977 742 1736
984 743 1736
981 736 1717
982 733 1706
1002 743 1727
1005 741 1719
1013 742 1719
1014 739 1708
1025 742 1713
1032 743 1712
1032 739 1699
-843 614 1363
-916 671 1493
-1281 943 2104
-1357 1004 2245
-1349 1004 2250
-1340 1003 2253
-1330 1002 2253
-1327 1005 2265
-1318 1004 2267
-1297 994 2249
-1322 1019 2309
-1266 982 2229
-1274 994 2260
-1254 985 2243
-1259 994 2269
-1232 979 2238
-1242 993 2274
-1193 960 2200
-1191 964 2215
-1206 983 2262
-1197 982 2263
-1224 1009 2331
-1222 1015 2347
-1172 980 2269
-1149 967 2242
-1141 966 2245
-1121 955 2223
-1106 949 2212
-1090 942 2198
-1079 938 2193
-1062 930 2177
-1048 924 2167
-1049 931 2186
-1023 914 2149
-983 885 2083
-953 864 2036
-946 863 2038
-940 864 2044
-937 868 2055
-935 872 2068
-931 875 2077
-924 874 2079
-919 876 2086
-917 881 2100
-910 881 2103
-906 884 2113
-897 882 2110
-895 886 2124
-883 881 2114
-870 875 2102
-860 871 2096
-849 867 2089
-840 865 2086
-831 862 2082
-828 866 2094
-844 890 2156
-846 899 2179
-859 921 2235
-866 936 2274
-868 946 2301
-829 912 2220
-760 843 2055
-732 819 1997
-724 818 1997
-716 815 1993
-713 819 2005
-706 818 2005
-700 818 2007
-694 819 2012
-688 820 2015
-680 818 2012
-674 818 2015
-671 823 2028
-665 822 2029
-657 820 2026
-653 824 2036
-649 827 2047
-644 829 2054
-637 827 2051
-632 829 2058
-627 831 2064
-620 831 2067
-614 832 2070
-610 835 2079
-603 834 2080
-594 830 2072
-586 829 2070
-581 830 2076
-578 836 2091
-571 835 2090
-564 834 2088
-559 836 2095
-552 836 2098
-546 836 2099
-540 837 2103
-534 838 2107
-530 842 2118
-522 840 2117
-516 841 2119
-508 837 2112
-503 841 2123
-498 844 2132
-490 841 2126
-482 839 2121
-477 842 2130
-471 842 2132
-465 843 2136
-459 844 2140
-452 843 2138
-446 845 2146
-439 844 2144
-432 843 2143
-426 845 2148
-421 847 2154
-412 842 2144
-406 843 2147
-399 843 2148
-392 842 2147
-385 840 2144
-379 841 2147
-374 845 2159
-364 839 2143
-357 837 2141
-352 839 2147
-347 845 2162
-340 843 2160
-334 846 2166
-327 843 2161
-321 844 2164
-315 846 2171
-308 845 2168
-296 831 2133
-281 806 2069
-273 802 2060
-267 802 2062
-253 780 2006
-243 766 1969
-243 786 2023
-246 816 2100
-228 778 2002
-215 754 1941
-212 762 1964
-207 767 1976
-208 792 2042
-213 838 2160
-208 844 2178
-201 840 2168
-194 841 2172
-188 841 2171
-181 842 2174
-175 843 2178
-169 844 2181
-161 841 2174
-155 841 2174
-148 838 2166
-142 842 2178
-134 838 2167
-128 838 2169
-121 838 2169
-115 837 2167
-108 836 2165
-102 838 2170
-95 837 2167
-89 840 2175
-82 842 2182
-77 852 2207
-69 841 2181
-62 842 2183
-56 839 2174
-49 835 2164
-43 847 2196
-36 848 2199
-30 850 2205
-23 854 2216
-16 858 2227
-10 859 2228
-3 857 2224
3 855 2219
10 858 2226
16 851 2208
23 839 2178
29 825 2141
37 870 2257
47 943 2447
57 981 2546
65 982 2551
68 921 2391
69 848 2201
72 798 2070
79 809 2100
90 851 2209
99 873 2265
106 871 2260
113 872 2264
118 861 2234
122 838 2174
123 806 2090
129 804 2086
138 821 2128
148 841 2179
157 851 2206
165 858 2223
172 860 2228
179 863 2235
187 864 2240
194 868 2248
197 848 2198
195 813 2106
195 788 2039
200 781 2020
205 780 2018
212 780 2018
222 794 2054
247 860 2226
259 878 2270
258 854 2207
252 810 2095
255 801 2069
268 821 2120
283 848 2190
297 868 2243
307 878 2268
319 892 2303
331 906 2337
334 894 2307
342 895 2309
346 889 2293
354 891 2296
362 893 2301
377 911 2347
385 913 2351
395 920 2367
403 921 2371
408 917 2358
417 921 2366
423 919 2361
430 918 2357
433 908 2331
436 900 2309
439 892 2287
445 890 2282
451 888 2275
455 881 2256
460 878 2248
467 877 2244
475 880 2251
476 868 2220
454 816 2085
490 869 2219
501 875 2235
506 872 2225
513 873 2224
519 871 2219
526 872 2221
534 874 2223
540 872 2217
547 872 2216
555 874 2220
563 875 2221
568 873 2214
576 874 2218
580 870 2204
557 825 2090
523 765 1936
505 730 1845
527 754 1906
518 732 1847
523 731 1844
532 736 1854
538 736 1855
544 736 1852
554 742 1865
562 744 1871
561 735 1846
555 719 1805
564 724 1815
576 732 1834
585 737 1844
582 725 1813
600 740 1850
607 742 1853
610 738 1840
607 728 1814
623 740 1842
613 721 1793
639 744 1850
629 726 1802
640 732 1816
643 728 1806
654 735 1820
639 712 1760
673 743 1837
711 778 1922
744 808 1993
758 815 2011
769 820 2020
781 826 2033
789 828 2035
798 830 2037
805 831 2037
808 826 2024
804 816 1997
814 819 2003
834 833 2034
861 853 2080
880 865 2108
886 864 2104
898 869 2112
903 867 2105
909 867 2102
916 867 2099
923 867 2097
929 866 2093
938 868 2095
943 866 2088
950 866 2084
957 866 2082
963 865 2077
967 862 2068
968 857 2054
971 854 2042
981 857 2047
976 846 2018
975 840 2001
964 825 1962
937 795 1889
786 662 1570
720 603 1427
717 597 1409
729 603 1421
746 613 1443
749 611 1436
837 679 1594
922 743 1743
934 748 1752
942 749 1752
952 752 1757
958 752 1755
960 749 1745
969 752 1748
980 755 1753
976 747 1732
981 746 1727
986 746 1724
991 745 1718
998 746 1717
1006 747 1717
1009 745 1710
1018 748 1713
1021 746 1705
1026 745 1700
1029 743 1691
-835 613 1348
-898 664 1462
-1222 907 2005
-1341 1000 2216
-1319 990 2198
-1316 993 2208
-1322 1004 2237
-1318 1006 2246
-1299 998 2232
-1307 1009 2262
-1278 993 2230
-1264 988 2222
-1230 968 2180
-1236 978 2207
-1177 937 2119
-1151 922 2088
-1124 906 2054
-1110 900 2045
-1088 889 2022
-1095 899 2050
-1174 970 2216
-1150 957 2189
-1196 1001 2294
-1196 1008 2313
-1156 980 2253
-1172 1000 2302
-1165 1001 2309
-1128 975 2253
-1100 957 2215
-1098 962 2229
-1079 952 2210
-1061 942 2190
-1046 936 2177
-1030 928 2162
-989 898 2094
-960 877 2050
-946 870 2036
-939 870 2039
-936 874 2051
-932 876 2058
-932 883 2077
-926 883 2080
-922 886 2090
-916 887 2096
-909 886 2097
-904 888 2105
-899 890 2111
-889 887 2108
-882 887 2109
-873 884 2106
-866 884 2108
-858 883 2109
-849 880 2105
-834 872 2087
-822 866 2075
-810 860 2064
-801 859 2062
-810 875 2104
-802 874 2105
-820 901 2172
-816 905 2183
-760 850 2053
-736 830 2008
-727 827 2003
-715 820 1988
-709 821 1991
-706 824 2002
-699 824 2004
-691 822 2000
-690 828 2018
-682 826 2014
-678 829 2025
-673 831 2031
-664 828 2026
-662 834 2041
-653 831 2035
-651 835 2049
-644 835 2050
-639 837 2056
-637 843 2073
-628 839 2066
-627 847 2087
-615 839 2069
-613 846 2088
-604 842 2080
-597 842 2082
-589 840 2078
-584 842 2085
-575 837 2076
-568 837 2076
-563 839 2084
-557 839 2086
-551 841 2090
-544 840 2091
-538 840 2093
-531 840 2093
-524 839 2093
-518 840 2098
-512 841 2100
-505 840 2101
-501 845 2113
-495 844 2114
-487 843 2112
-480 842 2110
-475 845 2120
-468 843 2116
-461 843 2118
-456 845 2123
-449 845 2124
-444 847 2132
-436 846 2129
-430 846 2132
-424 846 2132
-417 846 2134
-410 845 2132
-403 844 2132
-397 846 2137
-390 845 2136
-385 848 2144
-376 841 2129
-370 843 2135
-363 842 2132
-358 845 2141
-351 844 2140
-344 843 2139
-336 839 2130
-329 839 2130
-324 844 2143
-318 844 2146
-312 845 2148
-304 842 2142
-298 843 2146
-289 836 2129
-282 834 2125
-275 833 2123
-264 819 2087
-247 785 2002
-241 787 2007
-239 801 2044
-233 801 2044
-218 771 1968
-212 770 1965
-206 770 1967
-204 786 2008
-211 835 2135
-205 840 2147
-200 844 2158
-192 838 2145
-186 842 2155
-179 840 2150
-173 843 2159
-166 839 2148
-159 838 2146
-154 842 2159
-147 843 2162
-140 840 2153
-133 839 2152
-127 840 2154
-120 838 2150
-114 840 2157
-108 840 2156
-101 842 2160
-94 840 2158
-88 839 2156
-81 836 2148
-75 843 2166
-68 839 2155
-62 841 2162
-56 845 2172
-49 848 2180
-42 844 2169
-36 851 2187
-30 856 2200
-23 856 2200
-16 855 2199
-10 860 2213
-3 859 2210
3 858 2206
10 859 2211
16 859 2210
23 853 2194
29 839 2157
35 829 2133
44 869 2236
55 956 2460
65 988 2542
72 984 2531
76 932 2398
76 852 2193
78 805 2069
85 811 2086
95 848 2180
104 866 2227
112 870 2239
114 838 2154
120 830 2135
123 812 2086
131 818 2103
141 840 2160
150 854 2195
158 863 2217
167 874 2245
174 874 2245
180 873 2244
186 870 2234
192 867 2226
197 856 2198
194 814 2090
193 787 2020
198 782 2006
204 780 2001
210 782 2004
222 800 2050
248 870 2230
263 899 2304
271 902 2312
268 871 2232
267 844 2163
278 859 2201
292 882 2257
304 895 2292
314 903 2312
326 918 2349
332 915 2341
340 916 2343
349 920 2353
352 910 2327
357 905 2311
366 911 2325
376 916 2339
384 920 2347
396 929 2370
400 922 2351
408 924 2356
416 926 2360
424 928 2363
433 932 2372
437 924 2350
450 936 2381
449 919 2337
454 913 2321
454 899 2284
459 895 2273
462 888 2252
467 884 2242
474 884 2242
474 871 2206
447 811 2052
483 863 2184
499 879 2224
506 880 2224
513 879 2222
518 877 2214
527 880 2222
534 881 2222
542 881 2222
548 881 2219
554 880 2215
563 882 2219
568 879 2211
575 879 2210
581 878 2206
569 850 2133
525 775 1943
503 733 1836
512 738 1846
526 749 1874
516 728 1819
531 740 1847
536 740 1846
545 743 1854
551 743 1853
555 741 1844
559 739 1839
574 751 1868
568 735 1826
571 731 1816
586 744 1844
590 741 1837
599 744 1843
597 735 1818
591 721 1783
604 729 1801
623 745 1840
618 732 1805
644 757 1864
628 730 1797
634 731 1797
648 740 1818
641 726 1781
655 736 1803
677 753 1845
714 787 1927
742 811 1984
759 823 2010
768 826 2015
779 830 2024
787 832 2027
799 837 2036
802 834 2026
804 829 2013
803 821 1992
812 823 1994
835 840 2033
861 859 2078
872 864 2086
884 869 2096
891 869 2094
897 868 2088
909 873 2098
914 871 2091
921 872 2090
928 871 2086
936 873 2088
944 873 2086
946 869 2074
955 871 2076
958 867 2063
962 865 2055
966 862 2046
971 861 2040
978 861 2038
965 844 1994
973 845 1993
957 824 1943
911 779 1834
774 658 1544
705 595 1394
745 624 1461
715 595 1391
730 604 1409
755 621 1447
860 702 1635
923 749 1742
928 749 1739
942 755 1749
947 754 1745
952 753 1741
968 762 1757
971 759 1749
975 757 1741
975 753 1728
979 751 1721
984 750 1716
1001 759 1734
995 750 1710
1007 754 1717
1014 755 1716
1022 757 1717
1021 751 1701
1030 753 1703
1034 752 1698
-835 619 1348
-872 649 1417
-1128 844 1848
-1313 987 2167
-1323 1001 2201
-1323 1006 2218
-1309 1001 2211
-1292 994 2200
-1287 996 2208
-1270 988 2195
-1239 971 2159
-1169 921 2052
-1161 921 2055
-1118 891 1993
-1087 872 1954
-1060 856 1921
-1036 842 1891
-1083 885 1993
-1059 871 1965
-1022 846 1911
-1066 888 2009
-1095 918 2081
-1096 924 2099
-1137 965 2196
-1123 959 2185
-1144 984 2244
-1157 1001 2288
-1148 1001 2291
-1142 1002 2296
-1119 988 2270
-1089 969 2227
-1077 964 2220
-1059 955 2202
-1043 946 2186
-1003 917 2121
-965 888 2057
-945 876 2031
-941 879 2041
-936 880 2047
-931 882 2054
-929 886 2066
-924 888 2073
-922 892 2087
-914 892 2088
-912 896 2101
-905 896 2104
-901 899 2113
-892 897 2112
-884 896 2111
-876 895 2112
-866 892 2107
-856 888 2101
-846 885 2096
-838 884 2096
-828 880 2090
-819 877 2086
-811 876 2085
-792 863 2056
-786 863 2060
-780 863 2063
-765 854 2043
-746 841 2013
-737 837 2007
-727 833 2000
-723 836 2009
-713 832 2001
-706 832 2001
-703 835 2013
-696 835 2013
-695 841 2030
-686 838 2025
-684 843 2039
-676 841 2037
-671 843 2043
-663 841 2041
-655 840 2040
-653 845 2053
-646 844 2054
-640 844 2057
-634 846 2063
-627 844 2060
-624 849 2074
-619 851 2081
-607 843 2064
-609 855 2095
-600 853 2090
-592 850 2085
-586 851 2090
-580 852 2093
-573 851 2092
-562 845 2080
-558 848 2089
-553 850 2095
-544 847 2089
-537 846 2087
-526 839 2073
-521 840 2078
-516 843 2086
-510 844 2089
-502 842 2086
-498 846 2096
-493 848 2103
-484 844 2094
-479 847 2104
-472 846 2103
-465 844 2101
-459 846 2106
-455 849 2116
-450 852 2125
-440 847 2113
-435 850 2122
-426 845 2111
-422 849 2120
-415 848 2121
-409 850 2126
-402 848 2122
-395 849 2125
-388 846 2121
-381 845 2120
-377 850 2132
-369 848 2127
-360 842 2114
-354 843 2117
-346 840 2111
-340 841 2114
-334 843 2121
-329 845 2126
-323 847 2132
-314 841 2119
-308 842 2122
-302 844 2127
-295 841 2122
-287 837 2113
-282 842 2126
-274 838 2116
-267 835 2109
-252 809 2043
-239 786 1987
-237 799 2020
-235 814 2060
-221 787 1992
-213 778 1969
-206 775 1962
-202 785 1989
-206 824 2087
-205 843 2138
-198 843 2137
-192 845 2144
-184 840 2131
-177 838 2126
-171 839 2129
-165 843 2140
-159 845 2145
-152 839 2132
-145 840 2134
-139 840 2135
-132 838 2130
-126 840 2137
-120 842 2142
-113 838 2133
-107 841 2140
-100 840 2138
-94 843 2145
-87 839 2135
-80 837 2131
-74 835 2125
-68 844 2148
-61 844 2151
-55 847 2158
-49 848 2161
-42 850 2165
-36 853 2173
-29 857 2183
-23 856 2180
-16 858 2187
-9 860 2193
-3 859 2190
3 864 2204
10 861 2196
16 861 2196
23 859 2191
29 857 2186
35 843 2149
42 834 2127
50 873 2226
62 959 2447
72 990 2525
80 990 2525
83 938 2392
83 866 2207
84 804 2050
90 804 2049
100 834 2126
107 836 2132
111 821 2093
118 828 2110
124 823 2097
131 827 2107
140 842 2145
149 855 2178
157 864 2202
165 872 2222
172 874 2226
179 875 2228
186 872 2221
191 868 2209
195 853 2171
192 813 2068
192 788 2004
198 787 2001
204 785 1995
209 783 1991
222 806 2049
249 882 2242
265 912 2317
271 911 2314
281 918 2332
284 905 2297
284 884 2244
291 885 2246
304 902 2288
313 907 2300
322 914 2319
333 923 2341
341 926 2347
349 930 2356
355 924 2341
354 905 2291
369 925 2341
379 932 2359
386 930 2353
395 935 2363
402 933 2358
405 925 2336
413 925 2336
420 925 2336
428 927 2339
436 928 2342
444 930 2344
451 930 2344
455 923 2325
466 931 2344
468 920 2316
471 912 2295
476 908 2283
480 902 2266
476 881 2213
423 772 1938
464 836 2097
497 883 2215
508 889 2228
512 885 2218
521 888 2223
526 885 2215
533 885 2213
540 886 2214
549 890 2221
553 883 2204
560 884 2206
569 887 2211
575 885 2205
576 877 2184
563 847 2107
511 759 1886
507 745 1850
504 733 1818
517 742 1840
532 756 1873
531 747 1848
538 747 1848
546 750 1854
549 747 1846
558 751 1854
559 744 1835
560 738 1819
570 743 1830
586 757 1863
584 747 1836
579 732 1799
602 754 1850
602 747 1831
614 755 1850
621 756 1852
602 726 1775
620 740 1809
623 737 1799
633 743 1811
625 726 1769
638 734 1788
654 746 1815
676 764 1858
681 763 1853
716 795 1930
747 823 1994
764 834 2020
769 833 2015
782 840 2029
787 839 2024
803 848 2044
807 845 2036
806 838 2016
803 828 1990
816 834 2002
841 853 2047
861 867 2076
870 868 2078
879 871 2081
886 871 2079
894 872 2080
905 876 2087
909 874 2078
917 874 2077
924 875 2076
932 875 2074
940 877 2075
943 873 2064
953 876 2068
953 870 2051
964 873 2056
968 871 2049
971 867 2036
963 854 2003
966 851 1992
952 833 1948
950 825 1927
883 762 1776
759 650 1512
693 589 1368
720 609 1412
727 610 1412
746 623 1439
766 635 1465
890 733 1691
927 759 1748
943 766 1763
942 761 1748
950 762 1748
946 755 1728
960 761 1739
966 761 1737
976 764 1741
975 759 1726
987 763 1733
994 764 1732
1002 766 1733
1005 764 1725
1001 755 1704
1015 762 1715
1021 762 1713
1029 763 1712
1028 758 1699
1037 760 1700
-880 657 1418
-851 639 1381
-1019 768 1667
-1290 978 2127
-1329 1013 2208
-1306 1001 2185
-1229 948 2073
-1251 970 2126
-1227 957 2103
-1191 935 2057
-1156 913 2011
-1096 871 1922
-1048 838 1853
-1044 840 1859
-1063 860 1908
-1073 873 1941
-1065 872 1941
-1009 832 1854
-1027 852 1903
-1041 868 1943
-1032 867 1943
-1010 854 1917
-1021 868 1953
-1016 870 1960
-1034 891 2011
-1079 936 2116
-1118 975 2208
-1107 973 2206
-1109 981 2229
-1116 993 2260
-1119 1003 2286
-1105 997 2276
-1090 990 2263
-1060 970 2219
-1017 937 2148
-978 907 2082
-950 888 2041
-941 886 2038
-935 887 2044
-931 889 2051
-925 889 2056
-924 895 2072
-917 895 2075
-917 902 2093
-912 903 2100
-903 901 2098
-895 900 2097
-888 900 2100
-884 902 2108
-878 903 2113
-868 900 2109
-856 895 2099
-845 891 2092
-842 895 2103
-839 899 2115
-831 897 2113
-816 888 2096
-801 880 2078
-789 874 2066
-783 874 2068
-771 868 2057
-761 864 2051
-746 854 2030
-729 843 2003
-713 831 1978
-713 839 1999
-709 842 2008
-704 843 2014
-689 833 1992
-691 842 2016
-680 837 2006
-681 846 2029
-676 847 2034
-670 848 2039
-664 849 2041
-657 849 2043
-652 850 2049
-645 850 2049
-639 850 2052
-638 857 2072
-626 850 2057
-622 854 2067
-616 854 2070
-610 855 2074
-605 857 2079
-596 853 2072
-592 857 2083
-586 858 2088
-579 857 2087
-573 858 2091
-568 860 2099
-560 858 2094
-553 858 2095
-545 854 2089
-536 851 2082
-532 855 2095
-524 852 2087
-515 849 2082
-509 849 2083
-503 850 2088
-495 847 2082
-489 849 2087
-484 850 2092
-475 846 2084
-467 844 2080
-465 852 2102
-458 850 2098
-451 850 2099
-443 847 2093
-438 849 2098
-432 850 2103
-424 848 2098
-419 849 2104
-413 852 2112
-406 849 2106
-401 852 2115
-392 847 2103
-386 850 2110
-380 849 2110
-371 844 2099
-365 846 2103
-359 846 2105
-351 842 2098
-346 845 2106
-338 843 2100
-332 845 2106
-324 841 2097
-317 838 2091
-312 841 2099
-305 841 2102
-298 838 2095
-291 836 2091
-285 838 2097
-279 840 2103
-271 835 2090
-265 836 2094
-257 831 2081
-243 806 2018
-234 795 1993
-229 801 2008
-222 797 2000
-214 791 1984
-207 786 1973
-201 787 1976
-203 816 2049
-202 841 2114
-196 839 2109
-189 841 2113
-183 839 2110
-177 841 2117
-171 843 2121
-164 843 2121
-157 840 2115
-151 840 2115
-145 842 2121
-137 838 2110
-131 838 2112
-125 841 2121
-119 840 2118
-112 836 2108
-105 839 2115
-100 844 2128
-92 836 2108
-86 836 2109
-79 834 2106
-73 834 2105
-67 845 2134
-62 856 2161
-55 848 2140
-48 848 2142
-42 848 2141
-35 849 2144
-29 858 2168
-22 855 2159
-16 859 2171
-9 858 2169
-3 860 2174
3 863 2180
10 864 2183
16 864 2183
23 861 2176
29 863 2182
36 856 2164
41 836 2113
47 827 2090
57 884 2234
70 962 2433
79 985 2490
87 995 2516
90 949 2398
90 868 2194
89 803 2029
94 788 1991
103 817 2064
112 832 2101
118 834 2107
124 829 2093
131 835 2108
139 841 2124
147 851 2148
155 859 2170
163 866 2186
171 871 2200
177 871 2199
184 872 2201
191 874 2206
193 851 2147
190 812 2049
192 792 1996
197 789 1989
203 788 1985
209 788 1986
222 814 2051
249 888 2237
264 915 2306
271 916 2306
281 926 2332
289 930 2342
292 915 2302
295 904 2275
301 900 2263
309 904 2274
322 920 2314
328 917 2304
337 923 2318
346 929 2333
353 927 2327
357 918 2304
373 940 2360
381 944 2368
389 946 2372
395 941 2359
399 935 2343
410 943 2361
413 933 2337
423 939 2350
430 940 2350
435 933 2333
444 938 2344
446 927 2315
454 928 2316
462 929 2319
469 930 2319
475 927 2311
480 923 2300
485 920 2291
460 858 2136
410 754 1874
447 810 2014
500 896 2226
514 907 2254
518 902 2239
524 901 2236
527 894 2216
534 894 2214
538 889 2202
545 888 2199
550 885 2190
559 889 2198
563 885 2185
567 880 2173
574 881 2173
565 857 2112
518 777 1912
503 745 1834
508 744 1829
517 748 1837
526 753 1849
536 758 1860
543 761 1865
553 766 1876
555 761 1863
568 770 1883
561 753 1841
565 750 1833
565 743 1813
578 753 1835
578 744 1813
586 748 1821
588 742 1805
595 744 1807
603 747 1813
625 766 1859
618 750 1819
627 755 1829
631 753 1822
634 749 1811
639 748 1807
648 752 1814
672 773 1863
666 759 1828
683 772 1857
728 815 1959
751 834 2002
764 841 2018
773 844 2022
784 848 2031
792 850 2033
803 855 2043
810 855 2041
808 846 2016
813 845 2012
821 846 2013
846 864 2055
859 871 2069
867 872 2068
874 872 2066
883 874 2069
892 877 2072
899 876 2069
903 875 2062
911 875 2060
921 878 2066
930 881 2068
934 877 2058
941 878 2058
949 878 2055
953 876 2047
960 876 2045
964 874 2037
969 873 2031
958 856 1990
952 845 1962
950 837 1940
947 829 1918
848 737 1703
748 646 1489
714 612 1408
696 593 1362
730 618 1418
714 600 1375
774 646 1479
898 745 1704
926 764 1743
930 762 1736
939 765 1740
942 762 1732
966 776 1761
964 770 1745
956 759 1715
973 767 1732
972 762 1718
997 777 1749
996 771 1733
994 765 1716
1004 768 1720
1011 769 1719
1014 767 1711
1020 766 1707
1023 765 1701
1027 763 1694
1036 765 1695
-823 619 1324
-846 640 1371
-916 696 1496
-1226 936 2018
-1231 946 2042
-1192 921 1993
-1138 885 1918
-1121 877 1904
-1086 854 1857
-1109 877 1912
-1079 859 1875
-1067 854 1868
-1051 847 1855
-1036 839 1843
-1025 836 1838
-1042 855 1883
-1045 863 1903
-1055 876 1937
-1038 867 1920
-1024 861 1909
-1009 854 1896
-1035 881 1961
-984 844 1880
-994 858 1915
-987 857 1917
-1002 875 1961
-1009 888 1992
-1023 906 2036
-1060 945 2127
-1091 979 2208
-1075 971 2193
-1100 1000 2261
-1081 989 2241
-1092 1006 2284
-1041 966 2195
-992 927 2109
-966 910 2072
-947 898 2049
-937 895 2045
-931 895 2048
-924 895 2051
-917 895 2054
-914 899 2065
-910 902 2074
-907 905 2086
-898 903 2082
-897 909 2100
-884 903 2088
-877 902 2089
-874 906 2102
-864 903 2097
-854 900 2092
-853 906 2108
-851 911 2123
-861 929 2167
-857 932 2177
-840 922 2156
-824 911 2134
-807 900 2110
-792 891 2091
-781 886 2083
-770 881 2073
-757 874 2057
-748 871 2052
-733 861 2031
-723 857 2024
-709 848 2004
-701 846 2002
-692 843 1998
-685 842 1998
-677 840 1995
-675 846 2010
-671 848 2019
-665 849 2022
-658 849 2023
-652 849 2025
-652 857 2046
-644 855 2044
-637 854 2044
-633 858 2055
-628 859 2059
-623 861 2066
-615 860 2066
-609 860 2068
-602 859 2068
-598 862 2077
-591 862 2077
-584 861 2078
-579 863 2084
-575 867 2095
-564 860 2081
-560 865 2094
-555 867 2101
-547 864 2095
-542 867 2103
-535 867 2104
-527 864 2098
-518 860 2090
-514 864 2101
-503 856 2085
-498 859 2092
-490 856 2086
-483 856 2087
-476 854 2084
-467 850 2077
-461 851 2079
-453 848 2075
-448 850 2081
-442 852 2086
-436 852 2088
-431 854 2095
-423 853 2093
-417 853 2094
-410 851 2092
-403 851 2092
-396 850 2091
-390 850 2092
-382 848 2087
-376 847 2087
-368 845 2082
-363 847 2090
-356 847 2090
-349 846 2087
-343 845 2088
-335 843 2082
-328 840 2076
-322 840 2077
-315 839 2075
-308 836 2070
-301 835 2068
-295 836 2070
-288 835 2071
-282 835 2071
-275 834 2070
-269 836 2075
-262 832 2065
-256 832 2066
-246 822 2041
-234 802 1993
-225 792 1969
-219 791 1968
-213 792 1970
-209 800 1991
-202 796 1981
-201 817 2035
-199 835 2079
-195 842 2097
-188 843 2100
-181 838 2090
-175 840 2095
-169 840 2096
-162 838 2091
-156 839 2094
-150 842 2101
-143 841 2100
-136 838 2094
-130 840 2097
-124 838 2095
-117 839 2097
-110 835 2086
-105 839 2097
-98 839 2098
-91 835 2088
-85 837 2092
-79 838 2096
-72 836 2092
-67 846 2118
-61 851 2131
-55 853 2136
-48 852 2134
-41 849 2126
-35 853 2135
-29 856 2144
-22 856 2145
-16 858 2150
-9 859 2153
-3 862 2159
3 863 2161
10 862 2159
16 862 2161
23 863 2162
29 862 2161
36 860 2154
42 856 2145
47 833 2088
54 838 2099
64 887 2222
77 970 2431
87 1005 2520
95 1000 2507
98 957 2398
97 877 2198
95 805 2017
100 795 1991
110 828 2074
119 841 2107
124 838 2098
131 840 2104
138 845 2116
147 855 2141
153 857 2145
161 865 2165
169 871 2179
176 872 2182
183 872 2181
189 868 2172
192 855 2137
188 808 2021
191 794 1983
196 792 1978
202 790 1974
210 796 1988
223 825 2061
250 898 2243
259 906 2262
267 911 2273
278 924 2306
287 929 2319
297 938 2341
302 931 2321
300 904 2254
306 900 2242
316 909 2265
327 922 2296
337 929 2313
346 934 2325
351 929 2312
360 935 2326
366 932 2317
378 943 2344
387 948 2357
393 944 2346
401 946 2350
409 948 2354
414 943 2339
424 949 2355
433 952 2361
436 944 2340
444 945 2340
448 937 2321
455 938 2322
463 939 2323
468 935 2311
474 933 2305
479 928 2291
479 914 2257
433 814 2007
373 691 1703
408 745 1835
503 907 2236
521 926 2280
526 924 2273
531 920 2262
522 891 2191
526 888 2181
534 889 2183
545 896 2197
547 887 2176
553 887 2174
560 887 2173
566 885 2166
569 879 2150
562 859 2099
520 785 1916
494 737 1796
508 749 1826
523 762 1856
528 761 1853
541 772 1876
544 768 1866
554 773 1878
566 782 1898
566 773 1875
561 758 1837
561 751 1817
559 741 1792
573 751 1815
570 740 1787
593 763 1841
589 749 1806
600 756 1821
598 747 1797
608 752 1809
627 768 1846
623 756 1813
627 753 1807
634 755 1809
650 766 1835
656 766 1833
659 764 1825
667 766 1828
700 797 1902
744 839 2001
756 845 2013
766 850 2022
774 851 2022
780 851 2019
790 855 2027
795 853 2020
807 858 2030
813 858 2028
812 850 2007
820 851 2008
843 868 2045
854 873 2054
860 872 2050
869 874 2052
874 872 2045
885 877 2053
897 882 2063
898 877 2048
906 878 2048
914 878 2046
923 881 2050
927 878 2042
940 883 2051
942 879 2038
948 879 2035
956 879 2033
957 874 2018
969 879 2026
968 872 2007
943 843 1939
939 834 1915
939 829 1900
817 716 1637
744 647 1478
742 641 1463
729 625 1424
730 623 1416
743 629 1429
802 675 1530
907 758 1718
935 777 1758
944 780 1761
941 772 1740
948 773 1741
961 778 1750
973 784 1759
969 775 1737
976 776 1737
982 776 1733
984 773 1724
989 772 1718
997 773 1718
1002 773 1715
1006 771 1708
1011 770 1703
1023 775 1711
1017 766 1687
1030 772 1697
1033 769 1689
-801 607 1287
-837 638 1355
-856 656 1397
-1015 781 1668
-1142 884 1893
-1060 826 1770
-1075 842 1808
-1063 837 1802
-1097 869 1875
-1077 859 1855
-1046 839 1815
-1082 873 1892
-1051 853 1852
-1018 832 1809
-1040 854 1861
-1046 865 1888
-989 822 1798
-1077 901 1975
-1029 866 1901
-1029 872 1916
-1008 859 1892
-1031 885 1952
-1031 890 1968
-1000 869 1924
-996 871 1931
-981 864 1918
-971 860 1913
-994 887 1976
-969 870 1942
-977 883 1973
-1003 913 2042
-1023 937 2101
-1041 960 2156
-1055 980 2204
-1059 990 2230
-1043 983 2216
-1012 960 2169
-970 927 2096
-948 912 2066
-934 905 2052
-921 900 2043
-917 902 2052
-906 897 2043
-899 898 2047
-898 903 2061
-887 899 2056
-882 900 2061
-879 905 2074
-872 905 2076
-864 903 2076
-858 903 2079
-857 910 2097
-857 917 2115
-872 940 2172
-893 971 2246
-900 986 2284
-881 974 2257
-862 960 2229
-836 939 2182
-811 919 2138
-798 912 2124
-784 904 2108
-770 896 2090
-756 886 2071
-744 881 2061
-733 875 2048
-723 871 2043
-714 868 2037
-701 860 2019
-695 860 2023
-681 851 2003
-669 845 1990
-665 847 1997
-665 855 2019
-651 846 1999
-643 844 1996
-645 854 2023
-637 852 2020
-636 859 2038
-630 860 2043
-621 856 2035
-620 863 2054
-611 860 2048
-606 863 2056
-602 866 2065
-595 866 2067
-588 865 2066
-581 864 2065
-577 868 2077
-570 866 2075
-562 865 2073
-558 867 2081
-550 865 2077
-546 870 2091
-537 866 2082
-534 871 2095
-524 866 2086
-519 868 2092
-512 867 2092
-506 868 2095
-498 866 2092
-490 863 2087
-481 859 2078
-477 863 2088
-469 859 2081
-460 856 2074
-456 859 2084
-447 855 2074
-442 858 2083
-434 855 2078
-426 852 2070
-421 853 2076
-413 851 2072
-406 849 2068
-401 854 2081
-394 852 2077
-388 852 2077
-382 854 2083
-373 848 2071
-367 848 2072
-360 846 2069
-352 843 2061
-346 845 2067
-339 841 2059
-332 840 2057
-324 836 2049
-317 835 2047
-311 836 2051
-306 838 2056
-297 830 2037
-291 832 2044
-285 831 2043
-278 830 2041
-272 831 2044
-265 829 2039
-259 829 2040
-251 822 2025
-244 822 2024
-236 817 2012
-227 807 1988
-218 795 1961
-212 794 1958
-209 804 1984
-203 806 1989
-202 826 2039
-199 840 2074
-194 844 2084
-186 840 2075
-179 836 2066
-174 840 2077
-168 841 2080
-160 837 2071
-155 843 2086
-148 839 2077
-142 841 2082
-136 841 2082
-130 843 2087
-123 841 2082
-116 838 2077
-110 841 2085
-104 839 2080
-98 843 2090
-91 842 2088
-85 842 2088
-78 840 2082
-72 837 2077
-66 842 2090
-60 846 2098
-54 852 2115
-48 853 2117
-41 851 2112
-35 850 2111
-28 858 2130
-22 853 2118
-15 857 2128
-9 858 2131
-2 861 2139
3 860 2136
10 859 2132
16 863 2145
23 861 2139
29 860 2137
36 865 2149
42 861 2138
48 855 2125
54 840 2086
60 843 2093
70 887 2203
85 984 2445
95 1006 2501
102 1007 2503
106 969 2407
105 898 2232
101 811 2012
106 803 1994
117 833 2067
125 847 2103
131 847 2102
138 851 2111
145 854 2120
153 858 2130
161 867 2152
168 871 2162
175 873 2166
181 869 2156
187 868 2153
191 856 2121
187 811 2009
189 793 1965
195 792 1961
200 789 1954
208 796 1971
222 826 2045
251 908 2247
257 906 2242
264 904 2238
274 917 2269
284 926 2291
291 927 2293
301 935 2311
303 920 2274
299 888 2195
305 885 2186
315 894 2207
326 905 2233
338 920 2271
348 928 2290
360 940 2319
367 941 2319
375 943 2324
384 948 2336
391 947 2333
399 947 2332
404 943 2321
414 950 2337
421 949 2333
432 957 2352
439 956 2349
444 952 2337
452 953 2338
456 948 2325
465 951 2331
469 943 2312
476 944 2314
480 937 2295
475 914 2236
409 776 1896
356 664 1621
398 732 1787
500 908 2218
521 934 2280
524 926 2260
504 878 2141
476 819 1994
497 844 2056
529 888 2160
538 891 2167
544 890 2164
552 892 2168
556 887 2153
564 889 2156
565 880 2133
559 860 2084
524 797 1928
509 766 1851
516 766 1851
526 773 1866
538 781 1885
547 787 1897
558 794 1912
564 794 1911
570 793 1909
564 776 1865
561 764 1835
567 764 1834
568 758 1818
581 767 1838
582 761 1821
588 761 1821
595 763 1824
597 758 1811
604 759 1810
611 762 1815
619 763 1817
624 763 1815
631 764 1816
635 762 1810
644 765 1815
650 766 1816
656 765 1813
670 776 1835
716 822 1943
746 849 2005
756 852 2010
767 857 2020
772 856 2016
767 843 1982
771 840 1974
787 851 1997
804 861 2020
812 863 2021
813 857 2006
820 858 2006
837 869 2029
848 873 2036
858 877 2042
864 876 2037
870 875 2033
878 876 2034
888 879 2038
895 880 2037
904 882 2041
910 882 2036
916 880 2031
924 882 2032
932 883 2031
938 882 2027
944 881 2023
947 877 2011
950 874 2001
958 876 2001
960 871 1988
945 852 1941
940 842 1916
923 821 1865
791 698 1584
743 651 1474
737 642 1451
737 638 1439
740 636 1432
747 637 1434
822 697 1568
919 774 1739
920 770 1726
933 776 1738
936 774 1729
955 785 1751
955 779 1737
964 782 1740
959 773 1717
971 778 1724
986 785 1739
997 789 1743
979 770 1698
997 779 1717
1011 786 1728
1014 783 1719
1012 777 1703
1022 780 1706
1027 779 1702
1028 776 1691
1034 775 1687
-821 627 1317
-837 643 1353
-849 655 1383
-972 754 1596
-1062 828 1756
-1096 860 1828
-1076 849 1808
-1035 822 1752
-1051 839 1793
-1014 814 1743
-999 808 1732
-1051 854 1835
-1019 833 1793
-1034 851 1835
-1028 851 1839
-1040 866 1875
-1005 842 1825
-1001 844 1833
-1015 861 1872
-1025 875 1907
-1015 872 1903
-1026 887 1939
-1021 888 1946
-1029 901 1977
-981 865 1900
-965 856 1883
-966 863 1902
-953 857 1891
-961 870 1924
-963 877 1942
-967 887 1968
-939 867 1926
-943 877 1951
-1010 946 2107
-1016 958 2137
-1024 972 2173
-1029 983 2201
-1014 976 2189
-981 951 2135
-955 932 2096
-937 922 2076
-922 914 2060
-905 904 2040
-892 897 2028
-887 899 2035
-881 900 2039
-874 899 2040
-868 900 2044
-866 905 2059
-861 907 2066
-865 918 2094
-876 937 2141
-894 963 2203
-910 989 2264
-910 997 2286
-901 995 2285
-901 1003 2305
-899 1009 2322
-893 1011 2329
-873 997 2299
-850 978 2260
-820 952 2201
-793 930 2151
-776 917 2125
-759 906 2100
-750 903 2096
-735 892 2072
-722 884 2058
-712 880 2049
-707 882 2057
-694 874 2040
-683 869 2029
-674 866 2024
-660 856 2002
-656 858 2010
-646 853 2001
-640 854 2005
-626 844 1984
-631 859 2021
-623 857 2017
-621 863 2032
-610 857 2021
-609 864 2040
-601 862 2037
-598 866 2048
-593 868 2055
-586 868 2056
-582 871 2065
-571 865 2053
-565 865 2054
-558 865 2055
-552 865 2057
-547 868 2065
-538 863 2056
-533 866 2065
-526 865 2064
-518 863 2060
-513 864 2065
-508 867 2072
-500 864 2067
-493 864 2069
-488 865 2073
-483 868 2082
-474 864 2074
-468 865 2076
-461 863 2074
-457 868 2086
-449 865 2081
-441 863 2077
-435 864 2081
-429 864 2081
-422 862 2079
-414 859 2074
-407 858 2072
-399 854 2064
-393 855 2067
-385 852 2060
-378 851 2058
-371 851 2059
-365 851 2062
-358 849 2057
-350 845 2049
-341 839 2035
-335 839 2036
-329 839 2038
-323 839 2038
-315 836 2032
-309 836 2033
-304 840 2043
-296 834 2030
-289 832 2026
-283 833 2028
-274 826 2013
-268 824 2009
-262 826 2015
-256 827 2019
-250 826 2016
-243 824 2013
-235 819 2001
-229 818 1998
-221 810 1980
-214 810 1979
-210 816 1996
-206 823 2012
-203 836 2045
-199 845 2069
-191 841 2059
-185 842 2064
-179 844 2068
-172 840 2060
-166 841 2062
-160 840 2061
-153 839 2059
-148 845 2074
-141 842 2066
-135 844 2072
-129 843 2070
-123 848 2082
-117 849 2085
-110 842 2070
-104 844 2074
-97 840 2064
-91 841 2068
-84 839 2064
-78 839 2063
-71 834 2051
-65 837 2058
-59 840 2066
-53 841 2068
-47 844 2077
-41 855 2104
-35 857 2110
-28 857 2109
-22 855 2105
-15 860 2117
-9 856 2107
-2 859 2114
3 862 2123
10 861 2119
16 862 2123
22 861 2121
29 864 2128
35 862 2123
42 862 2123
48 859 2116
54 851 2096
60 841 2070
66 841 2071
77 898 2211
92 982 2419
103 1024 2523
110 1019 2510
114 981 2418
111 900 2216
108 819 2015
112 808 1989
122 835 2054
130 847 2084
137 847 2084
144 855 2104
152 861 2118
160 867 2133
167 870 2140
174 873 2146
181 876 2153
186 868 2133
188 846 2079
185 808 1986
188 792 1944
195 796 1955
200 793 1947
207 797 1957
223 837 2055
250 912 2238
257 913 2240
263 908 2228
271 912 2237
282 925 2268
288 923 2264
297 930 2280
302 924 2265
297 886 2170
299 874 2141
305 873 2137
312 873 2136
317 870 2127
329 882 2158
342 901 2202
354 914 2235
365 923 2255
381 947 2313
387 944 2305
395 946 2310
403 949 2315
413 955 2330
420 953 2324
427 954 2324
435 955 2327
441 952 2318
450 957 2328
456 955 2322
463 954 2320
468 949 2306
481 960 2333
480 944 2293
475 920 2231
407 777 1884
369 695 1681
419 778 1884
506 926 2241
519 937 2266
485 865 2090
437 767 1852
439 761 1837
481 824 1988
528 892 2150
539 899 2167
546 900 2169
549 894 2153
553 889 2139
558 886 2130
561 880 2114
558 865 2077
539 826 1981
527 799 1914
525 786 1884
538 797 1908
546 800 1913
551 799 1909
562 804 1921
563 798 1905
566 793 1891
560 777 1851
557 765 1821
562 764 1816
571 768 1825
575 765 1817
578 761 1806
587 766 1817
591 763 1807
597 764 1808
603 764 1808
613 769 1817
616 766 1809
620 764 1801
627 764 1801
638 771 1814
642 769 1808
649 770 1810
659 775 1819
679 791 1856
722 834 1955
746 855 2001
756 858 2008
763 859 2007
762 851 1986
764 846 1972
772 847 1974
786 856 1991
803 868 2016
811 869 2017
812 862 2000
819 864 2001
838 876 2028
846 878 2028
856 881 2033
858 877 2021
868 880 2026
871 876 2014
885 883 2030
892 884 2028
897 882 2022
909 887 2030
911 883 2018
920 885 2020
924 882 2012
933 884 2013
939 883 2009
942 880 1999
950 881 1999
954 878 1990
955 873 1975
935 849 1918
940 848 1913
898 805 1812
778 692 1556
731 646 1449
709 622 1394
743 648 1448
739 640 1429
757 651 1452
854 730 1627
921 782 1740
932 787 1748
939 787 1745
946 788 1746
955 790 1747
959 788 1741
957 782 1725
977 794 1747
974 786 1728
975 782 1716
991 790 1731
991 785 1717
998 786 1716
994 778 1696
1006 783 1703
1018 787 1710
1021 786 1703
1031 788 1706
1038 789 1704
1034 782 1685
-801 616 1283
-832 643 1343
-851 662 1384
-930 727 1524
-986 775 1628
-1078 852 1795
-1028 818 1725
-1063 850 1797
-1092 878 1861
-1013 820 1739
-1036 843 1792
-1051 861 1833
-1065 877 1871
-1019 845 1805
-1062 885 1896
-1001 840 1801
-1013 855 1837
-998 848 1824
-983 841 1812
-976 840 1813
-974 843 1824
-985 858 1859
-934 819 1777
-974 859 1868
-982 872 1900
-977 874 1906
-963 867 1894
-960 869 1902
-967 882 1934
-950 872 1914
-925 855 1880
-933 869 1912
-926 868 1913
-930 877 1937
-949 901 1993
-958 916 2030
-986 950 2108
-982 952 2116
-989 967 2151
-989 973 2169
-974 965 2154
-941 939 2099
-913 919 2056
-897 909 2038
-886 904 2029
-876 901 2024
-872 904 2034
-867 906 2041
-870 916 2066
-863 916 2068
-875 935 2115
-905 975 2209
-919 998 2263
-916 1002 2276
-919 1013 2304
-907 1009 2297
-897 1006 2291
-901 1019 2324
-892 1017 2323
-888 1021 2334
-878 1019 2333
-868 1016 2328
-853 1007 2310
-837 996 2288
-804 965 2219
-773 936 2155
-758 927 2136
-739 913 2105
-725 903 2085
-716 900 2081
-701 890 2059
-690 884 2047
-681 881 2042
-671 876 2032
-663 875 2031
-652 868 2018
-645 868 2019
-630 856 1993
-630 864 2014
-619 859 2003
-608 852 1990
-604 855 1998
-603 862 2017
-599 866 2028
-592 864 2026
-588 867 2035
-582 869 2040
-575 867 2038
-568 867 2039
-557 859 2023
-551 861 2028
-546 862 2033
-541 865 2041
-535 866 2044
-528 864 2042
-522 864 2044
-515 864 2044
-513 872 2065
-503 866 2052
-498 868 2059
-491 866 2056
-486 868 2063
-480 870 2069
-474 871 2072
-469 874 2080
-460 869 2070
-456 874 2083
-449 871 2078
-445 877 2092
-438 876 2093
-431 875 2091
-425 876 2095
-418 875 2093
-411 873 2090
-399 862 2064
-395 866 2075
-384 858 2057
-380 861 2066
-370 855 2052
-363 852 2047
-355 848 2038
-348 846 2033
-340 842 2024
-333 840 2020
-327 841 2024
-320 839 2021
-315 842 2028
-307 838 2020
-300 836 2016
-293 832 2008
-286 831 2007
-281 835 2017
-273 827 1998
-268 831 2009
-260 827 1999
-253 825 1995
-246 821 1987
-241 823 1993
-235 824 1995
-226 816 1976
-219 810 1963
-216 822 1992
-210 822 1994
-207 835 2024
-202 841 2042
-197 846 2055
-191 847 2057
-185 849 2062
-178 846 2056
-172 847 2058
-166 846 2057
-160 848 2062
-154 847 2061
-147 846 2058
-141 847 2061
-135 848 2064
-129 849 2067
-122 846 2060
-116 852 2075
-109 847 2064
-103 849 2068
-96 844 2056
-90 843 2054
-84 846 2062
-78 845 2060
-71 844 2059
-65 844 2059
-59 841 2051
-52 838 2043
-46 839 2047
-39 835 2037
-33 834 2035
-27 843 2056
-21 846 2065
-15 860 2099
-9 858 2093
-2 859 2098
3 858 2094
10 868 2118
16 862 2104
22 862 2104
29 863 2107
35 864 2109
42 864 2109
48 866 2114
54 860 2099
60 847 2068
65 834 2036
72 845 2062
83 896 2188
99 983 2400
110 1021 2494
118 1026 2505
121 984 2402
117 894 2183
113 820 2001
118 811 1978
128 836 2038
137 852 2079
143 853 2081
151 864 2107
158 867 2115
165 870 2120
173 875 2134
177 864 2107
179 844 2057
178 809 1971
182 798 1943
189 803 1955
195 805 1960
202 806 1962
210 816 1985
227 857 2085
250 917 2232
257 918 2235
262 913 2220
270 917 2230
279 923 2244
287 925 2250
297 936 2275
300 924 2245
295 888 2157
292 861 2089
302 870 2112
311 878 2129
311 857 2079
315 852 2064
318 842 2040
335 871 2109
346 882 2137
357 894 2163
369 906 2192
379 914 2212
392 928 2245
406 945 2285
415 950 2295
423 952 2299
431 954 2304
438 953 2299
445 953 2300
454 956 2306
460 955 2302
470 960 2312
477 960 2312
471 934 2247
463 905 2176
390 750 1800
368 697 1673
445 833 1999
499 920 2208
476 865 2075
436 782 1873
429 759 1817
465 812 1944
499 861 2061
518 881 2108
528 887 2120
533 885 2114
547 897 2141
549 888 2119
554 887 2114
559 884 2106
560 875 2082
550 849 2019
538 821 1950
535 807 1916
540 806 1912
547 806 1912
550 803 1902
559 807 1911
560 799 1891
559 790 1868
563 787 1860
564 780 1842
566 775 1827
575 778 1834
577 773 1821
584 776 1825
588 773 1816
594 774 1816
597 770 1806
606 774 1814
611 772 1809
619 775 1814
622 772 1804
629 774 1807
638 778 1814
647 781 1820
654 782 1821
671 795 1850
695 816 1898
729 849 1971
742 856 1987
753 862 1998
758 860 1991
765 861 1992
772 862 1991
783 866 1999
791 867 2000
797 868 1999
807 871 2004
809 866 1990
819 870 1997
832 876 2010
843 881 2018
852 883 2021
858 883 2019
864 882 2013
869 880 2007
877 882 2009
888 886 2016
894 886 2012
898 883 2003
909 887 2009
910 881 1995
917 882 1993
926 884 1996
934 885 1996
942 886 1995
944 882 1982
946 878 1971
948 873 1958
939 859 1923
934 848 1897
870 785 1753
761 682 1518
719 640 1423
733 648 1439
705 619 1372
719 627 1388
769 666 1472
876 754 1666
922 789 1741
933 793 1747
934 789 1734
943 792 1738
