VERSION 0.7
FIELDS x y z
SIZE 4 4 4
TYPE I I I
COUNT 1 1 1
WIDTH 3593
HEIGHT 1
VIEWPOINT 0.0 0.0 0.0 1.0 0.0 0.0 0.0
POINTS 3593
DATA ascii
1023 634 2200
1029 633 2195
1045 639 2212
1045 635 2194
1041 628 2168
1039 622 2146
1042 620 2135
1003 593 2039
991 582 1998
986 575 1971
797 462 1579
694 399 1362
724 414 1411
688 391 1331
709 400 1359
741 416 1411
843 470 1593
930 515 1746
937 516 1746
946 518 1749
947 515 1737
954 516 1737
967 520 1748
972 519 1744
971 516 1728
980 517 1731
985 517 1727
989 516 1720
1003 520 1732
1010 521 1732
-1367 721 2299
-1368 726 2317
-1351 721 2306
-1339 718 2302
-1320 713 2287
-1317 715 2300
-1297 708 2280
-1271 698 2252
-1273 703 2274
-1249 694 2248
-1236 691 2241
-1227 690 2242
-1218 689 2242
-1210 689 2245
-1185 679 2216
-1178 679 2219
-1182 685 2244
-1166 680 2231
-1140 669 2198
-1143 675 2221
-1132 673 2217
-1126 673 2222
-1110 668 2208
-1101 667 2209
-1092 665 2207
-1058 649 2156
-997 616 2048
-961 598 1990
-960 601 2004
-965 608 2032
-964 612 2046
-958 612 2049
-960 618 2071
-953 617 2073
-956 623 2096
-966 634 2136
-972 643 2169
-974 648 2190
-979 656 2220
-973 657 2226
-976 664 2252
-972 666 2261
-967 667 2269
-960 668 2273
-955 669 2280
-952 672 2294
-952 677 2314
-949 680 2325
-944 681 2335
-941 685 2348
-937 687 2359
-933 690 2371
-926 690 2375
-928 697 2401
-921 697 2405
-920 702 2425
-915 704 2433
-913 708 2452
-906 709 2456
-900 710 2463
-898 714 2480
-894 717 2491
-892 721 2510
-893 729 2538
-879 724 2524
-880 731 2550
-879 736 2572
-872 737 2579
-864 737 2581
-862 742 2602
-859 747 2619
-850 745 2617
-849 751 2640
-837 748 2631
-835 753 2651
-833 758 2673
-824 758 2674
-815 757 2674
-816 766 2706
-807 765 2706
-802 768 2718
-793 767 2718
-791 773 2741
-782 772 2740
-775 774 2749
-767 774 2752
-766 782 2780
-754 778 2768
-747 779 2775
-739 780 2779
-728 777 2772
-714 771 2751
-705 770 2750
-695 768 2746
-690 771 2759
-678 767 2747
-670 767 2748
-661 766 2747
-652 766 2749
-644 766 2749
-634 764 2744
-624 762 2739
-613 758 2727
-605 758 2728
-596 758 2729
-588 758 2729
-579 757 2728
-569 754 2721
-560 753 2717
-549 749 2705
-537 744 2687
-503 707 2556
-451 645 2330
-443 643 2324
0 0 0
0 0 0
0 0 0
0 0 0
0 0 0
0 0 0
0 0 0
-368 611 2219
0 0 0
-344 592 2151
0 0 0
-349 624 2269
-319 581 2113
-356 662 2409
-329 625 2275
0 0 0
-311 614 2239
0 0 0
-301 621 2264
-274 579 2113
0 0 0
-274 606 2211
-264 599 2189
0 0 0
-244 583 2129
-247 606 2215
-240 604 2208
-247 637 2330
-227 602 2204
-220 603 2206
-214 604 2212
-196 572 2094
-201 603 2210
-202 626 2294
-186 597 2188
-180 599 2196
-174 601 2203
-159 570 2089
-158 591 2169
-153 595 2183
-146 593 2178
-140 595 2186
-137 608 2235
-126 589 2163
-117 579 2127
-116 604 2220
-108 597 2195
-101 594 2184
-94 590 2171
-87 588 2162
-84 607 2231
-77 607 2233
-69 596 2194
-66 620 2282
-56 589 2168
-50 598 2201
-45 610 2246
-39 624 2296
-33 646 2378
-26 638 2351
-19 639 2354
-12 647 2382
-6 668 2463
1 681 2509
8 680 2506
15 681 2509
23 681 2509
30 679 2504
38 679 2503
45 678 2499
52 679 2502
60 677 2494
67 675 2488
74 676 2492
82 676 2492
89 681 2509
97 679 2504
103 673 2482
110 671 2473
118 671 2475
125 671 2473
132 672 2478
140 672 2476
146 668 2462
153 669 2464
161 669 2467
168 669 2466
175 669 2464
183 668 2462
189 667 2457
197 667 2459
204 665 2451
211 667 2456
219 667 2458
226 667 2455
232 665 2447
240 665 2447
247 664 2445
253 662 2437
260 662 2435
268 662 2435
275 661 2432
282 661 2431
289 662 2432
296 661 2430
303 660 2425
309 659 2420
317 659 2422
324 658 2417
331 658 2417
337 656 2408
344 657 2409
352 658 2414
358 655 2400
366 656 2404
372 654 2397
379 655 2399
385 653 2391
392 652 2389
399 652 2388
406 652 2385
414 652 2386
420 651 2382
427 651 2381
434 651 2378
442 651 2379
449 651 2377
457 653 2383
458 644 2350
468 648 2363
475 648 2363
482 647 2359
489 648 2361
495 646 2352
502 647 2354
508 645 2348
516 646 2349
522 644 2342
529 644 2341
537 645 2342
542 643 2336
549 643 2334
557 644 2334
562 642 2327
569 641 2322
575 641 2319
583 642 2321
590 642 2321
597 642 2319
603 640 2314
610 640 2312
616 639 2306
623 639 2305
631 640 2306
638 640 2306
645 640 2304
650 638 2296
659 640 2299
665 639 2294
672 639 2294
679 638 2290
684 637 2284
691 636 2280
697 635 2275
705 637 2278
710 635 2270
719 636 2274
725 635 2268
733 636 2270
738 635 2263
745 635 2262
753 636 2262
759 635 2257
766 634 2254
773 634 2253
779 634 2249
787 634 2248
795 635 2250
799 633 2239
804 632 2233
814 634 2239
822 634 2238
827 633 2232
832 631 2223
842 633 2229
847 632 2222
853 631 2217
857 629 2207
864 629 2205
873 631 2210
882 632 2211
890 633 2211
897 633 2209
903 632 2204
908 631 2198
914 630 2192
922 631 2193
931 632 2195
939 633 2195
942 630 2183
951 631 2185
957 631 2181
965 631 2180
965 627 2162
975 628 2165
981 628 2162
991 630 2166
1012 639 2193
1021 640 2194
1040 647 2217
1043 645 2205
1048 643 2198
1040 634 2164
1039 630 2145
1035 623 2119
1001 598 2032
995 590 2003
965 569 1927
771 451 1525
708 412 1389
708 409 1378
714 410 1379
716 409 1373
751 426 1428
862 486 1629
925 518 1735
940 524 1750
956 529 1766
953 524 1747
964 527 1753
963 523 1739
976 527 1749
976 524 1736
973 519 1716
982 521 1719
987 521 1716
1000 524 1725
1010 526 1729
-1376 734 2312
-1368 734 2316
-1361 734 2321
-1337 725 2296
-1319 719 2283
-1316 722 2295
-1302 719 2288
-1281 711 2269
-1270 709 2265
-1259 707 2263
-1245 703 2255
-1223 695 2232
-1227 702 2257
-1204 693 2233
-1187 687 2217
-1183 689 2226
-1173 687 2225
-1163 686 2224
-1141 677 2199
-1135 678 2205
-1127 677 2205
-1121 678 2213
-1109 675 2206
-1103 675 2211
-1092 673 2206
-1068 663 2175
-1006 628 2066
-967 608 2003
-954 604 1990
-962 613 2023
-959 615 2034
-960 620 2053
-958 623 2066
-953 624 2072
-955 629 2093
-960 637 2122
-970 648 2161
-972 654 2185
-973 660 2206
-982 670 2245
-974 670 2245
-970 672 2256
-967 675 2268
-961 675 2272
-962 681 2296
-958 683 2305
-958 688 2325
-950 688 2326
-945 690 2336
-943 694 2352
-937 695 2358
-935 698 2374
-928 699 2377
-926 702 2393
-921 705 2403
-919 709 2420
-916 713 2435
-911 714 2444
-903 714 2446
-899 717 2457
-902 725 2489
-895 725 2493
-891 729 2507
-886 731 2517
-884 736 2535
-879 737 2545
-877 743 2567
-870 743 2570
-868 748 2590
-861 749 2596
-857 752 2609
-854 757 2627
-843 754 2620
-843 761 2648
-835 762 2651
-829 763 2659
-823 765 2668
-820 770 2687
-813 771 2695
-806 772 2700
-801 775 2711
-794 777 2720
-790 780 2735
-779 778 2728
-777 784 2753
-769 784 2755
-762 786 2764
-749 781 2748
-746 787 2771
-744 794 2797
-729 786 2771
-713 778 2745
-707 780 2755
-694 775 2740
-685 774 2737
-678 776 2746
-669 775 2745
-660 774 2742
-649 771 2734
-642 772 2739
-635 773 2746
-625 772 2742
-613 767 2727
-605 767 2730
-597 767 2730
-588 765 2726
-578 764 2723
-569 762 2716
-562 763 2724
-552 761 2717
-537 752 2686
-508 722 2581
-445 644 2300
-442 648 2316
-449 669 2393
0 0 0
0 0 0
0 0 0
-412 655 2349
-406 657 2356
-357 589 2111
0 0 0
0 0 0
0 0 0
0 0 0
-339 612 2201
-329 607 2182
-322 604 2174
0 0 0
-310 606 2184
0 0 0
-306 625 2254
0 0 0
-294 628 2267
-268 587 2116
0 0 0
-261 600 2165
-255 599 2164
-249 600 2166
-266 659 2382
-247 627 2266
-229 597 2161
0 0 0
-230 635 2298
-212 604 2186
-207 609 2206
-203 618 2237
-195 612 2218
-190 616 2234
-183 614 2228
-175 612 2220
-167 605 2193
-165 623 2259
-156 612 2219
-150 617 2239
-140 600 2179
-137 614 2231
-129 608 2208
-122 608 2208
-111 585 2124
-108 600 2180
-103 610 2216
-99 624 2269
-88 597 2171
-83 608 2210
-75 601 2184
-69 599 2177
-61 590 2147
-56 603 2193
-50 604 2197
-44 616 2244
-40 647 2356
-34 657 2393
-26 652 2376
-19 648 2361
-12 653 2378
-6 681 2481
1 689 2509
8 687 2503
16 690 2514
23 690 2513
30 687 2502
38 686 2502
45 687 2503
52 685 2496
60 683 2491
67 683 2489
74 684 2493
82 683 2490
89 684 2491
96 682 2484
103 681 2482
111 681 2483
118 682 2485
125 680 2480
133 681 2483
140 679 2475
147 677 2467
154 677 2468
161 677 2466
168 677 2467
176 678 2469
182 675 2458
190 677 2464
198 677 2464
204 674 2454
212 676 2461
218 672 2448
225 672 2448
233 673 2451
240 672 2443
247 673 2447
253 669 2434
261 670 2435
268 670 2437
275 669 2431
282 669 2432
289 669 2432
295 666 2419
303 668 2428
309 665 2415
317 666 2417
323 663 2408
331 666 2418
338 665 2414
345 665 2414
352 664 2408
359 664 2406
366 664 2408
372 661 2397
379 661 2395
387 662 2398
394 662 2396
400 661 2391
407 660 2386
414 660 2389
421 659 2384
426 657 2373
435 659 2380
442 658 2377
449 659 2380
458 661 2386
458 650 2346
468 655 2363
476 656 2366
481 654 2355
488 653 2352
496 655 2358
503 654 2353
510 654 2353
515 651 2342
522 652 2342
529 651 2337
536 652 2340
544 652 2339
553 654 2346
559 653 2341
563 650 2329
570 650 2327
578 650 2328
583 648 2317
591 649 2319
597 649 2318
604 648 2315
612 649 2315
618 647 2309
626 649 2312
631 647 2305
637 646 2299
644 645 2297
650 645 2293
657 645 2292
664 645 2291
672 645 2289
680 646 2291
685 644 2284
691 643 2277
701 646 2286
706 644 2278
712 644 2275
719 644 2273
726 643 2271
734 644 2272
738 642 2261
747 643 2264
754 643 2263
761 643 2261
767 642 2255
773 642 2252
781 643 2253
787 641 2246
794 641 2245
799 640 2239
806 640 2234
814 641 2237
822 641 2237
825 638 2225
834 640 2227
840 639 2223
848 639 2222
856 640 2223
861 639 2217
864 636 2205
873 638 2208
880 637 2204
889 639 2208
897 639 2207
901 638 2198
908 638 2197
916 638 2196
923 638 2193
930 639 2192
938 639 2192
945 639 2188
953 640 2188
956 637 2175
963 637 2175
969 636 2169
975 635 2163
982 636 2162
996 640 2175
1008 643 2182
1030 652 2211
1038 653 2212
1046 654 2209
1046 649 2192
1041 642 2163
1039 636 2142
1031 627 2110
996 602 2021
1002 601 2016
930 554 1855
762 451 1507
701 413 1375
708 414 1376
730 424 1409
704 406 1348
755 433 1436
880 501 1661
919 521 1722
934 526 1737
944 528 1743
944 525 1729
961 531 1747
966 530 1742
965 527 1728
974 528 1730
983 531 1734
999 535 1747
998 532 1733
1001 530 1725
1004 529 1717
-1388 748 2329
-1366 741 2310
-1355 739 2309
-1343 736 2305
-1323 730 2288
-1324 734 2307
-1305 728 2291
-1294 726 2289
-1270 717 2265
-1261 716 2265
-1251 714 2264
-1231 707 2244
-1215 702 2233
-1202 699 2227
-1196 700 2233
-1181 695 2222
-1180 699 2236
-1155 688 2206
-1143 686 2201
-1137 686 2207
-1124 683 2199
-1123 686 2214
-1110 682 2205
-1099 680 2202
-1088 678 2197
-1069 670 2175
-1003 633 2057
-968 615 2002
-958 613 1997
-961 619 2020
-966 627 2048
-959 626 2048
-958 629 2063
-957 633 2079
-956 637 2094
-960 644 2120
-971 656 2163
-975 663 2189
-979 671 2216
-977 674 2231
-974 677 2243
-970 679 2254
-967 682 2265
-963 684 2276
-955 683 2276
-953 687 2292
-952 691 2309
-944 691 2312
-945 697 2334
-942 700 2346
-938 702 2357
-935 706 2371
-931 708 2383
-926 710 2392
-920 711 2398
-918 715 2414
-916 720 2434
-910 721 2440
-912 728 2467
-901 726 2462
-898 730 2477
-899 736 2501
-891 736 2504
-884 737 2510
-879 739 2520
-876 743 2536
-876 750 2561
-871 752 2571
-866 755 2583
-860 756 2590
-854 758 2599
-852 764 2620
-844 764 2623
-845 772 2653
-834 769 2647
-831 774 2664
-824 774 2669
-817 776 2678
-813 780 2693
-808 782 2704
-798 781 2702
-794 785 2719
-789 788 2731
-782 789 2737
-773 788 2736
-768 792 2750
-760 793 2756
-754 794 2764
-751 800 2786
-742 800 2788
-729 795 2772
-714 787 2747
-706 788 2752
-697 787 2751
-688 786 2749
-678 785 2745
-668 782 2739
-662 784 2747
-653 784 2748
-643 782 2742
-633 779 2736
-625 780 2740
-615 777 2731
-606 776 2730
-599 777 2736
-588 774 2726
-579 773 2723
-570 772 2721
-560 769 2712
-552 770 2718
-539 762 2691
-507 728 2572
-444 648 2290
-441 654 2311
0 0 0
-413 632 2237
-401 624 2210
-417 660 2338
0 0 0
0 0 0
0 0 0
0 0 0
0 0 0
0 0 0
0 0 0
0 0 0
-328 611 2174
-302 574 2041
-321 621 2212
-304 601 2139
0 0 0
-308 637 2270
-284 600 2137
0 0 0
-274 606 2161
-271 612 2186
-262 607 2168
-256 609 2176
-251 611 2184
-251 627 2243
-249 639 2285
-232 614 2196
-220 599 2141
-218 611 2186
-222 640 2291
-205 611 2188
-205 628 2250
-191 606 2170
-196 644 2308
-189 643 2304
-186 655 2350
-174 636 2281
-158 605 2169
-158 627 2251
-148 614 2205
-141 611 2194
-137 621 2231
-127 608 2182
-123 620 2226
-115 614 2206
-110 620 2227
-102 609 2190
-92 591 2125
-93 638 2295
-81 601 2159
-74 596 2145
-70 618 2224
-60 588 2113
-54 583 2098
-50 617 2219
-43 604 2172
-38 623 2241
-33 655 2360
-26 660 2377
-19 652 2348
-12 662 2384
-6 690 2484
1 695 2503
8 696 2508
16 694 2501
23 697 2511
30 694 2501
38 694 2501
45 696 2506
52 694 2502
60 693 2497
67 691 2491
74 691 2490
82 691 2491
89 691 2491
97 695 2503
104 689 2484
111 689 2482
118 685 2469
125 686 2473
132 686 2473
140 688 2480
147 686 2472
154 685 2468
162 687 2474
169 685 2466
176 684 2463
183 684 2462
190 683 2459
197 683 2459
205 683 2458
212 682 2454
219 681 2450
225 679 2443
232 679 2443
239 678 2441
247 679 2444
254 677 2435
260 676 2430
268 677 2435
275 676 2429
282 677 2432
290 677 2432
298 679 2438
303 674 2421
309 672 2413
317 674 2419
324 673 2415
332 674 2417
339 674 2417
345 672 2408
352 671 2407
359 671 2405
365 669 2398
372 669 2397
380 669 2397
387 670 2399
393 668 2390
400 668 2389
407 668 2389
415 668 2389
420 665 2378
428 667 2383
434 664 2372
442 666 2377
451 668 2385
457 667 2378
457 657 2344
468 662 2361
477 664 2368
483 663 2361
491 664 2363
494 659 2347
503 661 2353
510 661 2352
516 660 2347
524 661 2349
530 659 2341
537 660 2341
543 659 2336
551 659 2336
557 658 2331
563 656 2325
570 657 2326
578 658 2328
585 657 2324
592 657 2323
597 655 2315
605 656 2317
611 655 2310
618 655 2308
624 654 2305
631 654 2303
638 654 2302
644 652 2295
651 652 2293
659 653 2295
665 653 2292
671 651 2284
678 652 2284
688 654 2291
693 652 2282
701 653 2285
705 650 2273
713 651 2275
720 651 2273
726 651 2270
734 652 2271
741 651 2268
746 649 2260
752 649 2255
761 650 2258
769 651 2261
774 649 2253
781 649 2251
789 650 2251
796 650 2250
801 648 2242
805 646 2231
812 646 2230
822 648 2234
830 649 2236
834 647 2226
840 646 2221
846 645 2215
855 647 2220
862 647 2217
867 645 2210
874 646 2208
881 645 2206
889 646 2205
897 647 2206
903 646 2201
909 645 2196
917 646 2195
924 646 2192
931 646 2190
937 645 2187
943 644 2181
952 646 2183
959 646 2181
966 646 2178
967 642 2162
975 642 2161
986 645 2168
992 644 2163
1025 661 2217
1029 659 2208
1038 660 2209
1041 657 2197
1043 654 2184
1038 647 2156
1040 644 2143
1030 633 2105
987 603 2000
1001 607 2013
902 544 1798
743 445 1468
708 421 1387
717 424 1394
713 418 1374
721 421 1379
766 444 1455
889 512 1678
926 530 1733
943 537 1752
945 534 1742
953 536 1744
958 535 1739
972 539 1751
969 535 1732
978 536 1735
979 534 1725
980 531 1713
1004 541 1742
1007 540 1735
1004 535 1716
-1382 753 2317
-1371 751 2317
-1359 749 2313
-1340 743 2298
-1320 736 2280
-1315 737 2290
-1310 738 2297
-1294 734 2288
-1274 727 2269
-1264 725 2268
-1261 727 2279
-1243 722 2265
-1234 721 2266
-1225 720 2267
-1215 718 2265
-1207 718 2267
-1182 707 2238
-1166 702 2225
-1148 696 2209
-1143 697 2216
-1137 698 2222
-1119 691 2203
-1117 694 2217
-1104 691 2210
-1084 682 2187
-1071 679 2178
-1015 647 2080
-975 626 2015
-958 620 1997
-959 624 2014
-964 631 2040
-959 633 2048
-958 636 2062
-957 640 2077
-951 640 2081
-956 648 2109
-968 661 2154
-972 668 2181
-978 677 2213
-978 682 2233
-975 685 2243
-968 685 2246
-965 688 2259
-964 692 2277
-962 696 2291
-958 698 2303
-953 699 2310
-948 701 2318
-945 704 2331
-940 706 2340
-938 710 2356
-935 713 2369
-929 715 2377
-923 716 2383
-921 720 2399
-917 723 2412
-915 726 2427
-910 729 2438
-908 733 2456
-903 735 2463
-897 737 2472
-897 743 2496
-893 746 2508
-887 748 2516
-880 748 2520
-880 755 2546
-875 757 2555
-869 759 2565
-866 763 2582
-859 763 2585
-856 768 2603
-850 770 2611
-842 769 2613
-838 774 2630
-835 778 2646
-832 783 2666
-824 783 2669
-815 782 2668
-812 787 2687
-807 790 2701
-800 791 2706
-794 793 2716
-788 795 2724
-781 797 2732
-778 802 2753
-771 803 2759
-759 800 2749
-752 801 2757
-748 806 2774
-739 806 2775
-731 805 2775
-716 799 2755
-705 795 2745
-696 794 2743
-691 797 2757
-679 793 2745
-672 795 2752
-661 791 2742
-653 792 2746
-643 790 2740
-634 789 2737
-624 787 2733
-617 788 2740
-605 784 2726
-598 785 2732
-589 783 2728
-579 782 2723
-569 779 2716
-561 779 2716
-551 776 2709
-539 771 2691
-511 742 2592
-451 665 2323
-449 672 2350
0 0 0
-438 678 2373
0 0 0
0 0 0
0 0 0
0 0 0
0 0 0
0 0 0
-365 637 2236
-339 604 2120
0 0 0
-334 617 2167
-336 633 2225
0 0 0
-325 637 2242
0 0 0
0 0 0
0 0 0
0 0 0
-293 639 2252
-275 614 2167
-272 622 2196
-262 613 2165
0 0 0
-251 619 2187
0 0 0
-235 610 2158
-240 642 2269
-241 663 2344
-218 617 2184
-211 616 2179
-211 633 2241
-201 624 2211
-196 629 2227
-183 609 2157
-183 629 2229
-171 610 2161
-170 631 2238
-165 635 2252
-157 632 2241
-146 612 2172
-140 614 2179
-134 617 2190
-128 620 2201
-123 628 2229
-114 612 2175
-104 594 2109
-106 642 2282
-96 621 2208
-90 627 2228
-83 624 2218
-74 605 2152
-69 613 2179
-61 598 2126
-56 613 2180
-51 626 2227
-44 619 2203
-38 633 2253
-33 663 2359
-26 666 2372
-19 659 2347
-12 670 2387
-5 694 2472
1 702 2501
8 704 2509
16 705 2511
23 704 2507
30 703 2506
38 703 2506
45 702 2503
52 700 2494
60 701 2498
67 697 2484
74 698 2488
82 697 2485
89 697 2483
97 699 2491
104 697 2482
111 695 2475
118 695 2475
125 696 2479
132 693 2468
140 695 2478
147 695 2474
154 693 2470
161 691 2460
169 693 2470
176 693 2470
183 691 2462
190 691 2460
198 691 2459
204 689 2453
212 691 2458
218 687 2445
226 688 2448
232 686 2441
241 689 2451
247 686 2439
254 686 2438
261 685 2437
269 686 2437
275 684 2431
283 685 2433
290 685 2433
296 682 2424
304 683 2426
310 682 2420
317 681 2418
324 681 2416
332 682 2420
338 679 2410
345 678 2405
351 677 2399
359 677 2400
366 678 2403
373 678 2402
380 677 2398
386 674 2387
393 674 2386
400 674 2385
409 677 2395
414 673 2381
421 673 2378
428 674 2381
436 674 2382
443 674 2378
451 676 2386
457 674 2377
458 665 2344
470 672 2370
476 671 2364
483 670 2359
490 670 2359
497 670 2358
505 671 2359
510 668 2350
516 667 2343
523 667 2343
530 667 2340
537 667 2341
545 668 2342
550 665 2332
558 666 2334
563 663 2322
572 666 2332
579 666 2329
584 663 2318
591 664 2319
599 664 2318
605 663 2315
611 662 2308
620 664 2314
626 663 2309
633 662 2306
639 662 2304
645 660 2296
651 659 2292
660 661 2297
664 659 2286
672 659 2286
678 659 2283
685 659 2281
692 658 2278
701 660 2284
708 660 2280
716 661 2282
722 660 2278
724 656 2261
731 656 2259
740 657 2263
748 658 2263
753 656 2255
760 656 2253
767 656 2251
773 656 2248
781 656 2249
789 657 2249
794 656 2242
803 657 2245
808 655 2238
815 655 2234
821 655 2231
829 655 2230
836 655 2228
845 657 2232
850 655 2225
855 654 2218
860 652 2209
864 650 2201
875 653 2209
884 654 2210
889 653 2205
898 654 2206
904 653 2201
911 653 2198
917 653 2193
926 654 2196
931 653 2189
938 653 2187
943 651 2179
952 653 2182
957 652 2175
964 652 2173
970 651 2168
977 651 2165
985 652 2165
1000 657 2180
1023 667 2210
1024 663 2194
1037 667 2204
1046 668 2206
1043 661 2182
1039 654 2155
1036 648 2132
1027 638 2096
989 610 2001
1005 616 2018
866 528 1725
719 435 1418
716 430 1401
708 423 1374
730 433 1407
719 424 1375
783 459 1487
900 524 1695
937 542 1752
945 544 1754
956 547 1762
957 544 1749
959 542 1740
967 543 1740
963 537 1720
974 540 1726
981 541 1726
989 542 1727
992 540 1719
1000 541 1720
1005 541 1717
-1375 757 2303
-1376 762 2322
-1355 754 2304
-1341 751 2297
-1330 749 2295
-1321 748 2297
-1310 746 2295
-1296 743 2289
-1284 740 2285
-1279 742 2293
-1261 735 2278
-1239 727 2255
-1228 725 2253
-1222 726 2259
-1211 723 2256
-1207 726 2267
-1190 720 2252
-1174 714 2239
-1152 705 2214
-1151 709 2230
-1139 706 2224
-1129 704 2222
-1113 699 2208
-1086 687 2172
-1087 692 2191
-1067 683 2169
-1024 660 2098
-978 634 2018
-957 626 1993
-958 630 2010
-959 635 2029
-962 641 2052
-956 642 2056
-956 646 2072
-953 648 2083
-951 652 2098
-965 666 2146
-975 677 2186
-980 686 2216
-978 689 2230
-975 692 2243
-967 692 2244
-966 696 2260
-962 698 2271
-961 703 2289
-957 705 2299
-955 709 2314
-951 711 2324
-945 712 2331
-940 714 2339
-936 716 2349
-936 722 2370
-928 721 2372
-927 726 2390
-921 728 2399
-917 730 2409
-913 733 2421
-908 735 2431
-910 742 2457
-906 745 2471
-898 745 2473
-895 749 2488
-892 753 2505
-886 755 2512
-887 762 2538
-877 760 2535
-874 764 2550
-871 769 2569
-864 769 2574
-861 773 2590
-854 774 2594
-851 779 2613
-849 784 2635
-843 786 2644
-838 789 2654
-830 789 2656
-824 792 2668
-817 792 2673
-810 793 2677
-804 796 2689
-802 801 2710
-796 803 2719
-783 799 2705
-779 804 2725
-773 806 2735
-771 812 2757
-755 804 2734
-753 810 2756
-742 808 2750
-742 816 2781
-729 812 2767
-717 808 2756
-705 803 2742
-699 806 2755
-687 802 2743
-678 801 2739
-672 803 2751
-661 800 2740
-651 798 2736
-644 799 2741
-634 798 2739
-626 797 2738
-615 794 2729
-607 794 2731
-599 795 2736
-589 792 2726
-580 791 2725
-570 789 2719
-562 788 2719
-549 782 2700
-539 779 2691
-511 750 2591
-449 670 2314
-432 654 2261
0 0 0
0 0 0
0 0 0
0 0 0
-412 676 2343
-387 646 2241
-404 687 2383
0 0 0
-370 652 2264
0 0 0
-351 643 2234
-330 617 2143
-334 636 2211
-330 639 2225
0 0 0
0 0 0
-314 648 2258
0 0 0
0 0 0
-283 625 2180
0 0 0
-278 642 2242
0 0 0
-267 649 2267
-258 642 2244
-245 627 2192
-233 612 2140
-234 631 2207
-226 627 2192
-223 638 2233
-212 626 2190
-204 621 2175
-200 626 2193
-197 638 2235
-190 639 2238
-191 664 2329
-183 660 2314
-168 630 2209
-163 633 2222
-159 645 2265
-152 642 2254
-149 660 2317
-137 637 2236
-130 633 2222
-125 645 2264
-113 614 2157
-112 645 2266
-107 653 2295
-99 647 2275
-90 632 2223
-86 650 2286
-75 615 2163
-73 657 2309
-62 620 2182
-58 643 2263
-51 633 2227
-44 629 2212
-38 639 2249
-33 672 2366
-26 675 2378
-19 668 2352
-12 674 2373
-5 704 2478
1 713 2512
8 715 2521
16 715 2520
23 716 2524
31 714 2517
38 708 2495
45 709 2499
53 709 2500
60 709 2497
67 709 2499
74 705 2484
82 710 2502
89 707 2490
97 706 2489
104 705 2483
111 707 2490
118 704 2479
125 703 2476
133 702 2474
140 702 2472
147 701 2470
155 702 2471
161 699 2463
169 702 2472
176 698 2456
183 698 2458
190 698 2456
198 699 2459
205 700 2463
212 696 2450
219 697 2452
226 697 2451
232 693 2437
241 696 2450
247 695 2443
254 693 2435
261 692 2432
269 693 2437
274 689 2423
283 691 2429
289 690 2424
297 691 2425
303 689 2419
311 690 2424
318 689 2417
325 689 2417
332 689 2417
339 688 2414
346 687 2409
353 688 2410
361 689 2415
366 685 2401
374 686 2402
381 687 2405
387 684 2393
394 683 2390
401 684 2391
408 682 2385
415 682 2385
421 680 2377
428 681 2380
435 681 2378
442 680 2373
451 683 2382
454 677 2362
458 672 2345
470 679 2366
476 678 2362
484 678 2362
491 678 2361
497 677 2354
506 679 2361
510 675 2348
516 674 2342
522 673 2336
531 674 2341
537 673 2336
545 674 2337
550 672 2330
556 671 2325
565 673 2330
572 673 2327
578 672 2323
586 672 2324
592 672 2321
600 672 2321
605 670 2311
612 670 2310
618 669 2305
624 667 2299
632 669 2303
640 669 2303
648 670 2305
654 669 2300
660 669 2296
667 669 2295
674 668 2291
679 666 2282
687 667 2285
693 666 2279
700 666 2278
707 666 2276
714 666 2274
720 665 2270
727 665 2267
735 666 2268
745 668 2275
748 665 2262
756 665 2262
763 666 2262
769 665 2256
777 666 2257
782 664 2249
790 665 2251
793 661 2236
802 663 2239
810 664 2242
816 663 2235
821 661 2227
828 662 2227
837 663 2230
842 661 2222
848 661 2218
857 662 2219
862 660 2212
868 660 2208
876 660 2208
886 663 2213
892 662 2209
896 660 2199
907 663 2206
910 660 2194
920 662 2199
925 661 2193
930 659 2186
940 661 2189
945 660 2183
952 660 2180
960 661 2180
967 660 2177
971 658 2167
980 659 2168
985 659 2163
1017 675 2215
1031 679 2226
1036 678 2219
1039 675 2207
1046 675 2203
1045 670 2184
1036 660 2148
1039 657 2137
1022 642 2084
991 618 2004
1000 620 2007
840 517 1670
709 434 1398
704 428 1376
699 422 1355
713 427 1371
739 441 1412
797 472 1511
917 540 1728
928 543 1734
941 547 1744
955 552 1758
959 551 1752
960 548 1739
965 548 1736
971 548 1733
986 553 1747
985 549 1731
990 548 1728
973 536 1684
1006 551 1729
1011 550 1725
-1392 774 2329
-1380 772 2327
-1352 760 2296
-1356 767 2320
-1338 761 2308
-1320 755 2294
-1314 756 2301
-1289 746 2274
-1289 750 2291
-1281 750 2294
-1264 745 2281
-1249 740 2272
-1241 740 2274
-1224 734 2261
-1214 733 2261
-1198 728 2248
-1186 725 2242
-1177 724 2242
-1158 717 2224
-1154 718 2233
-1142 715 2228
-1133 715 2228
-1115 707 2210
-1106 706 2210
-1094 703 2203
-1072 693 2176
-1040 677 2128
-985 646 2032
-960 633 1996
-955 635 2002
-960 642 2029
-963 648 2052
-958 650 2058
-955 652 2068
-954 656 2085
-951 658 2095
-961 670 2134
-976 685 2187
-978 691 2209
-984 700 2241
-975 699 2241
-973 703 2254
-969 705 2266
-966 708 2278
-958 708 2279
-955 710 2291
-953 715 2307
-949 717 2317
-946 720 2332
-942 723 2342
-936 724 2348
-939 731 2375
-927 728 2368
-924 732 2382
-924 737 2404
-922 742 2420
-914 741 2421
-909 744 2432
-906 747 2446
-903 751 2462
-898 753 2472
-896 758 2489
-894 762 2506
-884 761 2505
-878 762 2510
-877 768 2532
-870 768 2537
-870 776 2564
-866 779 2578
-860 781 2585
-852 781 2588
-852 788 2615
-842 786 2610
-839 790 2627
-833 792 2637
-827 795 2646
-820 795 2652
-817 801 2671
-811 803 2681
-803 803 2683
-800 807 2701
-794 810 2712
-783 807 2705
-781 814 2729
-773 814 2730
-768 817 2745
-761 819 2753
-753 819 2755
-742 817 2750
-739 822 2771
-729 820 2764
-717 816 2754
-710 817 2760
-698 813 2747
-687 810 2740
-680 812 2748
-669 808 2737
-660 807 2735
-653 809 2742
-641 805 2731
-634 806 2736
-625 805 2734
-614 801 2724
-607 803 2731
-598 801 2728
-590 802 2730
-580 799 2723
-570 797 2719
-561 795 2712
-552 795 2713
-541 791 2700
-517 766 2617
-456 687 2348
-447 685 2341
0 0 0
-405 640 2190
0 0 0
0 0 0
-400 664 2274
-386 652 2236
-368 633 2172
0 0 0
0 0 0
-370 671 2305
0 0 0
0 0 0
-350 673 2314
-357 699 2406
-322 645 2219
-329 671 2311
-311 649 2236
0 0 0
-280 611 2105
-291 648 2236
-288 657 2267
0 0 0
-263 630 2175
-257 630 2175
-243 612 2114
-234 606 2094
-234 620 2144
-239 651 2252
-232 650 2249
-228 657 2275
-218 650 2250
-202 620 2147
-198 628 2176
-204 668 2314
-190 645 2235
-176 618 2142
-174 636 2205
-173 653 2265
-171 672 2333
-160 655 2275
-151 649 2252
-145 652 2262
-138 649 2253
-124 613 2128
-125 649 2255
-119 655 2274
-107 627 2177
-104 644 2240
-98 649 2257
-91 644 2239
-82 629 2187
-77 639 2222
-68 615 2140
-62 621 2160
-55 614 2135
-48 606 2107
-43 627 2183
-38 654 2276
-33 680 2369
-26 682 2376
-19 674 2346
-12 679 2364
-5 698 2431
1 719 2506
8 719 2507
16 724 2524
23 727 2533
31 725 2528
38 724 2523
46 721 2511
53 719 2505
60 714 2490
67 714 2489
75 714 2488
82 714 2487
89 713 2484
97 716 2494
104 716 2496
111 712 2481
118 710 2475
125 709 2472
133 710 2473
140 711 2478
147 707 2462
154 708 2466
162 709 2471
170 710 2473
176 706 2458
183 706 2457
190 706 2457
197 704 2452
205 706 2459
213 707 2460
219 704 2449
226 703 2447
234 704 2449
240 701 2438
247 702 2441
254 700 2434
262 702 2440
269 700 2435
276 701 2437
283 701 2434
290 699 2430
296 697 2420
305 699 2428
311 698 2424
318 697 2421
326 698 2421
332 695 2413
339 696 2414
346 695 2412
353 694 2405
360 694 2406
367 694 2404
374 694 2403
380 691 2393
388 693 2398
394 691 2391
401 691 2389
408 689 2384
415 689 2383
422 690 2383
430 690 2385
435 688 2376
443 688 2375
452 691 2385
454 684 2358
462 685 2362
471 687 2369
477 686 2362
482 683 2353
491 685 2357
497 683 2351
503 683 2348
512 685 2353
518 683 2346
523 681 2340
531 682 2340
539 683 2343
545 682 2338
551 681 2333
558 680 2331
565 680 2330
572 680 2328
579 679 2324
585 679 2320
593 679 2320
596 675 2306
605 678 2312
612 678 2311
617 675 2301
626 677 2307
632 676 2301
639 676 2300
646 675 2296
654 677 2300
660 675 2293
668 676 2294
672 673 2282
679 674 2283
688 675 2287
695 675 2284
700 673 2276
708 674 2278
714 673 2273
722 674 2273
727 672 2265
736 674 2270
742 673 2264
747 671 2258
753 670 2253
762 672 2258
767 671 2250
776 672 2253
784 673 2254
790 672 2248
796 671 2244
801 669 2236
809 670 2237
814 668 2227
824 671 2235
829 669 2226
836 669 2225
842 669 2221
850 669 2219
856 668 2216
861 667 2209
868 666 2205
876 668 2207
887 670 2214
890 667 2202
899 669 2204
903 667 2195
914 669 2202
917 666 2189
927 669 2195
933 668 2191
939 668 2186
946 667 2182
951 666 2175
961 668 2180
969 668 2178
968 663 2160
980 667 2168
988 667 2167
1017 682 2213
1018 678 2197
1045 691 2236
1039 682 2205
1048 683 2205
1043 675 2177
1041 669 2155
1040 665 2137
1019 647 2077
995 627 2010
1001 627 2007
810 504 1608
743 459 1464
698 428 1363
698 426 1352
719 436 1382
737 444 1406
823 492 1559
916 545 1722
936 553 1748
935 549 1732
943 550 1733
959 556 1749
965 556 1746
968 555 1739
966 551 1723
982 556 1738
973 548 1709
987 552 1720
1001 557 1731
1003 555 1722
1011 556 1723
-1390 781 2324
-1370 774 2309
-1361 773 2310
-1345 769 2301
-1334 767 2299
-1322 765 2296
-1315 765 2300
-1297 759 2286
-1288 758 2287
-1268 750 2269
-1256 748 2266
-1257 752 2284
-1235 744 2261
-1228 744 2266
-1215 741 2259
-1203 738 2254
-1189 734 2245
-1174 729 2234
-1173 733 2250
-1155 726 2233
-1140 722 2222
-1130 720 2221
-1122 719 2222
-1114 719 2223
-1101 715 2214
-1093 714 2216
-1058 696 2163
-993 658 2047
-965 644 2005
-952 639 1995
-954 645 2016
-965 656 2054
-960 658 2061
-953 658 2064
-952 661 2078
-948 663 2088
-957 674 2125
-969 687 2169
-974 696 2200
-976 702 2221
-975 706 2239
-969 707 2244
-966 710 2255
-963 713 2269
-959 716 2280
-954 717 2286
-953 722 2305
-947 723 2312
-945 726 2325
-941 729 2338
-939 733 2353
-935 736 2364
-932 739 2378
-927 741 2387
-924 745 2401
-918 746 2408
-911 746 2412
-912 753 2437
-907 756 2448
-902 757 2455
-901 763 2476
-894 764 2481
-891 768 2497
-885 769 2505
-880 772 2516
-880 778 2538
-873 779 2545
-870 783 2561
-869 790 2584
-859 788 2581
-857 793 2600
-852 796 2612
-846 798 2622
-839 799 2626
-833 801 2636
-828 804 2647
-820 803 2649
-815 807 2661
-809 809 2672
-803 811 2681
-797 813 2689
-794 819 2712
-784 817 2707
-781 822 2726
-774 823 2732
-768 825 2742
-764 830 2760
-754 829 2758
-745 828 2757
-745 837 2789
-734 834 2782
-719 827 2759
-708 823 2750
-701 825 2757
-690 822 2750
-679 819 2740
-669 817 2737
-659 815 2730
-651 815 2733
-643 815 2734
-632 812 2725
-626 814 2737
-614 810 2723
-607 812 2731
-596 808 2719
-588 807 2719
-580 807 2721
-571 807 2722
-561 803 2711
-551 801 2705
-541 798 2696
-516 773 2612
-461 702 2374
-445 689 2330
0 0 0
0 0 0
0 0 0
-417 688 2331
-399 670 2270
0 0 0
0 0 0
-370 655 2224
-338 610 2071
-337 618 2100
-341 637 2165
-355 675 2297
-358 695 2365
-332 658 2238
0 0 0
-304 628 2139
0 0 0
0 0 0
-308 678 2312
0 0 0
-273 629 2146
-279 657 2245
0 0 0
-256 636 2173
-246 627 2143
-240 627 2145
-239 642 2196
-228 629 2153
-231 656 2245
-223 652 2232
-208 627 2147
-211 654 2242
-204 654 2239
-200 662 2269
-185 634 2174
-184 655 2246
-174 642 2200
-165 632 2166
-156 623 2136
-152 633 2172
-145 629 2159
-141 638 2190
-134 639 2193
-124 622 2137
-119 628 2156
-118 658 2260
-109 641 2203
-103 642 2209
-92 615 2114
-91 650 2236
-78 608 2090
-78 653 2248
-71 657 2260
-64 645 2218
-55 628 2161
-48 617 2125
-42 626 2156
-38 657 2262
-32 674 2322
-26 689 2373
-19 687 2366
-12 696 2397
-5 714 2459
1 723 2492
8 728 2507
16 732 2523
23 734 2529
31 735 2533
38 733 2527
46 730 2515
53 728 2508
60 723 2491
67 722 2490
75 728 2511
82 722 2488
89 720 2482
97 725 2501
104 721 2487
111 719 2479
118 719 2477
126 719 2479
133 719 2479
140 718 2475
148 719 2478
155 717 2470
162 715 2464
169 714 2459
176 714 2461
184 716 2465
191 714 2458
197 712 2450
205 714 2458
212 712 2450
219 712 2451
226 710 2445
233 709 2441
241 710 2443
248 710 2444
255 709 2437
262 709 2439
269 709 2437
276 708 2435
282 705 2425
291 708 2434
297 706 2426
304 704 2420
312 707 2428
318 705 2420
325 704 2415
332 704 2415
338 701 2406
346 702 2408
354 704 2413
360 701 2402
367 701 2401
373 699 2396
380 699 2393
387 698 2390
395 700 2396
402 699 2392
409 698 2388
415 697 2384
422 697 2383
429 697 2381
436 696 2378
443 696 2377
452 699 2386
452 687 2345
463 693 2364
472 697 2374
476 691 2356
482 690 2352
491 692 2356
498 692 2354
504 691 2352
512 692 2352
518 690 2346
525 691 2346
531 689 2340
538 689 2338
546 690 2339
551 687 2330
559 688 2331
566 688 2330
573 688 2327
578 685 2317
586 687 2323
592 686 2317
600 686 2316
606 685 2311
614 686 2314
622 687 2316
631 689 2321
637 689 2318
642 686 2309
649 686 2306
654 683 2296
663 685 2300
668 683 2293
676 684 2294
682 684 2291
687 682 2282
697 684 2289
701 681 2278
703 676 2260
711 677 2261
714 674 2248
721 673 2244
729 674 2245
734 673 2240
742 673 2239
749 674 2239
756 673 2236
764 675 2238
771 675 2236
778 675 2235
791 680 2250
798 680 2248
803 678 2239
810 678 2238
816 677 2233
827 680 2240
831 678 2231
838 677 2228
842 676 2219
849 675 2215
857 676 2217
864 676 2214
872 677 2214
877 675 2207
885 676 2208
894 677 2210
900 676 2205
908 677 2205
912 675 2196
920 676 2195
926 675 2192
934 675 2189
941 676 2188
947 675 2183
955 676 2182
961 675 2179
964 672 2167
972 673 2166
982 675 2170
990 675 2169
1015 688 2206
1022 688 2203
1044 697 2231
1038 689 2201
1045 689 2198
1039 680 2168
1037 674 2146
1039 671 2133
1015 651 2065
996 634 2011
982 622 1967
782 492 1552
701 437 1378
703 436 1373
716 441 1386
717 439 1377
741 451 1412
838 506 1585
928 557 1744
934 558 1741
953 566 1763
943 556 1732
955 560 1740
962 560 1739
967 560 1735
968 557 1724
983 563 1738
989 562 1735
998 564 1738
1003 564 1733
1002 560 1719
1005 558 1711
-1385 786 2314
-1374 784 2313
-1366 784 2317
-1352 781 2310
-1337 776 2301
-1319 771 2288
-1312 771 2294
-1299 768 2288
-1292 768 2292
-1278 764 2285
-1266 761 2280
-1252 757 2273
-1236 752 2262
-1222 748 2254
-1217 750 2261
-1206 748 2259
-1195 745 2256
-1183 742 2250
-1170 738 2242
-1156 734 2233
-1148 734 2235
-1140 733 2236
-1135 735 2245
-1115 726 2222
-1107 726 2224
-1085 717 2199
-1076 715 2198
-1010 676 2081
-970 653 2013
-957 649 2002
-957 653 2020
-960 660 2042
-961 665 2063
-954 665 2063
-950 667 2073
-952 673 2094
-960 683 2129
-973 697 2176
-972 702 2193
-977 710 2221
-978 715 2243
-970 715 2245
-968 719 2260
-965 722 2271
-962 725 2284
-958 728 2295
-950 727 2295
-946 729 2306
-940 731 2313
-942 737 2337
-937 739 2347
-932 741 2354
-928 744 2366
-926 748 2384
-925 754 2403
-923 758 2420
-913 756 2416
-910 759 2429
-907 763 2444
-902 766 2455
-897 768 2465
-895 772 2482
-890 775 2494
-885 777 2503
-885 784 2528
-877 784 2530
-877 791 2554
-868 789 2552
-866 795 2573
-859 796 2579
-852 797 2584
-847 799 2595
-842 803 2608
-840 808 2627
-832 808 2631
-827 811 2643
-818 810 2640
-816 816 2664
-807 815 2663
-805 821 2685
-797 821 2688
-791 824 2697
-784 825 2703
-779 828 2717
-771 828 2720
-766 832 2735
-756 830 2731
-754 838 2757
-745 837 2757
-740 840 2769
-728 836 2757
-721 837 2764
-714 839 2772
-702 835 2760
-694 835 2763
-683 833 2757
-672 829 2746
-663 828 2746
-656 829 2751
-643 824 2734
-635 824 2737
-627 825 2740
-614 817 2719
-607 820 2728
-597 817 2721
-587 815 2715
-578 814 2713
-569 812 2709
-562 813 2714
-550 809 2700
-542 808 2701
-517 783 2616
-460 708 2368
-445 695 2324
0 0 0
-435 702 2349
-405 665 2228
-415 692 2320
-398 674 2262
-406 699 2346
-384 675 2265
0 0 0
-351 639 2145
-373 691 2322
-350 660 2221
-352 676 2276
-346 678 2282
-335 670 2257
0 0 0
-331 689 2323
0 0 0
-316 687 2316
0 0 0
0 0 0
0 0 0
-287 685 2313
-277 678 2289
0 0 0
-249 641 2168
-252 665 2250
0 0 0
-228 636 2152
-235 674 2282
-224 660 2237
-221 673 2279
-204 639 2163
-210 681 2307
-201 673 2281
-193 669 2270
-179 643 2181
-179 667 2262
-158 614 2083
-162 650 2207
-151 632 2146
-153 670 2277
-140 644 2186
-139 666 2264
-129 653 2217
-127 675 2294
-111 622 2113
-107 640 2176
-105 661 2250
-94 633 2153
-86 626 2129
-80 627 2133
-75 637 2167
-71 656 2231
-63 642 2186
-55 630 2145
-48 627 2135
-43 641 2184
-37 642 2187
-32 670 2283
-25 679 2312
-19 683 2328
-12 705 2403
-5 730 2488
1 730 2488
8 735 2507
16 732 2494
23 732 2496
31 735 2506
38 731 2492
46 738 2516
53 737 2514
60 735 2505
68 734 2502
75 731 2493
82 728 2483
88 718 2450
95 718 2448
104 730 2489
112 730 2488
118 726 2474
126 726 2476
133 726 2475
140 725 2472
148 726 2473
155 725 2471
162 724 2468
169 721 2459
177 724 2466
184 722 2461
191 724 2465
198 721 2456
205 721 2454
212 720 2452
219 719 2450
226 718 2443
234 720 2450
241 718 2444
248 718 2442
254 713 2426
262 717 2438
269 715 2432
277 717 2438
283 714 2429
290 713 2425
297 714 2426
305 714 2426
312 713 2422
318 711 2414
325 710 2411
333 711 2415
339 710 2408
347 711 2411
353 708 2403
361 710 2407
368 709 2404
375 709 2404
382 708 2400
389 708 2398
395 706 2389
402 707 2392
409 705 2386
417 706 2389
422 703 2378
430 704 2381
435 702 2370
444 705 2379
452 706 2382
453 695 2346
463 701 2364
472 703 2370
477 700 2359
483 699 2354
490 698 2350
497 698 2348
505 699 2351
510 696 2340
518 698 2345
525 697 2342
533 699 2346
538 695 2334
544 694 2330
552 696 2333
559 695 2328
566 695 2327
572 694 2323
580 696 2327
587 695 2325
593 693 2317
599 692 2311
609 695 2321
617 697 2324
626 698 2328
637 703 2342
639 698 2323
644 695 2312
652 696 2314
658 695 2308
665 695 2307
673 696 2309
676 691 2292
686 694 2300
692 693 2294
694 688 2276
696 683 2259
694 675 2229
700 674 2225
704 671 2213
711 671 2213
719 672 2214
726 672 2211
735 674 2216
741 673 2212
749 674 2213
756 674 2211
763 674 2209
774 678 2220
787 683 2235
797 686 2243
806 687 2246
813 687 2244
820 687 2241
828 688 2241
835 688 2240
842 687 2236
848 687 2233
855 687 2229
861 686 2224
870 688 2227
876 687 2224
882 686 2218
886 683 2207
893 684 2206
899 683 2201
906 682 2197
915 685 2202
919 682 2191
928 683 2193
934 683 2188
942 683 2188
951 684 2189
956 683 2183
962 682 2177
968 682 2172
973 680 2166
981 681 2165
988 681 2163
1010 691 2192
1049 713 2260
1020 689 2179
1041 698 2206
1049 698 2203
1039 687 2166
1038 682 2146
1037 676 2126
1012 656 2058
992 638 2001
944 603 1888
768 488 1522
718 453 1412
724 454 1412
715 445 1382
710 439 1362
752 462 1432
862 527 1630
931 565 1748
937 565 1746
943 565 1743
951 567 1745
961 569 1750
952 561 1720
962 563 1725
970 564 1725
983 568 1735
982 564 1721
984 562 1711
996 566 1719
1001 565 1715
1012 568 1720
-1394 799 2327
-1367 788 2298
-1364 791 2310
-1359 792 2320
-1334 783 2295
-1324 781 2295
-1315 780 2296
-1303 777 2292
-1288 773 2283
-1279 772 2284
-1269 771 2284
-1252 765 2271
-1238 761 2263
-1227 759 2260
-1224 761 2271
-1219 763 2280
-1198 754 2258
-1184 751 2251
-1169 745 2238
-1163 746 2245
-1154 745 2245
-1135 737 2225
-1128 738 2229
-1121 738 2232
-1103 731 2215
-1094 730 2215
-1089 731 2223
-1026 694 2112
-984 669 2041
-954 653 1994
-956 659 2016
-959 666 2038
-960 671 2057
-956 673 2066
-952 675 2074
-953 680 2094
-955 687 2117
-967 700 2161
-976 712 2200
-978 718 2222
-974 720 2233
-969 722 2241
-966 725 2254
-963 728 2266
-963 733 2286
-959 736 2295
-951 735 2297
-951 741 2317
-942 739 2315
-940 744 2332
-936 746 2341
-934 750 2359
-932 754 2374
-927 757 2384
-922 758 2392
-917 761 2403
-912 763 2412
-910 767 2427
-906 770 2439
-902 773 2453
-900 778 2471
-893 779 2475
-890 782 2490
-886 786 2504
-884 791 2523
-877 792 2527
-873 795 2541
-865 795 2544
-864 801 2564
-857 802 2571
-853 805 2584
-847 808 2594
-839 808 2596
-834 810 2607
-828 813 2617
-825 817 2632
-818 818 2640
-811 820 2646
-811 828 2675
-798 822 2660
-800 832 2695
-788 829 2685
-783 833 2700
-779 837 2716
-771 837 2719
-768 843 2740
-758 841 2735
-750 841 2740
-745 845 2752
-736 845 2755
-725 841 2744
-717 842 2750
-711 844 2759
-701 842 2754
-691 840 2750
-684 842 2758
-674 840 2752
-665 839 2751
-655 837 2746
-648 838 2752
-637 835 2743
-627 833 2739
-617 830 2732
-609 831 2734
-599 828 2726
-591 828 2728
-579 822 2712
-571 823 2717
-562 822 2713
-551 818 2703
-542 816 2697
-520 795 2630
-457 710 2347
-458 723 2392
-444 711 2355
-460 749 2483
-405 671 2225
-406 684 2269
0 0 0
-392 684 2269
-389 690 2293
-350 633 2101
-370 680 2260
-350 655 2179
-350 668 2223
-344 669 2227
-332 658 2189
-331 669 2229
-319 658 2193
0 0 0
-300 646 2154
-288 634 2114
-314 705 2354
-286 657 2192
-292 686 2292
-284 684 2287
-250 617 2060
-263 666 2228
-255 662 2213
-246 656 2194
-243 664 2224
-228 642 2149
-229 664 2224
-234 696 2332
-221 679 2277
-202 642 2151
-205 672 2252
-199 674 2262
-190 664 2227
-183 663 2225
-174 654 2196
-170 666 2235
-161 655 2200
-159 674 2266
-153 675 2268
-137 636 2138
-129 627 2109
-128 652 2191
-124 666 2239
-113 644 2165
-109 655 2204
-102 650 2187
-97 666 2241
-90 658 2215
-82 652 2193
-75 647 2178
-69 649 2185
-62 640 2156
-56 648 2183
-48 630 2120
-42 637 2144
-37 652 2197
-32 681 2293
-25 680 2292
-18 685 2308
-12 703 2369
-5 723 2437
1 736 2482
8 734 2476
16 738 2491
23 732 2468
31 737 2486
38 731 2467
45 738 2488
53 740 2496
61 745 2514
69 749 2528
77 759 2562
85 759 2560
89 731 2464
92 698 2354
103 726 2450
112 736 2483
119 735 2480
126 733 2473
133 733 2471
141 735 2479
147 731 2464
155 733 2471
162 731 2464
170 732 2467
176 729 2458
184 731 2463
191 728 2454
198 728 2453
205 728 2452
212 726 2446
220 727 2449
227 727 2447
235 728 2452
241 727 2447
248 723 2435
254 722 2431
263 726 2444
270 724 2437
276 723 2431
284 722 2430
291 722 2428
298 722 2426
304 720 2421
312 722 2426
318 719 2415
327 722 2424
333 720 2419
340 718 2412
348 721 2419
354 718 2410
360 715 2397
368 717 2403
374 714 2395
382 716 2399
389 715 2395
395 713 2389
402 714 2389
408 712 2382
417 714 2387
424 713 2385
430 713 2383
436 709 2371
444 711 2377
452 712 2378
448 696 2323
464 709 2364
472 710 2369
477 707 2356
485 708 2359
492 708 2360
496 704 2344
505 707 2352
512 706 2349
517 704 2339
525 704 2339
531 702 2333
540 705 2341
544 701 2327
554 704 2336
560 703 2330
566 702 2325
574 703 2327
580 702 2323
587 701 2320
594 702 2321
598 699 2308
610 703 2322
618 705 2326
629 709 2337
632 705 2322
638 704 2318
647 705 2320
652 703 2313
659 703 2311
666 703 2309
672 702 2303
678 700 2297
685 700 2296
692 700 2293
690 692 2264
688 683 2232
691 678 2217
693 674 2201
700 673 2197
708 674 2199
714 674 2195
719 672 2188
729 675 2195
735 675 2193
740 673 2186
748 674 2187
757 676 2191
767 678 2197
786 689 2231
799 694 2244
806 694 2244
810 692 2234
820 694 2239
829 696 2244
836 696 2240
838 691 2223
847 693 2227
854 693 2224
863 695 2228
875 699 2239
878 696 2227
880 691 2210
884 689 2201
893 690 2202
900 691 2201
904 688 2191
912 689 2191
921 690 2193
929 691 2193
932 688 2182
942 690 2185
948 690 2182
954 689 2176
959 687 2169
967 688 2170
974 688 2166
981 688 2162
990 689 2165
1033 714 2241
1029 707 2214
1030 703 2198
1040 704 2200
1046 703 2195
1041 696 2168
1038 689 2144
1037 683 2125
1009 660 2049
996 647 2006
908 586 1814
783 502 1550
718 458 1410
708 448 1378
712 448 1375
720 450 1380
756 469 1438
877 541 1657
930 570 1744
938 572 1746
947 574 1749
945 569 1731
965 578 1756
960 571 1733
972 574 1740
969 569 1723
979 572 1727
979 569 1715
989 571 1719
1005 577 1733
1004 573 1719
1012 574 1719
-1383 801 2306
-1384 806 2325
-1374 805 2325
-1358 800 2316
-1339 793 2301
-1338 797 2316
-1329 796 2318
-1306 787 2295
-1292 784 2289
-1275 778 2276
-1273 781 2288
-1257 776 2278
-1240 770 2265
-1229 768 2262
-1221 767 2265
-1202 760 2247
-1193 759 2246
-1185 758 2249
-1176 757 2249
-1160 752 2237
-1154 752 2242
-1138 747 2229
-1133 748 2236
-1117 742 2223
-1107 741 2221
-1095 737 2215
-1084 735 2211
-1051 718 2161
-992 682 2055
-958 663 2001
-958 667 2018
-958 672 2035
-963 680 2061
-957 680 2065
-950 680 2068
-949 684 2084
-955 693 2115
-960 702 2143
-975 718 2195
-976 724 2217
-975 728 2232
-975 733 2253
-966 732 2252
-962 735 2262
-957 736 2269
-955 740 2283
-949 741 2290
-947 745 2304
-947 750 2325
-940 751 2330
-935 753 2338
-933 757 2354
-932 762 2374
-927 764 2383
-918 763 2381
-926 775 2423
-912 770 2409
-911 776 2429
-904 776 2432
-902 781 2450
-898 784 2462
-893 786 2473
-888 789 2484
-887 794 2503
-880 795 2509
-877 799 2524
-873 803 2539
-868 806 2549
-863 808 2560
-857 810 2568
-848 809 2569
-841 810 2572
-838 815 2592
-832 816 2598
-829 821 2616
-820 821 2617
-817 826 2635
-811 827 2642
-805 829 2652
-799 832 2663
-798 840 2689
-791 840 2693
-789 847 2718
-776 842 2705
-768 843 2708
-763 846 2720
-757 848 2729
-746 845 2723
-739 847 2731
-732 848 2737
-723 848 2737
-715 848 2739
-705 846 2735
-698 848 2743
-689 846 2738
-681 846 2742
-673 847 2747
-664 847 2747
-653 842 2734
-646 844 2743
-638 845 2748
-626 840 2731
-615 836 2721
-611 841 2739
-599 837 2728
-594 840 2740
-583 838 2733
-574 836 2730
-567 837 2734
-555 832 2720
-542 825 2697
-520 804 2630
-454 712 2331
-453 722 2364
0 0 0
-388 639 2093
-404 676 2217
0 0 0
0 0 0
-373 657 2156
-381 682 2240
-364 663 2179
-382 709 2330
-358 678 2229
-364 701 2306
-354 695 2289
-330 662 2180
-331 677 2230
-319 665 2191
-319 678 2237
-317 689 2272
-303 674 2224
0 0 0
-295 685 2262
-281 669 2211
-287 697 2306
-282 702 2321
-259 662 2191
-256 671 2220
-259 698 2310
-242 670 2220
-246 698 2314
-234 685 2271
-228 686 2272
-228 706 2341
-213 682 2261
-202 667 2211
-205 699 2318
-188 666 2210
-182 667 2216
-179 679 2255
-175 692 2300
-160 659 2188
-156 669 2224
-152 677 2252
-141 661 2198
-135 662 2201
-125 646 2147
-127 689 2292
-116 664 2211
-109 663 2206
-106 688 2289
-96 662 2202
-89 658 2190
-78 628 2091
-78 675 2247
-67 640 2130
-63 662 2204
-55 644 2146
-49 654 2181
-42 648 2159
-35 637 2122
-32 685 2283
-25 696 2321
-19 706 2353
-12 712 2376
-5 718 2397
1 729 2431
9 743 2480
16 742 2475
23 740 2469
30 737 2458
38 746 2490
46 761 2539
55 781 2607
64 789 2633
71 783 2614
78 772 2577
85 770 2569
87 726 2421
91 694 2315
101 722 2411
112 744 2484
119 744 2485
126 742 2475
134 743 2481
141 742 2474
148 738 2463
155 738 2463
163 740 2468
170 740 2469
177 737 2460
184 736 2456
191 738 2462
199 738 2461
205 735 2449
213 736 2454
219 733 2443
227 736 2453
234 732 2440
242 736 2451
248 733 2441
256 733 2440
263 733 2441
269 731 2433
277 731 2432
284 731 2431
291 731 2432
298 730 2427
305 729 2424
313 730 2428
320 729 2422
326 728 2419
334 728 2418
339 725 2407
347 725 2408
354 725 2407
361 725 2406
368 723 2399
374 722 2396
382 724 2399
390 725 2403
395 721 2389
402 720 2384
409 720 2384
416 719 2380
423 720 2382
430 719 2380
437 719 2376
445 720 2379
452 719 2375
448 702 2317
465 717 2367
471 716 2361
477 714 2354
484 714 2354
491 713 2351
498 713 2348
506 715 2354
512 714 2349
519 712 2343
526 713 2344
532 711 2337
540 713 2340
547 712 2339
555 713 2339
559 710 2328
566 709 2324
573 710 2324
580 710 2323
586 708 2316
593 708 2316
601 708 2315
612 714 2331
618 712 2324
628 715 2334
636 716 2333
638 710 2314
643 708 2305
653 711 2313
658 709 2306
667 711 2311
673 709 2303
677 706 2291
685 707 2293
687 702 2276
689 697 2256
689 690 2233
691 685 2215
700 687 2219
705 686 2213
714 687 2216
720 686 2213
725 685 2206
733 686 2208
740 686 2205
747 686 2204
754 686 2202
761 686 2201
771 689 2207
788 698 2235
799 701 2243
806 701 2241
812 700 2236
822 703 2243
831 704 2245
836 703 2239
842 702 2233
847 700 2226
856 702 2228
866 704 2234
878 708 2243
881 705 2232
886 703 2223
888 699 2208
892 697 2199
903 699 2205
909 699 2201
915 698 2197
924 700 2198
927 697 2187
935 698 2187
945 699 2191
950 698 2184
955 696 2176
963 697 2176
966 695 2165
973 694 2162
979 694 2157
996 700 2176
1027 717 2226
1035 718 2224
1034 712 2204
1043 713 2204
1043 708 2186
1040 702 2163
1038 695 2141
1035 689 2118
1004 663 2037
998 655 2009
870 567 1736
745 482 1472
706 455 1385
706 452 1374
713 453 1377
717 453 1373
775 486 1473
888 554 1677
922 571 1728
942 580 1752
954 584 1760
945 575 1730
955 577 1735
960 577 1731
971 580 1738
977 580 1735
972 573 1712
987 579 1726
991 578 1720
1005 582 1731
1007 580 1721
1005 576 1706
-1390 813 2314
-1389 817 2331
-1364 806 2305
-1359 808 2315
-1341 802 2302
-1329 799 2298
-1322 800 2303
-1317 802 2313
-1295 793 2291
-1282 789 2285
-1265 784 2272
-1256 782 2273
-1249 783 2278
-1229 775 2259
-1228 779 2276
-1205 769 2250
-1203 773 2264
-1185 766 2248
-1180 767 2255
-1162 761 2240
-1154 760 2241
-1141 757 2234
-1125 750 2219
-1118 751 2223
-1110 750 2226
-1099 748 2221
-1089 745 2218
-1058 729 2173
-1000 694 2071
-966 675 2016
-955 672 2011
-959 679 2036
-959 684 2053
-957 687 2065
-955 691 2078
-951 692 2085
-953 698 2107
-962 710 2145
-976 725 2195
-978 732 2220
-972 733 2224
-973 739 2245
-965 738 2246
