VERSION 0.7
FIELDS x y z
SIZE 4 4 4
TYPE I I I
COUNT 1 1 1
WIDTH 3616
HEIGHT 1
VIEWPOINT 0.0 0.0 0.0 1.0 0.0 0.0 0.0
POINTS 3616
DATA ascii
704 369 1369
718 374 1387
717 371 1374
744 382 1414
848 433 1600
925 470 1734
937 473 1744
950 476 1754
952 474 1743
963 477 1750
972 478 1753
967 473 1731
984 479 1750
988 478 1743
992 477 1737
997 477 1733
1004 477 1731
-1361 664 2303
-1354 664 2307
-1339 660 2298
-1318 654 2280
-1309 653 2281
-1306 655 2293
-1283 647 2269
-1281 650 2283
-1266 646 2274
-1255 645 2271
-1245 643 2271
-1225 637 2250
-1218 637 2256
-1206 634 2250
-1200 635 2255
-1177 626 2229
-1175 629 2243
-1163 627 2239
-1154 626 2239
-1141 623 2230
-1132 622 2229
-1119 619 2222
-1110 617 2221
-1098 614 2214
-1032 582 2099
-978 555 2005
-964 550 1991
-960 552 1999
-971 562 2038
-967 563 2046
-961 564 2051
-960 567 2065
-960 570 2081
-964 577 2108
-977 589 2154
-969 588 2154
-973 594 2181
-976 600 2206
-977 605 2227
-977 609 2245
-974 612 2259
-968 613 2263
-963 614 2272
-961 617 2287
-956 619 2294
-958 624 2318
-952 625 2325
-950 629 2341
-942 628 2341
-942 633 2362
-935 633 2365
-931 635 2376
-936 644 2410
-923 641 2400
-922 644 2418
-917 646 2427
-913 649 2440
-911 653 2456
-907 655 2470
-906 660 2491
-901 662 2498
-895 663 2507
-894 668 2527
-890 671 2543
-882 671 2544
-877 673 2554
-876 678 2575
-873 682 2593
-868 684 2604
-863 686 2615
-859 690 2630
-850 689 2630
-846 692 2644
-843 696 2662
-836 696 2666
-828 697 2671
-824 700 2684
-818 702 2694
-812 703 2702
-810 710 2728
-799 707 2720
-792 708 2726
-787 710 2738
-780 711 2744
-774 714 2757
-770 718 2774
-760 716 2767
-755 719 2783
-748 720 2789
-737 718 2782
-726 716 2775
-714 712 2764
-704 710 2757
-695 709 2757
-686 708 2754
-677 708 2753
-667 705 2746
-657 704 2743
-650 705 2749
-640 703 2743
-632 703 2745
-622 701 2739
-613 700 2735
-604 700 2737
-595 698 2732
-585 696 2725
-574 693 2714
-568 695 2725
-558 693 2718
-551 694 2723
-537 687 2696
-446 580 2277
-445 587 2307
0 0 0
0 0 0
0 0 0
0 0 0
0 0 0
0 0 0
0 0 0
0 0 0
-362 555 2188
0 0 0
0 0 0
-339 549 2170
0 0 0
0 0 0
-324 556 2199
0 0 0
0 0 0
0 0 0
0 0 0
-279 533 2111
-271 529 2097
-280 558 2212
-278 568 2256
-267 559 2218
-269 577 2291
-255 560 2226
-256 577 2292
-238 552 2195
-235 560 2225
-237 580 2306
-215 543 2159
-217 565 2249
-201 540 2150
-194 538 2142
-194 556 2214
-188 557 2220
-181 555 2213
-176 562 2239
-169 560 2231
-161 552 2202
-152 545 2173
-148 554 2212
-140 549 2193
-136 559 2232
-127 548 2189
-121 551 2200
-114 547 2184
-109 554 2212
-99 532 2127
-94 543 2170
-89 551 2202
-83 553 2211
-76 547 2185
-69 548 2191
-61 534 2135
-57 551 2203
-50 543 2172
-43 546 2185
-38 566 2265
-33 591 2367
-27 602 2412
-21 618 2474
-14 632 2531
-6 628 2516
0 626 2507
8 624 2500
15 625 2506
22 623 2495
29 621 2488
36 607 2431
41 577 2313
47 562 2253
53 560 2243
60 563 2257
67 567 2270
75 574 2300
85 598 2398
95 616 2470
103 621 2487
110 621 2488
117 620 2486
124 617 2472
131 618 2475
138 616 2469
146 617 2471
153 616 2468
160 615 2466
167 616 2470
174 615 2465
182 617 2471
188 614 2458
196 614 2457
203 613 2455
210 613 2453
218 614 2460
225 614 2458
231 612 2451
238 611 2446
245 611 2443
253 611 2445
260 611 2443
266 609 2436
272 607 2426
281 610 2438
287 607 2428
293 606 2420
301 607 2424
309 607 2427
315 606 2422
322 606 2418
329 606 2418
337 606 2420
344 606 2417
350 605 2413
357 604 2408
363 602 2399
369 600 2392
377 602 2398
384 602 2397
390 600 2388
397 599 2386
405 601 2392
411 599 2385
419 600 2385
426 600 2387
432 598 2377
439 598 2376
446 598 2376
453 598 2373
460 598 2375
460 589 2338
473 596 2363
481 598 2371
487 596 2362
493 595 2358
500 595 2356
507 594 2353
513 593 2348
520 593 2345
527 594 2346
534 592 2341
540 592 2338
547 592 2335
554 592 2335
561 592 2335
568 591 2331
573 589 2321
581 591 2325
587 589 2318
594 589 2318
601 590 2319
606 587 2307
614 588 2311
623 590 2314
628 589 2309
636 589 2309
643 589 2307
650 589 2308
654 586 2294
660 586 2290
669 587 2293
675 586 2290
682 586 2288
690 587 2289
695 586 2282
701 585 2277
706 583 2268
715 584 2273
723 585 2275
730 585 2273
734 583 2261
742 584 2264
748 583 2260
755 583 2258
762 583 2256
767 581 2246
775 582 2250
782 582 2246
790 583 2249
795 582 2241
803 582 2242
810 582 2238
816 582 2236
824 583 2237
827 580 2224
838 582 2231
844 582 2228
850 581 2222
857 581 2220
863 580 2215
868 579 2209
878 581 2213
883 580 2207
891 581 2208
896 579 2199
905 581 2204
912 581 2201
920 581 2200
922 578 2187
934 581 2196
941 581 2193
946 580 2187
952 579 2183
961 580 2183
964 578 2173
970 577 2167
992 587 2200
983 577 2161
1008 587 2197
1024 593 2215
1023 588 2194
1039 593 2210
1047 594 2210
1042 586 2180
1035 579 2150
1037 576 2135
1027 566 2097
974 534 1973
993 541 1997
950 514 1895
762 409 1505
715 382 1401
722 383 1403
715 377 1378
715 374 1368
749 390 1424
854 442 1611
937 481 1755
932 476 1732
947 481 1746
957 483 1753
961 482 1747
969 483 1748
964 478 1726
980 483 1741
982 481 1730
990 482 1733
993 481 1725
1003 483 1729
-1356 669 2291
-1347 669 2294
-1337 667 2294
-1324 664 2288
-1316 664 2292
-1307 663 2293
-1288 658 2277
-1281 658 2281
-1270 656 2279
-1264 657 2285
-1244 650 2266
-1233 649 2264
-1224 647 2264
-1208 643 2252
-1197 641 2249
-1185 638 2244
-1169 634 2231
-1165 635 2239
-1157 635 2242
-1145 632 2237
-1127 626 2219
-1122 627 2226
-1114 627 2228
-1094 620 2205
-1046 596 2125
-994 571 2036
-961 555 1983
-962 559 2001
-966 565 2026
-968 570 2046
-968 574 2064
-962 575 2068
-954 574 2068
-963 583 2104
-973 593 2144
-975 598 2165
-972 601 2177
-974 606 2200
-977 613 2227
-974 615 2237
-973 619 2255
-969 621 2265
-966 623 2276
-960 624 2282
-957 627 2295
-952 628 2303
-950 631 2317
-945 633 2325
-946 639 2350
-942 641 2361
-940 644 2376
-936 646 2387
-930 648 2395
-928 651 2410
-924 653 2421
-918 655 2428
-916 659 2446
-911 661 2456
-907 663 2468
-905 667 2484
-901 669 2497
-895 671 2506
-890 673 2516
-890 679 2540
-886 681 2552
-878 682 2556
-879 688 2582
-872 689 2587
-866 691 2597
-862 693 2610
-860 698 2630
-850 697 2628
-846 700 2642
-842 703 2655
-833 702 2656
-830 706 2673
-827 711 2692
-819 711 2697
-816 715 2715
-805 713 2708
-801 717 2724
-795 719 2736
-790 721 2747
-784 723 2757
-775 723 2757
-769 725 2766
-763 727 2778
-754 727 2779
-746 728 2783
-740 729 2790
-726 723 2771
-714 720 2760
-703 717 2752
-696 719 2759
-686 717 2755
-676 715 2749
-669 716 2754
-659 714 2750
-650 713 2747
-642 713 2748
-632 712 2745
-623 711 2743
-612 708 2733
-604 707 2732
-596 707 2735
-586 705 2729
-578 705 2730
-568 704 2725
-560 703 2724
-551 702 2720
-538 696 2698
-459 603 2338
-445 594 2305
0 0 0
0 0 0
0 0 0
0 0 0
0 0 0
-394 579 2255
0 0 0
0 0 0
0 0 0
0 0 0
0 0 0
0 0 0
0 0 0
0 0 0
-357 620 2423
0 0 0
-323 583 2280
0 0 0
0 0 0
-303 583 2285
-291 574 2247
-267 540 2115
-286 590 2315
-269 570 2234
-266 578 2267
-236 527 2067
-241 552 2166
-245 574 2254
-235 566 2223
-219 543 2135
-218 557 2188
-216 569 2238
-210 569 2238
-200 562 2211
-196 567 2233
-190 571 2246
-177 549 2160
-173 556 2190
-164 548 2157
-159 552 2176
-150 545 2148
-146 552 2175
-141 560 2209
-130 542 2137
-130 565 2229
-122 560 2209
-115 559 2206
-110 565 2230
-101 554 2187
-94 549 2166
-89 558 2204
-83 562 2221
-77 562 2222
-69 550 2172
-63 555 2191
-56 554 2188
-50 551 2177
-43 545 2153
-38 568 2247
-34 608 2406
-27 617 2440
-20 625 2473
-13 634 2510
-6 634 2509
0 635 2512
8 637 2520
15 635 2513
22 632 2500
30 631 2497
37 626 2479
43 614 2431
48 588 2327
53 568 2247
60 568 2246
67 570 2255
74 575 2277
82 584 2313
92 607 2405
102 625 2474
110 626 2478
117 627 2482
124 627 2481
131 624 2470
139 626 2477
146 624 2469
153 625 2472
160 623 2464
168 624 2469
174 622 2460
182 622 2462
189 623 2464
196 623 2463
203 621 2458
211 622 2461
217 620 2451
224 619 2447
232 620 2452
238 617 2439
246 619 2447
253 619 2445
261 620 2450
267 618 2441
273 615 2430
281 618 2440
287 615 2427
295 615 2428
301 613 2419
308 613 2418
315 613 2420
322 612 2413
330 613 2419
336 612 2412
344 612 2414
351 613 2415
357 610 2403
365 612 2410
371 611 2406
378 611 2404
385 609 2397
391 609 2394
399 609 2397
405 607 2388
413 609 2392
421 610 2397
426 607 2386
433 606 2381
439 605 2376
446 605 2375
454 606 2378
463 608 2385
460 596 2334
475 606 2375
481 604 2365
485 601 2352
493 602 2354
500 602 2354
507 601 2351
514 601 2348
520 601 2346
526 599 2337
534 599 2340
540 599 2337
547 599 2335
554 598 2332
560 597 2325
567 598 2328
574 597 2324
582 598 2328
588 597 2320
596 598 2323
603 598 2322
608 596 2313
614 595 2309
621 595 2308
629 596 2308
635 595 2305
641 594 2298
649 595 2301
657 596 2302
662 594 2294
670 595 2295
675 594 2289
683 594 2290
689 593 2283
694 591 2276
704 594 2285
709 592 2276
717 593 2279
724 593 2276
729 591 2268
737 593 2271
744 592 2268
751 592 2266
754 589 2252
764 591 2258
770 591 2254
775 589 2247
784 591 2251
788 589 2242
797 590 2245
805 591 2246
811 590 2240
816 589 2234
822 588 2228
830 589 2230
838 589 2231
844 588 2225
850 588 2220
856 587 2216
863 587 2215
867 585 2203
878 588 2213
886 589 2213
891 587 2206
898 587 2203
904 586 2197
912 588 2200
918 587 2194
927 588 2196
933 587 2191
941 588 2192
945 586 2183
956 588 2189
959 586 2178
964 585 2170
972 585 2170
975 583 2158
985 585 2162
995 587 2168
1019 597 2201
1052 612 2254
1037 599 2204
1050 602 2213
1042 593 2179
1037 587 2152
1038 584 2137
1027 574 2097
972 539 1967
1000 551 2009
917 502 1827
731 397 1442
717 388 1404
708 380 1376
713 380 1374
708 375 1353
757 399 1438
874 457 1647
932 485 1744
943 488 1752
959 492 1767
955 488 1747
959 487 1740
963 486 1735
976 489 1745
978 487 1736
984 488 1734
991 488 1733
1003 491 1740
1009 491 1738
-1348 673 2277
-1356 681 2306
-1340 677 2297
-1331 676 2299
-1315 671 2288
-1298 667 2275
-1291 667 2281
-1278 664 2274
-1268 662 2273
-1256 660 2269
-1245 658 2266
-1227 653 2251
-1226 656 2266
-1214 654 2262
-1196 648 2244
-1194 650 2258
-1176 645 2243
-1165 643 2238
-1153 640 2232
-1149 642 2243
-1135 638 2233
-1122 635 2224
-1110 632 2217
-1099 629 2212
-1064 614 2160
-997 579 2040
-963 563 1986
-956 562 1987
-963 570 2018
-966 576 2041
-963 578 2051
-962 581 2065
-956 581 2070
-959 587 2094
-969 598 2134
-970 603 2154
-973 608 2178
-975 614 2201
-979 621 2228
-974 622 2237
-971 624 2247
-970 628 2265
-965 630 2273
-961 632 2284
-956 633 2291
-957 638 2312
-952 640 2321
-950 644 2337
-942 643 2339
-942 648 2358
-933 647 2357
-932 652 2377
-932 656 2398
-927 658 2405
-921 659 2413
-917 662 2424
-915 666 2442
-908 666 2445
-909 672 2472
-902 672 2475
-898 675 2488
-897 680 2508
-895 684 2527
-889 685 2534
-888 691 2556
-882 692 2565
-877 695 2577
-872 697 2588
-869 701 2602
-863 702 2611
-859 705 2626
-852 706 2632
-846 708 2641
-840 709 2647
-836 713 2664
-828 714 2668
-824 716 2681
-816 717 2686
-814 722 2708
-808 724 2715
-804 728 2734
-793 726 2728
-787 727 2734
-781 729 2745
-778 735 2767
-768 732 2761
-762 735 2772
-751 732 2766
-746 736 2781
-739 737 2786
-728 734 2778
-715 729 2762
-705 728 2757
-696 727 2758
-685 725 2750
-675 723 2744
-668 724 2750
-660 723 2751
-648 720 2738
-640 720 2741
-632 720 2744
-622 718 2736
-615 719 2743
-605 717 2738
-596 716 2733
-588 717 2739
-578 714 2729
-570 715 2734
-560 711 2722
-550 710 2718
-540 707 2709
-468 622 2385
-432 584 2238
0 0 0
0 0 0
0 0 0
0 0 0
0 0 0
0 0 0
0 0 0
0 0 0
0 0 0
0 0 0
0 0 0
0 0 0
0 0 0
-336 579 2234
-321 564 2178
-331 593 2290
-310 567 2189
-294 549 2123
-311 593 2293
-291 568 2197
-284 567 2192
-299 610 2363
-273 570 2208
-271 581 2250
-265 581 2253
-249 560 2172
-252 583 2260
-228 543 2105
-229 560 2174
-225 566 2197
-216 559 2172
-216 575 2233
-212 582 2263
-205 581 2259
-191 561 2180
-186 563 2191
-178 560 2179
-172 562 2185
-164 556 2163
-158 556 2163
-153 563 2190
-150 573 2232
-140 560 2181
-133 560 2182
-128 563 2195
-119 552 2152
-112 549 2140
-109 565 2203
-102 567 2211
-95 562 2191
-90 571 2229
-83 565 2205
-78 576 2249
-70 564 2202
-64 574 2242
-57 570 2227
-50 562 2195
-44 565 2208
-39 588 2298
-34 611 2387
-27 622 2432
-21 637 2488
-13 641 2506
-6 642 2511
0 642 2510
8 641 2507
15 641 2506
22 640 2504
30 640 2501
37 637 2491
44 634 2478
50 621 2428
55 594 2321
60 575 2248
67 577 2256
74 580 2267
82 592 2313
92 610 2387
102 631 2470
110 636 2486
117 634 2481
125 635 2482
132 633 2476
139 633 2473
146 632 2472
153 631 2467
160 631 2466
168 631 2468
175 630 2463
182 629 2459
188 628 2453
196 629 2458
204 630 2462
211 629 2457
217 626 2446
225 628 2452
231 626 2443
239 627 2449
245 623 2434
253 625 2441
260 626 2443
267 624 2436
274 624 2434
281 623 2431
288 623 2430
294 621 2422
302 622 2426
308 620 2416
315 620 2415
323 621 2419
329 620 2413
337 621 2418
343 619 2411
350 618 2405
358 619 2410
364 618 2404
371 618 2403
379 618 2404
386 618 2403
391 615 2391
399 616 2394
406 617 2395
411 613 2382
419 615 2386
425 613 2378
431 612 2372
438 611 2370
447 613 2376
455 614 2381
462 615 2380
460 603 2333
475 613 2373
480 611 2362
488 611 2364
495 611 2362
500 609 2352
507 608 2349
515 609 2352
521 609 2348
527 607 2341
535 608 2345
540 606 2336
548 607 2337
555 606 2334
561 606 2330
567 605 2326
575 605 2325
580 604 2319
589 605 2324
594 603 2315
600 602 2310
610 605 2319
614 602 2307
622 603 2309
628 602 2305
635 602 2304
643 603 2304
649 602 2298
656 602 2299
663 602 2297
668 600 2287
676 601 2290
682 600 2285
689 600 2283
695 599 2278
701 599 2275
710 600 2277
717 600 2276
724 600 2275
731 600 2272
735 598 2262
743 598 2264
753 600 2269
756 598 2258
763 597 2254
771 598 2255
776 597 2248
784 597 2248
791 597 2246
797 597 2244
806 598 2247
813 598 2244
816 596 2233
826 597 2237
832 597 2233
839 597 2231
845 596 2225
851 595 2222
856 594 2215
863 594 2213
869 594 2208
878 595 2211
886 595 2211
893 596 2209
901 596 2209
903 593 2193
911 593 2193
920 595 2198
924 593 2189
936 596 2196
940 594 2188
947 594 2185
957 596 2189
960 594 2178
965 592 2171
971 592 2166
975 590 2158
987 593 2165
988 590 2151
1022 606 2207
1049 617 2246
1041 608 2211
1046 607 2204
1046 603 2185
1035 593 2145
1040 591 2138
1021 577 2083
974 546 1969
1004 560 2015
886 491 1764
726 399 1431
716 391 1401
708 384 1374
703 379 1354
724 388 1383
768 409 1457
879 465 1656
936 492 1750
941 492 1747
954 496 1756
955 493 1744
955 491 1733
964 492 1735
972 493 1736
978 493 1733
985 494 1733
997 497 1741
997 494 1729
1003 494 1726
-1380 697 2329
-1338 680 2275
-1342 685 2299
-1327 681 2289
-1306 674 2270
-1293 672 2265
-1289 673 2275
-1273 669 2264
-1265 669 2267
-1247 663 2251
-1241 664 2257
-1227 660 2249
-1217 659 2248
-1213 660 2257
-1203 659 2256
-1189 656 2248
-1183 656 2253
-1167 651 2240
-1159 651 2242
-1145 647 2232
-1132 643 2224
-1122 642 2223
-1111 640 2219
-1101 638 2216
-1071 625 2174
-1009 593 2063
-967 572 1993
-960 571 1994
-962 576 2015
-966 583 2040
-964 585 2052
-958 585 2056
-958 590 2073
-961 595 2097
-969 604 2131
-978 614 2169
-969 613 2167
-973 620 2195
-980 629 2230
-974 629 2235
-971 632 2246
-970 636 2263
-963 636 2267
-961 639 2283
-959 642 2296
-951 642 2296
-952 648 2321
-950 651 2336
-945 653 2344
-940 654 2351
-940 659 2374
-932 658 2373
-925 659 2378
-922 662 2392
-921 666 2410
-918 670 2426
-916 674 2443
-912 676 2454
-907 678 2464
-905 682 2481
-898 683 2487
-897 688 2508
-889 688 2509
-885 691 2523
-885 697 2547
-881 700 2561
-879 705 2581
-869 702 2575
-864 705 2587
-860 708 2600
-861 715 2630
-852 715 2631
-845 716 2636
-841 719 2651
-833 718 2652
-832 725 2677
-825 726 2684
-817 726 2686
-811 728 2697
-808 733 2715
-802 735 2726
-794 734 2726
-786 735 2730
-783 740 2751
-774 739 2752
-768 741 2762
-761 743 2769
-753 743 2772
-748 746 2786
-739 745 2784
-724 738 2761
-715 738 2762
-707 739 2765
-696 735 2754
-687 734 2753
-677 732 2747
-668 732 2749
-659 731 2747
-649 729 2740
-643 731 2752
-633 730 2748
-626 731 2752
-614 726 2738
-606 727 2740
-597 726 2738
-589 725 2739
-579 723 2733
-570 722 2729
-560 719 2721
-551 719 2720
-538 712 2696
-474 637 2414
-435 595 2253
-453 628 2380
0 0 0
0 0 0
0 0 0
0 0 0
-390 588 2232
0 0 0
0 0 0
-374 593 2255
0 0 0
0 0 0
0 0 0
0 0 0
0 0 0
0 0 0
-326 592 2258
0 0 0
0 0 0
0 0 0
0 0 0
-299 604 2308
-268 554 2119
0 0 0
-273 592 2268
-251 558 2136
-245 558 2136
-250 584 2240
-247 592 2271
-238 589 2257
-220 559 2146
-207 542 2078
-218 586 2250
-200 557 2137
-203 583 2237
-188 558 2142
-189 579 2226
-177 564 2167
-177 585 2247
-173 592 2277
-159 566 2176
-155 575 2213
-147 569 2188
-145 587 2260
-129 550 2118
-127 567 2181
-124 581 2238
-113 562 2166
-107 564 2171
-103 574 2211
-96 574 2212
-90 580 2234
-82 565 2177
-76 571 2202
-68 554 2137
-64 574 2215
-55 558 2153
-52 592 2283
-44 576 2221
-38 587 2267
-33 610 2356
-27 620 2393
-20 638 2464
-13 640 2473
-6 650 2510
0 649 2508
8 650 2510
15 649 2507
23 649 2509
30 646 2496
37 646 2496
45 646 2497
51 640 2474
58 628 2428
61 595 2297
68 589 2273
76 599 2316
85 621 2401
94 635 2454
103 642 2482
110 643 2485
117 640 2475
124 641 2475
132 641 2479
139 640 2472
146 639 2470
154 641 2478
160 639 2469
168 638 2465
175 638 2465
182 639 2466
190 639 2467
196 635 2454
204 638 2463
210 635 2452
217 635 2451
225 634 2449
232 635 2450
239 635 2449
246 634 2444
252 631 2435
259 631 2435
267 632 2435
274 632 2436
281 631 2432
289 632 2435
294 627 2417
302 631 2429
309 630 2425
316 628 2420
323 628 2416
329 626 2411
337 627 2414
344 628 2415
351 626 2409
357 625 2404
364 624 2400
370 624 2396
379 625 2402
386 626 2404
392 623 2391
398 623 2389
406 623 2389
414 624 2393
420 622 2386
425 620 2376
432 620 2374
439 619 2371
446 620 2373
457 624 2390
464 625 2391
464 614 2350
474 619 2367
480 617 2359
488 618 2362
495 619 2362
500 615 2347
507 616 2350
514 615 2346
521 615 2345
529 617 2349
536 616 2346
541 614 2337
547 613 2330
555 613 2332
560 612 2326
569 613 2330
573 611 2319
582 612 2322
588 612 2320
595 611 2316
601 611 2313
608 610 2311
615 610 2309
624 612 2313
629 610 2306
636 610 2305
642 609 2299
648 608 2293
656 609 2295
664 610 2298
668 607 2287
678 610 2294
683 608 2286
689 607 2281
696 607 2279
704 608 2280
709 606 2272
716 606 2272
723 606 2268
732 607 2273
736 605 2263
743 606 2263
750 606 2261
756 605 2256
764 605 2257
772 606 2257
777 605 2250
783 603 2244
790 604 2242
799 605 2247
806 606 2246
812 605 2241
816 602 2230
827 605 2240
833 604 2233
838 603 2226
846 604 2227
851 602 2220
859 603 2220
865 602 2216
870 601 2209
877 601 2205
887 603 2211
892 602 2204
900 602 2204
904 600 2195
915 603 2202
920 602 2195
928 602 2196
934 602 2190
942 602 2191
948 602 2185
955 602 2184
960 601 2177
963 598 2165
986 608 2198
976 597 2157
986 600 2163
1008 608 2192
1029 617 2219
1058 629 2263
1039 614 2205
1051 617 2212
1041 607 2172
1037 601 2148
1039 598 2135
1022 584 2083
976 554 1972
1011 570 2028
857 480 1704
736 410 1450
709 392 1386
715 393 1386
715 390 1376
743 403 1419
782 421 1481
901 482 1695
937 499 1751
942 498 1746
950 500 1748
952 497 1738
965 501 1749
961 496 1728
974 500 1739
972 496 1721
985 499 1731
988 498 1723
996 499 1725
1009 503 1735
-1334 681 2249
-1336 686 2268
-1340 692 2294
-1332 692 2296
-1308 683 2272
-1300 683 2275
-1277 675 2251
-1282 681 2277
-1264 676 2262
-1254 674 2263
-1237 669 2248
-1232 670 2256
-1216 666 2244
-1207 665 2245
-1193 661 2237
-1185 660 2238
-1173 658 2233
-1173 662 2250
-1158 657 2238
-1140 651 2221
-1135 652 2228
-1123 650 2223
-1107 644 2208
-1105 648 2222
-1082 638 2193
-1018 604 2080
-977 584 2012
-962 579 1998
-961 582 2012
-965 589 2037
-964 592 2050
-960 593 2059
-958 596 2073
-956 599 2084
-965 609 2121
-973 618 2156
-973 622 2175
-978 630 2205
-983 638 2235
-974 636 2233
-973 640 2249
-970 643 2262
-972 649 2285
-964 648 2286
-958 649 2294
-953 651 2300
-953 656 2322
-951 659 2337
-940 657 2330
-937 659 2343
-934 663 2358
-934 668 2378
-933 672 2397
-926 673 2402
-919 673 2405
-919 678 2426
-917 682 2444
-911 684 2452
-905 684 2457
-904 690 2478
-899 691 2487
-894 694 2499
-895 700 2524
-886 699 2523
-884 704 2541
-882 709 2562
-875 709 2567
-871 712 2580
-865 714 2588
-861 717 2603
-858 721 2620
-856 726 2641
-850 727 2648
-839 726 2644
-837 731 2664
-830 731 2669
-827 735 2687
-821 738 2699
-818 742 2717
-807 740 2709
-803 744 2726
-793 742 2723
-789 746 2741
-785 750 2757
-777 750 2759
-772 753 2772
-760 750 2764
-757 755 2783
-745 751 2772
-740 755 2786
-729 752 2778
-715 746 2758
-704 744 2751
-695 743 2750
-686 742 2749
-676 740 2744
-669 741 2749
-660 741 2750
-651 739 2745
-641 738 2743
-631 735 2735
-623 736 2738
-613 733 2731
-605 734 2734
-596 733 2733
-586 730 2724
-577 729 2722
-570 730 2727
-560 728 2723
-553 730 2728
-538 720 2694
-487 662 2477
-444 613 2295
0 0 0
0 0 0
0 0 0
0 0 0
0 0 0
0 0 0
0 0 0
0 0 0
0 0 0
0 0 0
-342 569 2139
-358 607 2285
0 0 0
0 0 0
-324 583 2197
-350 642 2421
-307 575 2170
0 0 0
-286 559 2110
-285 569 2148
-277 566 2139
-281 587 2219
-271 579 2191
-264 579 2189
-266 597 2260
-247 569 2153
-247 585 2214
-244 593 2247
-227 568 2151
-224 575 2181
-221 585 2217
-218 594 2252
-207 582 2207
-197 571 2166
-187 563 2137
-191 593 2251
-174 561 2128
-170 568 2158
-164 567 2154
-167 601 2285
-152 572 2176
-147 576 2190
-138 567 2156
-133 574 2183
-126 570 2169
-126 597 2273
-114 575 2190
-105 562 2138
-101 572 2178
-94 569 2167
-89 579 2205
-82 575 2190
-77 583 2222
-69 575 2193
-63 577 2199
-56 574 2186
-50 573 2185
-43 573 2186
-39 599 2284
-33 614 2340
-27 629 2401
-20 636 2428
-13 634 2418
-6 651 2484
0 655 2501
8 656 2506
15 657 2509
23 658 2512
30 654 2498
37 654 2498
45 656 2504
52 652 2490
59 646 2466
64 631 2408
69 612 2336
78 627 2395
88 648 2473
95 649 2478
103 651 2487
110 648 2475
117 648 2475
125 650 2481
132 649 2478
139 647 2471
146 648 2475
153 645 2464
160 646 2464
168 647 2468
175 646 2466
182 646 2464
189 643 2455
196 642 2451
204 644 2458
211 643 2454
217 642 2447
224 641 2445
232 643 2450
239 643 2451
246 640 2440
253 641 2444
260 641 2441
266 638 2430
275 641 2440
281 639 2433
289 639 2433
295 638 2429
302 638 2427
309 637 2425
317 637 2424
324 637 2423
331 637 2421
337 634 2411
345 636 2416
350 633 2404
359 635 2411
363 631 2396
370 630 2393
377 629 2388
385 631 2394
393 632 2399
399 630 2389
406 631 2391
413 630 2387
419 628 2380
426 629 2381
434 629 2380
441 629 2379
447 627 2372
457 631 2387
462 629 2376
462 619 2339
476 629 2374
480 625 2359
488 626 2362
495 626 2361
501 624 2353
506 622 2343
514 623 2346
521 623 2346
528 622 2342
537 624 2349
541 621 2334
549 622 2340
554 620 2329
561 620 2327
568 620 2326
574 618 2320
582 620 2324
589 620 2322
595 618 2315
602 618 2312
610 619 2317
616 618 2312
623 617 2307
629 616 2302
637 618 2307
642 616 2299
649 616 2295
658 618 2302
663 616 2293
669 615 2289
677 616 2289
684 615 2287
690 615 2283
697 615 2281
702 613 2274
711 615 2277
717 614 2273
725 615 2274
730 613 2267
740 616 2275
743 612 2260
754 616 2271
759 614 2263
765 613 2257
772 613 2256
777 612 2248
787 613 2253
792 612 2247
800 613 2249
807 613 2245
809 609 2230
819 612 2237
825 611 2232
834 612 2234
839 611 2228
846 611 2226
852 610 2219
859 610 2218
863 608 2209
871 609 2210
878 609 2208
884 608 2203
891 608 2200
900 610 2204
906 609 2199
916 611 2203
921 609 2197
931 611 2202
936 610 2192
941 609 2186
947 608 2181
955 609 2182
960 607 2174
968 608 2175
993 619 2213
977 605 2159
990 608 2168
1013 619 2202
1015 615 2188
1035 623 2213
1041 622 2207
1047 622 2202
1039 613 2168
1036 607 2144
1041 606 2137
1013 586 2063
975 560 1968
1005 573 2014
832 471 1652
714 402 1404
711 397 1388
713 396 1380
727 402 1398
731 401 1394
800 436 1515
913 494 1716
929 500 1733
947 507 1753
954 507 1753
957 506 1745
954 501 1727
961 502 1727
970 504 1730
984 508 1741
986 506 1732
992 506 1729
999 506 1728
1000 504 1718
-1351 697 2275
-1362 707 2311
-1334 697 2281
-1310 688 2257
-1303 688 2261
-1281 681 2240
-1283 686 2261
-1271 683 2257
-1263 682 2258
-1247 678 2248
-1248 682 2266
-1222 672 2237
-1225 678 2258
-1211 674 2251
-1191 667 2229
-1190 671 2245
-1175 666 2234
-1163 664 2230
-1156 664 2233
-1148 663 2235
-1140 663 2237
-1121 656 2217
-1119 659 2230
-1109 657 2228
-1092 652 2212
-1036 622 2115
-981 593 2018
-961 585 1995
-961 588 2009
-965 595 2034
-966 600 2054
-961 600 2059
-955 601 2064
-956 606 2083
-961 613 2111
-973 625 2155
-973 630 2174
-972 633 2189
-978 642 2222
-974 643 2231
-971 646 2244
-968 649 2256
-970 655 2279
-960 653 2275
-961 658 2297
-955 659 2303
-946 658 2302
-948 664 2326
-943 666 2335
-937 667 2342
-934 670 2356
-934 675 2377
-924 674 2373
-928 682 2404
-920 681 2405
-919 686 2425
-916 689 2438
-909 690 2444
-903 691 2451
-905 698 2480
-896 697 2479
-898 705 2508
-891 705 2511
-890 710 2532
-887 714 2550
-879 714 2550
-878 719 2573
-872 721 2580
-868 724 2596
-862 726 2605
-856 728 2613
-851 730 2623
-846 733 2637
-844 738 2656
-835 737 2655
-833 742 2676
-824 742 2678
-819 744 2688
-814 748 2704
-808 749 2712
-804 753 2729
-798 755 2738
-787 753 2732
-781 755 2742
-778 760 2761
-772 762 2772
-760 759 2761
-753 759 2766
-745 760 2772
-740 764 2787
-726 758 2768
-717 756 2764
-703 751 2746
-695 752 2750
-688 753 2756
-676 748 2742
-670 750 2751
-662 751 2754
-652 749 2748
-642 747 2743
-632 745 2738
-624 746 2743
-615 745 2741
-604 741 2728
-596 741 2732
-587 739 2726
-581 742 2739
-569 738 2724
-560 737 2722
-549 733 2709
-537 728 2690
-491 676 2499
-443 620 2292
-419 594 2200
0 0 0
0 0 0
0 0 0
0 0 0
0 0 0
0 0 0
0 0 0
0 0 0
-360 594 2208
0 0 0
-373 640 2381
-360 629 2343
0 0 0
-329 598 2229
-297 551 2052
-314 594 2214
0 0 0
-304 600 2239
0 0 0
-292 603 2251
-299 632 2360
-255 552 2060
-262 580 2169
-265 601 2249
-256 596 2230
-259 620 2320
-246 604 2262
-228 577 2162
-229 595 2230
-215 574 2152
-210 579 2171
-206 587 2202
-193 567 2127
-190 578 2169
-188 590 2213
-179 584 2190
-175 590 2215
-167 586 2199
-161 588 2209
-150 570 2141
-148 587 2206
-140 579 2178
-137 597 2244
-126 578 2173
-121 583 2193
-117 596 2242
-105 564 2122
-100 576 2167
-95 579 2178
-90 594 2234
-84 592 2228
-73 560 2106
-70 588 2216
-62 573 2158
-57 584 2201
-52 601 2264
-42 561 2112
-38 599 2259
-33 618 2329
-26 630 2375
-20 635 2393
-12 632 2385
-6 658 2482
1 666 2513
8 664 2506
15 664 2506
23 664 2505
30 663 2500
37 663 2502
45 663 2500
52 661 2495
59 661 2494
66 658 2482
73 647 2443
80 652 2460
89 660 2490
96 658 2482
103 659 2487
110 657 2480
117 656 2477
125 658 2483
132 658 2481
139 655 2473
146 655 2472
153 654 2466
161 655 2469
168 654 2468
175 654 2468
182 653 2463
189 653 2461
197 652 2458
204 652 2460
211 652 2457
218 652 2458
225 650 2449
232 649 2444
239 649 2445
246 649 2444
253 648 2441
260 648 2440
268 648 2438
275 648 2438
281 646 2432
289 646 2432
295 644 2423
302 644 2424
310 645 2426
316 642 2414
324 644 2420
331 643 2418
337 642 2411
344 641 2409
350 640 2403
358 640 2404
364 640 2401
372 641 2404
379 640 2401
385 639 2395
392 637 2390
399 638 2390
407 638 2391
414 638 2391
420 637 2384
427 636 2381
435 637 2384
439 633 2369
448 636 2376
458 639 2390
461 634 2368
464 629 2347
476 635 2369
482 633 2363
488 632 2358
494 631 2352
501 631 2351
510 633 2359
515 631 2349
521 629 2340
530 631 2348
536 630 2341
543 630 2340
549 628 2334
556 629 2334
562 628 2329
569 627 2327
576 628 2327
583 628 2326
589 626 2319
596 626 2317
603 626 2314
607 623 2303
616 625 2309
623 625 2308
629 624 2302
637 625 2303
643 624 2300
649 623 2294
656 623 2292
663 623 2292
671 624 2294
678 623 2290
684 623 2287
692 624 2288
697 622 2281
705 622 2280
712 623 2279
717 621 2271
725 622 2274
732 621 2270
738 620 2264
745 621 2264
752 621 2263
759 620 2259
767 622 2263
770 618 2248
777 618 2246
786 620 2251
791 618 2242
798 618 2241
807 620 2243
812 618 2236
819 618 2235
827 619 2235
834 619 2232
838 617 2223
846 617 2223
852 617 2220
858 616 2215
863 614 2206
870 615 2205
880 617 2209
887 617 2207
891 615 2198
903 618 2207
907 616 2199
912 615 2193
921 616 2194
930 617 2196
932 614 2182
942 616 2188
950 617 2187
955 615 2179
960 614 2172
967 614 2169
973 613 2165
978 613 2159
990 616 2167
1011 624 2194
1043 639 2245
1033 629 2207
1043 631 2210
1046 628 2199
1041 621 2170
1038 615 2146
1040 612 2133
1010 590 2054
986 573 1990
1002 578 2005
817 468 1620
729 415 1434
718 406 1401
683 384 1321
724 404 1391
750 416 1429
819 452 1551
920 504 1728
938 511 1749
947 512 1752
952 512 1748
952 509 1735
956 508 1729
971 513 1744
975 512 1737
981 512 1734
980 508 1720
989 510 1723
999 512 1727
1001 510 1718
-1371 716 2307
-1353 710 2294
-1343 709 2294
-1312 697 2259
-1302 695 2258
-1297 697 2266
-1283 693 2258
-1269 690 2251
-1270 694 2270
-1241 682 2236
-1239 685 2249
-1234 687 2257
-1215 680 2239
-1210 681 2246
-1207 684 2259
-1187 677 2239
-1179 676 2241
-1169 674 2238
-1156 671 2232
-1143 668 2224
-1134 666 2223
-1119 662 2212
-1108 660 2208
-1107 663 2222
-1092 658 2209
-1045 634 2132
-989 605 2034
-958 590 1987
-960 595 2006
-965 602 2034
-964 605 2048
-961 607 2057
-957 609 2067
-953 610 2075
-961 620 2110
-965 627 2137
-973 636 2171
-975 642 2195
-978 649 2220
-974 651 2231
-972 654 2243
-971 658 2260
-964 658 2264
-961 661 2276
-959 665 2292
-960 670 2313
-950 668 2310
-949 673 2328
-946 675 2341
-939 676 2344
-936 679 2359
-934 683 2374
-929 684 2382
-921 684 2385
-923 691 2412
-918 692 2419
-916 697 2437
-908 696 2438
-905 700 2455
-905 706 2478
-900 708 2487
-896 711 2500
-892 713 2512
-890 718 2530
-885 721 2542
-879 722 2549
-874 724 2560
-870 728 2575
-866 730 2587
-859 731 2593
-854 734 2603
-852 739 2624
-844 739 2628
-843 745 2652
-836 746 2657
-830 748 2667
-823 749 2673
-819 753 2689
-815 756 2702
-809 758 2713
-802 760 2721
-795 760 2725
-787 761 2728
-781 763 2739
-778 768 2760
-768 767 2757
-761 768 2762
-752 767 2763
-749 773 2785
-736 768 2770
-727 767 2768
-716 764 2759
-704 760 2748
-696 761 2751
-685 758 2743
-677 758 2746
-669 758 2746
-661 758 2748
-653 758 2752
-641 755 2741
-634 756 2745
-626 756 2748
-615 753 2738
-605 751 2733
-597 750 2731
-588 749 2730
-580 749 2731
-569 746 2721
-560 745 2719
-551 744 2717
-537 735 2686
-498 693 2533
-436 616 2252
0 0 0
0 0 0
0 0 0
0 0 0
-388 594 2176
-405 630 2312
-404 640 2350
0 0 0
0 0 0
0 0 0
-362 615 2261
-341 591 2172
-357 631 2321
-325 586 2157
-341 627 2310
0 0 0
0 0 0
0 0 0
0 0 0
-295 603 2223
-288 602 2223
-279 597 2205
0 0 0
-265 595 2198
-249 572 2113
-260 614 2270
-252 610 2255
-241 598 2213
-220 564 2086
-227 596 2206
-221 599 2217
-210 585 2166
-207 594 2203
-199 591 2191
-188 576 2136
-181 576 2135
-186 613 2273
-178 608 2257
-171 605 2244
-159 588 2183
-159 611 2268
-149 597 2217
-140 589 2187
-135 594 2206
-130 602 2236
-121 588 2187
-116 594 2210
-107 583 2166
-99 574 2134
-96 595 2212
-87 582 2163
-83 594 2210
-77 600 2234
-68 576 2144
-62 577 2148
-58 605 2252
-49 575 2140
-43 588 2189
-38 603 2245
-33 625 2328
-26 631 2351
-19 635 2368
-12 640 2386
-6 663 2471
1 673 2511
8 671 2502
15 675 2516
23 672 2506
30 671 2504
37 668 2493
45 669 2496
52 670 2498
59 669 2494
67 668 2491
74 666 2486
81 667 2489
89 667 2490
96 667 2489
103 665 2480
110 665 2481
118 665 2481
125 663 2474
132 664 2478
139 663 2474
147 664 2475
153 661 2466
161 661 2466
168 661 2464
176 662 2469
182 659 2455
190 661 2463
196 659 2455
203 658 2450
211 659 2455
218 658 2451
225 657 2447
233 658 2451
239 656 2442
246 655 2438
254 656 2443
260 655 2437
267 653 2429
275 654 2433
283 656 2440
288 651 2422
296 653 2429
303 652 2426
310 653 2427
317 651 2420
324 652 2421
330 649 2411
339 653 2425
344 649 2408
351 648 2407
358 647 2402
364 646 2397
371 646 2395
379 648 2402
386 647 2398
393 646 2393
400 645 2391
407 645 2390
413 644 2385
419 643 2379
426 643 2378
434 643 2378
440 642 2372
447 642 2372
458 648 2392
459 639 2358
464 636 2347
475 641 2365
481 639 2356
487 639 2354
495 639 2353
502 639 2355
509 639 2352
515 638 2347
523 638 2347
529 637 2343
536 637 2341
543 638 2341
550 637 2338
555 634 2326
562 635 2328
571 636 2332
579 637 2334
584 635 2326
590 635 2322
597 634 2319
603 633 2315
608 631 2306
617 633 2311
623 632 2306
631 633 2307
637 631 2301
641 629 2290
650 631 2295
656 630 2290
663 630 2291
670 630 2288
677 630 2286
683 629 2281
691 629 2281
700 631 2286
705 630 2280
711 629 2276
720 630 2278
724 628 2269
730 627 2262
739 628 2266
746 628 2264
753 628 2263
758 627 2256
766 627 2256
773 627 2254
780 628 2254
786 627 2249
790 624 2238
797 624 2236
806 626 2239
812 625 2236
823 628 2243
829 627 2238
833 625 2229
840 625 2226
846 624 2221
851 623 2214
860 624 2216
861 620 2201
870 622 2203
882 625 2214
886 623 2205
896 625 2208
900 623 2199
908 624 2199
916 625 2201
922 624 2195
928 623 2191
938 625 2194
942 623 2185
948 623 2181
956 623 2179
961 622 2172
969 623 2174
973 621 2164
983 622 2167
988 621 2161
1007 628 2184
1019 632 2193
1028 633 2194
1043 638 2208
1048 636 2200
1039 627 2164
1036 621 2141
1041 619 2133
1005 594 2042
989 581 1993
987 576 1975
770 446 1526
707 407 1389
699 400 1362
723 411 1398
717 405 1376
769 432 1465
840 469 1589
929 515 1745
935 515 1742
949 519 1754
954 519 1750
958 518 1745
970 521 1752
970 518 1739
979 520 1742
981 518 1732
978 513 1715
993 518 1728
1004 520 1734
1003 517 1719
-1375 726 2312
-1358 721 2301
-1354 723 2311
-1342 720 2308
-1315 710 2278
-1292 701 2255
-1307 714 2299
-1276 701 2261
-1265 699 2259
-1248 694 2246
-1222 683 2216
-1214 683 2218
-1224 692 2253
-1198 682 2222
-1183 677 2211
-1183 681 2228
-1173 680 2228
-1162 678 2223
-1155 678 2228
-1141 674 2217
-1132 673 2218
-1122 671 2216
-1112 669 2213
-1101 667 2209
-1090 665 2204
-1060 650 2160
-996 616 2047
-963 599 1995
-957 599 1998
-965 609 2032
-966 613 2050
-960 613 2054
-961 618 2073
-957 620 2082
-955 623 2096
-967 635 2139
-968 640 2158
-973 648 2187
-981 658 2224
-973 657 2226
-974 662 2247
-967 663 2250
-967 667 2268
-959 667 2271
-958 671 2287
-954 673 2298
-950 675 2308
-947 678 2320
-946 683 2339
-944 687 2356
-934 685 2351
-933 689 2370
-929 692 2382
-924 694 2391
-919 695 2399
-920 702 2424
-913 702 2427
-911 707 2446
-905 708 2452
-897 707 2453
-902 717 2492
-898 720 2504
-895 724 2520
-885 722 2516
-885 728 2539
-882 732 2555
-874 732 2558
-874 738 2583
-865 738 2584
-858 738 2587
-856 743 2607
-856 751 2636
-846 749 2633
-839 750 2637
-834 753 2651
-829 755 2660
-825 759 2677
-820 762 2690
-813 763 2696
-807 765 2705
-803 769 2720
-796 770 2726
-787 770 2729
-783 773 2744
-778 776 2757
-765 772 2745
-765 780 2775
-755 779 2772
-747 779 2774
-741 782 2787
-725 774 2761
-714 770 2750
-704 769 2748
-697 771 2754
-689 771 2757
-676 766 2740
-670 768 2751
-662 767 2751
-650 764 2740
-643 765 2747
-632 761 2734
-625 763 2743
-615 760 2734
-607 761 2737
-599 761 2739
-587 756 2724
-580 758 2731
-568 753 2715
-561 754 2721
-550 750 2708
-539 746 2695
-502 706 2550
-446 637 2304
-441 640 2314
0 0 0
-406 608 2200
0 0 0
0 0 0
0 0 0
0 0 0
-385 627 2277
0 0 0
-352 596 2163
-350 603 2191
-355 622 2261
-326 583 2118
-342 623 2266
-329 611 2225
-342 648 2362
-321 622 2264
-304 601 2190
0 0 0
-292 603 2200
-290 613 2236
0 0 0
-283 625 2283
-272 618 2256
0 0 0
-237 567 2071
0 0 0
-232 584 2136
-219 566 2070
-232 615 2252
-219 601 2199
-216 609 2230
-212 617 2260
-214 642 2354
-188 584 2140
-192 618 2264
-172 574 2104
-175 605 2218
-166 597 2190
-165 615 2257
-160 621 2278
-149 606 2225
-142 602 2210
-134 598 2196
-134 627 2304
-121 598 2198
-117 611 2244
-110 605 2225
-104 611 2247
-94 591 2172
-90 606 2228
-81 586 2154
-74 586 2154
-69 593 2181
-62 591 2175
-56 592 2179
-50 595 2191
-45 614 2259
-39 626 2305
-33 642 2363
-26 642 2364
-19 638 2350
-12 647 2384
-6 670 2469
1 682 2513
8 679 2501
15 680 2506
23 682 2513
30 679 2504
38 679 2504
45 678 2501
52 677 2495
59 676 2491
67 676 2492
74 676 2491
81 675 2489
89 675 2489
96 675 2490
103 673 2481
111 674 2486
118 673 2481
125 671 2474
132 673 2479
139 671 2472
147 671 2473
154 671 2472
161 668 2460
168 668 2462
176 670 2467
183 671 2472
190 669 2465
197 666 2453
204 667 2458
210 664 2444
219 668 2459
225 664 2444
232 663 2442
240 665 2448
246 663 2439
254 664 2442
261 663 2439
268 662 2435
275 661 2432
282 662 2433
289 662 2434
295 659 2422
303 661 2429
310 659 2422
317 659 2422
324 659 2420
331 659 2419
338 657 2412
345 657 2410
351 656 2405
359 657 2410
365 655 2400
373 655 2403
380 656 2403
386 654 2396
393 653 2391
399 652 2388
406 651 2381
413 651 2384
420 652 2383
426 650 2375
434 650 2375
441 650 2376
448 650 2375
456 652 2379
458 644 2351
465 644 2350
476 649 2368
481 646 2355
491 650 2368
496 647 2356
502 646 2352
508 645 2347
516 646 2348
523 645 2345
530 645 2345
535 643 2335
543 644 2338
550 644 2337
556 643 2331
562 641 2323
570 643 2329
576 642 2324
585 643 2328
590 642 2320
597 642 2319
604 641 2315
612 642 2318
616 639 2307
624 640 2309
631 639 2305
638 639 2303
643 638 2295
650 638 2294
659 640 2300
662 636 2284
670 637 2287
677 637 2284
685 637 2285
693 638 2288
699 637 2282
707 638 2284
711 636 2274
718 636 2271
725 635 2268
733 636 2270
739 635 2265
747 637 2267
754 637 2266
759 634 2255
769 637 2263
774 635 2255
779 634 2248
788 636 2253
795 635 2250
800 634 2243
807 633 2239
812 632 2233
819 632 2230
828 634 2234
833 632 2226
842 633 2229
848 633 2225
854 632 2220
861 632 2217
865 630 2208
872 630 2207
881 631 2208
889 632 2209
895 631 2204
900 630 2198
909 631 2200
915 631 2196
925 633 2200
929 631 2190
935 630 2185
941 629 2180
950 631 2184
960 632 2186
964 631 2178
967 628 2167
969 625 2153
984 630 2168
992 630 2167
1010 638 2189
1032 647 2218
1035 644 2206
1042 644 2203
1045 642 2193
1034 631 2152
1038 629 2142
1041 626 2130
1001 598 2033
995 591 2004
962 568 1922
745 437 1475
736 428 1444
704 407 1370
717 412 1385
706 403 1353
748 424 1423
850 479 1605
928 520 1741
929 518 1730
948 524 1751
957 526 1755
957 523 1741
962 523 1737
975 526 1746
971 521 1727
979 522 1728
984 522 1723
990 522 1721
998 523 1721
1007 525 1724
-1371 731 2303
-1369 734 2317
-1357 732 2314
-1337 725 2297
-1337 729 2313
-1302 715 2271
-1305 720 2293
-1287 715 2279
-1267 707 2260
-1241 697 2232
-1244 703 2253
-1227 697 2240
-1219 697 2241
-1212 697 2247
-1192 690 2226
-1180 687 2221
-1165 683 2210
-1157 682 2212
-1148 681 2213
-1138 680 2211
-1135 682 2222
-1123 679 2216
-1115 678 2217
-1104 676 2213
-1094 675 2211
-1064 660 2167
-1007 629 2068
-964 606 1996
-958 606 1998
-962 613 2025
-963 618 2042
-963 622 2059
-958 623 2065
-953 624 2071
-951 627 2084
-958 636 2117
-973 650 2168
-969 652 2178
-978 663 2217
-974 665 2226
-974 670 2246
-968 671 2252
-964 673 2261
-965 679 2284
-959 679 2289
-955 681 2299
-954 686 2317
-948 687 2323
-946 691 2339
-940 691 2343
-939 696 2362
-932 696 2365
-927 698 2375
-927 704 2397
-920 704 2400
-918 708 2416
-914 711 2429
-910 714 2442
-904 714 2447
-902 719 2464
-899 722 2480
-895 726 2494
-893 730 2511
-888 732 2521
-883 735 2534
-882 740 2553
-879 744 2571
-871 744 2572
-867 747 2586
-863 751 2601
-857 752 2608
-849 753 2613
-848 759 2636
-840 758 2637
-836 762 2654
-830 764 2662
-831 773 2694
-821 771 2692
-815 773 2701
-808 774 2707
-801 775 2712
-796 778 2725
-790 781 2736
-780 779 2732
-773 780 2738
-769 784 2755
-759 782 2751
-755 787 2768
-747 788 2774
-740 789 2780
-727 784 2766
-716 781 2757
-706 779 2751
-697 778 2750
-689 779 2754
-680 778 2755
-669 774 2742
-660 774 2744
-654 777 2754
-641 771 2737
-632 770 2735
-625 771 2738
-614 767 2728
-607 770 2738
-597 766 2728
-589 767 2730
-583 770 2744
-571 765 2728
-561 762 2720
-552 761 2717
-539 754 2693
-506 719 2568
-436 630 2252
-440 646 2309
0 0 0
0 0 0
0 0 0
0 0 0
0 0 0
-394 638 2289
0 0 0
0 0 0
-355 607 2179
0 0 0
-350 620 2230
-339 613 2202
-335 617 2219
-330 620 2231
-312 599 2155
0 0 0
0 0 0
-307 627 2262
0 0 0
-283 605 2181
0 0 0
-261 585 2111
-253 579 2092
0 0 0
-262 630 2278
0 0 0
-240 609 2203
-236 616 2229
-217 585 2115
-229 634 2293
-212 604 2188
-207 608 2201
-193 587 2126
-192 603 2184
-188 611 2214
-178 599 2171
-177 617 2238
-164 596 2161
-165 623 2259
-159 623 2261
-145 596 2162
-142 609 2211
-132 594 2158
-129 609 2211
-125 622 2259
-120 632 2298
-108 603 2190
-101 599 2177
-97 612 2224
-84 570 2072
-83 605 2200
-76 608 2213
-69 597 2173
-63 607 2208
-56 597 2173
-49 598 2177
-43 604 2198
-39 629 2291
-33 648 2359
-26 652 2376
-19 647 2355
-12 653 2380
-6 679 2474
1 689 2510
8 689 2510
16 689 2512
23 687 2505
30 687 2505
38 686 2500
45 685 2498
52 684 2493
60 684 2492
67 683 2489
74 685 2497
82 683 2490
89 686 2500
97 686 2500
103 681 2483
111 681 2481
118 679 2475
125 680 2478
132 679 2476
140 681 2481
147 677 2468
154 677 2467
161 678 2469
169 678 2471
175 676 2462
183 676 2462
190 674 2456
196 673 2451
204 675 2459
211 674 2456
218 673 2450
226 674 2452
232 671 2443
240 671 2443
247 671 2442
254 670 2439
261 671 2439
268 670 2435
275 670 2435
282 670 2435
290 670 2435
295 666 2421
302 666 2419
310 667 2421
317 667 2421
324 666 2417
331 666 2416
337 664 2409
344 663 2405
352 664 2406
359 664 2409
366 663 2403
371 660 2393
380 663 2402
386 661 2394
394 662 2398
401 662 2395
407 660 2389
414 660 2386
421 659 2382
427 658 2379
434 658 2377
442 659 2379
449 659 2378
459 663 2394
459 653 2356
469 657 2369
476 657 2368
481 654 2355
489 654 2356
495 654 2353
502 653 2348
510 654 2351
515 652 2342
524 653 2348
529 652 2340
538 654 2348
544 652 2340
551 652 2338
557 651 2335
563 650 2327
571 651 2329
577 649 2323
582 647 2314
589 647 2314
598 649 2320
605 649 2316
609 646 2306
618 648 2312
624 647 2307
632 648 2307
637 646 2300
644 646 2299
651 646 2296
659 646 2296
665 646 2293
672 645 2289
677 644 2282
686 645 2286
692 644 2282
701 646 2288
708 646 2285
712 644 2275
718 643 2269
726 644 2271
736 646 2276
738 642 2261
747 643 2264
754 644 2264
761 643 2260
765 641 2251
775 643 2258
780 642 2250
786 640 2244
793 641 2243
800 641 2241
808 641 2241
813 640 2233
820 640 2233
830 642 2237
837 642 2234
842 640 2227
847 639 2220
856 641 2225
861 639 2216
865 637 2208
875 639 2212
881 638 2207
889 639 2207
897 640 2207
903 639 2202
910 639 2201
918 640 2201
922 638 2191
929 638 2189
938 639 2191
946 639 2190
952 639 2187
956 637 2177
959 634 2165
969 636 2169
975 636 2165
983 636 2164
1002 644 2189
1023 653 2216
1035 656 2223
1037 652 2208
1043 652 2204
1046 649 2192
1039 641 2160
1036 634 2136
1035 629 2116
993 600 2014
1000 600 2012
937 559 1870
752 445 1487
707 416 1386
706 413 1373
705 410 1361
730 422 1399
759 435 1442
877 500 1655
925 524 1734
943 531 1754
953 533 1758
953 530 1745
965 533 1753
966 531 1743
971 530 1738
976 529 1733
978 528 1725
991 532 1735
999 533 1736
1003 532 1729
1000 527 1710
-1380 744 2316
-1376 746 2326
-1354 738 2307
-1338 734 2296
-1334 736 2307
-1312 728 2286
-1309 730 2299
-1297 728 2294
-1277 721 2277
-1267 719 2276
-1258 719 2278
-1223 703 2230
-1224 707 2249
-1218 708 2255
-1202 703 2244
-1181 695 2222
-1169 693 2217
-1160 691 2215
-1151 690 2216
-1148 693 2228
-1126 684 2202
-1112 679 2191
-1119 688 2223
-1099 680 2201
-1088 678 2196
-1072 672 2182
-1012 639 2075
-972 618 2010
-959 614 1999
-959 618 2017
-964 625 2044
-959 626 2049
-962 632 2072
-956 632 2076
-954 636 2090
-961 645 2123
-970 655 2160
-974 663 2188
-980 671 2219
-979 675 2235
-974 677 2244
-973 681 2261
-970 684 2272
-963 684 2276
-957 685 2282
-955 689 2297
-947 688 2297
-948 694 2321
-945 697 2333
-940 699 2343
-938 703 2358
-933 705 2368
-932 709 2385
-926 711 2393
-924 715 2409
-916 714 2409
-914 718 2427
-912 723 2445
-906 724 2450
-900 725 2459
-899 730 2478
-896 734 2495
-890 736 2503
-884 737 2509
-882 741 2527
-877 744 2540
-876 749 2559
-870 752 2569
-867 755 2585
-859 755 2587
-856 760 2606
-851 763 2618
-844 764 2623
-838 765 2631
-837 771 2654
-831 774 2666
-828 779 2684
-820 779 2687
-814 781 2696
-807 781 2701
-799 782 2705
-794 785 2716
-787 787 2725
-783 791 2742
-771 787 2732
-768 792 2753
-759 791 2750
-754 795 2764
-748 797 2775
-741 798 2781
-728 794 2768
-715 788 2750
-703 785 2740
-698 788 2754
-688 787 2750
-679 785 2746
-672 786 2753
-661 784 2745
-651 781 2739
-644 783 2747
-633 779 2736
-624 779 2737
-614 776 2726
-607 777 2733
-597 775 2729
-587 773 2720
-579 773 2724
-570 772 2720
-561 770 2717
-552 769 2714
-537 760 2685
-508 730 2579
-432 631 2229
-427 634 2241
0 0 0
0 0 0
0 0 0
0 0 0
0 0 0
0 0 0
0 0 0
-390 662 2348
0 0 0
-371 653 2319
0 0 0
-317 580 2060
-340 632 2249
-356 676 2405
-314 609 2166
0 0 0
-317 641 2283
0 0 0
-293 619 2208
-273 590 2103
0 0 0
-290 657 2344
-262 608 2172
-258 613 2189
-247 603 2154
-258 645 2307
-233 599 2142
-235 620 2218
-235 638 2281
-215 602 2155
-225 648 2319
-210 626 2241
-212 650 2329
-200 634 2272
-186 612 2191
-182 618 2216
-181 638 2288
-171 625 2243
-166 632 2269
-154 613 2200
-148 614 2202
-146 632 2270
-137 622 2232
-131 624 2241
-123 620 2228
-115 613 2201
-112 630 2264
-100 600 2157
-99 632 2272
-90 617 2218
-84 624 2243
-77 618 2224
-70 616 2216
-61 591 2127
-57 621 2233
-49 605 2177
-44 619 2228
-38 622 2238
-33 656 2362
-26 659 2371
-19 654 2357
-12 662 2385
-6 690 2485
1 698 2513
8 697 2513
16 695 2503
23 694 2499
30 692 2494
38 693 2496
45 693 2496
52 693 2497
60 694 2501
67 689 2485
74 690 2487
82 691 2490
89 691 2492
97 692 2493
104 690 2486
110 687 2475
118 689 2483
125 686 2473
132 686 2472
140 687 2476
147 687 2473
155 688 2480
162 687 2474
169 687 2474
176 685 2466
183 685 2467
190 682 2455
197 682 2456
204 682 2456
211 681 2452
218 681 2450
226 681 2451
233 681 2450
240 680 2445
247 680 2445
254 679 2443
261 679 2440
268 678 2437
275 677 2434
282 675 2427
290 678 2435
297 677 2433
303 675 2425
310 674 2419
317 674 2420
324 673 2415
331 672 2410
338 672 2411
346 673 2413
352 671 2407
359 672 2408
366 671 2405
372 668 2395
380 671 2401
387 669 2396
393 667 2388
400 667 2386
406 666 2383
415 669 2391
421 667 2385
428 666 2380
434 664 2373
442 666 2379
451 669 2386
458 668 2384
457 657 2342
471 666 2374
475 662 2359
483 663 2362
490 664 2363
496 661 2353
500 657 2337
509 660 2347
516 660 2346
523 659 2343
529 659 2339
537 660 2341
543 658 2333
551 659 2338
559 660 2340
563 656 2325
571 658 2329
577 657 2324
585 657 2324
592 658 2325
598 657 2319
605 656 2316
612 656 2316
618 655 2308
625 655 2307
630 653 2298
638 653 2299
645 653 2298
653 655 2302
658 653 2294
666 654 2294
671 652 2287
677 650 2279
687 653 2288
691 650 2276
697 650 2273
705 651 2275
713 651 2275
721 652 2275
726 650 2267
735 652 2273
742 652 2270
748 651 2265
754 650 2260
761 650 2258
768 650 2257
774 649 2253
783 651 2257
790 651 2253
792 647 2238
803 650 2246
808 648 2238
814 647 2234
824 650 2240
828 647 2229
835 648 2229
841 647 2225
848 647 2221
854 646 2217
863 647 2219
866 645 2208
873 645 2205
884 647 2212
890 647 2208
896 646 2204
902 645 2199
912 647 2202
917 646 2197
925 647 2197
928 644 2185
936 645 2185
943 645 2182
952 646 2185
956 644 2175
962 643 2169
970 644 2170
976 643 2165
984 644 2164
991 644 2162
1013 653 2191
1027 658 2204
1038 660 2208
1043 659 2202
1043 655 2185
1038 647 2156
1038 643 2138
1033 635 2110
992 606 2011
1001 607 2012
901 543 1797
748 448 1477
717 426 1404
706 417 1372
720 423 1388
715 417 1368
770 446 1462
881 508 1662
933 534 1747
937 533 1741
951 538 1753
962 541 1761
955 534 1734
966 536 1741
968 534 1731
977 536 1734
989 539 1742
987 535 1726
1001 539 1737
998 535 1719
1014 540 1732
-1376 750 2307
-1369 750 2313
-1362 751 2319
-1337 741 2293
-1333 743 2302
-1314 736 2287
-1304 735 2287
-1289 731 2279
-1282 731 2283
-1273 731 2285
-1266 731 2289
-1241 721 2261
-1226 716 2252
-1211 712 2241
-1202 711 2241
-1186 705 2228
-1184 709 2242
-1161 699 2217
-1149 696 2211
-1134 691 2198
-1132 695 2212
-1114 688 2193
-1113 692 2210
-1094 684 2189
-1089 685 2196
-1084 687 2204
-1013 646 2076
-978 628 2020
-956 618 1993
-959 624 2013
-964 632 2041
-962 634 2053
-959 637 2064
-956 640 2076
-955 643 2090
-958 650 2114
-965 659 2146
-975 670 2187
-979 678 2215
-981 684 2239
-971 682 2235
-972 688 2257
-967 689 2265
-964 692 2277
-961 695 2289
-960 700 2307
-954 700 2313
-947 701 2317
-947 706 2338
-940 706 2340
-936 708 2351
-937 715 2376
-929 714 2376
-928 719 2395
-922 721 2402
-916 721 2407
-911 724 2418
-913 731 2445
-910 734 2459
-901 734 2461
-901 740 2482
-895 741 2489
-889 742 2497
-885 745 2509
-883 751 2530
-881 755 2547
-873 755 2550
-874 763 2578
-868 765 2587
-862 766 2595
-859 770 2611
-854 773 2623
-846 774 2628
-837 772 2626
-832 775 2636
-831 782 2661
-826 785 2674
-818 785 2677
-815 790 2698
