VERSION 0.7
FIELDS x y z
SIZE 4 4 4
TYPE I I I
COUNT 1 1 1
WIDTH 3438
HEIGHT 1
VIEWPOINT 0.0 0.0 0.0 1.0 0.0 0.0 0.0
POINTS 3438
DATA ascii
-739 -138 2644
-753 -142 2724
-741 -141 2712
-735 -142 2719
-724 -141 2712
-713 -140 2700
-704 -140 2698
-697 -141 2704
-688 -141 2702
-681 -141 2707
-668 -140 2687
-662 -140 2696
-652 -140 2687
-644 -140 2692
-635 -140 2687
-625 -139 2678
-618 -139 2685
-610 -139 2683
-601 -139 2681
-592 -139 2678
-585 -139 2681
-572 -138 2660
-566 -139 2669
-556 -138 2660
-547 -138 2656
-536 -137 2642
-530 -137 2649
-522 -137 2648
-514 -137 2647
-504 -137 2638
-497 -137 2640
-489 -137 2643
-480 -137 2634
-471 -136 2629
-463 -136 2628
-456 -136 2630
-445 -135 2611
-438 -136 2619
-430 -136 2617
-423 -136 2619
-412 -135 2602
-405 -135 2606
-397 -135 2603
-390 -135 2604
-382 -135 2607
-373 -135 2598
-366 -135 2597
-357 -135 2591
-349 -134 2589
-342 -135 2592
-334 -134 2589
-326 -134 2585
-318 -134 2580
-311 -134 2581
-303 -134 2579
-294 -133 2568
-287 -134 2572
-279 -134 2572
-271 -133 2567
-263 -133 2558
-255 -133 2549
-248 -133 2557
-240 -133 2553
-232 -133 2549
-225 -133 2549
-217 -132 2540
-209 -132 2536
-202 -132 2533
-194 -132 2526
-187 -132 2537
-179 -132 2526
-173 -132 2535
-164 -131 2517
-157 -132 2526
-149 -131 2515
-142 -131 2516
-134 -131 2506
-127 -131 2513
-119 -130 2497
-111 -130 2480
-104 -129 2469
-97 -130 2484
-90 -130 2491
-83 -130 2491
-76 -130 2478
-69 -130 2484
-61 -130 2482
-54 -130 2475
-47 -130 2478
-40 -130 2473
-33 -130 2476
-26 -130 2482
-19 -130 2469
-11 -130 2471
-4 -129 2465
2 -129 2458
9 -129 2455
16 -129 2461
23 -129 2455
30 -129 2450
37 -129 2448
44 -129 2447
51 -129 2447
58 -128 2437
65 -129 2444
72 -128 2436
79 -129 2439
86 -129 2444
93 -128 2429
100 -128 2422
106 -128 2413
113 -127 2403
119 -127 2402
127 -128 2409
134 -128 2419
140 -127 2405
147 -127 2394
155 -128 2410
162 -128 2412
169 -128 2411
175 -128 2406
181 -127 2393
188 -127 2391
195 -127 2394
202 -127 2392
209 -127 2393
215 -127 2387
222 -127 2385
229 -127 2385
236 -127 2382
242 -127 2378
249 -127 2378
256 -127 2381
263 -127 2378
270 -127 2381
277 -128 2381
283 -127 2367
289 -127 2360
295 -127 2359
302 -126 2356
308 -126 2352
315 -126 2352
323 -127 2356
329 -127 2354
336 -127 2351
343 -127 2350
348 -126 2338
356 -127 2350
363 -127 2344
369 -126 2340
376 -127 2340
382 -126 2337
389 -127 2338
392 -125 2314
398 -125 2306
405 -125 2308
413 -126 2317
420 -126 2315
426 -126 2312
435 -126 2322
439 -126 2308
446 -126 2305
453 -126 2306
459 -126 2303
466 -126 2304
472 -126 2297
480 -126 2302
486 -126 2300
492 -126 2295
499 -126 2292
506 -126 2293
512 -126 2288
518 -126 2284
522 -125 2273
531 -126 2282
537 -126 2276
544 -126 2279
549 -125 2270
558 -126 2276
563 -126 2270
569 -125 2264
574 -125 2258
580 -125 2254
585 -125 2248
590 -125 2239
596 -125 2237
606 -125 2247
613 -125 2247
619 -125 2242
625 -125 2239
633 -125 2242
638 -125 2236
645 -125 2236
652 -125 2234
657 -125 2228
665 -125 2231
671 -125 2226
677 -125 2225
686 -126 2228
693 -126 2231
709 -128 2258
728 -130 2295
726 -128 2266
640 -112 1974
605 -105 1847
587 -101 1775
552 -94 1651
537 -90 1591
513 -85 1506
500 -82 1451
494 -81 1420
514 -83 1465
557 -90 1573
573 -92 1604
596 -95 1652
603 -95 1656
595 -93 1620
669 -104 1806
690 -106 1847
713 -109 1890
714 -108 1876
760 -115 1982
829 -124 2141
842 -125 2156
852 -126 2163
858 -126 2159
865 -126 2159
873 -126 2159
883 -127 2165
883 -126 2148
893 -126 2153
898 -126 2147
908 -127 2152
912 -126 2144
921 -127 2147
925 -127 2139
932 -127 2138
938 -127 2134
945 -127 2132
949 -127 2125
959 -127 2128
958 -126 2109
968 -127 2114
976 -127 2116
1004 -130 2158
1029 -132 2196
1027 -131 2174
1008 -128 2116
1012 -127 2107
1017 -127 2102
1001 -124 2053
916 -113 1862
880 -108 1776
888 -108 1777
889 -108 1766
904 -109 1782
910 -109 1781
907 -108 1762
918 -109 1769
922 -108 1764
927 -108 1760
933 -108 1759
940 -109 1758
946 -109 1755
945 -108 1741
956 -109 1748
958 -108 1739
962 -108 1732
967 -108 1730
-1313 -119 2285
-1305 -119 2289
-1291 -118 2281
-1278 -118 2274
-1267 -117 2271
-1258 -117 2271
-1239 -116 2254
-1235 -116 2263
-1224 -116 2259
-1212 -116 2254
-1195 -115 2240
-1194 -115 2254
-1180 -115 2245
-1167 -114 2236
-1150 -113 2221
-1152 -114 2241
-1137 -114 2229
-1126 -113 2225
-1112 -113 2214
-1107 -113 2221
-1097 -113 2218
-1084 -112 2208
-1074 -112 2205
-1067 -112 2209
-1054 -111 2198
-1044 -111 2195
-1035 -111 2194
-1024 -110 2187
-1013 -110 2181
-1003 -109 2176
-995 -109 2177
-983 -109 2167
-969 -108 2154
-986 -111 2209
-999 -113 2256
-999 -114 2275
-990 -114 2272
-992 -115 2296
-983 -115 2294
-982 -116 2311
-978 -116 2321
-975 -116 2333
-972 -117 2346
-967 -117 2354
-965 -118 2367
-958 -118 2372
-958 -119 2392
-950 -119 2392
-947 -120 2406
-941 -120 2412
-940 -121 2429
-935 -121 2438
-926 -121 2438
-924 -122 2453
-923 -123 2472
-918 -123 2480
-913 -123 2491
-907 -124 2496
-902 -124 2506
-899 -125 2520
-893 -125 2528
-889 -126 2540
-880 -125 2539
-877 -126 2553
-876 -127 2576
-873 -128 2593
-865 -128 2593
-860 -128 2601
-854 -129 2610
-848 -129 2616
-842 -129 2624
-837 -130 2635
-833 -130 2649
-825 -131 2653
-822 -131 2671
-816 -132 2679
-810 -132 2685
-805 -133 2699
-798 -133 2702
-787 -132 2696
-784 -133 2712
-775 -133 2711
-752 -131 2661
-740 -130 2647
-753 -134 2725
-749 -135 2742
-734 -133 2715
-724 -133 2710
-713 -132 2700
-706 -133 2705
-696 -133 2702
-686 -132 2694
-680 -132 2701
-672 -133 2703
-661 -132 2692
-652 -132 2691
-642 -132 2684
-635 -132 2687
-624 -131 2674
-612 -130 2660
-598 -129 2631
-587 -128 2618
-589 -130 2663
-581 -131 2666
-572 -130 2661
-565 -130 2662
-554 -130 2651
-548 -130 2660
-538 -130 2649
-531 -130 2654
-522 -130 2651
-513 -129 2643
-506 -130 2649
-496 -129 2639
-490 -130 2647
-480 -129 2636
-472 -129 2636
-463 -129 2630
-455 -129 2630
-446 -128 2619
-439 -128 2624
-431 -128 2622
-422 -128 2612
-415 -128 2620
-404 -127 2600
-397 -128 2605
-390 -128 2605
-381 -127 2597
-373 -127 2594
-365 -127 2595
-356 -127 2583
-350 -127 2596
-343 -127 2598
-334 -127 2588
-326 -127 2587
-318 -127 2581
-310 -126 2579
-302 -126 2572
-295 -126 2573
-287 -126 2573
-279 -126 2573
-271 -126 2563
-263 -126 2558
-255 -126 2556
-248 -125 2554
-240 -125 2551
-232 -125 2547
-225 -125 2550
-217 -125 2543
-209 -125 2535
-202 -125 2535
-195 -125 2540
-187 -124 2528
-179 -124 2523
-171 -124 2520
-164 -124 2524
-157 -124 2521
-150 -124 2522
-142 -124 2511
-135 -124 2519
-128 -124 2516
-120 -124 2505
-112 -123 2500
-105 -123 2495
-98 -123 2499
-91 -123 2499
-83 -123 2489
-76 -123 2484
-69 -123 2495
-62 -123 2489
-54 -123 2485
-47 -123 2481
-40 -123 2481
-33 -123 2478
-26 -123 2483
-19 -123 2477
-11 -123 2471
-4 -125 2523
2 -122 2466
9 -123 2469
16 -122 2456
23 -122 2461
30 -122 2461
37 -122 2461
44 -122 2455
51 -122 2447
58 -122 2442
65 -122 2444
72 -122 2439
79 -122 2443
86 -122 2441
93 -122 2436
100 -122 2439
107 -121 2424
113 -121 2418
120 -121 2421
128 -121 2424
134 -121 2422
141 -121 2414
148 -121 2415
155 -121 2416
162 -121 2414
169 -121 2414
176 -121 2412
182 -120 2397
189 -121 2399
196 -121 2402
202 -120 2392
209 -120 2389
216 -121 2396
222 -120 2385
230 -121 2391
237 -121 2389
243 -120 2383
249 -120 2377
257 -120 2381
264 -121 2383
272 -121 2392
278 -121 2385
283 -120 2370
290 -120 2371
296 -120 2367
303 -120 2360
310 -120 2360
316 -120 2360
323 -120 2354
329 -120 2354
336 -120 2350
343 -120 2350
349 -120 2345
356 -120 2346
363 -120 2346
369 -120 2338
377 -120 2347
383 -120 2344
389 -120 2336
395 -119 2329
401 -119 2324
408 -119 2325
415 -119 2324
423 -120 2330
429 -120 2326
434 -119 2317
440 -119 2310
446 -119 2309
455 -120 2318
460 -119 2309
467 -119 2307
473 -119 2304
480 -119 2301
486 -119 2300
493 -119 2301
499 -119 2296
505 -119 2290
511 -119 2285
517 -119 2283
525 -119 2287
533 -119 2289
538 -119 2282
544 -119 2279
551 -119 2276
557 -119 2273
564 -119 2273
569 -119 2265
577 -119 2270
583 -119 2265
585 -118 2245
594 -119 2253
604 -119 2264
608 -119 2255
615 -119 2253
621 -119 2251
627 -119 2245
634 -119 2248
640 -119 2242
647 -119 2243
651 -119 2230
659 -119 2235
666 -119 2235
671 -119 2227
680 -119 2233
687 -119 2233
695 -120 2236
711 -121 2265
735 -124 2316
689 -115 2148
603 -100 1859
564 -92 1720
526 -85 1588
500 -80 1495
507 -80 1501
498 -78 1460
487 -76 1413
486 -75 1397
495 -76 1410
506 -77 1429
536 -81 1498
533 -80 1476
541 -80 1485
598 -88 1627
595 -87 1604
697 -102 1866
707 -103 1875
750 -108 1971
813 -116 2120
835 -119 2159
844 -119 2163
849 -119 2155
859 -119 2161
864 -119 2156
872 -120 2156
879 -120 2155
886 -120 2156
892 -120 2150
897 -120 2145
904 -120 2144
911 -120 2143
920 -120 2145
925 -120 2140
932 -120 2137
937 -120 2131
945 -120 2132
951 -120 2129
956 -120 2123
977 -122 2153
969 -120 2117
977 -120 2117
1002 -123 2154
1030 -125 2198
1029 -124 2178
1008 -121 2117
1008 -120 2099
1017 -121 2102
1004 -118 2058
927 -108 1886
888 -103 1792
883 -102 1767
899 -103 1787
901 -103 1777
900 -102 1761
909 -102 1765
911 -102 1756
920 -103 1761
927 -103 1759
935 -103 1762
937 -103 1752
938 -102 1742
947 -103 1744
957 -103 1750
958 -103 1739
968 -103 1743
972 -103 1738
-1314 -111 2288
-1299 -111 2278
-1293 -111 2285
-1274 -110 2268
-1265 -110 2268
-1258 -110 2273
-1244 -109 2263
-1235 -109 2263
-1221 -109 2256
-1213 -109 2258
-1203 -108 2254
-1186 -108 2240
-1177 -107 2239
-1167 -107 2237
-1154 -107 2230
-1145 -107 2228
-1136 -106 2228
-1130 -107 2233
-1117 -106 2224
-1106 -106 2219
-1091 -105 2206
-1080 -105 2202
-1075 -105 2208
-1065 -105 2205
-1052 -104 2195
-1050 -105 2207
-1033 -104 2190
-1025 -104 2189
-1015 -103 2184
-1004 -103 2177
-993 -102 2172
-980 -102 2161
-973 -102 2163
-983 -104 2203
-1001 -106 2260
-993 -106 2261
-996 -107 2287
-989 -107 2289
-988 -108 2305
-981 -108 2308
-979 -109 2324
-974 -109 2332
-970 -110 2341
-969 -110 2359
-962 -110 2362
-962 -111 2382
-955 -111 2386
-951 -112 2395
-950 -113 2413
-943 -113 2417
-940 -113 2431
-934 -114 2436
-931 -114 2451
-923 -114 2451
-922 -115 2471
-917 -115 2479
-911 -116 2487
-909 -116 2503
-905 -117 2514
-894 -116 2507
-896 -118 2536
-885 -117 2529
-884 -118 2550
-877 -118 2553
-874 -119 2569
-868 -119 2576
-864 -120 2590
-857 -120 2593
-852 -121 2606
-851 -122 2626
-839 -121 2618
-837 -122 2636
-832 -122 2647
-826 -123 2656
-821 -123 2666
-817 -124 2683
-809 -124 2684
-804 -124 2694
-797 -125 2699
-789 -125 2703
-787 -126 2724
-772 -125 2702
-750 -122 2655
-737 -122 2638
-750 -125 2715
-748 -126 2738
-735 -125 2721
-723 -125 2708
-713 -124 2701
-704 -124 2701
-697 -125 2706
-687 -124 2699
-681 -125 2705
-669 -124 2690
-662 -124 2696
-653 -124 2696
-644 -124 2692
-634 -123 2682
-621 -123 2665
-563 -113 2448
-530 -107 2334
-522 -107 2331
-550 -114 2489
-567 -120 2600
-571 -122 2654
-564 -122 2659
-556 -122 2660
-549 -123 2664
-539 -122 2657
-532 -122 2659
-523 -122 2655
-513 -122 2643
-506 -122 2648
-498 -122 2651
-489 -122 2643
-480 -121 2635
-473 -121 2638
-462 -121 2624
-456 -121 2634
-446 -121 2618
-440 -121 2630
-430 -121 2621
-422 -121 2619
-416 -121 2625
-406 -120 2612
-398 -120 2610
-391 -120 2615
-382 -120 2609
-375 -120 2607
-365 -120 2596
-358 -120 2600
-350 -120 2593
-343 -120 2598
-335 -120 2599
-327 -120 2591
-319 -119 2590
-312 -120 2591
-303 -119 2586
-296 -119 2584
-287 -119 2570
-279 -119 2571
-272 -119 2572
-264 -118 2564
-256 -118 2560
-247 -118 2550
-240 -118 2556
-232 -118 2548
-226 -118 2557
-218 -118 2552
-210 -118 2552
-202 -117 2535
-194 -117 2531
-188 -118 2544
-180 -117 2535
-172 -117 2531
-165 -117 2531
-157 -117 2521
-150 -117 2521
-142 -117 2520
-135 -117 2520
-128 -117 2519
-120 -117 2514
-113 -117 2511
-106 -117 2513
-98 -117 2513
-91 -116 2497
-83 -116 2483
-76 -115 2482
-69 -116 2499
-62 -116 2497
-55 -116 2498
-48 -117 2513
-40 -116 2481
-33 -116 2477
-26 -116 2481
-18 -116 2479
-12 -117 2506
-4 -115 2464
2 -116 2476
9 -115 2460
16 -115 2452
24 -117 2510
30 -115 2449
37 -115 2455
44 -115 2461
51 -114 2435
59 -117 2486
66 -117 2492
72 -115 2443
79 -115 2440
86 -115 2446
94 -115 2454
101 -115 2445
108 -115 2450
114 -115 2437
121 -115 2431
128 -114 2428
135 -115 2432
142 -115 2432
150 -115 2441
156 -115 2424
162 -114 2413
169 -114 2410
176 -114 2413
183 -114 2413
189 -114 2403
196 -114 2398
203 -114 2398
209 -114 2396
216 -113 2387
223 -114 2396
230 -114 2394
237 -114 2394
243 -114 2389
249 -113 2376
255 -113 2366
263 -113 2380
271 -114 2385
278 -114 2384
284 -114 2377
289 -113 2365
296 -113 2363
306 -114 2388
311 -113 2368
317 -113 2362
326 -114 2380
331 -113 2362
336 -113 2352
343 -113 2354
349 -113 2347
363 -115 2393
363 -113 2344
369 -113 2340
377 -113 2346
383 -113 2341
391 -113 2346
397 -113 2345
404 -113 2341
409 -113 2333
415 -113 2328
421 -113 2324
428 -113 2324
435 -113 2321
440 -112 2314
448 -113 2319
455 -113 2317
462 -113 2318
467 -113 2310
474 -113 2309
481 -113 2306
486 -112 2300
493 -113 2299
500 -113 2299
506 -113 2297
512 -113 2292
519 -112 2290
524 -112 2283
532 -113 2287
539 -113 2288
545 -112 2281
551 -112 2278
558 -113 2279
565 -113 2277
570 -112 2271
578 -113 2273
584 -113 2270
592 -113 2275
596 -112 2261
603 -113 2264
608 -112 2256
615 -112 2254
622 -112 2252
630 -113 2258
635 -112 2250
641 -112 2246
649 -113 2248
654 -112 2241
660 -112 2240
668 -113 2241
671 -112 2228
679 -112 2230
685 -112 2228
697 -113 2241
716 -115 2279
738 -118 2328
684 -108 2133
597 -93 1843
556 -86 1697
525 -80 1587
540 -82 1617
494 -74 1462
493 -73 1445
484 -71 1405
483 -70 1389
498 -72 1419
511 -73 1441
520 -74 1455
531 -75 1472
560 -79 1539
596 -83 1623
608 -84 1640
664 -92 1777
703 -96 1865
755 -103 1985
827 -112 2156
840 -113 2170
846 -113 2166
853 -113 2166
860 -113 2165
865 -113 2158
871 -113 2155
878 -113 2155
885 -113 2153
893 -113 2152
898 -113 2147
907 -113 2150
914 -114 2149
918 -113 2142
926 -113 2142
932 -113 2138
939 -114 2136
942 -113 2127
948 -113 2122
957 -114 2125
974 -115 2145
986 -115 2154
977 -114 2117
1006 -116 2164
1029 -118 2195
1031 -118 2183
1008 -114 2118
1011 -114 2106
1018 -114 2104
1009 -112 2069
925 -102 1882
892 -98 1800
888 -97 1779
895 -97 1778
899 -97 1773
898 -96 1757
911 -97 1770
916 -97 1765
922 -97 1763
924 -97 1754
934 -97 1760
938 -97 1754
942 -97 1749
944 -97 1740
957 -97 1750
965 -98 1752
971 -98 1750
970 -97 1736
-1308 -103 2278
-1297 -103 2275
-1285 -103 2271
-1275 -103 2271
-1269 -103 2276
-1244 -101 2247
-1242 -102 2261
-1224 -101 2244
-1213 -101 2241
-1218 -102 2266
-1194 -100 2239
-1186 -100 2240
-1169 -100 2224
-1166 -100 2235
-1157 -100 2236
-1150 -100 2240
-1127 -99 2212
-1121 -99 2215
-1106 -98 2202
-1098 -98 2204
-1094 -98 2214
-1081 -98 2204
-1069 -97 2196
-1070 -98 2215
-1058 -98 2206
-1046 -97 2199
-1034 -97 2192
-1025 -97 2190
-1011 -96 2177
-1004 -96 2178
-991 -95 2168
-977 -95 2154
-971 -95 2158
-989 -97 2216
-1000 -99 2260
-997 -100 2270
-996 -100 2287
-989 -100 2290
-983 -101 2295
-979 -101 2306
-977 -102 2320
-976 -102 2336
-970 -102 2340
-970 -103 2361
-960 -103 2358
-955 -103 2365
-953 -104 2380
-951 -104 2395
-949 -105 2411
-946 -106 2424
-935 -105 2419
-934 -106 2436
-933 -107 2456
-926 -107 2458
-920 -107 2466
-917 -108 2480
-911 -108 2486
-906 -108 2494
-905 -109 2516
-895 -109 2510
-891 -109 2522
-883 -110 2525
-884 -111 2549
-875 -111 2550
-873 -111 2568
-868 -112 2578
-864 -112 2590
-860 -113 2605
-855 -113 2614
-849 -114 2622
-843 -114 2628
-839 -114 2644
-832 -115 2649
-826 -115 2656
-822 -115 2669
-815 -116 2677
-811 -116 2691
-804 -117 2696
-795 -116 2693
-789 -117 2702
-779 -116 2696
-772 -117 2703
-745 -114 2637
-736 -114 2634
-749 -117 2711
-750 -119 2746
-734 -117 2718
-724 -117 2713
-716 -117 2715
-707 -117 2711
-698 -117 2709
-689 -117 2705
-682 -117 2710
-672 -117 2706
-660 -116 2691
-653 -116 2697
-645 -116 2695
-634 -116 2686
-615 -114 2638
-523 -98 2274
-491 -93 2164
-492 -94 2198
-518 -101 2346
-565 -112 2590
-571 -114 2654
-565 -115 2668
-556 -115 2661
-549 -115 2665
-539 -114 2654
-532 -115 2662
-523 -114 2653
-513 -114 2646
-506 -114 2649
-496 -114 2640
-489 -114 2645
-480 -114 2639
-473 -114 2641
-465 -114 2640
-456 -114 2634
-447 -113 2629
-440 -113 2631
-432 -113 2628
-424 -113 2626
-413 -113 2610
-407 -113 2617
-399 -113 2619
-392 -113 2625
-382 -113 2606
-374 -113 2607
-368 -113 2612
-361 -113 2618
-350 -112 2592
-342 -112 2595
-335 -112 2596
-327 -112 2595
-318 -112 2587
-312 -112 2591
-302 -111 2578
-297 -112 2599
-288 -112 2580
-279 -111 2571
-271 -111 2567
-264 -111 2572
-257 -111 2571
-248 -111 2560
-237 -109 2524
-233 -111 2561
-226 -111 2559
-218 -111 2558
-210 -111 2549
-202 -110 2544
-194 -110 2533
-187 -110 2538
-180 -110 2540
-171 -109 2513
-165 -110 2537
-157 -110 2532
-150 -110 2528
-143 -110 2527
-135 -109 2514
-128 -110 2526
-121 -110 2525
-113 -110 2523
-105 -109 2509
-98 -109 2507
-91 -109 2501
-86 -112 2565
-76 -109 2504
-69 -109 2500
-62 -110 2511
-54 -109 2484
-47 -108 2465
-41 -111 2531
-33 -108 2475
-26 -108 2476
-18 -108 2477
-12 -111 2535
-4 -107 2433
2 -109 2477
9 -108 2461
16 -108 2467
23 -109 2474
30 -108 2462
38 -110 2510
44 -108 2463
52 -109 2471
58 -107 2441
65 -108 2448
72 -108 2448
80 -108 2451
86 -107 2434
94 -108 2446
101 -108 2447
108 -108 2446
115 -108 2445
121 -107 2428
128 -108 2439
137 -109 2461
146 -110 2494
149 -107 2421
155 -107 2421
161 -107 2404
169 -107 2413
175 -107 2405
183 -107 2408
190 -107 2411
197 -107 2410
203 -107 2397
210 -107 2401
217 -107 2398
225 -108 2418
231 -107 2398
235 -106 2378
245 -108 2405
248 -106 2369
256 -106 2371
264 -107 2386
272 -107 2394
280 -108 2399
284 -107 2374
290 -106 2369
296 -106 2363
302 -106 2357
311 -107 2371
322 -108 2405
325 -107 2373
330 -106 2356
337 -107 2360
342 -106 2343
350 -106 2354
357 -106 2351
364 -106 2351
369 -106 2341
376 -106 2339
383 -106 2344
390 -106 2342
397 -106 2343
404 -107 2345
411 -107 2341
415 -106 2328
422 -106 2326
429 -106 2324
436 -106 2327
443 -106 2326
450 -106 2328
454 -106 2314
461 -106 2312
467 -106 2308
474 -106 2307
481 -106 2310
487 -106 2303
494 -106 2305
498 -105 2289
507 -106 2300
511 -106 2288
520 -106 2293
527 -106 2293
531 -106 2282
540 -106 2290
545 -106 2281
553 -106 2286
559 -106 2283
565 -106 2277
571 -106 2276
578 -106 2276
584 -106 2271
591 -106 2269
597 -106 2267
602 -106 2260
608 -106 2256
616 -106 2259
621 -106 2252
629 -106 2252
635 -106 2250
641 -106 2245
647 -106 2243
653 -106 2238
661 -106 2241
667 -106 2238
673 -106 2234
678 -106 2227
685 -106 2227
695 -106 2236
717 -109 2283
732 -110 2307
669 -99 2086
583 -85 1798
550 -80 1680
517 -74 1563
513 -73 1535
500 -70 1479
481 -67 1409
487 -67 1415
483 -66 1389
493 -67 1403
498 -67 1406
508 -68 1420
531 -71 1472
540 -71 1484
590 -77 1606
634 -83 1711
620 -80 1659
673 -87 1784
759 -97 1995
832 -106 2168
840 -106 2171
847 -106 2170
852 -106 2165
862 -107 2169
868 -107 2167
874 -107 2163
879 -106 2155
886 -107 2155
892 -107 2152
900 -107 2153
907 -107 2151
913 -107 2146
920 -107 2145
923 -107 2135
932 -107 2137
938 -107 2134
944 -107 2131
948 -106 2121
957 -107 2124
963 -107 2121
965 -106 2109
976 -107 2116
1004 -109 2159
1028 -111 2193
1035 -111 2192
1011 -108 2123
1011 -107 2107
1017 -107 2102
1005 -105 2061
924 -96 1880
889 -92 1795
889 -91 1780
895 -91 1778
902 -92 1779
901 -91 1764
911 -91 1769
917 -92 1768
924 -92 1768
926 -91 1758
929 -91 1751
936 -91 1750
942 -91 1749
955 -92 1760
952 -91 1742
961 -92 1745
968 -92 1745
969 -91 1733
-1312 -96 2286
-1291 -95 2265
-1289 -96 2278
-1275 -95 2270
-1245 -94 2232
-1238 -94 2238
-1236 -94 2249
-1229 -94 2254
-1217 -94 2249
-1202 -93 2237
-1186 -93 2224
-1184 -93 2237
-1178 -93 2243
-1172 -93 2247
-1150 -92 2223
-1131 -91 2203
-1121 -91 2200
-1117 -91 2208
-1102 -91 2195
-1097 -91 2202
-1083 -90 2190
-1072 -90 2186
-1059 -90 2176
-1061 -90 2197
-1047 -90 2184
-1042 -90 2191
-1031 -90 2185
-1015 -89 2168
-1010 -89 2176
-998 -89 2166
-989 -89 2165
-978 -88 2157
-969 -88 2155
-992 -91 2223
-997 -92 2253
-994 -92 2265
-993 -93 2281
-988 -93 2287
-987 -94 2305
-981 -94 2309
-979 -95 2323
-976 -95 2337
-967 -95 2335
-965 -96 2350
-964 -96 2366
-964 -97 2387
-953 -97 2381
-951 -97 2397
-946 -98 2405
-941 -98 2412
-938 -98 2427
-935 -99 2440
-930 -99 2448
-925 -99 2457
-922 -100 2471
-915 -100 2475
-909 -100 2480
-907 -101 2498
-900 -101 2503
-897 -102 2515
-891 -102 2523
-887 -102 2536
-880 -102 2540
-878 -103 2558
-872 -104 2566
-868 -104 2578
-864 -104 2592
-860 -105 2604
-856 -105 2618
-845 -105 2609
-840 -106 2619
-837 -106 2639
-835 -107 2658
-826 -107 2657
-821 -107 2668
-816 -108 2679
-807 -108 2679
-803 -108 2693
-796 -109 2697
-789 -109 2705
-782 -109 2709
-776 -109 2717
-753 -107 2667
-734 -106 2627
-749 -109 2712
-748 -110 2737
-736 -110 2726
-723 -109 2708
-716 -109 2715
-704 -109 2701
-697 -109 2708
-690 -109 2711
-680 -109 2705
-670 -108 2698
-664 -109 2706
-653 -108 2695
-645 -108 2698
-635 -108 2688
-619 -107 2654
-527 -92 2293
-496 -87 2187
-483 -86 2160
-510 -92 2310
-556 -102 2550
-572 -107 2661
-565 -107 2665
-557 -107 2666
-549 -107 2665
-539 -107 2659
-532 -107 2661
-522 -106 2650
-516 -107 2659
-505 -106 2647
-499 -107 2653
-488 -106 2640
-479 -106 2634
-473 -106 2640
-465 -106 2643
-457 -106 2639
-449 -106 2637
-441 -106 2640
-431 -106 2627
-423 -106 2626
-415 -105 2623
-409 -106 2634
-398 -105 2611
-390 -105 2611
-384 -105 2620
-375 -105 2609
-365 -104 2593
-359 -105 2608
-352 -105 2613
-342 -105 2595
-334 -104 2591
-327 -105 2596
-319 -105 2592
-311 -104 2588
-303 -104 2581
-296 -104 2584
-288 -104 2581
-280 -104 2579
-272 -104 2574
-265 -104 2584
-257 -104 2578
-256 -107 2644
-241 -104 2564
-234 -104 2565
-226 -103 2557
-217 -103 2545
-210 -103 2546
-202 -103 2539
-195 -103 2545
-187 -103 2536
-180 -103 2537
-172 -103 2528
-165 -103 2538
-157 -103 2528
-150 -103 2531
-142 -103 2525
-135 -103 2529
-128 -102 2520
-120 -102 2518
-113 -103 2521
-106 -102 2515
-99 -103 2537
-91 -102 2505
-84 -102 2512
-76 -102 2510
-69 -102 2494
-62 -102 2498
-53 -99 2432
-47 -102 2488
-40 -101 2484
-33 -101 2483
-26 -103 2508
-18 -101 2478
-11 -101 2477
-4 -101 2459
2 -102 2486
9 -102 2485
16 -102 2478
23 -101 2454
30 -100 2440
37 -100 2439
45 -103 2499
52 -102 2484
59 -101 2460
66 -102 2470
73 -101 2450
79 -101 2442
86 -100 2422
93 -101 2442
100 -101 2441
108 -101 2443
114 -101 2436
121 -101 2435
128 -100 2427
134 -100 2417
141 -100 2420
149 -100 2424
158 -102 2466
165 -102 2454
168 -100 2404
176 -100 2410
186 -102 2456
190 -100 2410
193 -99 2369
203 -100 2402
213 -101 2433
217 -100 2398
227 -102 2435
230 -100 2396
236 -100 2385
244 -100 2391
253 -101 2409
260 -101 2409
264 -100 2388
271 -100 2388
278 -100 2388
284 -100 2377
290 -99 2368
298 -100 2381
310 -102 2416
311 -100 2368
316 -99 2360
323 -99 2360
331 -100 2362
336 -99 2354
344 -100 2359
350 -99 2352
355 -99 2342
363 -99 2345
371 -100 2352
376 -99 2342
384 -100 2348
391 -100 2346
397 -100 2342
402 -99 2330
411 -100 2341
415 -99 2327
422 -99 2328
430 -100 2334
435 -99 2323
442 -99 2322
449 -99 2325
456 -99 2320
462 -99 2319
468 -99 2313
475 -99 2314
480 -99 2302
488 -99 2309
494 -99 2304
501 -99 2305
507 -99 2302
514 -99 2297
520 -99 2296
527 -99 2297
532 -99 2285
538 -99 2283
546 -99 2287
554 -99 2289
558 -99 2278
565 -99 2279
571 -99 2274
578 -99 2275
584 -99 2268
589 -99 2262
595 -99 2260
603 -99 2263
610 -99 2262
617 -99 2261
623 -99 2257
630 -99 2257
635 -99 2250
643 -99 2255
647 -99 2242
655 -99 2245
659 -99 2236
667 -99 2239
674 -99 2238
679 -99 2231
686 -99 2231
691 -99 2225
699 -99 2227
675 -95 2126
611 -85 1905
522 -72 1610
536 -73 1636
524 -71 1584
514 -69 1538
503 -66 1488
491 -64 1438
492 -64 1430
485 -62 1395
495 -63 1410
515 -65 1455
533 -67 1491
551 -69 1527
546 -68 1500
585 -72 1591
582 -71 1570
624 -76 1670
668 -81 1770
765 -92 2012
829 -99 2163
840 -100 2171
847 -100 2170
853 -100 2167
861 -100 2168
867 -100 2163
873 -100 2160
878 -100 2155
888 -100 2159
893 -100 2153
899 -100 2149
906 -100 2148
911 -100 2143
922 -100 2150
929 -101 2149
933 -100 2139
936 -100 2130
942 -100 2126
946 -100 2119
955 -100 2122
962 -100 2119
980 -101 2141
975 -100 2114
1004 -103 2159
1030 -105 2197
1034 -104 2188
1011 -101 2124
1015 -101 2116
1017 -101 2102
1003 -99 2057
916 -89 1864
889 -86 1795
889 -86 1781
897 -86 1782
901 -86 1778
902 -85 1766
911 -86 1770
918 -86 1770
922 -86 1764
927 -86 1760
932 -86 1756
939 -86 1756
943 -86 1750
952 -86 1754
954 -86 1746
961 -86 1746
962 -86 1733
972 -86 1739
-1285 -87 2238
-1286 -88 2257
-1273 -87 2250
-1267 -87 2256
-1246 -87 2235
-1252 -87 2263
-1229 -86 2238
-1210 -86 2220
-1210 -86 2237
-1190 -85 2216
-1181 -85 2215
-1180 -86 2230
-1167 -85 2221
-1145 -84 2196
-1139 -84 2202
-1130 -84 2201
-1124 -84 2206
-1116 -84 2206
-1097 -83 2186
-1099 -84 2206
-1079 -83 2182
-1061 -82 2163
-1056 -83 2171
-1047 -82 2169
-1038 -82 2166
-1026 -82 2158
-1022 -82 2167
-1017 -82 2172
-1000 -81 2153
-995 -82 2159
-982 -81 2149
-969 -81 2138
-972 -82 2162
-988 -84 2216
-1002 -85 2265
-996 -86 2269
-994 -86 2283
-993 -87 2300
-986 -87 2301
-983 -87 2314
-979 -87 2323
-974 -88 2331
-971 -88 2344
-969 -89 2360
-968 -89 2379
-958 -89 2372
-954 -89 2383
-950 -90 2394
-949 -91 2413
-942 -91 2417
-943 -91 2439
-933 -91 2434
-930 -92 2448
-928 -92 2465
-918 -92 2460
-913 -92 2469
-914 -93 2494
-907 -93 2499
-901 -94 2505
-896 -94 2515
-890 -94 2522
-887 -95 2536
-881 -95 2542
-874 -95 2546
-874 -96 2570
-871 -97 2586
-861 -96 2582
-858 -97 2598
-853 -97 2608
-845 -97 2612
-844 -98 2635
-839 -99 2643
-833 -99 2652
-828 -99 2664
-818 -99 2659
-817 -100 2682
-814 -101 2700
-806 -101 2703
-795 -100 2696
-792 -101 2712
-782 -101 2707
-774 -101 2710
-750 -99 2654
-731 -97 2619
-748 -101 2707
-750 -102 2745
-737 -102 2731
-726 -101 2720
-713 -101 2705
-708 -101 2714
-697 -101 2706
-689 -101 2708
-681 -101 2709
-672 -101 2704
-663 -101 2705
-654 -101 2701
-644 -100 2692
-633 -100 2682
-619 -99 2657
-538 -87 2340
-495 -81 2183
-485 -80 2168
-509 -86 2306
-558 -95 2559
-571 -99 2655
-566 -99 2671
-558 -99 2672
-549 -99 2666
-540 -99 2663
-530 -99 2653
-521 -99 2646
-514 -99 2653
-508 -99 2661
-497 -99 2648
-489 -99 2646
-481 -99 2646
-472 -98 2636
-464 -98 2637
-457 -98 2640
-448 -98 2634
-440 -98 2631
-432 -98 2631
-425 -98 2634
-415 -98 2619
-407 -98 2622
-399 -98 2618
-392 -98 2624
-384 -98 2619
-374 -97 2607
-367 -97 2607
-359 -98 2610
-350 -97 2594
-343 -97 2601
-335 -97 2599
-327 -97 2596
-319 -97 2590
-312 -97 2594
-303 -97 2586
-297 -97 2596
-287 -97 2581
-280 -97 2582
-275 -97 2600
-264 -96 2571
-256 -96 2571
-249 -97 2572
-240 -96 2557
-234 -96 2568
-226 -96 2565
-218 -96 2558
-210 -96 2553
-201 -95 2529
-195 -96 2548
-188 -96 2551
-180 -96 2547
-172 -95 2528
-165 -96 2541
-157 -95 2527
-150 -95 2529
-142 -95 2528
-135 -95 2519
-128 -95 2522
-122 -96 2553
-113 -95 2516
-105 -95 2507
-98 -95 2506
-91 -95 2512
-84 -95 2510
-76 -94 2496
-69 -95 2496
-62 -95 2496
-54 -95 2500
-47 -94 2487
-40 -94 2489
-33 -95 2499
-26 -95 2494
-18 -93 2451
-11 -93 2441
-4 -95 2501
2 -94 2470
9 -95 2500
16 -93 2443
23 -94 2472
31 -95 2498
37 -94 2458
44 -94 2456
51 -94 2450
58 -93 2434
66 -95 2476
74 -95 2491
80 -94 2448
86 -93 2430
93 -94 2441
100 -93 2429
107 -93 2429
113 -93 2418
122 -94 2456
130 -95 2461
136 -94 2454
141 -93 2413
149 -93 2421
155 -93 2420
163 -93 2422
167 -92 2378
176 -93 2411
183 -93 2409
195 -96 2479
198 -94 2426
203 -93 2400
210 -93 2404
216 -93 2394
224 -93 2404
230 -93 2389
236 -93 2387
245 -93 2401
247 -92 2355
265 -96 2455
269 -95 2428
271 -93 2386
279 -93 2393
285 -93 2383
290 -93 2370
299 -93 2389
305 -93 2380
307 -92 2339
317 -93 2362
323 -93 2360
336 -94 2404
336 -92 2354
344 -93 2358
350 -92 2349
357 -93 2355
364 -93 2350
370 -93 2350
376 -92 2341
384 -93 2345
389 -92 2334
397 -93 2342
403 -93 2338
410 -93 2337
416 -93 2332
423 -93 2329
429 -93 2327
436 -93 2326
443 -93 2326
450 -93 2325
456 -93 2323
463 -93 2320
468 -93 2314
474 -92 2309
482 -93 2314
488 -92 2307
495 -93 2308
501 -93 2306
508 -93 2303
514 -93 2300
521 -93 2298
527 -93 2295
533 -93 2292
540 -93 2289
546 -92 2285
551 -92 2279
558 -92 2279
564 -92 2276
572 -93 2278
580 -93 2283
586 -93 2277
590 -92 2266
597 -92 2267
604 -93 2265
611 -93 2265
617 -93 2261
622 -92 2254
630 -93 2258
636 -93 2254
642 -93 2251
647 -92 2243
655 -93 2246
662 -93 2246
668 -93 2242
673 -92 2236
681 -93 2236
685 -92 2226
689 -92 2217
682 -90 2171
642 -84 2021
588 -76 1833
525 -67 1617
520 -66 1586
500 -63 1509
502 -62 1502
505 -62 1497
498 -61 1460
491 -59 1425
490 -59 1410
497 -59 1417
513 -61 1449
518 -61 1450
530 -62 1469
537 -62 1473
588 -67 1600
598 -68 1614
579 -65 1546
651 -73 1727
785 -88 2066
832 -93 2171
836 -93 2161
848 -93 2173
855 -93 2171
859 -93 2163
868 -93 2167
874 -93 2164
878 -93 2154
887 -93 2159
893 -93 2154
900 -93 2153
905 -93 2146
912 -93 2146
919 -94 2144
927 -94 2145
934 -94 2142
936 -93 2130
935 -93 2110
941 -93 2106
954 -93 2118
962 -94 2120
983 -95 2149
979 -94 2122
1006 -96 2163
1031 -98 2201
1035 -98 2192
1012 -95 2125
1014 -94 2113
1017 -94 2104
1005 -92 2061
920 -84 1872
887 -80 1790
887 -80 1776
892 -80 1772
898 -80 1771
904 -80 1770
910 -80 1768
916 -80 1766
925 -81 1771
924 -80 1755
935 -80 1763
941 -81 1760
945 -80 1755
949 -80 1749
948 -80 1734
954 -80 1732
971 -81 1749
976 -81 1745
-1297 -81 2260
-1292 -81 2268
-1273 -80 2250
-1253 -79 2232
-1244 -79 2231
-1230 -79 2223
-1224 -79 2230
-1225 -79 2247
-1203 -79 2223
-1197 -79 2229
-1187 -78 2226
-1171 -78 2213
-1158 -78 2205
-1147 -77 2201
-1148 -78 2219
-1127 -77 2195
-1116 -77 2191
-1107 -77 2190
-1101 -77 2194
-1097 -77 2203
-1081 -76 2188
-1072 -76 2186
-1067 -77 2193
-1055 -76 2186
-1041 -76 2172
-1035 -76 2177
-1022 -75 2167
-1014 -75 2167
-1008 -75 2172
-995 -75 2160
-991 -75 2168
-972 -74 2146
-973 -75 2165
-989 -77 2217
-1000 -78 2259
-997 -79 2272
-993 -79 2282
-990 -79 2293
-985 -80 2300
-982 -80 2312
-980 -80 2327
-977 -81 2340
-971 -81 2344
-963 -81 2346
-964 -82 2367
-960 -82 2379
-958 -82 2393
-949 -82 2391
-948 -83 2410
-943 -83 2417
-938 -84 2427
-937 -84 2447
-928 -84 2445
-924 -84 2454
-922 -85 2472
-916 -85 2478
-909 -85 2480
-905 -86 2495
-903 -86 2510
-894 -86 2510
-889 -86 2518
-889 -87 2541
-882 -87 2545
-876 -88 2552
-872 -88 2565
-869 -89 2581
-864 -89 2590
-858 -89 2599
-852 -89 2607
-846 -90 2613
-842 -90 2628
-834 -90 2630
-836 -91 2662
-828 -91 2664
-821 -92 2670
-814 -92 2675
-809 -92 2684
-806 -93 2702
-796 -92 2699
-792 -93 2713
-782 -93 2710
-777 -93 2721
-757 -92 2681
-733 -90 2624
-749 -93 2711
-751 -94 2751
-737 -94 2731
-724 -93 2714
-716 -93 2715
-709 -93 2719
-699 -93 2714
-690 -93 2712
-681 -93 2708
-671 -93 2704
-663 -93 2702
-653 -92 2695
-642 -92 2686
-636 -92 2692
-623 -92 2672
-543 -81 2363
-487 -73 2148
-481 -73 2151
-508 -79 2302
-547 -86 2511
-571 -91 2658
-569 -92 2684
-559 -92 2679
-547 -91 2658
-541 -91 2667
-532 -91 2663
-523 -91 2656
-514 -91 2652
-507 -91 2655
-500 -91 2660
-490 -91 2649
-481 -91 2642
-473 -91 2645
-464 -91 2636
-457 -91 2643
-449 -91 2643
-441 -91 2641
-432 -90 2631
-424 -90 2631
-415 -90 2626
-406 -90 2614
-399 -90 2622
-392 -90 2625
-383 -90 2614
-375 -90 2614
-368 -90 2618
-360 -90 2619
-352 -90 2614
-343 -90 2602
-334 -89 2593
-327 -90 2600
-319 -90 2595
-312 -90 2595
-303 -89 2589
-296 -89 2586
-288 -89 2586
-278 -89 2566
-276 -91 2618
-256 -86 2496
-257 -89 2576
-249 -89 2569
-241 -89 2567
-234 -89 2575
-227 -89 2572
-218 -89 2553
-211 -89 2561
-203 -89 2552
-195 -88 2547
-188 -89 2553
-180 -88 2540
-172 -88 2537
-165 -88 2535
-157 -88 2524
-150 -88 2536
-143 -88 2531
-135 -88 2532
-128 -88 2525
-120 -88 2520
-113 -88 2522
-104 -87 2481
-99 -88 2523
-90 -87 2483
-84 -88 2523
-77 -88 2530
-69 -88 2502
-61 -87 2490
-55 -88 2506
-47 -87 2493
-39 -86 2464
-33 -87 2488
-26 -88 2506
-19 -88 2516
-11 -87 2475
-4 -87 2468
2 -88 2493
9 -87 2486
17 -89 2529
23 -87 2465
30 -87 2462
38 -87 2477
45 -87 2458
52 -88 2495
59 -87 2473
66 -88 2474
72 -85 2417
80 -87 2450
88 -88 2494
92 -85 2409
102 -88 2486
108 -87 2456
115 -87 2450
121 -86 2428
130 -88 2468
135 -87 2432
142 -86 2427
148 -86 2415
156 -87 2429
162 -86 2410
172 -88 2458
177 -87 2433
183 -86 2409
190 -86 2411
196 -86 2398
204 -86 2409
210 -86 2404
217 -86 2404
224 -86 2400
231 -86 2400
236 -86 2387
248 -87 2429
250 -86 2385
255 -85 2368
269 -88 2426
270 -86 2379
279 -86 2390
285 -86 2382
290 -86 2369
297 -86 2367
301 -85 2343
309 -85 2353
319 -86 2375
322 -85 2352
330 -86 2358
337 -86 2356
345 -86 2364
351 -86 2361
357 -86 2355
363 -86 2349
371 -86 2350
378 -86 2354
384 -86 2345
391 -86 2348
397 -86 2341
403 -86 2335
410 -86 2338
417 -86 2337
424 -86 2339
431 -86 2336
437 -86 2334
442 -86 2321
450 -86 2328
456 -86 2325
462 -86 2318
467 -85 2307
474 -86 2310
481 -86 2306
487 -86 2305
495 -86 2310
503 -86 2314
508 -86 2305
513 -86 2296
520 -86 2293
526 -86 2293
534 -86 2294
540 -86 2291
545 -86 2284
552 -86 2282
559 -86 2283
566 -86 2281
572 -86 2276
578 -86 2276
585 -86 2276
591 -86 2268
599 -86 2272
605 -86 2269
611 -86 2266
617 -86 2261
622 -86 2255
630 -86 2258
637 -86 2256
642 -86 2251
646 -85 2238
656 -86 2248
663 -86 2250
667 -86 2237
674 -86 2239
680 -86 2235
687 -86 2233
690 -86 2221
692 -85 2203
681 -83 2147
620 -75 1934
551 -65 1701
524 -61 1598
495 -57 1494
502 -58 1500
506 -58 1499
493 -56 1445
485 -54 1408
468 -52 1346
489 -54 1393
501 -55 1415
513 -56 1435
531 -57 1472
543 -58 1490
561 -60 1528
573 -61 1546
587 -62 1569
680 -71 1803
808 -84 2127
832 -86 2169
838 -86 2166
849 -87 2174
852 -86 2165
862 -87 2172
867 -87 2165
875 -87 2166
882 -87 2163
889 -87 2163
894 -87 2157
900 -87 2152
909 -87 2155
915 -87 2151
918 -87 2141
923 -87 2136
935 -87 2145
935 -87 2127
921 -85 2078
928 -85 2078
945 -86 2098
962 -87 2119
971 -87 2121
981 -88 2127
1001 -89 2153
1031 -91 2201
1034 -91 2190
1010 -88 2122
1012 -88 2108
1019 -88 2108
1003 -86 2057
915 -78 1862
881 -74 1777
889 -74 1781
896 -75 1781
903 -75 1782
908 -75 1777
905 -74 1758
914 -74 1763
922 -75 1764
924 -74 1754
933 -75 1760
938 -75 1756
945 -75 1754
950 -75 1752
957 -75 1752
956 -74 1736
963 -75 1735
975 -75 1744
-1292 -73 2251
-1291 -73 2267
-1287 -74 2276
-1273 -73 2268
-1247 -72 2238
-1234 -72 2230
-1227 -72 2235
-1223 -72 2244
-1200 -71 2218
-1202 -72 2238
-1185 -71 2222
-1169 -71 2209
-1170 -71 2227
-1157 -71 2219
-1148 -71 2219
-1137 -71 2215
-1122 -70 2202
-1116 -70 2207
-1098 -70 2187
-1099 -70 2208
-1082 -70 2190
-1078 -70 2198
-1068 -70 2196
-1055 -69 2185
-1053 -70 2198
-1038 -69 2184
-1023 -69 2169
-1019 -69 2177
-1011 -69 2177
-1005 -69 2182
-991 -69 2170
-979 -68 2161
-973 -68 2164
-987 -70 2212
-1002 -71 2265
-998 -72 2274
-992 -72 2280
-994 -73 2303
-987 -73 2307
-980 -73 2309
-976 -73 2317
-973 -73 2331
-974 -74 2352
-964 -74 2348
-966 -75 2372
-963 -75 2387
-954 -75 2385
-954 -75 2404
-946 -76 2405
-939 -76 2408
-935 -76 2420
-936 -77 2443
-930 -77 2449
-929 -77 2469
-921 -77 2469
-918 -78 2485
-911 -78 2486
-906 -78 2496
-905 -79 2517
-893 -79 2508
-889 -79 2519
-884 -79 2527
-880 -80 2541
-875 -80 2550
-873 -80 2570
-869 -81 2581
-862 -81 2587
-862 -82 2611
-852 -82 2608
-848 -82 2619
-842 -82 2627
-834 -82 2628
-826 -82 2630
-827 -83 2661
-822 -84 2672
-817 -84 2685
-808 -84 2683
-808 -85 2710
-793 -84 2690
-790 -85 2709
-785 -85 2722
-775 -85 2715
-753 -83 2666
-732 -82 2622
-745 -84 2699
-751 -86 2751
-736 -85 2726
-727 -85 2724
-717 -85 2720
-707 -85 2713
-697 -85 2708
-688 -85 2703
-680 -85 2705
-672 -85 2708
-663 -85 2703
-653 -84 2697
-643 -84 2689
-633 -84 2680
-621 -84 2667
-568 -77 2469
-519 -71 2287
-508 -71 2272
-522 -74 2364
-547 -79 2514
-569 -83 2650
-563 -83 2656
-539 -81 2581
-538 -82 2616
-540 -84 2664
-532 -84 2665
-523 -83 2659
-516 -84 2665
-507 -83 2656
-497 -83 2645
-490 -83 2649
-483 -83 2654
-473 -83 2645
-466 -83 2647
-457 -83 2641
-448 -83 2637
-440 -83 2635
-432 -83 2632
-424 -83 2631
-417 -83 2635
-408 -83 2630
-401 -83 2632
-391 -82 2617
-383 -83 2618
-376 -83 2617
-368 -83 2617
-359 -82 2609
-350 -82 2601
-343 -82 2605
-335 -82 2603
-328 -82 2607
-319 -82 2596
-312 -82 2597
-304 -82 2591
-295 -82 2584
-287 -82 2576
-284 -83 2616
-273 -82 2586
-260 -80 2535
-257 -82 2577
-251 -82 2589
-241 -81 2568
-233 -81 2564
-226 -82 2567
-218 -81 2556
-210 -81 2556
-205 -82 2576
-196 -81 2554
-187 -81 2541
-180 -81 2540
-173 -81 2543
-165 -81 2546
-158 -81 2548
-151 -82 2558
-143 -81 2546
-134 -80 2517
-128 -81 2526
-121 -81 2535
-113 -81 2517
-105 -80 2515
-98 -81 2518
-91 -80 2509
-83 -80 2488
-76 -80 2508
-69 -80 2503
-64 -83 2584
-56 -82 2556
-48 -81 2518
-40 -80 2491
-33 -80 2488
-25 -80 2482
-18 -80 2487
-11 -80 2484
-4 -80 2487
2 -80 2484
9 -80 2478
17 -82 2541
24 -80 2480
30 -79 2435
37 -79 2451
45 -81 2485
53 -81 2503
59 -80 2467
66 -80 2461
73 -80 2460
80 -80 2446
87 -80 2451
94 -79 2441
99 -78 2406
107 -79 2435
115 -80 2453
120 -79 2410
130 -81 2465
134 -79 2417
142 -79 2430
149 -79 2425
156 -79 2422
163 -79 2422
170 -80 2424
176 -79 2410
185 -80 2439
191 -80 2420
197 -79 2408
202 -78 2383
212 -80 2430
221 -81 2448
223 -79 2393
230 -79 2396
239 -80 2414
244 -79 2391
253 -80 2417
259 -80 2403
269 -81 2429
272 -79 2393
278 -79 2381
285 -79 2389
290 -79 2371
298 -79 2377
306 -80 2386
311 -79 2373
326 -81 2428
325 -79 2375
329 -79 2351
337 -79 2358
345 -79 2368
351 -79 2358
358 -79 2359
365 -79 2358
371 -79 2356
378 -79 2354
383 -79 2340
390 -79 2340
396 -79 2338
405 -79 2349
410 -79 2335
416 -79 2332
425 -79 2341
430 -79 2330
436 -79 2327
444 -79 2333
449 -79 2323
456 -79 2322
462 -79 2318
470 -79 2321
478 -79 2325
482 -79 2313
489 -79 2313
494 -79 2304
502 -79 2307
507 -79 2301
515 -79 2303
521 -79 2299
527 -79 2296
534 -79 2294
540 -79 2291
547 -79 2292
552 -79 2284
560 -79 2288
567 -79 2286
573 -79 2282
579 -79 2276
584 -79 2271
592 -79 2273
599 -79 2272
604 -79 2265
611 -79 2264
617 -79 2262
623 -79 2256
629 -79 2255
636 -79 2254
642 -79 2249
651 -79 2256
655 -79 2245
662 -79 2244
668 -79 2242
673 -79 2235
680 -79 2234
688 -79 2235
693 -79 2230
699 -79 2225
697 -78 2196
645 -72 2013
568 -62 1751
536 -58 1637
523 -56 1579
519 -55 1554
510 -54 1509
503 -52 1476
487 -50 1415
477 -49 1372
496 -50 1412
505 -51 1425
522 -52 1461
536 -53 1486
552 -55 1516
576 -57 1569
575 -56 1550
605 -59 1619
697 -67 1848
821 -79 2160
834 -80 2176
843 -80 2180
851 -80 2182
857 -80 2176
862 -80 2171
869 -80 2170
872 -80 2158
881 -80 2161
887 -80 2159
893 -80 2154
901 -80 2156
907 -80 2152
917 -81 2157
919 -80 2145
927 -80 2146
935 -81 2145
941 -81 2141
928 -79 2095
929 -78 2080
950 -80 2110
962 -80 2120
988 -82 2160
982 -81 2129
1007 -83 2166
1029 -84 2197
1035 -84 2192
1017 -82 2137
1015 -81 2115
1019 -81 2108
996 -79 2044
906 -71 1843
892 -69 1801
885 -68 1773
891 -68 1771
896 -69 1768
907 -69 1775
909 -69 1766
915 -69 1764
922 -69 1764
926 -69 1759
931 -69 1756
933 -69 1746
947 -69 1759
953 -69 1757
953 -69 1745
955 -69 1734
964 -69 1738
972 -69 1739
-1312 -67 2286
-1301 -66 2284
-1285 -66 2273
-1271 -66 2265
-1256 -65 2254
-1244 -65 2249
-1235 -65 2250
-1233 -66 2263
-1206 -64 2229
-1212 -65 2257
-1197 -65 2245
-1184 -65 2239
-1174 -64 2236
-1163 -64 2232
-1158 -64 2240
-1147 -64 2235
-1135 -64 2228
-1126 -64 2227
-1109 -63 2210
-1103 -64 2216
-1093 -63 2212
-1082 -63 2208
-1071 -63 2201
-1061 -63 2198
-1051 -63 2194
-1038 -62 2184
-1030 -62 2186
-1024 -62 2190
-1009 -62 2173
-1005 -62 2182
-997 -62 2182
-983 -62 2169
-969 -61 2155
-989 -63 2219
-1000 -64 2261
-999 -65 2278
-992 -65 2280
-991 -65 2296
-985 -65 2300
-987 -66 2326
-977 -66 2320
-975 -66 2336
-977 -67 2359
-964 -67 2349
-961 -67 2361
-958 -67 2375
-954 -68 2385
-951 -68 2397
-946 -68 2406
-943 -69 2418
-939 -69 2431
-932 -69 2433
-926 -69 2440
-924 -70 2456
-918 -70 2461
-917 -70 2482
-914 -71 2495
-906 -71 2496
-901 -71 2507
-892 -71 2505
-890 -71 2523
-886 -72 2534
-883 -72 2550
-871 -72 2538
-872 -73 2566
-866 -73 2572
-860 -73 2581
-857 -73 2597
-853 -74 2612
-846 -74 2614
-842 -74 2627
-832 -74 2622
-831 -75 2648
-826 -75 2659
-817 -75 2657
-814 -76 2673
-810 -76 2688
-801 -76 2688
-798 -77 2705
-792 -77 2716
-781 -77 2706
-775 -77 2715
-747 -75 2648
-730 -74 2617
-746 -77 2701
-748 -78 2741
-741 -78 2748
-727 -77 2724
-716 -77 2717
-706 -77 2710
-698 -77 2710
-691 -77 2716
-681 -77 2709
-672 -77 2707
-661 -76 2694
-637 -75 2633
-611 -72 2557
-608 -73 2578
-613 -75 2633
-573 -71 2493
-558 -70 2461
-568 -72 2540
-557 -72 2522
-536 -70 2464
-556 -73 2588
-538 -72 2540
-493 -67 2362
-501 -69 2438
-526 -74 2596
-531 -76 2656
-523 -76 2660
-517 -76 2666
-507 -76 2655
-500 -76 2661
-491 -76 2656
-483 -76 2658
-475 -76 2657
-466 -76 2651
-458 -75 2646
-449 -75 2641
-440 -75 2636
-433 -75 2639
-425 -75 2638
-416 -75 2627
-409 -75 2634
-400 -75 2630
-392 -75 2627
-384 -75 2624
-375 -75 2613
-365 -74 2599
-359 -75 2611
-352 -75 2610
-345 -75 2617
-336 -75 2611
-339 -77 2688
-319 -74 2591
-311 -74 2593
-303 -74 2590
-295 -74 2585
-287 -74 2580
-280 -74 2581
-272 -74 2581
-264 -74 2570
-252 -73 2527
-251 -75 2592
-242 -74 2574
-237 -75 2609
-226 -74 2561
-216 -73 2532
-210 -74 2552
-206 -75 2590
-195 -74 2543
-188 -74 2547
-181 -74 2552
-174 -74 2558
-165 -74 2546
-158 -74 2544
-147 -72 2478
-135 -69 2394
-123 -67 2311
-120 -69 2388
-119 -73 2498
-114 -74 2536
-106 -74 2533
-99 -74 2530
-91 -74 2522
-84 -74 2521
-76 -73 2517
-69 -73 2499
-62 -73 2502
-55 -73 2509
-47 -73 2495
-40 -74 2516
-32 -72 2472
-25 -73 2491
-18 -73 2498
-11 -73 2473
-4 -73 2491
2 -73 2467
9 -72 2446
16 -72 2444
23 -72 2435
31 -73 2471
38 -72 2453
45 -73 2467
51 -72 2446
59 -73 2459
66 -72 2445
74 -74 2483
81 -74 2482
87 -73 2465
93 -72 2435
100 -72 2418
110 -74 2485
116 -73 2466
121 -72 2417
128 -72 2434
137 -73 2455
142 -72 2423
150 -73 2447
157 -73 2439
163 -72 2423
171 -73 2439
178 -73 2437
184 -73 2423
190 -72 2408
197 -72 2408
203 -72 2406
209 -72 2391
220 -73 2431
224 -72 2404
232 -73 2409
237 -72 2393
244 -72 2391
252 -73 2403
264 -74 2447
265 -72 2395
276 -74 2429
278 -72 2384
286 -73 2394
292 -73 2388
297 -72 2369
316 -75 2461
311 -72 2369
322 -73 2401
332 -74 2424
329 -72 2350
337 -72 2358
342 -72 2347
352 -72 2362
357 -72 2352
364 -72 2350
370 -72 2347
378 -72 2350
384 -72 2345
391 -72 2347
397 -72 2342
403 -72 2335
411 -72 2340
417 -72 2339
423 -72 2332
430 -72 2333
438 -73 2338
444 -72 2330
450 -72 2326
458 -73 2331
463 -72 2321
469 -72 2320
475 -72 2313
481 -72 2309
488 -72 2308
495 -72 2308
502 -72 2308
507 -72 2299
515 -72 2302
522 -72 2303
527 -72 2295
534 -72 2296
540 -72 2292
546 -72 2285
554 -73 2291
560 -72 2286
567 -73 2287
571 -72 2275
578 -72 2275
585 -72 2275
591 -72 2269
598 -72 2270
603 -72 2262
612 -73 2270
615 -72 2255
623 -72 2259
631 -73 2262
636 -72 2255
643 -72 2251
649 -73 2249
656 -73 2250
660 -72 2240
667 -72 2237
675 -73 2240
681 -73 2236
687 -73 2234
692 -72 2228
698 -72 2224
705 -72 2222
653 -66 2037
561 -56 1729
522 -52 1594
522 -51 1578
516 -50 1543
512 -49 1517
500 -48 1466
500 -47 1451
489 -46 1406
491 -46 1399
516 -48 1458
531 -49 1485
552 -50 1529
569 -52 1563
588 -53 1601
595 -53 1607
622 -55 1664
725 -64 1922
824 -73 2167
835 -73 2177
841 -73 2174
850 -73 2177
856 -73 2174
863 -73 2172
868 -73 2168
875 -73 2165
877 -73 2152
887 -73 2157
894 -74 2157
902 -74 2158
908 -74 2155
915 -74 2152
921 -74 2149
926 -74 2142
935 -74 2146
949 -75 2160
935 -73 2110
941 -73 2107
956 -74 2123
964 -74 2125
973 -74 2126
983 -74 2132
1007 -76 2167
1030 -77 2199
1035 -77 2193
1012 -75 2126
1011 -74 2108
1018 -74 2104
1002 -73 2056
914 -66 1860
885 -63 1786
887 -63 1776
896 -63 1782
908 -64 1791
908 -63 1778
911 -63 1769
918 -63 1770
925 -64 1771
928 -63 1762
928 -63 1749
939 -63 1757
943 -63 1751
950 -64 1751
961 -64 1758
954 -63 1733
966 -64 1742
966 -63 1729
-1310 -59 2285
-1299 -59 2281
-1291 -59 2284
-1278 -59 2278
-1266 -59 2272
-1250 -58 2261
-1238 -58 2256
-1230 -58 2257
-1222 -58 2259
-1208 -58 2250
-1207 -58 2264
-1189 -58 2248
-1180 -58 2247
-1168 -57 2242
-1158 -57 2239
-1143 -57 2227
-1134 -57 2226
-1123 -57 2222
-1118 -57 2229
-1100 -56 2211
-1097 -57 2220
-1088 -57 2219
-1075 -56 2210
-1064 -56 2204
-1053 -56 2199
-1044 -56 2196
-1033 -56 2191
-1023 -56 2188
-1017 -56 2191
-1003 -55 2178
-988 -55 2162
-980 -55 2164
-974 -55 2167
-988 -56 2217
-997 -57 2254
-995 -57 2268
-992 -58 2281
-995 -58 2306
-988 -58 2309
-986 -59 2322
-975 -59 2315
-970 -59 2324
-970 -59 2345
-965 -60 2352
-962 -60 2365
-957 -60 2373
-955 -60 2388
-951 -61 2398
-944 -61 2401
-941 -61 2415
-942 -62 2437
-933 -62 2436
-927 -62 2442
-927 -62 2463
-916 -62 2458
-919 -63 2487
-911 -63 2487
-905 -63 2494
-902 -63 2510
-895 -64 2513
-893 -64 2530
-889 -64 2543
-884 -65 2552
-874 -64 2548
-874 -65 2571
-864 -65 2567
-864 -66 2593
-854 -66 2589
-854 -66 2613
-843 -66 2605
-839 -66 2621
-835 -67 2633
-828 -67 2639
-826 -67 2658
-815 -67 2652
-813 -68 2672
-806 -68 2675
-801 -68 2688
-799 -69 2710
-792 -69 2717
-779 -68 2700
-764 -68 2676
-735 -66 2604
-724 -66 2594
-738 -68 2673
-750 -70 2747
-740 -70 2744
-727 -69 2726
-717 -69 2720
-708 -69 2717
-701 -69 2723
-689 -69 2710
-680 -69 2707
-672 -69 2707
-647 -67 2640
-592 -62 2445
-550 -58 2303
-556 -60 2357
-568 -62 2441
-538 -59 2340
-546 -61 2406
-549 -62 2452
-532 -61 2412
-526 -61 2418
-505 -60 2353
-472 -57 2232
-460 -56 2206
-478 -59 2324
-506 -64 2499
-517 -66 2591
-523 -68 2660
-518 -68 2673
-509 -68 2670
-499 -68 2658
-492 -68 2664
-481 -68 2647
-475 -68 2657
-464 -68 2640
-456 -68 2639
-449 -68 2643
-441 -68 2639
-433 -68 2639
-426 -68 2644
-416 -68 2631
-408 -68 2632
-400 -68 2630
-391 -67 2621
-385 -68 2628
-376 -67 2620
-367 -67 2615
-359 -67 2606
-351 -67 2610
-344 -67 2610
-336 -67 2611
-331 -68 2630
-323 -68 2625
-314 -68 2614
-302 -67 2580
-295 -67 2587
-289 -67 2594
-280 -67 2580
-271 -66 2567
-261 -66 2547
-254 -66 2551
-255 -68 2638
-236 -65 2513
-236 -67 2598
-225 -66 2557
-218 -67 2559
-213 -67 2584
-204 -67 2567
-196 -67 2557
-189 -67 2562
-181 -67 2559
-172 -66 2532
-159 -64 2457
-142 -60 2297
-127 -56 2148
-115 -53 2052
-107 -53 2023
-107 -56 2137
-106 -58 2239
-100 -59 2242
-95 -60 2282
-90 -61 2325
-87 -63 2403
-82 -65 2469
-76 -66 2513
-69 -66 2525
-62 -66 2519
-54 -66 2507
-47 -66 2502
-39 -65 2477
-32 -65 2477
-25 -65 2465
-19 -68 2559
-11 -66 2478
-4 -66 2498
2 -67 2543
9 -66 2487
16 -65 2463
24 -65 2464
31 -66 2491
38 -65 2453
45 -65 2457
51 -65 2439
59 -66 2478
66 -66 2472
74 -67 2497
80 -65 2441
88 -66 2477
93 -65 2435
100 -65 2437
108 -66 2446
115 -65 2440
122 -66 2455
129 -65 2437
136 -66 2436
143 -66 2441
150 -66 2437
157 -66 2434
165 -66 2457
169 -65 2416
176 -65 2405
186 -66 2446
190 -65 2413
196 -65 2396
205 -66 2427
212 -66 2424
219 -66 2424
224 -65 2401
231 -65 2401
236 -65 2380
249 -67 2443
255 -66 2432
256 -65 2375
263 -65 2378
272 -65 2390
278 -65 2383
286 -66 2395
293 -66 2395
299 -66 2386
310 -67 2417
313 -66 2382
317 -65 2360
323 -65 2355
330 -65 2359
340 -66 2379
346 -66 2369
351 -65 2359
358 -65 2356
365 -66 2361
374 -66 2371
377 -65 2349
383 -65 2343
391 -65 2345
398 -66 2347
404 -65 2341
411 -66 2341
416 -65 2329
423 -65 2332
429 -65 2328
437 -66 2334
444 -66 2330
449 -65 2322
456 -65 2321
463 -66 2322
470 -66 2322
476 -65 2315
482 -65 2311
490 -66 2316
496 -66 2312
502 -66 2309
508 -66 2306
515 -66 2302
522 -66 2302
528 -66 2298
534 -66 2294
540 -66 2291
548 -66 2294
554 -66 2292
560 -66 2287
565 -66 2278
571 -66 2274
579 -66 2278
585 -66 2274
593 -66 2276
598 -66 2271
604 -66 2264
609 -66 2258
614 -65 2251
620 -65 2248
629 -66 2253
634 -66 2248
640 -66 2242
648 -66 2248
656 -66 2249
660 -66 2238
668 -66 2243
674 -66 2238
680 -66 2234
686 -66 2231
692 -66 2225
699 -66 2227
698 -65 2199
640 -59 1996
557 -51 1719
538 -48 1642
525 -47 1585
523 -46 1566
516 -45 1529
506 -44 1483
514 -44 1494
466 -40 1340
475 -40 1354
520 -44 1469
534 -45 1495
552 -46 1531
573 -47 1574
572 -47 1556
583 -47 1573
603 -49 1612
727 -59 1929
824 -66 2168
834 -67 2176
841 -67 2174
850 -67 2179
855 -67 2173
862 -67 2170
871 -67 2174
877 -67 2171
882 -67 2163
889 -67 2162
897 -67 2165
901 -67 2157
907 -67 2151
914 -67 2151
921 -67 2150
929 -67 2148
941 -68 2160
953 -68 2169
955 -68 2156
955 -67 2138
966 -68 2145
968 -68 2132
971 -67 2123
982 -68 2130
1009 -69 2172
1028 -70 2195
1033 -70 2187
1014 -68 2130
1014 -68 2113
1021 -68 2112
1004 -66 2060
910 -60 1852
882 -57 1781
886 -57 1775
896 -58 1780
903 -58 1781
904 -58 1771
910 -58 1767
915 -58 1764
918 -57 1757
925 -58 1756
933 -58 1759
939 -58 1757
941 -58 1747
947 -58 1745
956 -58 1749
959 -58 1742
970 -58 1748
972 -58 1739
-1315 -52 2293
