VERSION 0.7
FIELDS x y z
SIZE 4 4 4
TYPE I I I
COUNT 1 1 1
WIDTH 3444
HEIGHT 1
VIEWPOINT 0.0 0.0 0.0 1.0 0.0 0.0 0.0
POINTS 3444
DATA ascii
1200 -1520 3736
0 0 0
0 0 0
0 0 0
0 0 0
0 0 0
0 0 0
0 0 0
0 0 0
0 0 0
0 0 0
0 0 0
0 0 0
0 0 0
0 0 0
1061 -1171 2833
1065 -1165 2815
1087 -1179 2847
1099 -1183 2852
1090 -1163 2800
1101 -1165 2803
1099 -1153 2771
1087 -1132 2715
1072 -1107 2653
1086 -1113 2664
1088 -1106 2644
1124 -1133 2706
1102 -1103 2631
1087 -1079 2570
1109 -1093 2601
1117 -1093 2595
1112 -1079 2561
1116 -1075 2546
1098 -1050 2484
1102 -1046 2471
1099 -1036 2443
1112 -1040 2451
1056 -980 2306
1093 -1008 2368
1090 -997 2340
1109 -1008 2362
1102 -994 2326
1112 -997 2329
1121 -998 2328
1118 -989 2303
1125 -988 2298
1126 -982 2281
1134 -983 2279
1116 -960 2223
1113 -951 2199
1107 -940 2170
1113 -939 2163
1116 -936 2152
1112 -926 2126
1112 -920 2110
1122 -923 2112
1109 -906 2070
1129 -917 2091
1132 -913 2079
1131 -907 2062
1136 -906 2055
1135 -899 2037
1142 -899 2033
1145 -896 2023
1145 -891 2007
1144 -885 1990
1140 -876 1967
1150 -879 1969
1133 -860 1924
1131 -854 1906
1141 -857 1909
1128 -842 1873
-631 -444 1009
-644 -456 1038
-655 -466 1063
-621 -445 1016
-615 -443 1014
-565 -410 939
-492 -359 825
-484 -355 817
-498 -367 846
-497 -369 852
-474 -354 818
-474 -356 824
-474 -358 831
-470 -357 830
-471 -360 839
-467 -360 838
-461 -357 835
-471 -367 859
-468 -367 860
-452 -357 838
-456 -363 852
-467 -373 879
-478 -384 907
-592 -479 1132
-580 -473 1118
-591 -485 1149
-674 -557 1321
-663 -551 1310
-706 -591 1406
-734 -618 1474
-776 -658 1570
-797 -680 1625
-804 -691 1654
-845 -732 1754
-874 -762 1829
-908 -797 1915
-812 -717 1727
-665 -592 1427
-662 -593 1432
-716 -647 1563
-785 -714 1728
-757 -694 1681
-699 -645 1565
-662 -616 1495
-618 -579 1407
-592 -559 1361
-577 -549 1338
-563 -540 1317
-556 -537 1313
-552 -538 1315
-550 -540 1322
-552 -546 1339
-541 -540 1325
-545 -548 1347
-557 -564 1388
-571 -583 1437
-570 -588 1448
-561 -582 1437
-562 -589 1454
-554 -585 1447
-558 -595 1471
-618 -664 1644
-703 -761 1889
-723 -790 1960
-718 -791 1967
-724 -805 2003
-726 -814 2026
-716 -810 2018
-703 -803 2003
-690 -795 1985
-700 -815 2036
-680 -799 1997
-685 -812 2034
-676 -809 2027
-660 -798 2001
-654 -798 2003
-654 -805 2023
-651 -810 2037
-646 -812 2042
-643 -816 2056
-634 -813 2049
-632 -819 2065
-620 -811 2048
-615 -814 2056
-601 -804 2033
-600 -811 2053
-596 -815 2062
-580 -802 2031
-570 -797 2020
-571 -807 2047
-561 -802 2036
-559 -808 2054
-562 -821 2086
-546 -808 2055
-542 -812 2066
-534 -808 2058
-524 -803 2048
-520 -807 2059
-506 -796 2031
-509 -810 2068
-500 -806 2059
-493 -804 2056
-487 -805 2059
-482 -808 2067
-476 -808 2069
-479 -824 2111
-490 -856 2194
0 0 0
0 0 0
0 0 0
0 0 0
0 0 0
0 0 0
0 0 0
0 0 0
0 0 0
-552 -1117 2879
-691 -1419 3658
-701 -1464 3775
0 0 0
0 0 0
0 0 0
0 0 0
0 0 0
0 0 0
0 0 0
-563 -1355 3505
-556 -1366 3535
-564 -1413 3657
-554 -1416 3665
-550 -1435 3716
-547 -1455 3770
-542 -1474 3820
-535 -1486 3852
-523 -1487 3854
-511 -1486 3854
-495 -1472 3818
-485 -1477 3833
-470 -1468 3811
-457 -1463 3798
-450 -1478 3838
-437 -1476 3833
-421 -1458 3788
-406 -1449 3765
-393 -1443 3751
-397 -1501 3901
-432 -1680 4369
-435 -1744 4536
-415 -1720 4474
-404 -1732 4506
0 0 0
-166 -770 2004
-166 -800 2081
-162 -810 2108
-153 -798 2078
-155 -843 2195
-146 -831 2165
-137 -815 2122
-134 -836 2176
-137 -899 2342
-139 -958 2494
-157 -1142 2975
-154 -1185 3087
-147 -1203 3134
-137 -1204 3136
-128 -1209 3150
-118 -1198 3123
-109 -1210 3153
-99 -1206 3142
-89 -1200 3127
-81 -1210 3153
-70 -1192 3106
-60 -1183 3084
-52 -1212 3158
-42 -1205 3141
-32 -1192 3104
-23 -1195 3113
-14 -1208 3148
-4 -1213 3160
4 -1190 3099
14 -1209 3149
23 -1190 3098
33 -1207 3144
42 -1207 3143
52 -1208 3145
60 -1177 3063
68 -1161 3021
45 -661 1721
42 -547 1423
43 -508 1322
48 -516 1341
51 -505 1313
58 -538 1398
56 -480 1249
63 -506 1316
71 -535 1391
69 -488 1269
74 -501 1300
82 -528 1371
85 -515 1337
96 -557 1445
117 -653 1696
180 -971 2520
227 -1179 3058
237 -1182 3067
258 -1240 3215
265 -1227 3181
282 -1259 3264
285 -1226 3178
300 -1250 3237
0 0 0
316 -1235 3197
0 0 0
0 0 0
0 0 0
0 0 0
377 -1280 3309
361 -1194 3084
0 0 0
0 0 0
0 0 0
0 0 0
0 0 0
0 0 0
0 0 0
459 -1256 3234
464 -1243 3199
480 -1260 3241
487 -1253 3221
495 -1246 3202
513 -1266 3253
523 -1268 3256
534 -1271 3262
543 -1268 3254
553 -1268 3252
563 -1269 3252
570 -1262 3232
584 -1271 3254
595 -1272 3254
606 -1274 3258
621 -1286 3286
625 -1272 3250
634 -1272 3246
647 -1276 3257
655 -1273 3246
657 -1257 3203
658 -1242 3163
651 -1209 3078
651 -1192 3033
629 -1136 2888
651 -1159 2944
631 -1108 2813
590 -1021 2589
590 -1007 2554
595 -1003 2541
540 -897 2271
0 0 0
170 -271 685
165 -260 656
124 -191 481
101 -154 387
104 -156 393
91 -133 336
110 -161 404
100 -144 361
102 -145 364
115 -162 407
104 -146 365
4 0 0
0 0 0
0 0 0
0 0 0
0 0 0
0 0 0
0 0 0
0 0 0
0 0 0
0 0 0
0 0 0
0 0 0
0 0 0
0 0 0
0 0 0
0 0 0
0 0 0
0 0 0
0 0 0
0 0 0
0 0 0
0 0 0
0 0 0
0 0 0
0 0 0
0 0 0
0 0 0
1066 -1167 2849
1075 -1167 2846
1083 -1166 2840
1088 -1161 2825
1097 -1161 2821
1094 -1148 2787
1067 -1111 2694
1092 -1128 2730
1089 -1116 2700
1078 -1096 2647
1095 -1104 2663
1106 -1107 2668
1102 -1094 2633
1080 -1064 2556
1118 -1093 2623
1108 -1075 2578
1106 -1065 2549
1101 -1052 2515
1087 -1031 2461
1106 -1042 2483
1077 -1006 2396
1078 -1001 2379
1084 -998 2370
1098 -1005 2382
1114 -1012 2395
1094 -987 2333
1119 -1002 2365
1122 -998 2352
1107 -978 2302
1119 -981 2306
1106 -964 2262
1116 -966 2264
1117 -960 2247
1118 -954 2229
1103 -935 2181
1094 -922 2147
1105 -925 2150
1107 -921 2138
1112 -919 2130
1125 -924 2137
1127 -919 2124
1128 -914 2108
1122 -904 2080
1132 -906 2082
1140 -907 2082
1123 -888 2034
1134 -892 2038
1148 -897 2046
1129 -876 1996
1141 -881 2003
1139 -874 1984
1126 -858 1945
1121 -850 1921
1151 -867 1957
1134 -850 1915
1130 -842 1893
1106 -819 1837
-638 -446 1023
-599 -421 968
-594 -420 967
-617 -438 1011
-558 -399 922
-540 -388 898
-478 -346 802
-493 -359 833
-488 -357 831
-479 -353 822
-485 -359 839
-481 -358 838
-472 -354 828
-476 -359 843
-468 -356 836
-456 -349 821
-457 -351 828
-460 -356 840
-481 -374 885
-484 -379 898
-472 -372 883
-471 -374 888
-558 -445 1060
-734 -590 1406
-746 -603 1440
-747 -608 1453
-744 -609 1460
-738 -609 1460
-736 -611 1467
-720 -602 1447
-719 -605 1457
-709 -601 1449
-734 -626 1513
-739 -634 1534
-776 -671 1626
-792 -690 1673
-753 -660 1604
-710 -627 1526
-689 -613 1493
-696 -624 1522
-693 -626 1528
-668 -607 1484
-659 -604 1478
-642 -592 1451
-634 -590 1447
-612 -574 1410
-606 -572 1406
-602 -573 1411
-603 -578 1426
-596 -576 1422
-599 -583 1442
-606 -594 1470
-603 -596 1476
-595 -593 1470
-604 -607 1507
-590 -598 1485
-573 -586 1457
-587 -604 1505
-587 -609 1519
-583 -611 1524
-623 -658 1644
-726 -773 1933
-746 -801 2005
-726 -787 1971
-726 -794 1990
-721 -795 1997
-723 -805 2022
-709 -796 2001
-713 -808 2035
-698 -798 2010
-696 -803 2026
-695 -810 2045
-688 -809 2043
-681 -809 2045
-660 -791 2002
-655 -793 2008
-655 -801 2030
-654 -808 2050
-649 -808 2053
-638 -804 2043
-636 -809 2059
-623 -801 2038
-616 -800 2037
-611 -801 2043
-602 -799 2039
-600 -805 2055
-589 -798 2040
-579 -793 2027
-570 -789 2020
-561 -785 2011
-569 -806 2064
-555 -795 2038
-552 -801 2055
-547 -802 2060
-544 -807 2073
-528 -793 2040
-522 -794 2041
-520 -800 2060
-510 -796 2049
-510 -804 2073
-495 -792 2043
-492 -798 2058
-492 -808 2085
-481 -800 2067
-481 -810 2093
-471 -804 2080
-496 -860 2224
0 0 0
0 0 0
0 0 0
0 0 0
0 0 0
0 0 0
0 0 0
0 0 0
0 0 0
0 0 0
-724 -1477 3840
-695 -1441 3748
0 0 0
0 0 0
0 0 0
0 0 0
0 0 0
0 0 0
0 0 0
-553 -1321 3448
-575 -1402 3659
-567 -1408 3678
-569 -1442 3766
-559 -1446 3778
-556 -1468 3836
-548 -1479 3868
-533 -1471 3847
-533 -1502 3928
-511 -1475 3861
-501 -1479 3872
-490 -1483 3882
-475 -1472 3856
-464 -1475 3863
-449 -1465 3837
-440 -1473 3860
-425 -1461 3831
-413 -1461 3832
-396 -1443 3783
-393 -1471 3859
-442 -1704 4471
-434 -1728 4534
-420 -1729 4537
-396 -1683 4417
0 0 0
-193 -886 2325
-176 -840 2206
-173 -860 2259
-169 -872 2291
-164 -883 2319
-158 -889 2336
-154 -908 2385
-147 -910 2390
-148 -957 2516
-155 -1057 2778
-166 -1197 3145
-154 -1179 3098
-146 -1190 3129
-138 -1202 3160
-129 -1203 3161
-119 -1206 3169
-109 -1202 3161
-99 -1196 3144
-90 -1198 3148
-80 -1198 3150
-71 -1202 3161
-61 -1199 3152
-51 -1183 3111
-42 -1195 3141
-33 -1216 3196
-24 -1222 3213
-14 -1207 3172
-4 -1207 3173
4 -1202 3158
14 -1200 3154
23 -1202 3159
33 -1197 3145
42 -1196 3142
52 -1208 3173
61 -1179 3097
66 -1109 2913
48 -699 1834
41 -524 1376
47 -550 1444
47 -495 1298
55 -541 1420
56 -511 1339
62 -528 1385
65 -520 1364
68 -512 1342
74 -525 1377
80 -538 1409
86 -546 1431
89 -540 1414
105 -606 1588
141 -787 2060
201 -1079 2826
227 -1167 3054
245 -1214 3176
258 -1227 3210
269 -1234 3227
279 -1237 3235
285 -1218 3184
297 -1228 3209
311 -1244 3250
316 -1227 3204
330 -1242 3243
343 -1254 3273
347 -1233 3218
360 -1244 3245
374 -1259 3282
388 -1273 3318
390 -1247 3249
396 -1235 3216
396 -1202 3131
0 0 0
0 0 0
0 0 0
0 0 0
452 -1227 3188
471 -1251 3249
478 -1243 3226
488 -1243 3226
496 -1240 3216
508 -1245 3228
520 -1251 3241
528 -1245 3225
538 -1246 3226
554 -1260 3259
567 -1267 3277
573 -1257 3249
589 -1272 3285
595 -1263 3262
605 -1263 3258
612 -1256 3239
622 -1256 3236
635 -1262 3250
653 -1278 3291
656 -1265 3256
658 -1249 3212
663 -1241 3188
658 -1214 3117
653 -1187 3046
641 -1148 2943
629 -1110 2844
634 -1104 2829
604 -1038 2656
602 -1020 2610
576 -962 2459
549 -905 2311
0 0 0
0 0 0
137 -213 544
110 -168 429
96 -144 366
100 -149 378
104 -153 387
96 -138 351
95 -136 344
95 -134 339
96 -133 337
114 -158 401
0 0 0
1280 -1790 4523
0 0 0
0 0 0
0 0 0
0 0 0
0 0 0
0 0 0
0 0 0
0 0 0
0 0 0
0 0 0
0 0 0
0 0 0
0 0 0
0 0 0
0 0 0
0 0 0
0 0 0
0 0 0
0 0 0
0 0 0
0 0 0
0 0 0
0 0 0
0 0 0
0 0 0
1064 -1156 2848
1065 -1147 2822
1073 -1146 2816
1085 -1149 2821
1098 -1153 2828
1094 -1139 2791
1074 -1109 2714
1090 -1117 2729
1077 -1095 2671
1092 -1101 2684
1087 -1087 2647
1096 -1088 2645
1092 -1075 2612
1099 -1074 2604
1110 -1077 2609
1099 -1058 2560
1073 -1025 2476
1103 -1046 2523
1076 -1013 2440
1064 -994 2392
1111 -1031 2476
1090 -1003 2407
1125 -1029 2465
1115 -1012 2421
1123 -1012 2418
1109 -993 2368
1114 -989 2357
1127 -994 2366
1124 -985 2340
1110 -966 2290
1117 -965 2286
1126 -967 2286
1120 -955 2255
1111 -941 2218
1103 -928 2184
1090 -911 2140
1109 -921 2160
1105 -912 2135
1113 -913 2134
1124 -915 2137
1130 -915 2133
1129 -908 2114
1132 -904 2101
1124 -893 2071
1135 -896 2074
1133 -889 2055
1133 -883 2038
1144 -886 2042
1147 -883 2031
1130 -865 1986
1130 -860 1969
1143 -865 1978
1115 -839 1914
1120 -837 1907
1120 -832 1893
1134 -838 1902
1134 -833 1887
-632 -438 1014
-621 -433 1004
-616 -432 1003
-576 -406 945
-557 -395 921
-523 -373 871
-502 -360 843
-480 -347 812
-473 -343 807
-478 -349 821
-479 -352 830
-483 -357 842
-475 -354 836
-471 -353 836
-464 -350 830
-468 -355 843
-454 -346 825
-478 -367 874
-491 -379 905
-478 -371 888
-472 -369 883
-505 -397 953
-704 -557 1339
-747 -595 1433
-749 -601 1448
-753 -608 1467
-740 -601 1453
-731 -598 1447
-728 -599 1454
-722 -598 1452
-715 -597 1452
-713 -599 1459
-701 -593 1446
-706 -601 1468
-724 -621 1518
-722 -623 1526
-710 -618 1514
-708 -620 1522
-705 -622 1529
-705 -627 1543
-686 -614 1513
-666 -601 1483
-665 -604 1493
-655 -599 1482
-645 -595 1473
-651 -605 1500
-646 -605 1502
-643 -606 1507
-648 -616 1533
-632 -606 1509
-645 -623 1553
-652 -635 1584
-661 -648 1620
-677 -670 1676
-683 -681 1706
-671 -674 1691
-670 -679 1704
-667 -681 1712
-710 -731 1840
-707 -735 1851
-709 -742 1872
-729 -770 1943
-743 -792 2000
-728 -783 1979
-719 -779 1973
-730 -798 2023
-725 -800 2029
-717 -798 2026
-709 -796 2023
-700 -794 2020
-693 -793 2019
-685 -791 2016
-685 -799 2038
-679 -799 2040
-657 -782 1997
-650 -780 1995
-649 -787 2012
-653 -799 2046
-649 -802 2056
-638 -797 2044
-630 -795 2042
-625 -796 2046
-620 -799 2055
-611 -796 2047
-606 -797 2053
-598 -795 2049
-590 -794 2047
-582 -791 2041
-569 -782 2018
-573 -796 2056
-567 -797 2060
-554 -788 2038
-558 -803 2078
-550 -800 2072
-545 -803 2081
-535 -797 2067
-525 -792 2055
-520 -794 2063
-516 -798 2073
-513 -803 2089
-500 -794 2065
-488 -785 2044
-486 -791 2060
-483 -798 2079
-478 -800 2086
-479 -811 2116
-514 -882 2303
0 0 0
0 0 0
0 0 0
-588 -1068 2793
-641 -1182 3094
-643 -1203 3149
-661 -1256 3289
-678 -1308 3428
-632 -1239 3249
-732 -1458 3824
-722 -1460 3830
-716 -1472 3864
0 0 0
0 0 0
0 0 0
0 0 0
0 0 0
0 0 0
0 0 0
-573 -1359 3578
-579 -1399 3685
-571 -1408 3711
-568 -1427 3762
-556 -1428 3764
-551 -1445 3811
-549 -1469 3875
-536 -1467 3873
-530 -1482 3913
-517 -1481 3909
-503 -1474 3894
-493 -1480 3910
-484 -1488 3932
-467 -1474 3895
-456 -1474 3897
-441 -1464 3872
-430 -1467 3879
-416 -1458 3857
-404 -1460 3862
-391 -1456 3852
-425 -1628 4309
-442 -1745 4620
-424 -1730 4580
-406 -1713 4536
0 0 0
0 0 0
-204 -964 2554
-179 -879 2331
-176 -902 2391
-168 -895 2373
-169 -942 2497
-163 -951 2521
-159 -973 2579
-174 -1115 2956
-174 -1178 3123
-166 -1189 3153
-157 -1188 3151
-145 -1172 3108
-137 -1181 3133
-126 -1172 3109
-119 -1194 3168
-108 -1183 3137
-100 -1196 3172
-91 -1205 3198
-81 -1202 3189
-72 -1201 3186
-61 -1187 3148
-52 -1198 3179
-43 -1205 3197
-33 -1199 3181
-23 -1199 3180
-14 -1192 3162
-4 -1203 3190
4 -1193 3162
14 -1200 3181
24 -1195 3167
33 -1189 3152
43 -1199 3178
52 -1187 3146
60 -1162 3080
63 -1050 2782
46 -667 1766
42 -542 1436
49 -567 1502
50 -533 1412
59 -577 1529
60 -540 1430
64 -542 1434
66 -522 1380
72 -535 1417
76 -535 1416
86 -572 1513
82 -515 1362
95 -571 1510
121 -697 1842
163 -900 2379
212 -1127 2978
232 -1182 3123
244 -1197 3160
257 -1214 3205
269 -1224 3229
280 -1231 3247
284 -1205 3179
296 -1212 3196
311 -1235 3254
318 -1224 3226
327 -1223 3222
339 -1228 3234
349 -1230 3237
358 -1228 3231
369 -1230 3237
385 -1253 3296
386 -1223 3216
404 -1249 3281
409 -1233 3238
420 -1237 3249
423 -1216 3190
0 0 0
0 0 0
447 -1204 3155
467 -1232 3227
478 -1233 3231
486 -1228 3214
501 -1241 3248
504 -1226 3206
521 -1244 3251
527 -1234 3224
536 -1232 3219
552 -1244 3249
560 -1241 3238
571 -1242 3240
584 -1251 3260
590 -1242 3236
606 -1255 3267
613 -1248 3249
619 -1240 3224
629 -1240 3224
646 -1256 3261
649 -1241 3222
666 -1255 3257
662 -1229 3187
660 -1208 3129
651 -1174 3040
640 -1136 2940
638 -1117 2888
609 -1052 2719
582 -992 2561
584 -981 2531
579 -960 2476
547 -895 2307
0 0 0
0 0 0
159 -247 634
120 -182 469
95 -141 363
87 -127 327
97 -140 359
103 -148 378
96 -136 348
103 -144 368
102 -141 360
108 -149 380
0 0 0
0 0 0
0 0 0
0 0 0
0 0 0
0 0 0
0 0 0
0 0 0
0 0 0
0 0 0
0 0 0
0 0 0
0 0 0
0 0 0
0 0 0
0 0 0
0 0 0
0 0 0
0 0 0
0 0 0
0 0 0
0 0 0
0 0 0
0 0 0
0 0 0
0 0 0
0 0 0
1038 -1118 2780
1059 -1131 2810
1071 -1134 2813
1084 -1138 2820
1092 -1137 2815
1082 -1118 2763
1103 -1130 2790
1104 -1122 2766
1103 -1112 2739
1107 -1107 2724
1102 -1094 2688
1073 -1057 2593
1080 -1055 2586
1112 -1078 2639
1088 -1047 2560
1084 -1035 2527
1091 -1034 2520
1084 -1020 2483
1126 -1051 2556
1067 -989 2402
1060 -975 2365
1092 -997 2415
1109 -1006 2432
1110 -999 2413
1117 -999 2408
1126 -1000 2407
1116 -984 2366
1125 -985 2365
1114 -968 2321
1124 -970 2323
1114 -955 2283
1093 -930 2220
1109 -938 2235
1102 -926 2203
1110 -927 2201
1089 -903 2142
1102 -908 2150
1116 -914 2160
1117 -908 2144
1126 -910 2145
1127 -905 2128
1135 -905 2126
1129 -896 2100
1136 -895 2095
1137 -891 2081
1126 -876 2044
1130 -874 2034
1134 -871 2026
1127 -861 1998
1135 -862 1996
1132 -854 1976
1126 -845 1950
1134 -846 1949
1144 -849 1952
1119 -825 1895
1136 -833 1907
1141 -832 1902
-590 -405 948
-588 -407 952
-645 -449 1053
-579 -405 952
-557 -392 923
-512 -362 854
-484 -344 813
-492 -352 833
-493 -355 843
-481 -349 828
-481 -351 835
-473 -347 827
-468 -345 825
-465 -345 826
-466 -348 833
-463 -348 835
-462 -349 840
-468 -356 857
-458 -350 844
-473 -364 880
-480 -372 900
-543 -423 1026
-744 -584 1416
-742 -586 1424
-747 -594 1445
-737 -590 1438
-739 -596 1454
-735 -596 1457
-735 -601 1470
-743 -611 1498
-749 -620 1522
-758 -632 1553
-766 -643 1583
-780 -659 1624
-757 -644 1590
-724 -621 1534
-722 -623 1541
-780 -678 1681
-814 -712 1767
-805 -710 1764
-771 -685 1704
-727 -651 1620
-737 -664 1656
-732 -665 1660
-760 -695 1738
-758 -698 1748
-772 -716 1795
-787 -736 1846
-780 -736 1848
-740 -703 1768
-783 -749 1887
-802 -774 1951
-801 -779 1966
-802 -786 1986
-791 -782 1979
-775 -772 1955
-738 -741 1879
-725 -734 1863
-753 -769 1953
-725 -747 1899
-720 -749 1905
-748 -784 1997
-740 -783 1996
-741 -790 2016
-722 -777 1984
-728 -790 2021
-724 -792 2028
-707 -781 2000
-705 -786 2017
-697 -785 2014
-689 -783 2011
-683 -783 2013
-683 -791 2034
-665 -777 2003
-663 -782 2016
-658 -783 2020
-652 -784 2024
-652 -792 2046
-641 -787 2035
-637 -790 2044
-631 -790 2046
-624 -790 2047
-615 -785 2038
-609 -786 2041
-606 -791 2055
-598 -789 2051
-584 -778 2025
-581 -783 2040
-567 -773 2015
-565 -778 2030
-563 -785 2050
-557 -786 2053
-554 -790 2065
-547 -790 2065
-539 -787 2060
-530 -784 2052
-529 -792 2076
-520 -788 2066
-511 -784 2057
-509 -791 2077
-494 -777 2041
-495 -790 2074
-485 -784 2060
-479 -784 2063
-473 -784 2063
-473 -796 2095
0 0 0
0 0 0
0 0 0
-585 -1038 2740
-606 -1093 2885
-627 -1147 3031
-655 -1216 3213
-665 -1253 3312
-685 -1310 3465
-644 -1251 3310
-723 -1427 3778
-710 -1425 3774
-707 -1442 3821
0 0 0
0 0 0
0 0 0
0 0 0
0 0 0
0 0 0
0 0 0
-583 -1371 3642
-582 -1396 3711
-580 -1417 3769
-565 -1409 3749
-562 -1432 3811
-556 -1445 3847
-555 -1473 3921
-544 -1476 3931
-533 -1480 3943
-523 -1485 3956
-511 -1485 3959
-496 -1476 3934
-485 -1480 3948
-471 -1472 3926
-459 -1473 3929
-449 -1481 3952
-431 -1459 3895
-420 -1461 3900
-407 -1459 3897
-399 -1472 3931
-418 -1590 4248
-438 -1718 4591
-433 -1751 4680
-412 -1725 4609
-378 -1637 4374
0 0 0
-207 -969 2591
-192 -936 2504
-189 -958 2562
-184 -975 2607
-183 -1010 2702
-184 -1062 2841
-187 -1135 3036
-182 -1161 3105
-177 -1189 3182
-167 -1187 3177
-156 -1171 3133
-148 -1186 3174
-137 -1177 3150
-125 -1155 3092
-119 -1185 3171
-109 -1175 3145
-99 -1174 3143
-90 -1182 3164
-81 -1183 3167
-71 -1177 3149
-61 -1182 3165
-52 -1188 3179
-42 -1179 3154
-33 -1185 3173
-23 -1182 3165
-14 -1192 3189
-4 -1178 3151
4 -1184 3167
14 -1185 3171
24 -1193 3191
33 -1187 3175
43 -1179 3154
52 -1170 3130
59 -1130 3022
56 -912 2438
45 -645 1723
45 -571 1527
46 -524 1401
49 -514 1374
60 -581 1554
63 -563 1505
68 -573 1530
70 -553 1476
69 -510 1362
79 -551 1470
85 -560 1495
89 -555 1481
104 -622 1659
126 -724 1930
188 -1036 2764
215 -1135 3025
232 -1177 3137
248 -1208 3218
260 -1218 3246
270 -1218 3243
277 -1206 3211
291 -1222 3253
298 -1214 3230
311 -1226 3260
316 -1208 3212
328 -1216 3231
338 -1215 3229
351 -1226 3256
358 -1217 3231
368 -1216 3229
380 -1225 3251
392 -1232 3269
401 -1229 3258
409 -1223 3241
423 -1235 3272
435 -1242 3290
0 0 0
0 0 0
457 -1220 3227
458 -1197 3165
469 -1201 3174
482 -1208 3192
496 -1219 3220
509 -1227 3239
515 -1218 3213
526 -1220 3217
541 -1232 3247
547 -1224 3224
558 -1227 3231
570 -1231 3239
579 -1229 3234
589 -1229 3231
602 -1237 3250
613 -1239 3253
619 -1230 3227
635 -1242 3257
638 -1229 3221
658 -1249 3272
655 -1225 3206
673 -1238 3240
658 -1193 3119
651 -1165 3043
657 -1157 3022
639 -1110 2897
606 -1038 2708
600 -1014 2644
596 -994 2589
579 -951 2476
554 -899 2338
0 0 0
0 0 0
140 -215 557
103 -154 398
110 -163 421
89 -128 332
106 -154 397
104 -149 384
76 -105 271
73 -99 256
61 -82 211
56 -74 190
37 -47 120
0 0 0
0 0 0
0 0 0
0 0 0
0 0 0
0 0 0
0 0 0
0 0 0
0 0 0
0 0 0
0 0 0
0 0 0
0 0 0
0 0 0
0 0 0
0 0 0
0 0 0
0 0 0
0 0 0
0 0 0
0 0 0
0 0 0
0 0 0
0 0 0
0 0 0
0 0 0
1018 -1088 2730
1070 -1134 2842
1075 -1130 2829
1093 -1139 2848
1080 -1116 2787
1085 -1112 2775
1084 -1102 2745
1090 -1099 2734
1107 -1107 2753
1093 -1084 2691
1085 -1068 2647
1095 -1069 2648
1100 -1067 2638
1106 -1064 2627
1088 -1038 2562
1100 -1042 2567
1050 -987 2428
1109 -1035 2544
1106 -1025 2515
1091 -1003 2458
1091 -995 2435
1098 -994 2430
1117 -1005 2452
1104 -986 2403
1112 -986 2400
1110 -977 2375
1114 -974 2363
1104 -958 2322
1127 -972 2352
1084 -929 2243
1079 -918 2214
1125 -951 2290
1103 -926 2226
1117 -931 2236
1102 -912 2188
1117 -919 2199
1100 -899 2148
1107 -898 2144
1116 -900 2144
1128 -904 2150
1129 -900 2136
1126 -891 2112
1135 -893 2113
1146 -896 2116
1134 -881 2078
1128 -871 2051
1115 -855 2010
1133 -864 2027
1121 -849 1989
1119 -843 1970
1120 -839 1957
1121 -835 1945
1129 -835 1942
1136 -836 1940
1135 -830 1924
1146 -833 1927
1146 -829 1913
-622 -424 1001
-615 -421 996
-624 -430 1019
-650 -451 1070
-647 -451 1073
-517 -363 864
-501 -353 843
-489 -347 830
-493 -352 844
-490 -352 844
-483 -349 839
-461 -335 806
-478 -350 843
-467 -344 829
-461 -341 826
-461 -343 832
-453 -340 824
-485 -366 889
-485 -368 895
-461 -352 858
-489 -376 918
-576 -446 1091
-771 -600 1470
-794 -622 1526
-812 -640 1574
-824 -654 1609
-837 -669 1649
-852 -685 1691
-863 -699 1727
-877 -715 1770
-883 -725 1796
-890 -736 1826
-901 -749 1862
-900 -754 1876
-875 -738 1839
-782 -664 1658
-856 -732 1830
-916 -790 1975
-928 -805 2017
-923 -807 2024
-917 -807 2027
-886 -785 1975
-873 -780 1965
-874 -787 1983
-863 -782 1975
-851 -778 1966
-848 -781 1976
-848 -787 1992
-827 -773 1961
-829 -781 1982
-812 -772 1961
-827 -792 2014
-819 -790 2013
-809 -787 2007
-795 -780 1991
-780 -771 1971
-741 -739 1890
-753 -757 1938
-753 -763 1956
-734 -750 1924
-727 -749 1924
-750 -779 2003
-741 -777 2000
-728 -770 1983
-720 -768 1982
-722 -778 2007
-723 -785 2027
-713 -782 2021
-705 -780 2019
-684 -764 1978
-692 -779 2021
-682 -776 2014
-687 -789 2048
-676 -784 2038
-662 -774 2015
-663 -784 2041
-655 -781 2036
-649 -782 2040
-639 -777 2029
-638 -784 2048
-629 -781 2043
-623 -781 2044
-616 -781 2045
-609 -781 2046
-607 -786 2061
-595 -779 2044
-590 -780 2049
-578 -773 2031
-572 -774 2035
-565 -772 2033
-569 -786 2071
-558 -780 2056
-548 -776 2046
-550 -788 2079
-533 -773 2040
-529 -776 2051
-522 -775 2049
-519 -780 2063
-511 -778 2059
-507 -781 2068
-499 -780 2066
-490 -775 2054
-485 -778 2063
-483 -783 2079
-480 -790 2098
-482 -803 2135
-462 -781 2077
0 0 0
0 0 0
0 0 0
-624 -1115 2970
-646 -1172 3125
-640 -1179 3144
-657 -1228 3277
-649 -1233 3290
-623 -1201 3207
-710 -1391 3715
-730 -1452 3882
-719 -1455 3891
0 0 0
0 0 0
0 0 0
0 0 0
0 0 0
0 0 0
0 0 0
-604 -1408 3776
-599 -1425 3822
-582 -1413 3791
-575 -1423 3821
-567 -1431 3844
-561 -1446 3885
-560 -1476 3967
-543 -1462 3930
-534 -1471 3955
-524 -1475 3966
-512 -1476 3969
-498 -1470 3956
-488 -1476 3971
-474 -1470 3956
-463 -1474 3968
-450 -1470 3960
-437 -1468 3955
-423 -1461 3936
-410 -1457 3925
-398 -1455 3922
-403 -1518 4092
-438 -1704 4593
2 0 0
-415 -1724 4650
-384 -1649 4449
0 0 0
-219 -1020 2751
-214 -1033 2788
-209 -1049 2832
-212 -1111 2998
-212 -1158 3126
-203 -1160 3132
-192 -1155 3118
-185 -1169 3155
-176 -1173 3167
-166 -1171 3161
-156 -1164 3144
-147 -1168 3154
-136 -1156 3121
-130 -1183 3196
-119 -1174 3170
-108 -1160 3132
-99 -1168 3154
-91 -1182 3193
-80 -1171 3162
-71 -1179 3186
-61 -1169 3158
-52 -1174 3171
-42 -1176 3176
-33 -1175 3173
-23 -1163 3140
-14 -1173 3168
-4 -1169 3156
5 -1166 3147
14 -1164 3143
24 -1173 3168
33 -1167 3150
43 -1170 3157
51 -1150 3104
59 -1119 3019
53 -859 2317
43 -607 1638
48 -601 1622
49 -559 1508
55 -578 1558
61 -587 1581
64 -571 1539
67 -560 1510
73 -565 1522
79 -576 1551
85 -589 1586
96 -632 1702
99 -616 1658
110 -654 1761
147 -835 2246
203 -1112 2991
226 -1185 3188
240 -1206 3243
250 -1205 3241
257 -1194 3209
270 -1208 3247
277 -1197 3215
292 -1218 3271
299 -1206 3237
310 -1210 3249
315 -1192 3200
329 -1210 3245
340 -1214 3257
353 -1222 3277
359 -1209 3240
372 -1220 3269
377 -1206 3229
390 -1217 3257
405 -1232 3296
410 -1215 3251
420 -1217 3254
427 -1209 3232
462 -1277 3413
0 0 0
444 -1175 3136
458 -1187 3168
473 -1201 3204
478 -1190 3172
493 -1201 3201
507 -1213 3232
516 -1210 3222
526 -1212 3224
535 -1208 3214
544 -1207 3208
558 -1216 3231
570 -1222 3246
574 -1208 3206
588 -1217 3228
599 -1220 3235
607 -1216 3221
624 -1230 3258
629 -1221 3231
638 -1219 3224
650 -1224 3235
656 -1215 3211
669 -1221 3224
650 -1169 3085
659 -1169 3082
640 -1118 2947
641 -1104 2908
609 -1034 2722
588 -985 2591
585 -968 2543
576 -939 2467
546 -879 2307
451 -715 1876
0 0 0
121 -183 478
113 -168 439
106 -155 405
92 -133 348
95 -136 355
107 -151 395
84 -116 302
58 -78 203
30 -38 98
43 -55 143
0 0 0
0 0 0
0 0 0
0 0 0
0 0 0
0 0 0
0 0 0
0 0 0
0 0 0
0 0 0
0 0 0
0 0 0
0 0 0
0 0 0
0 0 0
0 0 0
0 0 0
0 0 0
0 0 0
0 0 0
0 0 0
0 0 0
0 0 0
0 0 0
0 0 0
0 0 0
0 0 0
1062 -1126 2851
1066 -1120 2833
1086 -1132 2861
1080 -1117 2818
1068 -1095 2760
1094 -1112 2800
1092 -1101 2769
1094 -1094 2749
1097 -1088 2730
1086 -1069 2680
1092 -1067 2670
1096 -1062 2654
1110 -1067 2664
1086 -1036 2582
1102 -1043 2598
1061 -997 2478
1068 -996 2472
1086 -1005 2493
1089 -1001 2478
1094 -997 2467
1099 -994 2456
1110 -997 2460
1105 -986 2428
1115 -988 2429
1105 -972 2387
1123 -981 2406
1141 -990 2425
1104 -951 2326
1107 -946 2311
1115 -947 2310
1100 -928 2259
1075 -900 2189
1129 -940 2281
1112 -920 2229
1122 -921 2230
1105 -901 2178
1110 -900 2171
1110 -894 2153
1117 -894 2149
1115 -887 2129
1129 -892 2138
1134 -890 2131
1143 -892 2130
1131 -877 2091
1128 -869 2069
1132 -867 2061
1128 -858 2036
1113 -842 1994
1125 -846 2000
1132 -846 1996
1134 -842 1984
1127 -832 1958
1153 -847 1987
1132 -826 1935
1148 -833 1948
1138 -821 1917
1146 -822 1915
-754 -510 1216
-747 -508 1213
-752 -514 1230
-744 -511 1226
-714 -494 1185
-519 -361 869
-498 -348 839
-481 -338 817
-479 -340 821
-472 -336 814
-475 -341 826
-475 -342 832
-476 -346 841
-478 -349 850
-469 -344 841
-459 -340 830
-463 -345 844
-487 -364 894
-469 -353 868
-469 -356 876
-493 -376 927
-648 -497 1228
-905 -699 1728
-937 -728 1803
-955 -747 1853
-965 -760 1888
-974 -772 1920
-988 -788 1963
-992 -796 1987
-987 -798 1995
-992 -808 2021
-986 -808 2025
-983 -811 2035
-972 -808 2030
-957 -801 2015
-922 -777 1957
-943 -800 2017
-952 -814 2055
-944 -813 2055
-936 -811 2054
-930 -812 2059
-904 -796 2020
-888 -787 2001
-883 -788 2005
-882 -794 2022
-875 -793 2023
-870 -795 2030
-852 -785 2006
-836 -776 1985
-824 -771 1975
-822 -775 1987
-818 -777 1995
-806 -771 1982
-809 -780 2008
-791 -769 1981
-759 -744 1919
-739 -731 1887
-764 -761 1968
-740 -743 1923
-718 -728 1886
-729 -745 1932
-754 -777 2017
-751 -781 2029
-728 -764 1987
-721 -763 1987
-733 -782 2038
-718 -774 2018
-703 -764 1995
-706 -775 2024
-693 -767 2006
-695 -777 2034
-677 -763 1999
-682 -777 2037
-674 -774 2031
-665 -771 2025
-656 -769 2021
-651 -770 2025
-649 -776 2043
-642 -775 2042
-638 -777 2050
-623 -767 2025
-620 -772 2039
-614 -772 2040
-611 -776 2054
-598 -768 2034
-598 -776 2057
-583 -765 2028
-580 -770 2042
-576 -773 2053
-567 -769 2043
-563 -772 2052
-557 -773 2056
-550 -772 2054
-544 -773 2059
-536 -770 2052
-527 -767 2046
-527 -776 2071
-522 -779 2079
-511 -771 2060
-506 -773 2068
-499 -772 2066
-489 -767 2054
-486 -771 2066
-478 -770 2063
-467 -763 2045
-478 -790 2120
-458 -769 2063
-492 -837 2246
0 0 0
-551 -963 2588
-612 -1085 2919
-656 -1181 3177
-636 -1162 3127
-644 -1195 3217
-643 -1210 3261
-623 -1192 3213
-689 -1338 3609
-738 -1457 3930
-687 -1378 3719
0 0 0
0 0 0
0 0 0
0 0 0
0 0 0
0 0 0
0 0 0
-586 -1357 3672
-599 -1412 3823
-593 -1425 3861
-581 -1427 3866
-568 -1422 3855
-568 -1454 3940
-557 -1455 3946
-545 -1456 3948
-533 -1456 3950
-524 -1465 3976
-516 -1475 4005
-505 -1479 4016
-491 -1473 4001
-477 -1468 3988
-462 -1460 3966
-455 -1475 4008
-439 -1464 3979
-426 -1461 3971
-413 -1454 3955
-402 -1460 3970
-389 -1456 3962
-431 -1661 4519
2 0 -1
-423 -1742 4741
-391 -1668 4541
-260 -1152 3137
-237 -1092 2975
-236 -1129 3073
-228 -1136 3094
-224 -1161 3161
-210 -1140 3105
-201 -1142 3112
-194 -1156 3151
-182 -1139 3104
-174 -1151 3135
-163 -1142 3111
-157 -1161 3164
-147 -1158 3155
-133 -1126 3070
-128 -1162 3168
-118 -1155 3148
-109 -1165 3175
-99 -1161 3165
-89 -1155 3149
-80 -1155 3148
-70 -1152 3139
-62 -1167 3181
-51 -1156 3151
-42 -1169 3187
-33 -1169 3185
-23 -1158 3155
-14 -1178 3211
-4 -1148 3128
5 -1147 3124
14 -1149 3131
24 -1167 3181
33 -1155 3146
43 -1158 3155
52 -1145 3119
59 -1111 3027
53 -844 2298
47 -659 1794
51 -637 1734
51 -583 1587
61 -633 1722
64 -617 1679
66 -584 1590
75 -617 1678
76 -586 1594
81 -589 1602
84 -576 1567
100 -653 1774
110 -679 1845
132 -782 2125
188 -1067 2898
209 -1135 3082
229 -1187 3222
237 -1178 3197
249 -1189 3226
260 -1198 3249
270 -1196 3243
277 -1185 3213
287 -1188 3219
296 -1185 3210
310 -1202 3256
319 -1197 3242
327 -1192 3227
337 -1192 3225
351 -1207 3265
360 -1205 3260
369 -1201 3246
380 -1205 3257
390 -1206 3258
402 -1211 3272
409 -1203 3247
420 -1208 3258
430 -1208 3257
0 0 0
0 0 0
460 -1209 3257
457 -1175 3163
469 -1182 3181
481 -1187 3193
497 -1202 3233
502 -1190 3199
516 -1200 3224
528 -1205 3235
537 -1203 3228
541 -1191 3196
554 -1198 3212
564 -1198 3211
578 -1207 3233
592 -1215 3252
596 -1204 3221
610 -1212 3241
622 -1215 3248
629 -1210 3231
636 -1205 3218
647 -1207 3219
659 -1210 3228
663 -1200 3198
651 -1161 3092
645 -1134 3019
646 -1119 2977
617 -1054 2803
607 -1022 2714
584 -970 2574
579 -950 2519
572 -925 2452
555 -885 2344
0 0 0
185 -283 750
129 -194 512
132 -196 516
93 -135 356
121 -175 462
103 -147 387
138 -196 515
79 -108 283
54 -72 189
62 -81 214
47 -61 159
1272 -1741 4568
0 0 0
0 0 0
0 0 0
0 0 0
0 0 0
0 0 0
0 0 0
0 0 0
0 0 0
0 0 0
0 0 0
0 0 0
0 0 0
0 0 0
0 0 0
0 0 0
0 0 0
0 0 0
0 0 0
0 0 0
0 0 0
0 0 0
0 0 0
0 0 0
0 0 0
0 0 0
1048 -1102 2816
1058 -1103 2816
1086 -1122 2862
1089 -1116 2843
1095 -1113 2831
1115 -1124 2858
1088 -1088 2762
1102 -1093 2770
1106 -1088 2755
1093 -1067 2698
1063 -1029 2600
1078 -1036 2612
1106 -1054 2656
1099 -1039 2616
1096 -1029 2586
1100 -1025 2573
1117 -1033 2590
1121 -1029 2577
1116 -1017 2543
1094 -990 2470
1118 -1004 2502
1096 -977 2432
1128 -998 2481
1111 -976 2423
1099 -958 2376
1109 -961 2379
1119 -962 2379
1082 -924 2281
1112 -943 2324
1103 -930 2288
1089 -911 2239
1125 -936 2296
1110 -916 2245
1121 -919 2248
1124 -915 2236
1112 -900 2194
1114 -895 2180
1112 -888 2160
1118 -887 2154
1123 -885 2146
1124 -881 2131
1132 -881 2128
1138 -881 2123
1137 -875 2105
1127 -862 2070
1122 -852 2044
1126 -850 2036
1128 -846 2023
1143 -852 2033
1138 -844 2010
1127 -830 1974
1141 -836 1984
1137 -828 1962
1130 -818 1934
1150 -827 1953
1141 -816 1923
1158 -824 1938
-771 -517 1244
-762 -514 1239
-750 -508 1228
-751 -513 1240
-676 -464 1124
-491 -339 823
-491 -341 828
-490 -342 833
-490 -344 840
-478 -338 826
-474 -337 826
-470 -336 824
-466 -335 824
-463 -335 825
-467 -341 839
-461 -338 834
-460 -339 839
-492 -365 905
-460 -344 853
-459 -345 857
-513 -388 965
-843 -641 1598
-1036 -793 1980
-1043 -804 2010
-1045 -811 2030
-1038 -810 2033
-1035 -814 2044
-1030 -815 2050
-1023 -815 2052
-1013 -812 2048
-1005 -812 2050
-999 -812 2053
-990 -810 2051
-982 -809 2052
-970 -805 2043
-946 -791 2011
-953 -802 2041
-950 -805 2053
-944 -806 2057
-938 -807 2062
-923 -799 2046
-903 -788 2019
-888 -781 2003
-894 -791 2033
-882 -787 2023
-867 -779 2006
-869 -787 2029
-857 -782 2019
-842 -775 2002
-824 -763 1975
-835 -780 2021
-812 -765 1983
-812 -770 2000
-817 -782 2031
-791 -763 1985
-785 -764 1989
-766 -751 1956
-744 -736 1920
-751 -749 1956
-751 -755 1975
-739 -749 1961
-742 -759 1989
-740 -764 2002
-716 -745 1955
-721 -757 1989
-716 -758 1994
-720 -769 2024
-706 -761 2005
-695 -756 1993
-706 -775 2045
-685 -759 2004
-686 -767 2029
-685 -774 2047
-671 -765 2027
-653 -752 1994
-649 -754 2000
-652 -765 2031
-653 -773 2055
-646 -773 2056
-635 -768 2044
-626 -765 2038
-617 -761 2030
-617 -769 2053
-604 -761 2033
-604 -769 2054
-596 -767 2051
-585 -761 2038
-572 -752 2015
-571 -760 2037
-569 -765 2052
-557 -758 2035
-554 -763 2049
-553 -771 2070
-542 -764 2054
-540 -769 2070
-531 -766 2062
-526 -768 2068
-516 -763 2056
-510 -763 2057
-505 -765 2066
-496 -762 2058
-489 -761 2055
-484 -762 2060
-477 -761 2059
-477 -772 2089
-473 -777 2102
-478 -795 2153
-444 -749 2030
0 0 0
-582 -1008 2735
-599 -1054 2860
-626 -1117 3034
-625 -1132 3075
-616 -1133 3081
-613 -1145 3114
-628 -1191 3239
-686 -1322 3598
-732 -1433 3901
-698 -1389 3782
0 0 0
0 0 0
0 0 0
0 0 0
0 0 0
0 0 0
0 0 0
-598 -1372 3747
-611 -1430 3907
-602 -1437 3927
-588 -1431 3912
-582 -1446 3954
-568 -1442 3946
-560 -1451 3972
-549 -1455 3984
-539 -1460 3998
-530 -1468 4021
-517 -1465 4014
-503 -1461 4005
-493 -1466 4019
-480 -1464 4014
-466 -1459 4002
-455 -1465 4017
-441 -1458 3999
-430 -1461 4010
-417 -1456 3996
-404 -1455 3993
-393 -1458 4004
-407 -1558 4279
-426 -1682 4620
1 -3 7
-395 -1672 4593
-281 -1235 3393
-250 -1140 3133
-239 -1133 3115
-231 -1143 3141
-220 -1136 3122
-209 -1125 3093
-201 -1135 3121
-189 -1115 3065
-181 -1124 3092
-169 -1111 3055
-164 -1135 3121
-156 -1145 3150
-144 -1131 3112
-133 -1114 3064
-127 -1143 3145
-116 -1127 3099
-106 -1125 3095
-99 -1149 3162
-90 -1155 3178
-80 -1150 3162
-71 -1159 3188
-61 -1152 3169
-52 -1165 3205
-42 -1141 3139
-32 -1135 3123
-23 -1146 3151
-14 -1166 3207
-4 -1150 3164
5 -1145 3150
14 -1146 3150
24 -1148 3158
34 -1162 3194
42 -1138 3129
51 -1122 3085
59 -1105 3037
51 -812 2231
52 -727 1998
55 -693 1904
62 -705 1938
63 -656 1801
63 -601 1651
73 -642 1763
75 -617 1693
88 -679 1862
85 -616 1691
94 -642 1762
102 -657 1803
116 -713 1956
130 -760 2084
198 -1114 3054
219 -1177 3227
230 -1185 3246
236 -1166 3195
248 -1178 3227
261 -1192 3264
269 -1182 3235
277 -1176 3217
285 -1170 3201
298 -1182 3232
307 -1179 3224
321 -1197 3271
331 -1195 3264
338 -1184 3235
348 -1187 3242
360 -1194 3260
369 -1191 3249
378 -1190 3245
391 -1199 3268
401 -1198 3264
411 -1198 3263
419 -1195 3254
426 -1185 3225
422 -1147 3121
0 0 0
445 -1159 3151
458 -1168 3173
471 -1176 3194
479 -1173 3185
491 -1177 3194
502 -1181 3204
513 -1184 3211
520 -1178 3191
535 -1189 3221
538 -1173 3176
552 -1183 3200
564 -1189 3216
574 -1189 3213
585 -1191 3219
600 -1201 3242
609 -1201 3241
618 -1199 3234
623 -1189 3205
640 -1202 3239
652 -1207 3250
652 -1188 3196
668 -1199 3224
647 -1145 3077
629 -1097 2945
636 -1094 2936
628 -1064 2855
625 -1044 2800
580 -955 2559
582 -947 2535
593 -951 2544
556 -879 2351
0 0 0
0 0 0
120 -178 474
143 -211 562
0 0 0
100 -143 380
135 -192 511
129 -181 480
65 -87 231
46 -59 157
95 -127 337
65 -84 222
8 -6 15
0 0 0
0 0 0
0 0 0
0 0 0
0 0 0
0 0 0
0 0 0
0 0 0
0 0 0
0 0 0
0 0 0
0 0 0
0 0 0
0 0 0
0 0 0
0 0 0
0 0 0
0 0 0
0 0 0
0 0 0
0 0 0
0 0 0
0 0 0
0 0 0
0 0 0
0 0 0
1016 -1060 2734
1055 -1090 2809
1073 -1100 2831
1091 -1109 2852
1090 -1099 2821
1109 -1109 2845
1094 -1085 2779
1083 -1065 2726
1099 -1073 2741
1119 -1083 2766
1103 -1059 2701
1049 -999 2545
1088 -1029 2617
1102 -1034 2626
1094 -1018 2584
1100 -1017 2576
1108 -1016 2571
1122 -1022 2582
1109 -1002 2529
1107 -993 2503
1110 -989 2488
1102 -974 2447
1119 -982 2466
1096 -955 2394
1099 -951 2380
1085 -932 2329
1083 -923 2305
1121 -950 2366
1113 -937 2331
1106 -924 2296
1110 -921 2285
1108 -913 2262
1111 -910 2250
1110 -903 2229
1123 -907 2236
1125 -903 2224
1126 -898 2207
1115 -883 2168
1118 -880 2157
1122 -878 2147
1119 -870 2125
1130 -873 2128
1131 -868 2113
1136 -866 2106
1113 -844 2047
1126 -848 2053
1132 -847 2049
1144 -851 2054
1131 -836 2014
1132 -832 2001
1139 -832 1999
1134 -824 1974
1147 -828 1981
1145 -822 1963
1148 -819 1952
1146 -813 1934
1143 -806 1914
-757 -503 1223
-717 -480 1168
-733 -493 1202
-710 -480 1174
-587 -399 978
-498 -341 835
-484 -333 819
-474 -328 808
-494 -344 848
-480 -336 830
-478 -337 834
-474 -336 833
-476 -340 843
-467 -336 834
-460 -333 828
-461 -335 835
-463 -339 845
-476 -350 876
-469 -347 870
-457 -341 855
-547 -410 1030
-992 -749 1884
-1069 -811 2046
-1062 -811 2049
-1054 -810 2049
-1046 -810 2050
-1037 -808 2049
-1034 -811 2061
-1027 -811 2062
-1013 -806 2052
-1008 -807 2057
-998 -805 2055
-987 -801 2049
-981 -801 2052
-968 -796 2042
-952 -789 2026
-954 -796 2046
-954 -802 2064
-945 -800 2063
-939 -800 2066
-924 -793 2050
-900 -779 2014
-893 -778 2017
-893 -784 2033
-864 -765 1986
-868 -773 2011
-857 -769 2003
-842 -762 1986
-834 -761 1984
-826 -760 1984
-843 -781 2042
-791 -739 1933
-811 -763 2000
-808 -767 2012
-779 -745 1957
-752 -725 1906
-753 -732 1926
-760 -745 1963
-756 -748 1972
-748 -746 1969
-752 -756 1998
-745 -756 1999
-745 -762 2017
-739 -762 2021
-711 -740 1964
-722 -758 2013
-712 -754 2004
-713 -762 2027
-690 -745 1983
-703 -765 2039
-686 -753 2009
-683 -758 2024
-682 -764 2041
-667 -754 2017
-657 -750 2007
-651 -751 2011
-662 -771 2066
-647 -760 2040
-639 -759 2037
-633 -759 2040
-620 -751 2019
-617 -755 2032
-613 -758 2042
-609 -761 2052
-607 -766 2067
-603 -770 2078
-592 -764 2064
-577 -752 2034
-563 -742 2008
-566 -755 2043
-563 -760 2059
-556 -759 2056
-552 -761 2065
-550 -768 2085
-536 -757 2057
-530 -759 2062
-526 -761 2070
-522 -766 2083
-509 -756 2057
-503 -757 2061
-498 -759 2068
-490 -755 2059
-486 -759 2070
-476 -754 2059
-479 -768 2099
-478 -778 2127
-486 -801 2191
0 0 0
-586 -993 2718
-597 -1026 2808
-638 -1113 3050
-608 -1077 2952
-618 -1110 3044
-605 -1104 3027
-607 -1124 3085
-621 -1169 3209
-695 -1328 3648
-728 -1414 3886
0 0 0
0 0 0
0 0 0
0 0 0
0 0 0
0 0 0
0 0 0
0 0 0
-577 -1313 3619
-604 -1403 3868
-609 -1440 3973
-598 -1444 3984
-587 -1445 3990
-579 -1456 4021
-561 -1442 3984
-551 -1449 4003
-543 -1458 4030
-529 -1453 4017
-519 -1459 4035
-505 -1455 4024
-494 -1459 4035
-478 -1446 4003
-472 -1466 4057
-456 -1455 4027
-448 -1467 4063
-432 -1456 4032
-420 -1457 4036
-402 -1435 3977
-395 -1453 4026
-394 -1497 4149
-427 -1674 4640
-4 -28 77
-406 -1701 4716
0 0 0
-251 -1137 3154
-238 -1120 3107
-226 -1106 3067
-216 -1102 3057
-204 -1089 3021
-197 -1101 3054
-190 -1116 3096
-180 -1108 3076
-171 -1111 3085
-158 -1088 3021
-152 -1106 3070
-141 -1098 3049
-133 -1109 3079
-124 -1109 3080
-116 -1117 3101
-106 -1114 3094
-99 -1143 3173
-89 -1129 3134
-79 -1121 3112
-69 -1115 3095
-61 -1133 3147
-52 -1143 3172
-41 -1127 3129
-32 -1136 3155
-23 -1125 3123
-13 -1134 3147
-4 -1135 3151
5 -1137 3157
14 -1127 3127
24 -1138 3158
33 -1136 3151
42 -1121 3112
50 -1097 3042
57 -1050 2912
54 -846 2345
57 -796 2209
62 -773 2144
69 -781 2165
71 -734 2034
70 -657 1821
80 -697 1932
85 -698 1935
93 -711 1970
101 -725 2009
110 -745 2064
113 -723 2003
135 -826 2286
167 -973 2693
206 -1151 3184
218 -1161 3210
228 -1166 3225
239 -1170 3234
247 -1159 3205
259 -1175 3245
266 -1161 3206
278 -1168 3227
286 -1164 3213
297 -1169 3227
309 -1177 3247
321 -1186 3272
330 -1183 3261
343 -1194 3292
351 -1186 3268
360 -1185 3264
369 -1181 3253
378 -1180 3248
387 -1176 3237
398 -1180 3246
411 -1189 3269
416 -1175 3231
421 -1162 3192
0 0 0
0 0 0
440 -1137 3120
457 -1154 3166
470 -1164 3191
481 -1166 3197
490 -1166 3195
499 -1164 3187
514 -1176 3219
525 -1177 3221
534 -1178 3220
544 -1177 3217
560 -1190 3250
565 -1179 3220
572 -1174 3202
586 -1183 3226
599 -1189 3241
610 -1191 3244
615 -1183 3220
625 -1182 3216
636 -1185 3223
645 -1184 3218
652 -1178 3198
656 -1167 3168
662 -1161 3149
626 -1082 2935
628 -1070 2900
626 -1052 2848
621 -1029 2785
589 -962 2602
595 -959 2593
567 -902 2436
579 -909 2454
523 -809 2183
0 0 0
0 0 0
113 -164 441
0 0 0
0 0 0
119 -166 447
102 -141 377
0 0 0
59 -78 208
48 -60 161
25 -28 76
10 -9 23
0 0 0
0 0 0
0 0 0
0 0 0
0 0 0
0 0 0
0 0 0
0 0 0
0 0 0
0 0 0
0 0 0
0 0 0
0 0 0
0 0 0
0 0 0
0 0 0
0 0 0
0 0 0
0 0 0
0 0 0
0 0 0
1064 -1150 3010
0 0 0
0 0 0
0 0 0
0 0 0
1009 -1043 2717
1074 -1101 2864
1076 -1094 2843
1076 -1085 2816
1088 -1088 2820
1086 -1077 2788
1098 -1080 2794
1118 -1091 2819
1100 -1065 2748
1103 -1059 2729
1045 -996 2563
1086 -1027 2639
1092 -1024 2628
1094 -1018 2611
1111 -1026 2628
1102 -1010 2583
1113 -1012 2585
1105 -998 2544
1115 -999 2546
1104 -982 2499
1105 -975 2478
1105 -969 2459
1084 -944 2391
1069 -924 2338
1081 -927 2343
1063 -906 2285
1085 -918 2312
1085 -912 2294
1094 -913 2293
1109 -919 2304
1105 -909 2277
1114 -911 2277
1135 -921 2301
1125 -908 2263
1122 -899 2238
1117 -889 2210
1118 -884 2194
1105 -868 2150
1118 -873 2160
1115 -864 2135
1121 -864 2129
1118 -857 2108
1126 -857 2106
1118 -846 2075
1128 -848 2076
1132 -846 2068
1123 -834 2035
1128 -832 2028
1135 -832 2024
1141 -832 2020
1136 -824 1996
1139 -821 1986
1138 -815 1968
1150 -818 1973
1148 -812 1955
1140 -802 1926
1138 -796 1909
-695 -458 1124
-690 -458 1125
-687 -458 1128
-647 -434 1070
-536 -362 894
-506 -343 850
-499 -341 845
-483 -331 823
-488 -337 839
-471 -327 815
-477 -333 832
-482 -339 847
-470 -333 834
-472 -336 843
-456 -327 822
-475 -343 863
-484 -351 885
-475 -346 875
-445 -327 827
-476 -352 892
-590 -439 1113
-1050 -785 1995
-1070 -805 2051
-1063 -805 2053
-1056 -806 2057
-1047 -804 2056
-1043 -806 2064
-1033 -803 2060
-1027 -804 2065
-1016 -801 2061
-1011 -803 2067
-1002 -801 2064
-991 -797 2059
-987 -800 2068
-964 -786 2036
-952 -782 2028
-959 -793 2059
-955 -796 2069
-943 -791 2059
-939 -794 2070
-925 -788 2055
-892 -765 1999
-891 -770 2014
-894 -778 2038
-869 -762 1999
-872 -771 2023
-870 -775 2036
-846 -760 1999
-839 -759 1999
-821 -749 1974
-830 -763 2014
-816 -756 1997
-800 -747 1975
-806 -759 2009
-781 -740 1963
-773 -739 1961
-757 -730 1938
-756 -735 1954
-764 -749 1994
-752 -744 1982
-750 -747 1994
-750 -754 2012
-746 -757 2024
-715 -731 1957
-721 -744 1992
-719 -748 2006
-720 -756 2029
-698 -740 1986
-698 -747 2008
-697 -753 2025
-685 -746 2009
-685 -753 2031
-680 -754 2035
-663 -744 2007
-643 -728 1967
-653 -747 2019
-652 -752 2035
-649 -756 2048
-639 -752 2039
-632 -752 2040
-622 -748 2029
-615 -746 2028
-615 -754 2050
-613 -760 2068
-606 -759 2066
-601 -761 2075
-592 -758 2067
-574 -743 2028
-577 -755 2060
-572 -757 2069
-564 -754 2062
-552 -747 2044
-544 -745 2041
-542 -751 2057
-538 -754 2067
-532 -755 2071
-526 -756 2075
-515 -748 2056
-505 -744 2045
-501 -747 2053
-500 -755 2077
-490 -749 2063
-486 -752 2072
-479 -752 2071
-477 -759 2092
-482 -777 2144
-511 -836 2306
-565 -937 2588
-573 -963 2661
-613 -1045 2888
-629 -1087 3007
-625 -1097 3036
-610 -1087 3009
-605 -1094 3030
-616 -1132 3137
-642 -1198 3319
-707 -1340 3716
-718 -1382 3835
0 0 0
0 0 0
0 0 0
0 0 0
0 0 0
0 0 0
0 0 0
0 0 0
-572 -1290 3591
-571 -1315 3660
-576 -1352 3764
-588 -1407 3921
-592 -1446 4028
-576 -1438 4009
-565 -1440 4016
-550 -1434 3999
-540 -1438 4012
-527 -1436 4006
-518 -1446 4036
-503 -1437 4013
-490 -1434 4003
-480 -1440 4022
-467 -1439 4020
-454 -1436 4013
-442 -1435 4011
-428 -1429 3994
-417 -1434 4010
-403 -1429 3995
-397 -1449 4053
-399 -1501 4199
-434 -1685 4716
-8 -45 125
-6 -37 104
-374 -1614 4517
-266 -1193 3339
-240 -1123 3143
-226 -1098 3074
-216 -1095 3065
-209 -1108 3103
-197 -1095 3067
-191 -1110 3109
-182 -1115 3125
-172 -1109 3107
-163 -1112 3116
-153 -1108 3105
-146 -1125 3153
-136 -1120 3139
-125 -1109 3108
-116 -1111 3114
-107 -1110 3110
-98 -1117 3131
-87 -1103 3091
-79 -1117 3132
-70 -1122 3144
-60 -1106 3099
-50 -1104 3094
-41 -1108 3104
-32 -1119 3135
-22 -1108 3105
-13 -1121 3142
-4 -1130 3167
5 -1120 3138
14 -1127 3157
23 -1106 3099
32 -1096 3070
41 -1087 3045
50 -1085 3038
57 -1040 2912
59 -925 2588
68 -949 2655
77 -959 2683
85 -954 2670
81 -830 2323
90 -848 2373
97 -849 2376
0 0 0
110 -838 2343
128 -918 2566
131 -883 2468
135 -865 2416
144 -872 2436
182 -1055 2945
209 -1155 3224
217 -1145 3197
227 -1151 3211
238 -1155 3224
247 -1153 3215
260 -1168 3258
265 -1144 3190
278 -1161 3237
290 -1171 3263
297 -1156 3221
308 -1162 3236
319 -1168 3253
332 -1179 3281
338 -1165 3242
354 -1185 3297
357 -1165 3239
370 -1175 3265
379 -1172 3256
386 -1163 3231
399 -1173 3256
406 -1164 3232
413 -1156 3208
424 -1160 3216
447 -1195 3313
0 0 0
448 -1147 3177
459 -1149 3181
467 -1146 3170
479 -1152 3188
488 -1150 3180
501 -1158 3201
515 -1167 3225
523 -1163 3212
534 -1168 3223
540 -1158 3194
550 -1159 3197
561 -1162 3201
573 -1167 3214
582 -1164 3205
587 -1156 3180
606 -1174 3228
615 -1173 3222
627 -1177 3233
633 -1169 3210
647 -1177 3228
656 -1176 3224
653 -1152 3158
649 -1129 3091
664 -1138 3116
640 -1081 2957
629 -1048 2864
606 -996 2721
599 -970 2649
583 -932 2542
569 -897 2444
587 -913 2489
530 -814 2216
0 0 0
0 0 0
0 0 0
0 0 0
0 0 0
0 0 0
0 0 0
122 -165 447
0 0 0
86 -113 304
13 -12 32
1266 -1691 4561
0 0 0
0 0 0
0 0 0
0 0 0
0 0 0
0 0 0
0 0 0
0 0 0
0 0 0
0 0 0
0 0 0
0 0 0
0 0 0
0 0 0
0 0 0
0 0 0
0 0 0
0 0 0
0 0 0
1071 -1168 3093
1060 -1145 3030
1069 -1145 3026
1056 -1121 2961
0 0 0
0 0 0
0 0 0
1038 -1064 2796
1065 -1083 2844
1071 -1079 2831
1086 -1085 2843
1090 -1081 2829
1101 -1082 2829
1094 -1067 2785
1091 -1056 2753
1100 -1056 2750
1052 -1002 2606
1109 -1047 2721
1092 -1024 2657
1096 -1019 2642
1109 -1023 2648
1107 -1014 2622
1103 -1002 2587
1098 -990 2553
1124 -1006 2590
1092 -970 2495
1093 -964 2476
1127 -987 2532
1109 -964 2469
1071 -924 2364
1062 -910 2325
1101 -937 2389
1069 -903 2300
1113 -934 2375
1113 -927 2355
1110 -918 2328
1111 -913 2312
1122 -916 2316
1118 -906 2288
1119 -901 2271
1125 -900 2264
1118 -888 2232
1123 -886 2224
1111 -871 2183
1111 -866 2165
1119 -866 2163
1117 -859 2142
1127 -861 2144
1117 -848 2109
1120 -845 2097
1132 -849 2103
1137 -847 2095
1128 -836 2063
1129 -831 2048
1129 -826 2032
1139 -829 2035
1137 -822 2015
1133 -814 1993
1149 -821 2004
1142 -811 1978
1142 -806 1963
1142 -802 1948
1136 -793 1922
1140 -791 1914
-696 -455 1128
-699 -460 1141
-676 -447 1111
-650 -432 1077
-515 -344 860
-493 -332 830
-479 -324 812
-489 -333 835
-485 -332 835
-482 -332 837
-481 -333 840
-474 -331 835
-474 -333 842
-465 -328 832
-461 -327 831
-457 -327 831
-480 -345 880
-467 -338 861
-462 -336 859
-488 -357 914
-657 -484 1241
-1062 -788 2022
-1072 -800 2057
-1063 -798 2056
-1056 -798 2058
-1050 -799 2063
-1039 -796 2059
-1033 -797 2063
-1025 -796 2064
-1017 -795 2065
-1006 -792 2059
-999 -791 2061
-991 -791 2062
-975 -784 2046
-960 -776 2030
-951 -774 2027
-959 -787 2063
-951 -786 2063
-942 -784 2061
-938 -786 2068
-920 -777 2046
-898 -764 2015
-889 -762 2013
-878 -758 2005
-881 -766 2028
-870 -762 2020
-857 -757 2008
-857 -763 2026
-846 -759 2018
-827 -748 1990
-840 -765 2038
-838 -769 2053
-813 -752 2009
-808 -753 2015
-796 -748 2003
-767 -727 1950
-756 -722 1937
-755 -728 1954
-762 -741 1992
-758 -743 1999
-757 -749 2016
-751 -749 2018
-742 -746 2013
-732 -742 2006
-717 -733 1983
-725 -749 2026
-723 -754 2041
-702 -738 2000
-697 -739 2005
-690 -738 2005
-686 -741 2015
-678 -740 2013
-677 -746 2031
-674 -749 2043
-653 -733 1999
-662 -750 2046
-655 -750 2048
-652 -753 2059
-637 -743 2033
-630 -743 2035
-623 -742 2034
-617 -742 2036
-616 -749 2056
-606 -745 2047
-607 -754 2074
-601 -754 2075
-592 -751 2069
-581 -746 2054
-565 -733 2021
-570 -747 2061
-565 -750 2070
-551 -740 2043
-549 -746 2061
-546 -749 2073
-533 -741 2051
-527 -742 2054
-520 -741 2053
-512 -738 2045
-513 -749 2079
-504 -745 2067
-495 -742 2060
-490 -743 2065
-485 -745 2073
-482 -751 2089
-470 -741 2063
-489 -782 2179
-537 -871 2427
-540 -887 2473
-617 -1029 2869
-630 -1064 2969
-605 -1038 2898
-611 -1064 2972
-615 -1087 3037
-605 -1086 3035
-590 -1075 3007
-631 -1167 3266
-701 -1318 3688
-701 -1339 3748
-641 -1245 3487
0 0 0
0 0 0
0 0 0
0 0 0
0 0 0
0 0 0
0 0 0
-555 -1243 3493
-556 -1269 3567
-568 -1322 3718
-598 -1421 3996
-589 -1428 4017
-583 -1443 4061
-568 -1435 4040
-555 -1434 4037
-539 -1424 4011
-526 -1422 4006
-515 -1426 4017
-500 -1416 3991
-488 -1416 3993
-475 -1413 3985
-467 -1426 4022
-453 -1421 4008
-440 -1418 4002
-429 -1420 4008
-415 -1416 3997
-404 -1417 4001
-399 -1443 4076
-416 -1553 4387
-436 -1682 4752
-8 -43 121
-3 -23 66
-378 -1615 4564
-262 -1164 3290
-235 -1087 3073
-223 -1075 3039
-217 -1093 3089
-209 -1098 3106
-198 -1087 3073
-191 -1101 3112
-182 -1105 3125
-171 -1095 3097
-162 -1099 3108
-153 -1100 3111
-143 -1097 3103
-136 -1113 3150
-125 -1097 3104
-115 -1091 3086
-108 -1111 3144
-96 -1086 3074
-88 -1106 3129
-78 -1101 3115
-69 -1093 3091
-60 -1100 3111
-50 -1091 3087
-41 -1104 3123
-32 -1102 3117
-22 -1096 3101
-13 -1094 3093
-4 -1105 3126
5 -1082 3059
14 -1096 3099
23 -1093 3089
32 -1087 3073
42 -1083 3061
51 -1087 3072
58 -1042 2944
63 -987 2788
70 -970 2740
82 -1010 2853
86 -964 2723
91 -923 2606
102 -955 2697
111 -965 2723
111 -896 2529
121 -919 2592
137 -978 2759
143 -959 2707
156 -994 2805
168 -1014 2859
196 -1129 3182
207 -1134 3198
214 -1120 3157
226 -1136 3199
237 -1142 3216
