VERSION 0.7
FIELDS x y z
SIZE 4 4 4
TYPE I I I
COUNT 1 1 1
WIDTH 3997
HEIGHT 1
VIEWPOINT 0.0 0.0 0.0 1.0 0.0 0.0 0.0
POINTS 3997
DATA ascii
13 103 415
15 105 424
15 95 384
15 94 376
17 94 379
18 93 375
20 99 399
21 99 400
22 100 402
24 102 411
23 93 374
30 115 465
30 113 456
31 110 446
33 113 456
33 107 431
31 98 396
33 98 395
38 112 453
39 112 451
41 111 449
41 110 441
42 109 438
41 103 414
43 105 422
46 108 434
46 105 423
48 106 428
47 101 404
50 105 422
50 103 415
52 104 419
54 106 428
55 105 423
57 107 429
57 104 416
60 108 435
61 107 429
61 105 422
63 106 424
65 107 431
64 104 417
65 103 415
67 105 419
68 104 418
68 102 407
68 99 397
70 102 407
72 103 412
71 98 393
74 102 407
70 95 377
73 97 387
75 98 392
80 103 410
85 108 430
81 101 401
85 104 417
85 103 413
88 105 418
87 103 409
85 99 392
91 104 415
87 99 393
91 101 404
104 115 459
105 114 455
92 98 390
85 90 355
94 98 390
93 95 378
94 96 380
92 93 367
98 97 386
102 100 397
106 103 406
106 101 401
100 95 373
104 97 383
110 102 402
110 101 398
110 100 394
116 104 409
115 102 401
124 109 431
114 99 390
114 98 383
116 98 386
120 101 396
123 102 402
124 102 402
113 93 362
127 103 403
110 88 343
103 81 316
85 66 256
92 71 275
67 51 195
73 55 211
54 40 150
52 39 145
52 38 141
56 41 153
38 27 98
54 39 145
51 36 134
47 33 121
59 41 153
52 36 132
53 36 133
64 43 162
72 48 182
99 67 253
140 94 359
131 87 334
152 100 383
154 101 387
160 103 397
174 112 429
179 114 439
178 113 433
182 114 437
167 104 397
188 116 445
174 107 407
191 117 446
200 121 461
194 117 444
192 115 436
186 110 418
205 120 457
188 110 415
210 122 462
184 106 400
199 113 428
211 120 451
197 111 418
224 126 474
196 109 408
216 119 448
222 122 456
217 118 443
208 113 421
218 117 438
219 117 436
219 116 433
222 117 436
199 104 385
197 103 379
221 114 424
227 117 432
234 120 442
224 114 420
222 112 412
221 111 407
220 109 401
238 118 433
231 114 416
236 115 421
239 116 425
240 116 422
238 114 416
254 121 441
259 123 447
276 130 473
247 116 419
-2423 1166 4102
-2451 1186 4180
-2442 1189 4196
-57 30 98
-300 150 524
-444 222 781
-568 285 1005
-617 311 1100
-645 327 1159
-668 340 1209
-745 382 1360
-727 375 1338
-727 377 1348
-723 377 1351
-702 368 1321
-679 358 1287
-682 362 1303
-669 358 1289
-672 361 1304
-672 364 1314
-643 350 1268
-632 347 1256
-594 328 1191
-503 280 1017
-371 209 757
-262 149 539
-170 98 352
-132 78 276
-107 64 226
-93 56 199
-87 53 186
-91 56 197
-133 81 290
-226 136 497
-325 195 718
-503 303 1121
-581 352 1304
-577 352 1306
-537 330 1226
-544 337 1254
-568 354 1319
-576 362 1349
-570 360 1346
-566 361 1349
-560 359 1346
-560 362 1356
-549 358 1342
-547 359 1349
-544 360 1355
-547 365 1373
-538 361 1362
-538 364 1375
-529 361 1364
-528 363 1374
-526 365 1383
-523 365 1386
-520 367 1393
-517 368 1397
-513 368 1398
-508 367 1399
-509 371 1415
-499 367 1401
-500 371 1416
-497 372 1421
-498 376 1439
-490 373 1430
-488 374 1436
-481 373 1432
-480 375 1443
-475 375 1443
-472 376 1447
-467 376 1448
-465 378 1457
-462 378 1461
-461 381 1474
-456 381 1474
-448 378 1464
-449 382 1481
-444 382 1482
-440 382 1484
-439 385 1496
-431 382 1486
-430 386 1501
-425 385 1499
-421 386 1504
-415 385 1500
-414 387 1512
-411 389 1519
-404 386 1510
-402 389 1520
-398 390 1526
-395 391 1533
-389 390 1528
-386 392 1536
-380 390 1532
-375 389 1528
-373 392 1543
-367 390 1535
-356 383 1510
-343 375 1476
-284 314 1237
-180 204 801
-167 192 751
-156 182 712
-160 189 744
-157 188 737
-154 188 737
-150 185 729
-142 178 699
-142 181 710
-140 180 709
-138 181 714
-134 178 702
-132 178 703
-132 182 716
-131 182 720
-129 182 721
-124 179 705
-123 181 716
-115 173 682
-119 181 716
-115 179 708
-116 183 726
-113 182 720
-110 180 714
-108 180 713
-105 179 708
-105 182 722
-102 182 722
-98 178 708
-98 181 719
-95 181 719
-94 182 724
-90 179 711
-89 181 721
-87 181 720
-86 182 727
-85 186 739
-82 183 730
-78 181 720
-64 153 608
-51 127 503
-50 128 506
-45 119 473
-42 115 454
-33 97 381
-30 90 357
-30 93 366
-28 90 356
-25 86 341
-25 89 351
-23 86 340
-22 86 341
-22 87 344
-21 89 351
-20 89 353
-19 90 356
-19 94 371
-17 92 363
-17 93 366
-16 93 369
-15 93 369
-13 93 369
-12 94 372
-12 97 385
-11 100 399
-10 98 390
-9 100 398
-7 98 390
-6 100 399
-6 105 417
-5 109 435
-4 115 460
-3 118 472
-1 122 489
0 119 473
1 118 471
2 109 436
3 112 445
5 111 444
6 112 446
7 110 437
8 102 404
9 106 421
11 108 431
11 99 395
12 92 366
14 98 388
14 94 371
15 93 367
16 94 373
18 95 378
19 96 379
20 95 378
21 97 384
24 102 404
25 104 413
27 104 412
29 107 428
33 117 468
37 129 517
36 120 481
37 119 476
32 99 393
38 111 444
42 121 485
42 118 469
44 117 466
42 110 439
49 125 497
45 111 442
45 107 424
46 107 426
47 105 417
48 106 420
51 109 431
51 105 419
52 105 419
54 108 427
56 108 429
56 107 424
59 109 432
59 107 423
60 107 423
62 108 430
63 108 427
66 109 434
67 110 437
68 110 434
67 106 420
67 103 406
68 103 406
71 106 419
70 103 406
70 101 397
72 102 403
73 101 398
74 101 399
76 103 405
75 99 389
70 91 358
78 100 393
83 105 413
89 111 437
84 103 407
87 106 416
84 101 396
87 102 401
89 103 405
86 98 386
88 99 389
92 103 403
98 107 422
98 106 416
96 103 402
92 97 378
93 96 377
97 100 390
95 97 378
101 101 395
99 98 382
101 99 388
111 108 423
108 104 404
105 99 386
105 99 385
112 103 403
105 96 372
113 103 400
115 103 401
122 108 421
106 93 359
122 106 413
117 101 390
128 109 423
133 113 437
134 112 435
126 104 404
119 98 377
93 75 286
103 82 316
93 74 282
86 67 255
74 57 217
54 41 153
66 50 187
55 41 152
57 42 156
60 45 165
49 36 130
58 42 155
42 30 107
41 29 104
56 40 146
70 49 183
63 44 161
79 55 205
102 70 264
124 84 319
144 97 369
146 98 373
152 102 385
156 103 391
172 113 429
176 115 436
182 118 446
178 114 433
167 106 402
179 113 426
183 115 433
185 115 435
175 108 407
190 116 438
183 111 417
179 108 405
197 118 443
210 125 469
186 110 411
198 116 435
186 108 404
209 121 452
217 125 465
215 123 457
208 118 437
195 110 407
226 126 468
211 117 433
213 117 434
208 114 420
194 106 388
229 124 457
204 110 402
234 125 459
221 117 431
238 125 459
226 118 433
235 122 448
220 114 415
247 127 464
228 117 424
225 114 415
229 115 419
260 130 473
232 115 417
227 112 405
235 116 417
246 121 434
226 110 395
239 115 414
239 115 412
249 119 426
285 135 484
-2421 1179 4096
-2442 1196 4161
-2405 1184 4129
-14 10 24
-405 204 705
-506 256 889
-564 286 998
-536 274 955
-551 283 989
-666 343 1206
-705 366 1286
-734 382 1348
-705 370 1306
-706 372 1317
-704 374 1323
-707 377 1339
-673 362 1285
-662 358 1273
-655 356 1270
-646 354 1263
-624 344 1230
-618 343 1228
-584 326 1169
-493 277 994
-373 212 759
-252 145 518
-166 97 343
-130 77 273
-106 64 224
-93 57 198
-85 52 182
-90 56 195
-111 69 242
-188 115 413
-275 168 607
-445 272 991
-571 350 1282
-575 355 1300
-549 341 1252
-555 348 1277
-563 355 1307
-572 364 1340
-568 363 1340
-567 366 1350
-557 362 1338
-560 367 1357
-557 368 1362
-554 368 1366
-549 367 1365
-546 369 1371
-540 367 1367
-539 369 1376
-541 374 1395
-534 372 1391
-531 373 1394
-524 371 1389
-524 374 1403
-520 374 1404
-515 374 1405
-512 375 1409
-510 376 1417
-506 376 1418
-502 377 1421
-498 377 1424
-494 377 1427
-493 380 1436
-491 382 1447
-484 380 1440
-480 380 1443
-479 382 1452
-475 383 1455
-470 382 1456
-469 385 1467
-464 385 1467
-461 386 1472
-456 385 1473
-455 388 1484
-449 387 1480
-447 389 1492
-441 388 1486
-440 391 1500
-434 389 1495
-430 390 1499
-424 389 1496
-419 388 1494
-415 389 1497
-413 391 1508
-408 391 1507
-407 394 1523
-401 393 1517
-402 398 1540
-393 393 1522
-382 388 1501
-382 391 1517
-379 393 1525
-376 395 1531
-370 394 1530
-364 392 1522
-354 386 1501
-332 367 1427
-284 318 1238
-184 211 818
-164 191 740
-163 192 745
-158 189 733
-158 192 745
-149 183 711
-143 179 696
-136 173 671
-140 181 702
-139 182 707
-133 177 687
-134 181 704
-131 180 701
-131 183 712
-128 181 705
-124 179 697
-124 182 708
-123 183 713
-120 182 710
-116 179 698
-115 181 706
-115 183 717
-113 183 717
-113 187 731
-110 186 730
-105 182 712
-105 185 725
-104 187 735
-101 186 728
-100 187 733
-97 186 732
-92 181 710
-97 194 763
-94 192 757
-90 188 740
-90 194 765
-87 191 753
-88 198 782
-72 168 660
-61 149 585
-48 121 474
-42 111 434
-43 116 455
-39 110 428
-36 104 405
-31 95 370
-29 92 358
-27 89 345
-25 87 337
-24 87 338
-23 88 341
-22 88 342
-22 88 343
-21 92 357
-20 90 350
-19 90 350
-18 90 350
-16 88 342
-16 89 347
-15 92 358
-14 90 350
-13 93 365
-11 87 340
-12 99 386
-11 98 385
-9 97 380
-9 100 391
-7 98 385
-6 95 371
-5 98 383
-4 103 405
-4 112 439
-3 118 465
-1 122 483
0 108 424
1 104 410
2 115 453
3 113 446
5 119 470
6 116 456
7 114 451
8 106 416
9 100 394
10 98 385
11 97 378
12 98 383
13 97 379
14 94 367
15 90 353
16 93 365
18 96 376
19 94 370
21 99 389
22 100 394
24 102 403
25 103 403
27 108 423
28 104 410
33 122 482
33 116 456
37 123 486
37 120 471
32 99 387
32 94 367
41 119 469
42 117 461
45 123 485
48 126 495
50 129 510
52 129 507
47 113 444
46 107 421
48 109 428
50 111 436
50 107 420
52 109 428
52 107 421
55 109 429
55 107 418
57 109 427
58 108 425
60 109 428
61 110 430
61 107 419
64 109 429
64 108 423
65 107 419
66 108 421
68 109 426
69 107 420
70 108 421
73 110 429
71 105 408
74 107 419
72 103 403
73 102 399
73 101 395
72 99 383
70 93 362
78 103 402
73 94 365
76 97 375
81 103 399
82 102 398
83 102 397
88 106 414
88 105 408
90 106 411
91 105 408
91 104 402
90 101 391
91 101 391
92 100 389
96 104 404
95 101 392
96 102 394
94 98 378
101 104 401
99 101 390
101 101 391
104 104 400
103 102 391
109 106 408
112 107 414
106 100 386
103 96 370
110 102 394
106 97 372
113 103 394
109 98 375
117 104 400
111 97 372
127 111 425
113 97 371
135 116 443
127 107 409
101 84 320
118 98 373
111 91 346
64 51 191
79 63 235
60 47 174
59 46 169
56 43 158
46 35 126
56 43 157
59 44 162
53 40 144
41 30 107
45 33 117
53 38 138
46 33 119
61 44 160
66 47 171
91 64 238
98 69 256
115 80 300
144 100 374
143 98 366
141 96 360
165 112 419
175 117 440
180 120 448
162 107 398
186 122 455
174 113 422
192 124 462
178 113 423
186 118 439
197 124 463
202 126 469
196 121 451
179 110 408
177 108 401
186 113 417
177 107 393
188 112 414
197 117 432
199 117 431
210 123 452
196 114 418
212 123 451
209 120 439
186 106 388
200 113 414
207 116 425
192 107 391
198 110 400
216 119 432
192 105 381
187 102 368
209 113 408
211 113 409
221 118 427
226 120 432
226 119 428
200 105 376
214 111 399
233 121 433
237 122 436
230 117 420
239 121 432
238 120 429
246 123 440
234 116 414
248 123 437
218 107 379
234 114 405
238 116 409
240 116 409
220 106 371
-2408 1186 4070
-2406 1192 4097
-2373 1182 4070
-2441 1223 4218
-377 192 657
-484 247 849
-490 252 866
-535 276 953
-569 296 1022
-602 314 1088
-674 354 1228
-726 383 1334
-710 377 1314
-705 377 1315
-689 370 1295
-697 377 1319
-677 368 1291
-647 354 1243
-639 352 1239
-646 358 1261
-635 354 1250
-626 351 1242
-605 342 1210
-500 285 1008
-373 215 759
-268 156 549
-180 107 374
-134 80 279
-111 67 234
-93 58 199
-82 52 177
-89 56 193
-101 64 221
-151 94 332
-224 139 495
-366 227 814
-554 344 1241
-576 360 1303
-575 362 1311
-578 366 1330
-574 366 1332
-582 374 1361
-581 376 1369
-575 375 1367
-574 377 1377
-567 375 1371
-562 375 1372
-561 377 1383
-560 379 1392
-549 375 1377
-550 378 1391
-542 376 1383
-537 376 1385
-537 378 1397
-536 380 1406
-533 382 1412
-524 378 1400
-525 382 1416
-519 381 1414
-518 384 1425
-510 380 1415
-507 382 1420
-504 383 1426
-502 384 1434
-496 383 1431
-495 385 1441
-492 387 1449
-490 389 1456
-484 388 1453
-480 388 1455
-474 387 1452
-471 388 1458
-468 389 1462
-465 390 1470
-462 391 1474
-457 391 1474
-453 391 1478
-450 393 1485
-446 393 1487
-440 392 1485
-439 394 1495
-434 395 1497
-430 395 1500
-425 394 1498
-424 397 1511
-418 397 1509
-414 397 1512
-409 396 1511
-404 395 1508
-399 395 1507
-399 399 1525
-390 396 1513
-390 400 1531
-385 399 1528
-379 398 1526
-373 397 1521
-368 396 1519
-367 400 1535
-355 392 1504
-333 372 1429
-303 343 1318
-193 223 856
-158 187 714
-157 187 716
-152 184 706
-156 192 736
-153 191 732
-144 182 699
-149 191 732
-146 190 731
-145 191 735
-139 186 716
-132 180 690
-129 179 689
-129 182 700
-129 184 710
-129 187 722
-123 183 704
-116 175 676
-121 186 716
-121 189 730
-118 187 724
-118 191 737
-114 188 725
-112 188 726
-111 190 734
-109 189 734
-110 195 755
-102 185 716
-103 192 743
-101 192 743
-99 191 741
-97 193 747
-93 188 729
-93 193 749
-90 191 744
-92 200 779
-85 190 738
-87 200 777
-78 184 716
-59 144 559
-47 121 467
-42 112 434
-38 106 407
-39 111 427
-36 106 407
-30 93 359
-28 90 348
-27 91 349
-26 91 351
-25 90 347
-24 91 349
-23 91 350
-21 87 336
-21 90 345
-19 87 335
-18 86 331
-18 90 345
-17 91 351
-15 89 344
-14 88 337
-13 88 340
-12 89 343
-12 91 351
-11 96 372
-10 93 359
-9 96 371
-8 95 369
-7 96 369
-6 99 383
-5 99 382
-4 98 380
-3 99 384
-2 105 409
-1 106 411
0 102 396
1 99 385
2 108 418
3 121 472
5 123 478
6 131 511
7 116 451
8 103 398
9 103 400
10 96 371
11 95 367
12 92 356
13 95 368
14 95 368
15 93 360
15 88 339
17 93 358
18 89 345
20 97 374
22 100 387
23 99 382
24 102 397
26 102 397
29 109 425
34 126 490
33 115 447
36 124 482
35 115 447
36 113 438
32 97 375
41 122 474
41 115 448
47 131 509
50 135 525
48 123 479
46 114 444
46 113 438
56 134 522
48 111 429
50 112 434
50 110 426
52 110 426
53 110 426
55 111 432
56 110 427
58 111 432
59 111 430
59 110 424
60 109 421
61 108 419
63 110 425
64 109 421
66 110 425
68 112 431
69 111 428
70 111 427
69 108 416
71 108 418
72 107 413
72 106 410
72 104 400
73 104 399
75 105 406
73 101 387
77 104 402
73 98 375
77 101 386
79 102 391
77 98 377
80 101 386
81 100 385
87 106 407
88 105 404
88 104 399
87 102 391
89 103 394
91 104 396
94 105 403
90 99 379
96 106 404
95 103 394
97 103 395
95 100 380
92 96 364
92 94 358
100 101 386
96 96 365
106 105 399
106 104 396
105 101 386
112 108 410
110 105 397
114 107 405
110 102 389
111 102 386
113 102 388
112 100 380
121 107 407
117 103 390
128 112 422
102 88 331
86 73 273
89 75 281
109 91 343
90 75 278
84 68 254
64 51 188
55 44 160
48 38 136
73 58 212
51 39 142
39 30 104
51 39 138
51 38 137
62 46 167
52 38 137
54 40 142
63 46 167
76 55 202
107 77 285
88 63 230
125 89 330
144 101 376
133 93 344
152 105 390
163 112 416
159 109 402
172 117 433
172 116 429
179 120 443
185 122 452
183 120 444
193 126 464
163 105 387
172 110 404
153 98 357
166 105 385
192 120 441
198 123 453
189 117 428
213 131 480
192 117 427
180 109 396
191 114 417
184 110 399
215 128 464
198 116 422
193 113 409
195 113 409
198 114 412
203 116 420
219 124 449
174 98 351
213 119 429
205 114 410
213 118 422
214 118 422
218 119 425
214 116 415
216 117 416
212 114 405
180 96 339
207 109 388
229 120 427
236 123 437
236 123 435
229 118 418
209 107 378
223 113 399
227 115 405
233 117 412
234 117 412
222 110 386
216 107 373
258 127 443
237 116 404
221 107 373
-2429 1210 4101
-2380 1193 4049
-2339 1179 4009
-2395 1214 4136
-223 116 389
-563 290 986
-439 229 776
-535 279 952
-585 307 1050
-588 311 1063
-679 361 1237
-716 382 1314
-688 369 1271
-703 379 1309
-707 384 1328
-665 364 1258
-648 357 1236
-642 355 1234
-640 357 1240
-634 355 1238
-640 361 1260
-642 364 1273
-598 342 1196
-513 295 1034
-404 235 821
-288 169 590
-207 123 427
-139 84 291
-110 68 232
-95 59 202
-75 48 161
-81 52 176
-96 61 210
-137 86 300
-230 144 508
-342 214 760
-545 342 1222
-569 360 1286
-578 368 1317
-589 378 1354
-585 377 1354
-587 382 1371
-582 381 1372
-579 382 1375
-576 383 1381
-573 384 1387
-568 383 1386
-567 385 1396
-559 383 1389
-558 385 1397
-556 387 1405
-547 384 1396
-545 385 1402
-542 386 1408
-536 385 1406
-534 387 1414
-523 382 1397
-526 387 1419
-522 387 1421
-523 392 1438
-512 387 1420
-513 390 1435
-505 388 1428
-506 392 1443
-500 390 1441
-496 391 1445
-496 394 1458
-491 394 1457
-484 392 1452
-483 395 1464
-474 391 1450
-473 394 1463
-466 392 1457
-466 396 1473
-463 396 1477
-457 395 1474
-453 396 1478
-451 398 1485
-448 399 1492
-443 399 1492
-439 399 1495
-434 399 1493
-433 402 1509
-428 402 1507
-422 400 1502
-416 399 1501
-415 403 1515
-411 403 1518
-407 403 1519
-400 401 1511
-396 401 1514
-390 400 1509
-387 401 1516
-384 403 1523
-379 402 1523
-376 405 1532
-372 405 1534
-362 399 1513
-357 398 1510
-336 380 1442
-312 358 1358
-203 238 899
-171 204 770
-164 198 748
-156 191 721
-154 192 726
-155 195 737
-145 185 702
-152 197 747
-146 192 730
-140 187 709
-140 190 722
-142 195 741
-136 191 726
-132 188 716
-132 191 725
-127 187 710
-126 188 717
-124 189 719
-127 197 751
-120 189 722
-118 190 723
-117 191 730
-120 199 760
-115 194 742
-113 195 748
-110 194 743
-108 194 741
-106 195 747
-104 195 745
-101 194 744
-99 194 743
-98 196 750
-98 200 769
-90 188 723
-89 191 733
-90 199 763
-86 194 745
-84 195 748
-77 183 705
-63 155 595
-46 119 453
-42 112 429
-38 107 407
-36 103 393
-36 108 412
-31 98 373
-29 94 359
-26 89 337
-25 89 338
-24 87 330
-23 89 338
-23 91 346
-21 90 342
-20 87 332
-19 87 330
-18 88 335
-17 89 340
-17 91 348
-15 90 344
-14 90 343
-13 90 343
-12 90 344
-12 95 361
-10 89 340
-9 89 340
-9 93 354
-8 97 369
-6 93 356
-6 97 371
-4 92 351
-3 94 361
-3 99 381
-1 91 347
0 92 351
0 89 338
1 91 348
2 96 367
3 108 416
5 110 422
6 106 407
7 106 405
8 102 392
9 97 370
10 94 360
11 96 369
12 95 365
13 92 350
13 88 337
14 86 329
15 90 342
17 91 349
18 93 354
19 95 365
20 95 362
22 96 367
24 100 384
26 104 399
27 104 399
27 100 382
28 98 377
32 110 424
37 124 476
37 118 453
30 89 340
29 84 319
40 115 440
42 118 451
45 122 471
47 124 477
44 110 423
50 124 474
56 135 518
51 120 461
53 121 464
50 110 421
51 109 417
53 112 428
54 111 424
57 114 437
57 111 425
60 115 441
60 112 430
61 111 425
61 110 419
65 115 439
66 113 433
66 112 427
67 111 425
69 112 428
69 110 421
71 112 427
71 109 416
73 111 423
72 107 409
74 109 414
75 108 410
74 105 400
73 102 386
74 101 385
76 103 390
76 101 382
77 101 383
76 97 368
79 100 378
78 97 368
81 100 380
88 107 407
85 102 387
90 106 401
88 102 387
92 106 399
93 105 399
92 104 392
94 104 394
115 126 479
95 103 389
93 100 375
97 103 387
86 89 334
100 103 387
103 104 393
97 97 365
102 102 382
108 106 399
115 111 418
105 100 376
114 108 406
110 103 386
116 108 406
113 104 389
118 107 401
118 106 398
129 115 429
95 83 309
109 95 354
96 82 306
73 62 227
62 52 187
75 63 229
71 59 215
70 57 207
56 46 164
64 51 186
51 40 142
36 28 97
54 42 148
57 44 157
31 23 78
49 37 131
63 48 170
54 40 143
82 61 220
107 79 287
112 82 298
113 82 299
154 111 408
145 103 379
143 101 370
168 118 434
171 119 438
159 110 403
154 106 386
180 123 448
169 114 417
164 110 399
166 111 402
168 111 402
155 102 368
180 117 424
162 104 378
200 128 465
160 102 367
192 121 438
197 123 445
199 124 446
178 109 394
186 114 410
197 120 431
209 126 454
207 124 446
211 126 451
208 123 441
210 123 441
212 123 441
196 114 405
208 120 426
197 112 399
226 128 456
202 114 404
183 103 362
213 119 420
214 118 418
212 116 410
207 113 397
214 116 408
221 119 418
245 131 462
238 127 445
215 114 398
222 117 408
220 115 400
236 123 428
256 132 460
251 129 448
238 121 421
258 131 454
227 115 396
253 126 437
236 118 405
227 112 386
233 115 394
-2393 1206 4037
-2354 1193 4001
-2324 1184 3979
-2342 1200 4040
-178 94 309
-561 293 983
-516 271 910
-538 284 957
-555 295 994
-648 346 1169
-672 361 1223
-652 352 1196
-695 377 1284
-679 371 1265
-671 369 1259
-655 362 1238
-636 354 1211
-628 351 1205
-648 365 1254
-650 369 1268
-640 365 1258
-650 373 1288
-610 353 1219
-530 309 1068
-418 246 849
-298 177 610
-201 121 414
-145 89 302
-113 70 238
-94 59 199
-79 51 169
-87 56 188
-98 63 213
-153 97 335
-245 155 540
-368 233 817
-542 344 1214
-573 366 1293
-582 374 1324
-586 380 1346
-586 383 1357
-584 384 1364
-582 385 1371
-580 387 1377
-578 388 1384
-571 387 1381
-570 389 1389
-565 389 1391
-561 389 1392
-558 389 1396
-555 391 1402
-552 392 1409
-547 391 1408
-541 390 1405
-538 391 1410
-538 394 1422
-528 390 1410
-531 395 1429
-523 393 1423
-520 393 1427
-514 393 1426
-514 396 1438
-506 393 1431
-503 394 1436
-500 395 1440
-498 397 1449
-493 397 1449
-485 394 1440
-484 397 1452
-485 401 1469
-480 401 1469
-474 399 1465
-470 400 1469
-465 399 1467
-463 401 1477
-459 402 1480
-454 401 1479
-448 400 1476
-445 401 1481
-439 400 1479
-436 401 1483
-435 405 1499
-429 403 1494
-423 402 1490
-422 405 1502
-415 403 1495
-415 407 1514
-411 407 1514
-407 408 1520
-399 404 1507
-396 406 1512
-394 408 1523
-387 406 1517
-384 407 1522
-378 406 1518
-377 410 1533
-373 411 1537
-361 403 1508
-357 403 1511
-342 391 1467
-317 367 1378
-223 264 987
-184 221 827
-162 198 738
-168 208 776
-162 204 762
-161 205 768
-152 196 736
-162 213 797
-146 194 729
-147 198 744
-144 198 743
-141 197 740
-141 199 747
-139 199 750
-129 189 712
-133 198 746
-126 191 720
-124 190 717
-123 193 728
-120 192 722
-121 196 741
-118 194 733
-114 193 727
-112 193 729
-112 196 741
-113 201 761
-110 199 754
-102 190 719
-100 190 719
-105 204 771
-99 195 740
-95 193 732
-92 191 724
-94 200 760
-86 188 714
-87 194 735
-83 190 721
-77 182 692
-75 182 690
-60 150 569
-46 120 454
-40 110 414
-39 109 411
-35 103 387
-35 105 394
-32 101 378
-29 96 361
-28 94 355
-26 92 344
-25 93 351
-22 86 324
-22 89 336
-22 92 344
-19 86 321
-19 88 331
-17 86 323
-17 88 330
-16 91 344
-15 89 333
-14 90 339
-13 90 339
-13 93 351
-11 89 336
-11 94 352
-9 90 341
-8 93 349
-7 93 351
-6 92 346
-5 94 355
-4 91 345
-3 89 335
-2 88 333
-1 90 339
0 92 347
0 87 328
1 88 332
2 100 379
3 108 409
5 113 429
6 105 398
7 101 381
7 91 343
8 93 353
9 89 334
10 93 350
11 93 350
13 96 364
14 96 364
14 89 336
15 90 340
16 88 332
16 81 305
18 88 330
21 98 370
22 100 378
24 103 391
25 101 384
26 103 390
28 105 397
30 106 402
31 105 398
38 126 477
38 122 463
34 104 393
33 97 367
37 108 408
42 118 448
43 118 447
48 126 477
45 116 440
47 117 444
52 126 478
57 136 517
52 120 455
50 112 424
53 116 438
54 115 434
55 113 428
56 114 433
56 111 418
57 110 416
60 115 433
61 113 428
62 113 426
64 113 428
65 113 428
66 114 429
67 112 424
68 112 421
68 109 412
70 111 420
72 112 423
73 112 421
74 111 417
72 106 400
74 108 407
75 107 403
74 105 393
74 103 386
77 105 395
77 104 388
76 101 377
81 105 394
78 100 373
73 92 344
79 99 370
84 103 387
75 91 340
89 106 396
90 106 397
91 106 395
91 105 392
93 106 395
93 105 390
92 102 381
94 102 382
91 98 365
92 98 365
96 101 374
101 105 391
109 112 417
97 98 365
103 103 382
102 101 374
108 106 392
113 109 406
116 111 413
109 103 383
105 98 363
105 97 360
117 108 400
119 109 401
117 105 387
109 97 359
92 81 297
66 57 206
73 63 227
68 58 208
76 64 233
54 45 159
61 51 181
61 49 176
40 32 109
47 37 131
44 35 120
54 43 150
64 50 176
60 46 164
54 42 146
79 60 216
88 66 238
93 69 249
112 83 301
124 92 332
124 91 328
158 115 417
139 100 362
144 103 372
153 109 393
154 109 393
158 111 400
181 125 453
161 111 399
174 119 429
168 114 409
185 124 448
183 122 438
162 107 384
180 118 424
188 122 439
192 124 444
173 111 398
187 119 427
196 124 444
194 122 434
171 107 378
186 115 410
177 109 386
196 120 425
200 121 430
191 115 406
202 121 428
206 123 433
204 120 424
233 136 482
192 112 393
184 106 371
169 97 337
228 130 457
210 119 416
206 116 405
212 119 414
204 113 395
206 114 396
207 114 395
225 122 425
205 111 385
219 118 408
221 118 408
230 122 421
222 117 404
231 121 417
244 127 438
226 117 402
229 118 404
236 121 413
220 112 382
249 126 430
254 128 435
236 118 401
233 116 393
-2393 1220 4035
-2332 1195 3960
-2321 1196 3971
-2333 1209 4021
-76 42 132
-585 309 1025
-620 329 1093
-553 296 983
-559 300 1000
-504 273 909
-589 320 1071
-635 347 1163
-649 356 1198
-646 357 1201
-635 353 1190
-638 357 1206
-629 354 1197
-649 368 1246
-620 353 1198
-648 372 1263
-644 371 1265
-638 370 1262
-602 352 1202
-523 308 1052
-405 241 821
-294 177 602
-196 120 405
-132 82 276
-101 64 212
-96 61 203
-75 49 160
-83 54 178
-93 60 202
-157 101 344
-258 165 568
-380 243 842
-538 345 1203
-575 372 1297
-580 378 1320
-584 383 1339
-581 383 1344
-586 390 1367
-583 390 1371
-580 391 1376
-575 391 1378
-569 390 1375
-571 394 1391
-562 391 1382
-561 393 1391
-554 391 1386
-554 394 1399
-548 393 1397
-545 394 1401
-542 395 1405
-542 399 1420
-539 399 1425
-530 396 1413
-527 397 1419
-526 399 1429
-517 396 1418
-516 398 1429
-514 400 1438
-504 396 1422
-506 401 1442
-503 402 1449
-497 401 1446
-486 395 1426
-487 400 1444
-488 404 1462
-481 402 1456
-480 405 1468
-472 402 1457
-470 404 1467
-469 407 1479
-461 404 1468
-451 400 1454
-452 404 1471
-450 407 1482
-443 404 1474
-441 406 1483
-437 407 1486
-436 410 1498
-432 410 1501
-425 408 1496
-425 413 1514
-415 408 1496
-414 411 1509
-408 409 1503
-405 411 1512
-402 412 1518
-395 409 1508
-387 407 1499
-388 412 1521
-384 413 1524
-380 413 1524
-375 412 1524
-370 412 1526
-365 411 1522
-359 410 1518
-343 397 1473
-320 375 1390
-244 291 1078
-183 223 823
-169 208 770
-172 215 796
-153 195 719
-156 201 744
-162 211 782
-147 195 723
-143 193 715
-147 201 744
-144 199 739
-142 200 742
-137 196 726
-138 201 747
-134 199 739
-128 192 714
-131 200 744
-129 201 747
-129 203 758
-119 192 716
-121 199 742
-116 193 720
-114 193 722
-115 199 741
-117 206 770
-109 197 737
-108 199 742
-107 201 751
-102 196 734
-98 192 719
-102 204 765
-97 198 741
-89 187 699
-88 189 707
-84 185 691
-77 174 651
-76 178 666
-71 171 639
-73 178 669
-55 142 529
-43 116 433
-40 109 407
-37 106 395
-35 105 389
-33 101 373
-31 100 373
-27 91 337
-27 92 341
-25 91 337
-24 90 333
-22 88 326
-20 83 307
-21 89 330
-19 87 323
-18 85 315
-17 86 321
-17 88 328
-16 89 330
-16 95 354
-13 86 321
-13 90 336
-12 90 335
-11 89 333
-10 91 339
-9 89 331
-9 98 364
-7 90 336
-6 90 334
-5 92 342
-4 88 326
-3 90 335
-2 90 335
-1 90 334
0 89 330
0 87 325
1 88 328
2 90 337
3 88 327
4 84 314
5 87 325
6 89 332
7 92 342
8 93 347
9 90 337
10 92 341
12 96 360
12 92 342
13 88 327
14 90 336
15 88 326
16 91 339
17 90 334
19 94 351
19 87 325
21 92 342
23 98 368
24 100 372
26 102 382
28 105 391
36 132 496
30 103 385
37 125 471
39 126 473
38 120 452
35 104 388
34 97 363
34 96 357
41 113 424
48 128 481
48 124 467
49 124 465
50 123 462
52 123 462
55 127 478
51 116 433
52 114 428
55 118 442
55 116 434
58 118 442
57 115 429
59 115 430
60 116 432
62 116 431
60 111 413
63 113 422
64 113 421
66 115 427
66 112 419
68 113 422
68 112 416
71 114 423
71 111 415
72 112 417
73 111 414
76 114 423
74 109 405
73 105 390
74 105 390
76 107 395
77 106 392
78 106 392
77 104 383
75 99 367
79 103 380
82 105 388
81 103 379
81 101 373
80 98 363
82 99 367
91 108 399
96 113 418
94 109 403
95 109 403
99 112 413
91 101 372
95 104 384
92 101 370
94 101 372
94 100 366
97 102 375
100 104 382
90 93 339
100 101 371
100 101 369
101 101 368
105 103 378
110 107 392
118 114 417
110 104 380
123 116 425
111 103 375
109 101 367
87 79 284
90 80 291
76 67 242
72 63 226
59 51 180
52 45 158
58 49 174
46 38 133
39 32 109
58 47 167
50 41 142
39 31 106
43 34 118
43 34 116
43 34 116
48 37 129
69 53 188
89 69 245
91 69 246
118 90 321
138 104 373
119 89 319
142 105 377
145 107 383
160 117 420
158 114 409
170 122 439
159 113 405
175 124 443
167 117 418
155 108 384
163 113 400
167 114 406
174 118 421
183 123 438
185 124 441
168 112 395
183 121 427
188 123 435
201 130 461
190 122 433
189 121 427
201 128 451
193 122 428
190 119 418
188 117 411
194 120 419
191 117 409
185 113 393
214 129 452
209 126 439
206 123 429
199 118 409
212 125 433
199 116 404
207 120 417
206 119 412
206 118 408
196 112 385
204 115 396
201 113 387
206 115 395
209 116 397
199 110 375
222 122 416
221 120 411
210 114 388
195 105 357
240 128 436
243 129 438
221 116 395
236 124 420
208 108 365
240 124 420
245 126 426
238 122 410
257 131 440
210 106 356
254 128 428
-2369 1221 3991
-2345 1216 3979
-2317 1208 3961
-2325 1219 4004
-45 27 79
-541 289 946
-560 301 987
-445 241 790
-504 274 901
-487 266 878
-497 274 904
-542 300 993
-627 348 1156
-607 339 1128
-614 345 1150
-643 364 1214
-612 349 1165
-618 354 1186
-626 361 1210
-633 367 1233
-604 353 1186
-627 368 1240
-597 353 1191
-506 301 1017
-405 243 821
-269 164 550
-177 109 365
-113 71 235
-103 66 217
-88 57 187
-81 53 174
-80 53 173
-93 61 203
-152 99 332
-247 160 544
-365 237 810
-525 341 1174
-566 370 1276
-575 379 1308
-580 384 1329
-587 392 1358
-586 394 1367
-587 398 1381
-574 392 1361
-576 396 1378
-572 396 1380
-564 393 1373
-573 403 1407
-563 399 1395
-558 398 1395
-556 400 1404
-550 399 1399
-549 401 1410
-547 403 1417
-541 402 1415
-537 402 1418
-532 402 1419
-531 404 1428
-524 402 1422
-518 401 1421
-517 404 1431
-511 403 1428
-510 405 1438
-502 402 1430
-499 403 1435
-498 406 1446
-494 406 1449
-489 406 1450
-485 407 1453
-479 405 1448
-476 406 1455
-472 406 1456
-464 404 1449
-467 410 1471
-460 408 1466
-457 409 1472
-457 413 1485
-444 405 1459
-447 413 1488
-441 410 1481
-437 411 1486
-433 411 1487
-427 410 1484
-428 416 1506
-420 412 1493
-417 413 1499
-407 408 1481
-404 410 1490
-400 411 1492
-400 415 1509
-396 415 1511
-391 415 1513
-384 412 1502
-386 419 1529
-379 416 1521
-374 416 1520
-370 416 1522
-365 417 1524
-358 413 1512
-342 401 1468
-320 380 1391
-269 324 1187
-188 232 846
-170 213 776
-170 215 787
-167 214 782
-155 201 736
-154 203 742
-161 216 790
-158 215 788
-145 200 734
-143 200 734
-142 203 743
-140 202 742
-137 201 738
-135 201 740
-131 199 732
-128 198 728
-128 201 739
-125 199 734
-122 199 734
-119 197 726
-121 204 754
-117 201 742
-114 201 741
-106 191 703
-105 192 707
-106 197 727
-101 192 711
-99 192 710
-95 189 699
-90 183 677
-87 182 671
-84 179 662
-76 166 612
-67 152 561
-67 154 570
-64 152 561
-65 159 588
-58 145 536
-46 121 446
-42 114 420
-39 110 403
-37 107 394
-34 104 381
-32 101 371
-29 96 351
-29 99 363
-27 95 349
-24 89 325
-23 88 323
-21 84 309
-21 90 328
-20 86 316
-19 89 325
-19 91 332
-17 89 327
-16 86 314
-15 87 321
-15 91 333
-14 89 328
-13 92 339
-12 93 342
-11 91 334
-10 91 334
-8 87 320
-8 89 326
-7 90 329
-5 87 320
-5 90 331
-4 89 329
-3 90 333
-2 87 321
-1 89 328
0 88 323
0 91 336
1 86 315
2 86 317
3 87 318
4 82 301
5 89 326
6 85 314
7 92 338
8 95 349
9 93 344
10 94 345
11 94 347
12 93 342
14 98 360
14 92 338
15 90 333
15 87 318
17 92 339
18 92 339
18 87 321
21 95 350
22 96 355
23 97 358
26 104 383
28 105 389
30 109 402
34 119 442
36 122 453
37 122 451
41 131 488
37 112 414
38 111 409
27 75 273
37 103 381
38 101 373
48 127 469
48 123 454
48 119 442
50 121 449
53 124 459
56 129 477
53 119 441
57 125 463
57 122 450
59 123 455
56 114 421
59 117 431
58 112 414
61 116 430
64 119 439
63 115 424
62 111 410
65 114 419
66 112 414
67 112 414
69 113 417
71 115 422
71 113 417
71 110 406
72 110 405
75 114 419
74 110 406
74 109 400
75 108 396
76 108 394
75 105 384
77 106 387
80 108 395
80 106 390
79 103 378
80 103 378
85 109 397
79 100 364
86 107 390
82 101 367
85 103 376
87 103 377
87 102 372
93 108 395
97 111 405
91 103 375
95 106 385
93 103 374
96 104 378
91 98 356
93 99 358
96 101 365
101 105 380
105 108 391
108 110 399
100 101 364
104 103 371
101 99 358
104 101 363
108 103 373
106 100 361
94 88 316
84 77 276
102 94 337
64 58 204
77 69 246
74 66 232
50 44 152
62 54 188
63 54 189
50 43 147
52 44 151
44 36 124
45 37 126
53 43 149
38 31 103
51 41 140
60 48 165
80 63 222
87 69 241
90 70 246
103 80 281
126 97 344
140 107 380
144 109 387
141 105 373
155 115 408
144 107 376
154 113 400
165 120 423
170 122 433
160 114 402
162 115 404
151 107 374
162 113 396
180 125 439
154 106 371
175 119 418
182 123 431
174 117 409
193 129 452
185 123 429
173 114 396
180 118 410
191 124 431
193 124 431
194 124 431
188 119 413
205 129 448
198 124 429
194 120 416
191 118 406
198 121 418
199 121 417
187 113 388
210 126 433
203 121 414
205 121 416
207 122 417
198 116 395
194 112 383
166 95 323
216 123 421
219 125 424
207 117 397
195 109 370
208 116 392
206 114 385
218 120 405
221 121 407
220 119 402
226 122 410
209 112 376
221 118 394
226 120 402
245 129 433
236 124 413
206 107 357
245 127 423
239 123 408
221 113 375
226 115 380
-2389 1245 4020
-2357 1235 3996
-2320 1223 3963
-2307 1223 3970
-2432 1296 4217
-431 234 754
-495 269 871
-438 240 778
-455 251 813
-457 253 824
-415 231 753
-496 277 906
-557 313 1027
-594 336 1103
-599 341 1122
-634 363 1195
-614 354 1168
-591 343 1133
-614 358 1186
-629 369 1223
-597 352 1170
-612 363 1210
-573 343 1142
-506 305 1017
-370 225 749
-237 146 484
-159 100 327
-118 76 246
-100 65 210
-91 59 192
-81 54 173
-82 55 177
-92 61 200
-142 94 310
-226 148 498
-326 214 722
-496 326 1108
-561 371 1264
-572 381 1299
-579 388 1327
-587 396 1355
-589 401 1373
-582 398 1367
-579 400 1373
-580 403 1386
-578 405 1395
-569 402 1385
-566 403 1390
-559 401 1385
-560 405 1400
-553 402 1393
-551 404 1401
-547 405 1406
-542 404 1405
-535 402 1400
-539 408 1421
-534 408 1423
-527 406 1417
-525 408 1426
-526 412 1441
-516 407 1426
-513 409 1434
-507 407 1431
-506 410 1440
-501 410 1441
-498 411 1447
-495 412 1451
-490 412 1453
-485 411 1451
-479 409 1446
-478 412 1460
-471 410 1453
-473 416 1474
-467 414 1470
-465 416 1479
-458 415 1475
-454 415 1476
-450 415 1478
-448 418 1489
-438 413 1472
-440 419 1495
-431 414 1481
-435 422 1510
-424 416 1490
-418 415 1487
-415 416 1491
-413 419 1503
-406 417 1496
-404 418 1503
-398 417 1500
-395 419 1509
-393 422 1519
-387 420 1514
-381 419 1510
-378 421 1518
-377 424 1532
-370 421 1522
-361 416 1505
-354 413 1496
-340 402 1456
-311 374 1353
-272 332 1200
-191 237 854
-179 226 816
-168 215 775
-153 199 720
-167 220 794
-158 211 764
-155 211 762
-152 209 755
-144 201 727
-145 206 747
-139 200 724
-139 204 740
-136 202 733
-132 200 728
-131 201 731
-130 202 736
-128 203 739
-121 195 711
-121 199 724
-116 195 709
-112 192 701
-109 191 694
-108 192 698
-102 185 675
-92 171 623
-88 167 608
-88 171 622
-81 160 584
-76 154 562
-74 154 560
-70 150 546
-63 137 499
-65 146 532
-64 147 535
-60 141 513
-60 144 525
-60 147 538
-56 142 518
-50 131 479
-43 118 427
-40 112 408
-38 110 401
-34 105 380
-33 104 378
-30 99 358
-28 96 347
-27 96 349
-26 96 349
-23 91 329
-23 91 331
-21 87 316
-22 96 348
-19 89 323
-18 90 325
-17 89 322
-17 91 332
-15 87 315
-14 89 322
-14 93 337
-13 92 336
-12 93 339
-11 95 345
-9 87 315
-9 90 325
-8 90 327
-7 91 330
-6 90 327
-5 93 337
-3 86 311
-3 91 331
-2 90 328
-1 88 320
0 91 330
0 90 327
1 92 333
2 92 333
3 88 321
4 82 299
5 85 309
6 86 314
7 90 326
8 96 350
9 94 342
10 95 347
11 91 332
12 91 330
14 95 347
15 97 355
15 93 339
16 91 332
16 88 319
18 92 336
18 84 307
19 87 316
21 93 337
23 97 354
25 99 361
27 105 383
29 106 386
33 118 431
34 117 429
36 118 433
39 124 454
41 126 460
40 119 435
39 112 409
38 107 389
43 118 431
43 112 409
48 124 453
48 120 437
53 129 472
52 124 455
54 124 453
60 136 500
57 126 461
60 129 471
57 120 440
64 131 480
56 112 409
60 118 429
61 117 428
62 116 424
63 115 420
65 117 427
64 113 411
65 112 408
67 114 416
69 116 422
69 113 412
70 113 412
71 113 411
72 112 408
74 114 413
73 110 400
77 114 414
73 107 387
77 111 402
76 107 389
79 110 400
78 107 388
81 110 397
79 105 379
81 106 385
80 103 372
82 104 377
78 98 354
82 101 363
84 103 370
84 101 364
80 94 339
91 107 385
96 111 401
93 106 381
94 106 381
93 104 374
91 100 360
95 103 370
95 102 367
97 103 370
97 102 364
100 103 370
104 107 382
109 110 395
101 101 361
102 101 360
105 103 367
102 99 351
102 98 348
96 91 324
82 77 271
73 68 237
65 59 206
72 65 228
56 50 173
67 60 208
52 45 154
46 40 136
53 45 154
39 33 109
44 37 125
51 42 144
52 43 145
47 38 129
55 45 152
65 52 179
90 73 252
106 85 296
97 76 266
112 88 306
120 93 326
138 106 373
157 120 422
153 116 408
147 110 386
152 114 398
146 108 376
154 113 396
171 124 434
163 118 411
165 119 413
166 118 410
179 126 440
155 109 377
173 120 418
155 107 370
146 100 344
167 113 392
171 115 397
178 119 411
188 125 430
183 121 416
167 109 375
188 122 419
191 123 423
197 126 433
193 122 420
197 124 425
217 136 466
195 122 415
187 116 394
199 122 416
202 123 419
198 120 406
197 118 401
193 115 389
189 112 379
192 113 381
216 126 427
210 122 411
203 117 394
216 124 417
221 126 424
222 126 423
223 126 420
210 117 392
220 122 408
217 120 400
200 110 365
242 132 440
240 130 433
207 112 369
215 115 381
216 115 380
218 115 380
234 123 406
198 104 339
215 112 366
238 123 404
230 118 387
-2399 1264 4033
-2408 1276 4079
-2338 1246 3990
-2350 1259 4041
-2430 1309 4210
-278 153 486
-446 245 784
-324 180 574
-369 206 659
-318 179 572
-388 219 704
-340 194 622
-480 273 884
-477 273 884
-543 312 1015
-539 312 1015
-584 340 1109
-556 326 1065
-582 343 1123
-590 350 1146
-616 367 1207
-587 353 1160
-567 343 1128
-500 305 1004
-345 213 699
-232 145 474
-150 95 309
-109 71 227
-100 65 210
-95 63 201
-83 56 178
-72 49 157
-85 58 185
-120 81 263
-200 133 440
-284 188 628
-461 306 1029
-554 370 1246
-564 380 1280
-579 392 1325
-577 394 1332
-578 397 1345
-586 406 1376
-583 406 1380
-578 406 1382
-572 405 1378
-570 407 1387
-568 408 1393
-564 409 1396
-563 411 1406
-556 409 1402
-550 408 1399
-545 407 1398
-541 408 1401
-540 410 1412
-541 414 1427
-529 408 1408
-529 412 1421
-525 412 1425
-518 410 1418
-513 410 1419
-516 416 1441
-509 413 1435
-508 416 1447
-503 415 1444
-504 420 1462
-496 417 1452
-492 418 1456
-485 415 1449
-481 415 1452
-480 419 1466
-475 418 1463
-468 416 1459
-465 417 1464
-465 421 1479
-458 419 1474
-451 417 1467
-446 416 1465
-444 418 1474
-438 417 1471
-440 423 1494
-430 418 1476
-430 423 1495
-422 419 1483
-419 420 1489
-418 424 1502
-412 422 1497
-407 422 1499
-406 426 1513
-396 420 1492
-390 419 1489
-386 419 1492
-378 415 1478
-373 414 1477
-371 417 1488
-361 411 1467
-358 412 1472
-342 399 1427
-338 400 1430
-315 377 1349
-281 342 1222
-254 314 1122
-194 243 868
-172 219 782
-169 219 780
-170 223 797
-164 218 778
-161 217 777
-151 207 740
-150 209 748
-141 200 715
-142 204 730
-142 207 740
-138 204 731
-130 196 704
-129 197 707
-131 204 732
-125 197 709
-116 187 673
-111 183 657
-106 177 634
-101 173 621
-101 176 631
-96 170 610
-86 155 558
-78 144 518
-79 149 534
-79 152 546
-78 153 551
-71 144 516
-70 143 515
-68 144 518
-62 135 485
-61 134 483
-62 141 507
-59 138 497
-60 143 516
-56 136 490
-56 140 504
-55 143 515
-48 129 463
-48 132 477
-38 110 395
-37 111 399
-36 110 394
-33 105 377
-31 101 363
-29 98 352
-27 96 346
-26 97 347
-23 89 317
-21 86 306
-21 91 324
-21 94 338
-20 92 331
-19 92 330
-17 89 320
-16 87 311
-15 87 312
-14 88 317
-12 86 307
-11 83 298
-11 91 326
-11 91 326
-9 89 319
-8 89 320
-8 95 341
-6 88 316
-5 89 318
-5 91 329
-4 91 326
-3 88 317
-2 90 323
-1 88 315
0 87 313
0 91 325
1 92 330
2 91 328
3 87 314
4 85 305
5 92 329
6 90 324
7 87 314
8 92 331
9 93 336
10 92 332
12 98 354
12 92 331
14 98 352
15 100 362
16 96 346
16 89 321
16 88 318
18 93 333
18 88 316
20 90 322
22 99 358
22 94 337
24 97 348
26 102 366
28 104 377
29 104 376
34 119 429
40 133 483
40 129 467
36 111 400
38 115 414
34 98 352
38 106 384
37 101 364
44 119 429
45 118 425
49 124 447
49 121 436
54 129 468
53 124 449
59 135 490
61 136 494
59 127 461
58 123 444
61 126 455
63 128 463
60 120 432
61 118 424
63 119 429
62 116 419
62 114 409
66 118 426
65 114 409
66 113 407
68 115 412
68 114 408
71 115 415
71 114 410
71 112 402
73 113 404
73 111 399
74 110 395
76 111 399
76 110 396
78 111 398
79 110 395
77 107 382
78 107 381
81 108 386
83 109 391
83 108 387
81 104 372
82 104 371
81 101 358
86 106 376
83 101 358
91 109 388
86 102 363
89 105 372
89 103 365
88 100 355
89 101 357
90 100 355
94 104 368
95 103 365
94 100 355
98 104 369
97 102 361
98 101 358
104 107 377
105 106 376
108 108 381
104 103 365
99 97 340
99 96 337
92 88 310
83 78 273
79 74 257
63 58 199
75 69 239
55 50 169
49 43 147
44 38 128
49 43 145
50 43 146
40 34 112
41 34 114
38 31 103
52 43 146
53 44 149
77 63 216
92 75 258
102 83 285
112 90 312
109 88 302
138 110 380
122 96 332
127 99 344
146 113 392
144 111 383
144 110 379
147 111 382
163 122 422
143 106 364
160 118 408
131 96 328
169 123 423
157 113 387
172 123 421
183 129 444
165 116 396
157 110 375
168 116 398
174 119 408
160 109 371
165 112 381
176 118 402
183 122 415
186 123 418
182 119 405
184 120 408
192 124 422
185 119 401
194 124 419
194 123 415
199 126 424
194 121 408
190 118 396
189 117 391
184 113 378
183 111 372
184 111 371
185 111 370
191 114 379
204 121 403
196 115 383
206 121 400
216 125 416
221 128 424
216 124 410
209 119 392
217 123 405
218 123 405
225 126 415
220 123 403
212 117 384
223 122 401
214 117 382
231 125 409
224 121 394
211 113 368
247 131 428
226 120 389
212 111 360
218 114 368
228 118 382
-2409 1283 4047
-2372 1270 4015
-2359 1270 4022
-2352 1274 4041
-2431 1324 4209
-252 140 439
-330 184 580
-413 231 732
-328 185 585
-277 158 498
-232 134 421
-283 163 518
-284 165 523
-426 247 791
-482 281 900
-495 290 932
-515 303 977
-554 328 1059
-564 336 1087
-575 345 1117
-543 328 1063
-574 348 1132
-558 341 1110
-480 296 963
-344 214 695
-247 156 504
-152 97 313
-120 78 249
-97 65 205
-90 60 191
-81 55 173
-77 53 167
-83 57 179
-119 80 259
-195 131 428
-280 188 620
-435 292 970
-548 370 1232
-564 383 1278
-572 392 1307
-573 395 1322
-576 400 1339
-579 406 1360
-580 409 1372
-579 411 1383
-572 409 1378
-568 410 1381
-567 412 1391
-568 416 1404
-557 411 1391
-556 413 1399
-554 415 1408
-541 409 1386
-540 411 1398
-538 413 1405
-537 415 1414
-535 418 1424
-533 419 1430
-522 414 1416
-520 416 1422
-516 416 1425
-513 417 1430
-512 420 1443
-504 417 1432
-501 419 1440
-494 416 1433
-493 419 1443
-489 420 1447
-487 421 1454
-478 418 1444
-482 425 1469
-474 422 1462
-470 422 1464
-468 424 1471
-459 421 1461
-455 421 1463
-453 423 1471
-450 425 1477
-443 422 1469
-444 427 1490
-436 424 1479
-432 425 1483
-429 426 1489
-425 426 1491
-419 425 1487
-412 422 1479
-405 420 1471
-399 418 1467
-388 411 1444
-385 413 1450
-374 406 1427
-375 412 1448
-365 405 1426
-350 393 1384
-337 384 1353
-331 381 1343
-322 376 1327
-316 373 1318
-319 382 1348
-306 370 1310
-281 345 1220
-263 328 1160
-204 259 913
-175 225 794
-172 225 793
-166 219 775
-162 217 768
-153 209 740
-144 200 706
-142 200 707
-141 202 714
-138 200 709
-127 187 662
-125 187 662
-119 182 645
-113 176 623
-104 165 585
-96 155 547
-94 155 548
-90 150 532
-89 151 535
-85 147 522
-81 144 508
-79 143 506
-81 150 531
-73 138 490
-74 142 505
-73 142 504
-69 139 492
-69 142 504
-69 143 508
-66 142 504
-64 139 495
-61 137 487
-61 140 497
-60 141 500
-57 138 492
-57 142 505
-56 141 503
-54 140 498
-47 127 452
-43 119 423
-43 124 440
-37 110 389
-35 109 387
-33 107 381
-30 102 361
-31 107 379
-27 98 347
-26 99 352
-26 101 358
-22 90 319
-22 96 340
-20 90 319
-18 86 305
-18 90 318
-17 89 313
-17 94 334
-15 90 320
-14 91 322
-13 91 324
-12 89 315
-11 88 313
-10 90 319
-9 88 314
-9 91 324
-7 90 320
-7 92 327
-6 92 327
-5 95 338
-4 92 328
-3 89 317
-2 90 318
-1 88 312
0 91 323
0 92 328
1 89 318
2 88 311
3 88 313
4 88 313
5 89 315
6 87 310
7 90 319
8 90 318
9 93 331
10 97 344
11 91 322
12 94 335
14 98 350
15 104 372
16 98 348
16 96 341
17 93 330
17 89 315
18 88 313
20 93 330
21 93 331
23 96 341
24 97 346
25 97 347
29 108 385
29 105 373
32 111 397
35 118 420
34 112 401
40 125 449
41 124 444
40 119 426
39 110 394
37 102 363
38 101 360
50 133 476
45 114 409
50 125 448
51 122 437
56 132 472
54 125 448
57 129 460
57 124 443
61 130 466
60 127 453
61 126 449
61 122 434
62 121 431
66 126 449
63 118 420
62 115 409
65 118 421
66 118 419
66 114 405
68 115 410
69 115 410
69 114 404
72 116 414
72 115 407
71 111 393
74 113 402
73 111 393
76 113 400
77 113 399
79 115 406
79 112 398
79 111 392
79 109 386
82 111 391
84 112 396
85 112 394
85 111 390
84 107 378
82 104 366
84 105 368
84 104 365
83 100 352
93 111 391
90 107 375
93 108 381
84 97 338
87 99 347
90 102 356
94 105 368
92 101 355
93 101 352
95 102 355
99 105 369
99 104 362
88 91 316
83 85 295
84 84 293
83 83 286
75 74 256
90 88 305
72 70 240
50 48 161
60 57 193
49 46 154
67 62 210
53 48 163
31 27 88
44 39 128
35 30 98
46 40 133
38 33 107
58 50 167
38 32 105
51 43 144
80 68 230
79 66 224
104 86 295
109 89 305
117 96 328
131 106 364
134 108 369
141 112 384
138 109 373
133 104 354
168 130 446
134 103 351
150 114 390
151 114 390
152 114 389
157 117 398
149 110 373
161 118 401
159 116 392
167 120 409
162 116 392
149 105 356
178 126 426
186 130 440
167 116 390
182 126 424
155 106 355
189 128 432
182 123 412
190 127 428
207 137 462
190 125 421
192 126 422
192 124 416
184 119 397
186 119 398
174 110 367
174 110 364
181 113 376
178 111 367
179 111 367
193 118 392
192 117 387
182 110 364
192 116 382
206 123 406
186 111 363
202 119 392
192 112 368
205 120 391
194 112 366
203 117 382
207 118 385
221 126 409
212 120 390
215 121 391
203 113 367
213 118 382
227 125 405
212 116 375
229 125 402
222 121 388
220 119 381
218 117 374
232 124 396
229 121 387
215 113 361
-2414 1299 4051
-2389 1293 4039
-2347 1278 3999
-2348 1285 4031
-2374 1307 4105
-112 65 196
-294 166 516
-359 204 636
-298 171 532
-227 131 407
-135 80 244
-289 168 527
-310 181 570
-373 219 692
-500 294 934
-514 304 966
-525 312 995
-520 312 994
-535 323 1031
-538 326 1045
-566 345 1108
-548 337 1082
-529 327 1051
-473 294 947
-342 215 691
-240 153 489
-158 103 326
-114 75 238
-98 66 206
-88 59 186
-77 53 165
-75 52 161
-82 57 177
-115 79 252
-193 131 424
-286 194 633
-429 292 957
-549 375 1233
-559 384 1266
-566 392 1294
-574 400 1323
-580 407 1348
-581 411 1362
-582 415 1377
-574 412 1369
-574 415 1381
-568 414 1379
-567 416 1389
-561 415 1386
-559 417 1393
-556 418 1399
-550 417 1397
-547 418 1401
-546 420 1412
-541 420 1411
-533 417 1403
-535 422 1422
-531 422 1425
-521 418 1410
-520 420 1422
-518 422 1430
-514 423 1432
-508 422 1430
-499 417 1417
-498 420 1428
-496 422 1436
-496 426 1452
-494 428 1459
-484 424 1445
-482 426 1454
-474 423 1445
-472 425 1454
-468 425 1455
-465 427 1462
-454 420 1442
-458 428 1470
-447 422 1450
-439 419 1441
-438 422 1454
-432 420 1447
-425 418 1441
-416 413 1426
-407 409 1413
-403 409 1414
-396 406 1405
-388 403 1395
-376 394 1365
-372 395 1368
-367 393 1364
-352 382 1325
-347 381 1324
-350 389 1351
-346 389 1353
-348 395 1377
-346 398 1388
-338 393 1371
-335 394 1376
-329 393 1372
-320 387 1352
-302 370 1292
-258 321 1123
-214 270 944
-174 223 778
-160 208 726
-152 202 703
-137 185 644
-126 173 601
-130 180 627
-127 179 626
-117 168 585
-117 170 592
-101 150 524
-102 154 537
-98 149 521
-98 152 531
-89 140 490
-87 141 491
-83 136 476
-81 136 475
-82 139 485
-76 132 461
-81 143 500
-74 133 466
-75 138 481
-75 139 488
-73 138 484
-68 132 461
-69 138 483
-66 135 472
-68 140 493
-65 137 480
-64 138 485
-62 138 483
-58 132 464
-57 133 466
-59 141 496
-57 140 493
-56 141 495
-55 140 493
-54 143 504
-48 132 464
-43 121 426
-42 123 431
-38 114 400
-37 114 402
-34 110 387
-32 108 379
-30 105 369
-28 103 362
-25 96 337
-24 96 336
-21 90 313
-21 92 323
-20 91 318
-19 91 318
-18 90 314
-17 90 314
-15 87 303
-15 92 324
-14 92 323
-13 91 318
-12 91 320
-10 86 301
-10 90 316
-9 89 312
-8 87 306
-7 90 315
-6 89 314
-5 91 319
-5 93 325
-4 96 338
-3 91 318
-1 89 311
-1 90 318
0 91 320
0 89 312
1 88 308
2 90 316
3 91 320
4 86 302
5 87 304
6 90 315
7 90 317
8 92 324
9 96 337
10 97 340
12 99 348
12 90 317
13 97 340
14 94 332
16 102 359
16 96 339
17 94 329
17 87 304
18 90 315
19 86 303
19 85 300
21 90 316
24 97 343
25 100 352
28 107 377
29 105 371
31 111 391
34 116 410
32 106 373
39 125 442
42 131 465
39 117 415
43 125 441
45 125 443
41 110 389
42 112 394
47 121 427
46 116 411
50 123 433
51 123 433
54 126 444
57 130 460
58 130 459
59 127 450
59 125 440
60 124 436
60 122 430
63 124 437
61 118 416
65 124 437
65 121 425
64 117 413
65 117 411
66 116 407
66 114 401
70 119 420
70 117 409
71 115 404
72 116 408
71 112 392
76 118 414
78 119 418
75 113 397
77 114 400
77 112 391
79 114 399
80 112 393
80 111 386
82 113 394
83 112 392
86 114 398
82 108 377
86 111 388
84 108 375
85 108 374
87 108 377
85 104 362
86 104 361
87 103 359
85 101 349
83 96 332
84 97 335
86 98 338
90 101 351
94 105 362
96 105 363
97 105 364
91 97 335
76 80 275
73 76 258
68 69 236
76 77 264
73 74 251
56 55 185
61 60 203
56 54 182
60 57 193
51 48 161
48 45 149
41 38 124
47 43 142
41 37 122
36 32 103
40 36 115
44 39 128
51 44 146
54 47 156
55 47 156
63 54 178
78 66 222
115 98 331
105 88 298
107 89 301
117 97 327
126 103 349
133 108 365
140 113 383
147 117 396
152 120 407
141 110 373
150 117 394
144 111 375
145 110 372
153 116 392
156 118 396
162 121 406
169 125 422
156 114 383
173 126 423
168 121 407
191 137 460
168 120 400
191 135 454
202 142 475
212 148 494
