VERSION 0.7
FIELDS x y z
SIZE 4 4 4
TYPE I I I
COUNT 1 1 1
WIDTH 3270
HEIGHT 1
VIEWPOINT 0.0 0.0 0.0 1.0 0.0 0.0 0.0
POINTS 3270
DATA ascii
296 -707 2510
303 -706 2506
311 -707 2506
318 -706 2502
326 -708 2509
333 -707 2502
340 -705 2497
347 -704 2493
353 -702 2483
361 -703 2486
368 -703 2483
376 -703 2483
382 -702 2478
391 -704 2483
396 -700 2471
404 -700 2470
411 -701 2470
419 -700 2468
425 -699 2460
432 -698 2456
440 -699 2460
447 -698 2455
454 -698 2455
460 -697 2448
469 -699 2453
475 -697 2445
481 -696 2439
489 -696 2441
497 -697 2441
502 -694 2429
510 -695 2431
517 -694 2427
525 -696 2431
530 -692 2417
536 -690 2410
545 -694 2420
552 -693 2414
558 -691 2408
567 -693 2412
574 -693 2412
579 -690 2400
587 -691 2401
596 -693 2406
601 -691 2396
610 -693 2401
614 -689 2386
622 -690 2390
630 -691 2391
636 -690 2384
644 -691 2385
652 -691 2386
657 -689 2376
664 -689 2375
671 -688 2370
679 -690 2373
684 -687 2360
692 -688 2362
700 -689 2365
706 -688 2359
714 -689 2359
720 -688 2354
727 -688 2351
734 -687 2347
741 -687 2344
747 -686 2338
755 -686 2339
764 -689 2344
770 -687 2338
776 -686 2331
783 -686 2328
793 -689 2336
798 -687 2326
807 -688 2328
813 -687 2324
818 -685 2315
828 -687 2319
836 -689 2321
843 -688 2317
849 -687 2312
853 -685 2302
865 -689 2311
870 -687 2303
877 -687 2299
882 -685 2292
890 -686 2293
896 -685 2286
907 -688 2293
915 -689 2294
919 -687 2284
924 -685 2274
934 -687 2278
944 -689 2282
947 -686 2270
957 -688 2273
962 -687 2266
969 -687 2264
975 -686 2258
982 -686 2255
989 -686 2252
995 -685 2245
1015 -693 2271
1013 -687 2248
1014 -683 2232
1027 -687 2242
1028 -683 2225
1041 -687 2236
1049 -687 2232
1052 -685 2222
1066 -689 2232
1072 -689 2228
1062 -677 2187
994 -630 2031
919 -578 1861
888 -555 1785
897 -557 1788
908 -560 1795
913 -560 1792
912 -555 1775
919 -556 1774
921 -554 1765
924 -552 1756
937 -557 1767
942 -556 1763
949 -557 1763
951 -555 1753
961 -557 1757
953 -550 1731
975 -559 1757
977 -557 1747
984 -558 1747
992 -559 1747
985 -551 1721
1000 -556 1734
1005 -556 1729
-1831 -950 3049
-1735 -905 2911
-1683 -883 2845
-1723 -909 2933
-1795 -953 3079
-1821 -972 3148
-1840 -988 3204
-1834 -991 3217
-1810 -984 3200
-1786 -976 3181
-1779 -978 3193
-1792 -991 3240
-1783 -993 3249
-1759 -985 3229
-1740 -980 3219
-1727 -979 3221
-1710 -976 3213
-1696 -974 3212
-1681 -971 3207
-1663 -967 3197
-1639 -959 3177
-1630 -960 3184
-1613 -956 3175
-1600 -955 3175
-1583 -950 3166
-1567 -947 3158
-1550 -943 3150
-1539 -942 3152
-1516 -935 3130
-1511 -938 3145
-1489 -931 3124
-1479 -931 3128
-1467 -929 3129
-1450 -925 3118
-1436 -923 3114
-1422 -920 3108
-1401 -913 3088
-1393 -914 3097
-1379 -912 3091
-1370 -912 3097
-1356 -909 3090
-1339 -905 3078
-1328 -904 3080
-1310 -898 3063
-1297 -896 3059
-1285 -894 3057
-1271 -892 3050
-1259 -890 3047
-1244 -886 3038
-1237 -888 3048
-1222 -884 3037
-1211 -883 3037
-1202 -883 3041
-1189 -881 3035
-1171 -875 3017
-1163 -876 3023
-1145 -869 3004
-1134 -868 3003
-1123 -867 3003
-1111 -865 2999
-1103 -866 3005
-1088 -861 2991
-1079 -862 2997
-1065 -858 2985
-1052 -855 2978
-1043 -856 2982
-1034 -856 2985
-1016 -848 2961
-1008 -850 2968
-994 -845 2956
-983 -844 2952
-975 -845 2958
-952 -833 2919
-918 -811 2844
-872 -777 2728
-814 -733 2576
-850 -773 2718
-899 -825 2903
-900 -835 2938
-886 -830 2923
-872 -826 2910
-863 -826 2912
-854 -825 2911
-842 -822 2903
-830 -819 2894
-821 -819 2898
-812 -819 2900
-801 -817 2893
-794 -819 2900
-779 -813 2881
-772 -814 2887
-762 -813 2886
-749 -808 2870
-739 -807 2869
-731 -808 2872
-720 -806 2866
-710 -804 2862
-699 -802 2854
-691 -802 2856
-679 -798 2846
-672 -800 2853
-660 -796 2841
-651 -795 2838
-643 -796 2845
-631 -792 2829
-625 -795 2841
-615 -793 2838
-602 -787 2818
-595 -789 2826
-585 -787 2819
-575 -785 2813
-566 -785 2814
-555 -782 2803
-549 -785 2815
-539 -782 2808
-529 -781 2802
-520 -779 2796
-510 -777 2791
-502 -777 2791
-491 -773 2780
-483 -774 2784
-473 -772 2776
-464 -770 2772
-456 -771 2774
-447 -770 2771
-439 -769 2770
-430 -769 2770
-422 -769 2772
-413 -767 2764
-403 -764 2753
-395 -765 2759
-385 -762 2749
-376 -760 2744
-368 -760 2744
-360 -760 2743
-350 -757 2734
-342 -757 2733
-333 -756 2730
-327 -759 2740
-317 -755 2728
-308 -754 2726
-300 -752 2718
-292 -753 2721
-283 -752 2718
-274 -749 2708
-267 -750 2714
-258 -750 2711
-250 -750 2713
-241 -746 2700
-233 -747 2702
-225 -745 2696
-217 -744 2694
-209 -745 2698
-200 -744 2692
-192 -744 2692
-184 -741 2682
-176 -741 2682
-167 -738 2672
-159 -738 2673
-151 -736 2665
-143 -737 2669
-136 -739 2675
-128 -738 2672
-119 -735 2661
-111 -735 2661
-103 -732 2651
-95 -733 2653
-87 -730 2646
-79 -729 2640
-72 -730 2645
-63 -726 2631
-56 -730 2645
-48 -728 2635
-40 -728 2636
-32 -724 2620
-24 -726 2627
-17 -725 2626
-9 -724 2622
-1 -724 2623
6 -721 2611
13 -723 2616
21 -722 2613
29 -721 2610
36 -720 2605
44 -720 2606
52 -719 2600
60 -722 2610
67 -718 2597
74 -717 2592
82 -716 2587
90 -715 2586
97 -715 2583
104 -713 2575
112 -713 2575
120 -713 2576
127 -711 2566
134 -711 2567
142 -710 2563
149 -710 2563
157 -710 2563
165 -711 2565
171 -707 2550
179 -709 2556
187 -709 2556
194 -707 2548
201 -706 2545
209 -706 2544
216 -705 2540
224 -706 2541
230 -701 2524
238 -704 2534
245 -702 2526
253 -703 2530
260 -702 2524
267 -701 2517
275 -701 2518
282 -700 2515
289 -700 2512
295 -698 2504
303 -699 2508
310 -698 2503
318 -698 2503
324 -696 2494
332 -697 2498
339 -696 2492
346 -696 2490
355 -697 2495
361 -696 2488
368 -695 2485
374 -693 2475
381 -692 2471
389 -693 2473
396 -693 2472
404 -692 2470
411 -693 2471
418 -693 2468
425 -692 2464
433 -692 2465
438 -690 2453
447 -691 2458
452 -688 2445
461 -691 2455
468 -690 2448
476 -691 2451
481 -688 2439
487 -686 2432
496 -688 2438
502 -686 2430
509 -686 2428
517 -687 2428
523 -685 2422
531 -686 2422
538 -686 2423
544 -685 2415
552 -686 2417
557 -683 2407
563 -681 2399
573 -684 2407
578 -682 2398
586 -682 2398
593 -683 2397
601 -683 2397
610 -685 2403
615 -683 2393
622 -683 2390
627 -681 2381
635 -682 2383
644 -683 2386
649 -681 2377
658 -682 2380
662 -679 2367
670 -680 2367
677 -680 2367
684 -680 2363
691 -679 2360
699 -681 2362
706 -681 2360
712 -679 2354
721 -681 2357
727 -680 2353
732 -678 2344
741 -680 2346
748 -679 2343
755 -679 2340
762 -679 2337
769 -679 2337
774 -677 2328
784 -680 2333
791 -679 2330
797 -679 2326
803 -678 2319
814 -681 2328
819 -679 2320
827 -680 2319
833 -679 2315
840 -678 2310
848 -679 2311
857 -681 2313
861 -679 2304
866 -676 2294
877 -680 2302
882 -678 2293
891 -679 2296
898 -680 2294
904 -679 2288
913 -680 2289
917 -678 2280
929 -681 2288
932 -679 2277
940 -679 2274
948 -679 2274
953 -678 2266
961 -678 2265
969 -679 2266
975 -678 2258
978 -676 2248
988 -677 2250
1000 -681 2259
1012 -684 2267
1012 -679 2248
1028 -685 2265
1014 -671 2214
1047 -688 2268
1041 -680 2237
1052 -682 2241
1053 -678 2225
1063 -680 2229
1072 -682 2230
1065 -673 2197
1007 -631 2060
917 -571 1860
891 -551 1792
890 -547 1775
900 -549 1782
900 -546 1767
908 -548 1770
914 -547 1766
926 -551 1777
925 -547 1760
935 -550 1765
952 -556 1784
944 -548 1755
953 -550 1759
960 -551 1758
970 -553 1762
973 -551 1753
974 -549 1742
984 -551 1747
989 -551 1743
993 -550 1737
991 -545 1719
1002 -549 1726
-1675 -860 2792
-1643 -848 2759
-1640 -851 2774
-1669 -871 2844
-1673 -878 2872
-1700 -898 2941
-1734 -921 3021
-1740 -930 3055
-1725 -927 3052
-1699 -919 3028
-1741 -947 3127
-1778 -973 3218
-1774 -977 3235
-1752 -971 3220
-1738 -969 3218
-1725 -967 3218
-1712 -966 3220
-1695 -963 3213
-1674 -957 3198
-1660 -955 3195
-1644 -952 3190
-1623 -946 3174
-1611 -945 3175
-1597 -942 3171
-1579 -938 3162
-1567 -937 3163
-1549 -932 3151
-1539 -933 3155
-1514 -924 3129
-1505 -924 3135
-1491 -922 3133
-1474 -918 3121
-1461 -916 3120
-1448 -914 3116
-1432 -910 3107
-1424 -911 3116
-1402 -904 3094
-1391 -903 3096
-1381 -903 3098
-1358 -895 3072
-1355 -899 3091
-1337 -893 3076
-1325 -892 3075
-1314 -891 3075
-1301 -889 3072
-1288 -887 3067
-1273 -883 3057
-1258 -880 3049
-1243 -876 3038
-1235 -877 3046
-1220 -873 3035
-1205 -869 3025
-1199 -872 3037
-1184 -868 3025
-1170 -865 3018
-1160 -864 3020
-1150 -864 3020
-1135 -860 3010
-1124 -858 3007
-1113 -858 3007
-1103 -857 3006
-1086 -851 2988
-1075 -849 2986
-1066 -850 2990
-1051 -845 2977
-1041 -845 2979
-1029 -843 2973
-1014 -838 2959
-1003 -836 2956
-994 -836 2957
-980 -832 2945
-972 -833 2950
-959 -830 2941
-945 -825 2927
-916 -808 2868
-866 -772 2742
-816 -734 2609
-875 -795 2830
-892 -819 2915
-884 -820 2920
-873 -818 2915
-862 -815 2910
-852 -815 2909
-842 -814 2907
-835 -815 2914
-822 -812 2904
-811 -809 2897
-799 -806 2886
-790 -806 2890
-782 -807 2893
-773 -806 2892
-759 -801 2874
-751 -801 2879
-740 -800 2875
-729 -797 2865
-718 -795 2859
-709 -794 2860
-702 -796 2867
-687 -789 2844
-679 -790 2848
-670 -789 2846
-662 -790 2851
-653 -789 2851
-641 -786 2838
-632 -784 2835
-621 -782 2829
-613 -783 2832
-603 -781 2825
-593 -779 2820
-587 -781 2830
-574 -776 2811
-566 -776 2813
-557 -775 2812
-547 -774 2808
-539 -774 2809
-528 -771 2800
-520 -770 2798
-510 -768 2792
-503 -770 2799
-492 -766 2785
-482 -764 2780
-474 -765 2782
-466 -764 2782
-454 -759 2764
-448 -763 2780
-438 -760 2770
-430 -760 2770
-420 -757 2758
-411 -755 2754
-403 -756 2756
-394 -754 2752
-385 -754 2750
-377 -754 2752
-368 -752 2745
-359 -751 2742
-350 -749 2736
-342 -748 2732
-334 -749 2737
-325 -748 2732
-317 -746 2727
-309 -747 2730
-301 -747 2733
-291 -742 2714
-284 -745 2726
-275 -742 2714
-266 -741 2709
-258 -740 2709
-249 -739 2706
-241 -738 2702
-233 -738 2700
-224 -734 2686
-217 -739 2704
-208 -734 2689
-200 -735 2690
-192 -733 2685
-184 -733 2684
-176 -733 2686
-167 -729 2670
-159 -729 2671
-151 -730 2676
-144 -731 2679
-135 -728 2667
-127 -728 2667
-119 -727 2665
-111 -725 2655
-103 -726 2660
-95 -725 2654
-87 -724 2651
-79 -723 2649
-71 -720 2639
-63 -720 2637
-56 -721 2641
-48 -720 2637
-40 -718 2632
-32 -719 2634
-24 -718 2629
-17 -716 2622
-9 -718 2630
-1 -715 2617
6 -716 2620
13 -713 2611
21 -713 2610
29 -711 2603
36 -710 2597
44 -710 2599
52 -712 2604
59 -713 2609
67 -709 2595
74 -706 2583
82 -706 2580
90 -708 2590
97 -707 2584
105 -707 2584
112 -704 2572
119 -703 2569
127 -704 2571
135 -703 2569
142 -701 2561
150 -704 2569
157 -703 2566
164 -699 2550
171 -699 2549
180 -701 2559
186 -698 2545
194 -698 2545
201 -699 2547
208 -697 2539
216 -697 2538
223 -695 2533
231 -697 2538
238 -696 2533
245 -694 2526
253 -696 2531
260 -695 2526
266 -692 2515
274 -693 2518
283 -695 2525
289 -693 2516
295 -689 2503
303 -691 2507
309 -688 2494
318 -690 2501
325 -689 2497
333 -691 2503
340 -690 2498
346 -686 2485
354 -689 2493
359 -684 2473
368 -687 2484
375 -686 2481
381 -685 2474
390 -687 2481
395 -683 2467
403 -684 2469
411 -685 2470
416 -682 2457
424 -683 2460
432 -683 2461
439 -683 2457
445 -680 2447
453 -683 2454
461 -684 2456
468 -682 2451
473 -679 2439
482 -681 2443
489 -681 2441
495 -679 2434
501 -678 2429
509 -678 2428
517 -679 2430
524 -680 2430
530 -677 2419
536 -676 2415
544 -677 2416
552 -679 2419
557 -675 2405
565 -676 2407
571 -675 2400
578 -675 2401
585 -675 2397
592 -674 2393
602 -677 2402
607 -675 2395
614 -674 2389
624 -678 2400
629 -675 2389
635 -674 2383
642 -674 2381
647 -672 2371
655 -672 2371
662 -672 2369
670 -673 2369
676 -672 2366
685 -674 2370
691 -672 2363
700 -674 2367
705 -672 2357
711 -671 2353
720 -673 2356
726 -671 2349
731 -669 2339
738 -670 2340
747 -671 2342
752 -670 2334
762 -672 2339
770 -673 2341
776 -671 2334
782 -671 2330
788 -670 2325
797 -672 2328
802 -669 2318
811 -671 2320
819 -671 2320
826 -672 2319
831 -670 2311
841 -672 2315
844 -669 2303
854 -671 2306
862 -672 2306
868 -671 2301
874 -670 2296
882 -670 2294
890 -672 2296
896 -670 2288
905 -672 2292
911 -671 2285
917 -670 2281
926 -671 2282
933 -671 2279
939 -671 2275
944 -669 2266
954 -671 2269
963 -672 2271
969 -672 2267
978 -673 2268
983 -672 2260
982 -666 2238
994 -669 2247
1001 -669 2244
1020 -677 2267
1025 -676 2260
1020 -668 2230
1038 -675 2250
1040 -672 2237
1045 -670 2227
1056 -673 2233
1061 -672 2226
1071 -673 2229
1069 -668 2206
1018 -632 2084
931 -573 1889
893 -547 1798
899 -546 1794
906 -547 1794
899 -539 1767
913 -545 1781
918 -544 1775
919 -541 1763
926 -542 1764
929 -540 1756
940 -543 1762
948 -544 1763
950 -542 1754
960 -545 1759
963 -543 1751
967 -543 1745
967 -539 1731
986 -547 1752
992 -547 1749
993 -544 1737
999 -545 1736
1006 -545 1735
-1617 -821 2698
-1614 -824 2712
-1614 -828 2732
-1623 -838 2769
-1627 -845 2797
-1634 -854 2830
-1632 -858 2848
-1633 -863 2870
-1623 -863 2874
-1639 -876 2924
-1668 -897 2998
-1719 -931 3114
-1728 -941 3155
-1737 -952 3196
-1737 -958 3219
-1712 -949 3197
-1705 -952 3209
-1692 -951 3210
-1674 -946 3200
-1660 -944 3198
-1642 -940 3188
-1622 -935 3175
-1607 -932 3170
-1595 -931 3171
-1575 -925 3155
-1567 -927 3165
-1545 -920 3146
-1537 -921 3155
-1515 -914 3134
-1502 -912 3132
-1493 -913 3139
-1474 -908 3125
-1465 -908 3131
-1444 -902 3111
-1426 -896 3097
-1420 -899 3109
-1407 -897 3106
-1392 -894 3100
-1376 -890 3090
-1362 -887 3083
-1352 -887 3087
-1336 -883 3078
-1324 -882 3075
-1314 -882 3078
-1301 -879 3074
-1281 -873 3054
-1273 -874 3060
-1258 -870 3051
-1242 -866 3040
-1232 -866 3041
-1219 -863 3035
-1204 -859 3024
-1193 -858 3024
-1187 -861 3036
-1170 -856 3021
-1160 -855 3022
-1147 -852 3015
-1131 -848 3001
-1121 -847 3003
-1111 -846 3003
-1101 -846 3004
-1084 -840 2986
-1074 -840 2987
-1063 -838 2985
-1053 -837 2984
-1040 -835 2977
-1028 -833 2973
-1017 -831 2969
-1007 -831 2970
-997 -830 2969
-982 -825 2955
-971 -824 2952
-960 -822 2948
-947 -818 2937
-930 -811 2914
-898 -791 2844
-825 -734 2640
-842 -757 2724
-885 -803 2894
-885 -811 2924
-874 -809 2920
-861 -806 2910
-853 -807 2914
-842 -805 2910
-831 -802 2902
-821 -802 2902
-810 -799 2896
-802 -800 2900
-790 -797 2891
-778 -793 2879
-772 -797 2893
-760 -793 2880
-751 -793 2882
-738 -789 2870
-732 -792 2881
-720 -788 2870
-708 -785 2858
-699 -784 2857
-688 -782 2850
-680 -782 2854
-668 -779 2842
-660 -779 2844
-652 -780 2849
-642 -778 2844
-631 -775 2832
-622 -774 2833
-611 -772 2825
-601 -769 2817
-593 -770 2820
-584 -769 2818
-574 -768 2814
-564 -765 2807
-557 -768 2817
-546 -763 2803
-536 -762 2798
-529 -763 2803
-519 -761 2795
-509 -759 2791
-500 -758 2789
-492 -758 2790
-481 -755 2777
-474 -756 2782
-464 -754 2775
-455 -753 2772
-446 -751 2766
-439 -753 2775
-429 -750 2765
-420 -748 2760
-411 -748 2759
-402 -747 2756
-394 -746 2754
-385 -745 2751
-377 -745 2752
-367 -741 2736
-358 -741 2737
-351 -742 2741
-342 -741 2737
-334 -741 2740
-324 -737 2725
-317 -738 2730
-308 -736 2722
-299 -735 2719
-291 -734 2716
-283 -734 2716
-276 -738 2729
-266 -733 2714
-257 -731 2705
-249 -731 2706
-240 -728 2695
-233 -730 2705
-224 -728 2696
-216 -727 2693
-208 -726 2688
-200 -726 2690
-191 -724 2684
-183 -724 2681
-176 -725 2685
-167 -723 2680
-159 -721 2673
-151 -722 2675
-143 -720 2670
-135 -721 2672
-127 -719 2666
-119 -719 2664
-111 -719 2665
-103 -715 2651
-95 -716 2654
-87 -715 2651
-79 -716 2653
-71 -714 2647
-64 -714 2644
-56 -714 2646
-48 -712 2639
-40 -709 2629
-32 -709 2627
-24 -707 2618
-17 -707 2621
-9 -709 2625
-1 -706 2617
6 -707 2620
13 -705 2613
21 -708 2622
29 -704 2607
36 -704 2605
44 -701 2596
52 -703 2604
59 -700 2591
67 -702 2599
74 -701 2593
82 -701 2593
89 -697 2578
97 -697 2579
105 -699 2586
112 -699 2585
120 -696 2573
127 -695 2567
134 -695 2566
142 -694 2564
149 -693 2560
157 -693 2560
165 -694 2563
171 -691 2551
179 -693 2555
186 -690 2546
194 -691 2547
201 -689 2541
208 -689 2540
216 -688 2536
222 -686 2528
230 -688 2533
237 -686 2526
245 -688 2531
253 -687 2527
260 -686 2523
267 -685 2519
274 -684 2515
281 -684 2515
288 -682 2507
297 -686 2518
303 -682 2505
309 -681 2497
318 -683 2504
324 -679 2491
332 -681 2497
339 -681 2496
345 -678 2485
354 -681 2492
361 -680 2488
368 -680 2486
373 -676 2472
381 -677 2474
388 -676 2471
396 -678 2474
403 -676 2468
410 -676 2465
418 -677 2467
425 -676 2465
431 -674 2456
439 -676 2461
445 -673 2449
452 -674 2450
459 -672 2443
466 -673 2444
473 -671 2438
481 -673 2443
487 -671 2433
495 -672 2436
502 -672 2433
510 -672 2434
515 -670 2425
523 -671 2425
528 -668 2414
538 -671 2424
544 -669 2416
551 -670 2417
559 -670 2415
565 -669 2410
572 -669 2407
577 -666 2397
586 -669 2404
592 -666 2394
599 -667 2394
606 -667 2392
614 -668 2393
618 -664 2378
628 -667 2386
631 -663 2371
644 -669 2391
647 -664 2372
656 -666 2378
664 -667 2379
669 -665 2370
674 -662 2359
684 -665 2365
691 -665 2365
697 -664 2360
706 -666 2364
712 -665 2356
717 -662 2347
726 -665 2352
734 -665 2351
740 -664 2346
747 -664 2343
752 -662 2335
761 -664 2339
769 -665 2340
776 -664 2335
783 -665 2335
789 -663 2328
795 -663 2323
803 -663 2323
810 -663 2320
817 -663 2317
825 -663 2316
832 -664 2315
837 -662 2306
846 -663 2309
853 -663 2305
859 -662 2301
868 -664 2304
877 -665 2305
880 -662 2292
888 -663 2293
896 -663 2291
901 -662 2284
911 -664 2289
920 -665 2290
926 -664 2284
931 -663 2278
940 -664 2278
945 -663 2270
951 -662 2264
957 -661 2259
970 -665 2270
974 -663 2261
979 -662 2253
987 -663 2253
993 -661 2246
993 -657 2228
1001 -658 2227
1002 -654 2211
1027 -666 2248
1036 -667 2248
1040 -665 2238
1049 -666 2239
1054 -664 2230
1060 -664 2225
1071 -666 2230
1070 -661 2210
1025 -629 2101
938 -572 1906
902 -546 1817
894 -538 1787
900 -538 1784
912 -542 1794
913 -539 1782
918 -538 1778
928 -541 1783
923 -535 1760
931 -535 1760
933 -534 1751
944 -536 1758
947 -535 1750
957 -537 1755
968 -541 1762
972 -540 1756
975 -538 1747
980 -538 1744
982 -536 1734
991 -537 1736
995 -536 1730
1001 -536 1727
-1610 -808 2689
-1600 -807 2691
-1619 -822 2743
-1616 -825 2759
-1606 -825 2763
-1610 -831 2790
-1603 -833 2799
-1605 -839 2824
-1597 -840 2832
-1599 -846 2856
-1613 -858 2903
-1627 -871 2951
-1652 -890 3019
-1677 -909 3087
-1685 -919 3127
-1681 -922 3143
-1692 -934 3188
-1689 -938 3208
-1667 -932 3190
-1654 -930 3189
-1638 -927 3184
-1623 -925 3178
-1612 -924 3182
-1593 -920 3170
-1579 -918 3167
-1559 -912 3152
-1546 -910 3151
-1532 -908 3146
-1517 -905 3141
-1502 -902 3135
-1490 -901 3136
-1471 -896 3120
-1459 -895 3121
-1442 -890 3109
-1429 -888 3106
-1417 -887 3107
-1400 -883 3095
-1389 -882 3095
-1376 -880 3093
-1365 -880 3094
-1351 -877 3089
-1331 -870 3067
-1321 -870 3071
-1312 -870 3076
-1297 -867 3066
-1287 -867 3069
-1270 -862 3057
-1258 -861 3054
-1240 -855 3036
-1231 -855 3041
-1222 -855 3044
-1205 -850 3030
-1192 -848 3025
-1183 -849 3030
-1168 -844 3017
-1158 -844 3019
-1145 -841 3013
-1136 -842 3017
-1118 -836 2997
-1112 -838 3009
-1097 -834 2997
-1084 -831 2989
-1072 -829 2985
-1060 -827 2978
-1050 -826 2978
-1042 -827 2986
-1029 -824 2976
-1017 -822 2970
-1005 -820 2966
-992 -817 2957
-984 -818 2963
-970 -813 2950
-961 -814 2953
-951 -812 2951
-938 -810 2944
-910 -793 2883
-861 -758 2760
-814 -723 2636
-867 -779 2839
-881 -799 2915
-872 -799 2916
-862 -798 2914
-853 -797 2915
-840 -794 2905
-828 -791 2894
-820 -791 2899
-809 -790 2894
-801 -790 2897
-786 -784 2877
-780 -788 2892
-770 -786 2889
-760 -785 2884
-750 -783 2881
-738 -780 2870
-726 -777 2860
-718 -777 2863
-708 -776 2859
-697 -773 2851
-690 -776 2861
-680 -773 2854
-667 -769 2839
-659 -769 2841
-649 -768 2838
-638 -764 2826
-630 -766 2833
-621 -764 2830
-611 -763 2827
-602 -762 2823
-591 -759 2812
-582 -759 2814
-574 -759 2814
-563 -756 2806
-555 -757 2809
-545 -754 2801
-537 -755 2805
-529 -755 2808
-519 -753 2801
-508 -750 2788
-498 -747 2779
-492 -750 2791
-481 -746 2779
-473 -746 2777
-462 -743 2767
-454 -743 2769
-447 -744 2773
-439 -744 2776
-428 -740 2761
-418 -737 2750
-412 -741 2765
-401 -737 2750
-392 -735 2743
-385 -737 2751
-377 -738 2756
-368 -736 2751
-359 -733 2740
-352 -736 2749
-341 -730 2730
-333 -732 2736
-325 -731 2734
-315 -728 2722
-307 -728 2722
-299 -728 2724
-290 -725 2715
-282 -724 2711
-274 -725 2715
-265 -723 2709
-257 -723 2706
-249 -722 2706
-241 -722 2703
-233 -722 2706
-224 -721 2700
-215 -717 2686
-207 -717 2688
-200 -718 2692
-191 -716 2682
-184 -718 2692
-175 -717 2686
-167 -714 2676
-159 -712 2671
-151 -712 2669
-143 -714 2675
-135 -711 2667
-127 -711 2664
-118 -708 2654
-111 -711 2668
-103 -706 2648
-95 -708 2655
-87 -707 2650
-79 -706 2649
-71 -707 2651
-63 -705 2645
-55 -703 2635
-48 -703 2635
-40 -702 2633
-32 -701 2628
-24 -701 2627
-16 -699 2622
-9 -700 2623
-1 -698 2614
6 -698 2617
13 -695 2605
21 -697 2609
29 -697 2613
36 -698 2613
44 -695 2604
52 -695 2601
59 -692 2592
67 -694 2597
75 -693 2595
82 -690 2584
90 -693 2593
97 -692 2587
105 -689 2578
112 -690 2581
120 -688 2573
127 -685 2562
134 -686 2565
142 -686 2565
149 -686 2562
157 -685 2559
164 -684 2556
172 -686 2562
179 -682 2546
186 -683 2550
193 -681 2541
201 -682 2545
209 -683 2546
215 -679 2530
223 -680 2536
230 -678 2527
237 -679 2528
245 -679 2529
253 -679 2528
261 -681 2534
266 -675 2512
274 -677 2517
282 -677 2517
288 -674 2506
295 -675 2507
302 -672 2495
310 -675 2504
317 -674 2501
324 -672 2494
332 -674 2499
339 -673 2493
347 -674 2498
352 -670 2482
360 -672 2486
366 -668 2473
374 -670 2479
381 -669 2472
388 -669 2471
395 -668 2469
403 -669 2469
410 -668 2465
418 -670 2471
423 -666 2457
431 -668 2460
438 -666 2452
445 -666 2450
453 -667 2454
459 -666 2448
465 -663 2437
474 -665 2444
479 -663 2434
487 -664 2435
494 -663 2432
502 -664 2433
506 -661 2420
516 -663 2427
523 -663 2425
529 -662 2420
537 -663 2421
541 -659 2407
549 -660 2409
558 -662 2413
565 -662 2412
570 -659 2402
578 -660 2401
584 -659 2396
592 -659 2396
601 -661 2402
604 -657 2386
614 -660 2393
621 -660 2391
628 -659 2388
635 -659 2385
642 -659 2385
649 -659 2382
656 -659 2379
662 -658 2374
670 -659 2374
674 -655 2360
684 -658 2367
691 -658 2365
697 -657 2360
704 -656 2357
712 -657 2357
717 -656 2350
724 -656 2348
733 -657 2351
738 -655 2342
747 -657 2345
753 -656 2340
760 -655 2335
765 -654 2330
774 -656 2332
783 -657 2335
788 -655 2327
798 -658 2334
804 -656 2326
811 -656 2324
819 -657 2324
824 -656 2316
831 -656 2314
839 -656 2312
844 -655 2306
853 -656 2307
859 -655 2303
868 -656 2304
874 -656 2300
881 -656 2297
890 -657 2297
894 -655 2289
902 -656 2289
910 -656 2287
917 -656 2285
922 -655 2277
931 -656 2279
937 -655 2274
948 -658 2279
954 -657 2273
961 -657 2272
967 -656 2265
974 -656 2261
981 -656 2258
1013 -673 2314
1013 -668 2295
1009 -660 2266
1015 -659 2259
1016 -656 2243
1011 -648 2213
1013 -645 2199
1037 -656 2234
1046 -656 2233
1054 -657 2232
1060 -656 2227
1067 -657 2224
1070 -654 2212
1030 -626 2113
939 -566 1909
899 -538 1812
896 -533 1792
895 -529 1776
910 -534 1791
914 -533 1785
920 -533 1783
925 -533 1778
921 -527 1757
930 -529 1760
938 -531 1762
946 -532 1763
948 -530 1754
956 -531 1755
966 -533 1759
975 -535 1762
970 -529 1740
973 -528 1732
985 -531 1740
992 -532 1739
993 -529 1728
1005 -533 1736
-1606 -797 2685
-1608 -802 2708
-1614 -810 2739
-1614 -815 2758
-1614 -820 2779
-1600 -817 2776
-1599 -822 2795
-1600 -827 2819
-1586 -824 2814
-1583 -828 2829
-1583 -833 2852
-1593 -843 2892
-1598 -851 2922
-1598 -856 2946
-1601 -863 2974
-1633 -886 3056
-1658 -905 3126
-1673 -919 3180
-1669 -923 3197
-1651 -918 3186
-1636 -916 3182
-1626 -916 3188
-1607 -911 3176
-1586 -905 3159
-1574 -904 3159
-1556 -900 3149
-1546 -900 3152
-1530 -897 3146
-1511 -891 3131
-1502 -892 3138
-1487 -889 3131
-1471 -885 3122
-1455 -882 3115
-1440 -879 3108
-1430 -879 3110
-1416 -876 3105
-1397 -871 3091
-1386 -871 3092
-1375 -870 3094
-1364 -869 3093
-1346 -864 3078
-1333 -862 3074
-1321 -860 3072
-1307 -857 3066
-1293 -855 3060
-1282 -854 3061
-1270 -853 3059
-1254 -848 3046
-1243 -847 3047
-1230 -845 3040
-1221 -845 3045
-1208 -843 3040
-1193 -839 3028
-1179 -836 3021
-1168 -835 3020
-1159 -835 3024
-1147 -834 3021
-1135 -832 3016
-1120 -828 3004
-1103 -822 2986
-1098 -825 3001
-1084 -821 2990
-1073 -821 2990
-1063 -819 2988
-1049 -816 2980
-1038 -815 2977
-1025 -812 2967
-1014 -811 2966
-999 -806 2950
-993 -808 2962
-982 -807 2959
-972 -806 2959
-958 -802 2946
-948 -801 2946
-938 -801 2946
-920 -793 2918
-893 -777 2864
-823 -724 2668
-827 -734 2707
-872 -782 2885
-873 -790 2920
-862 -789 2915
-851 -787 2910
-841 -786 2908
-831 -785 2908
-818 -781 2894
-810 -782 2899
-799 -780 2895
-786 -776 2880
-778 -776 2883
-768 -776 2883
-760 -776 2886
-747 -772 2872
-734 -767 2857
-730 -772 2878
-717 -768 2862
-709 -768 2865
-698 -766 2858
-689 -765 2857
-679 -764 2852
-668 -762 2846
-659 -761 2846
-648 -758 2837
-640 -759 2840
-630 -757 2835
-620 -755 2830
-609 -752 2820
-603 -755 2830
-590 -750 2812
-582 -750 2814
-573 -749 2812
-563 -747 2805
-554 -746 2804
-545 -746 2804
-535 -744 2796
-526 -742 2793
-518 -744 2798
-509 -742 2794
-500 -741 2792
-490 -739 2783
-482 -739 2784
-474 -740 2790
-464 -737 2778
-454 -735 2772
-445 -732 2762
-438 -736 2777
-428 -733 2765
-418 -730 2755
-410 -730 2757
-401 -729 2752
-394 -730 2757
-386 -730 2759
-376 -727 2747
-367 -725 2742
-359 -727 2748
-350 -723 2736
-341 -723 2734
-333 -723 2736
-324 -722 2731
-315 -719 2722
-308 -722 2733
-298 -717 2716
-291 -719 2722
-282 -717 2717
-274 -717 2718
-265 -714 2704
-257 -715 2711
-249 -713 2703
-241 -714 2705
-233 -713 2703
-224 -712 2698
-216 -712 2699
-207 -709 2689
-199 -708 2684
-191 -708 2686
-184 -709 2690
-175 -707 2682
-166 -704 2670
-159 -705 2674
-151 -706 2678
-142 -702 2665
-134 -702 2662
-127 -704 2670
-118 -700 2656
-111 -703 2667
-103 -701 2659
-95 -700 2657
-87 -700 2655
-79 -698 2649
-71 -699 2651
-63 -697 2645
-56 -697 2644
-48 -695 2636
-40 -694 2633
-32 -694 2633
-24 -693 2628
-16 -690 2618
-9 -690 2616
-1 -692 2625
6 -688 2608
13 -692 2624
21 -688 2609
29 -687 2605
36 -687 2603
44 -685 2595
52 -685 2596
59 -685 2595
67 -687 2602
74 -684 2591
82 -682 2583
89 -682 2583
97 -681 2576
105 -682 2583
112 -681 2577
119 -679 2570
127 -679 2569
134 -679 2569
142 -679 2568
150 -679 2567
156 -675 2552
164 -678 2560
171 -675 2552
180 -678 2561
186 -676 2552
193 -674 2543
202 -676 2552
209 -674 2544
216 -674 2543
223 -672 2536
230 -671 2529
237 -670 2526
245 -671 2528
251 -669 2519
260 -671 2527
266 -669 2517
274 -670 2520
280 -666 2505
288 -667 2509
295 -667 2506
302 -665 2499
310 -666 2501
317 -666 2499
325 -667 2502
331 -664 2490
340 -667 2502
345 -663 2487
352 -662 2482
360 -664 2487
368 -665 2491
373 -660 2469
381 -661 2472
387 -660 2467
395 -661 2471
403 -661 2468
409 -660 2463
417 -660 2464
423 -659 2457
431 -659 2458
438 -660 2458
444 -658 2450
453 -660 2456
458 -657 2443
464 -655 2436
472 -656 2439
480 -656 2437
488 -658 2441
495 -657 2436
502 -657 2435
508 -656 2431
516 -657 2432
522 -655 2426
531 -657 2429
536 -654 2419
543 -654 2417
550 -653 2412
556 -652 2405
566 -655 2416
570 -651 2400
579 -654 2407
584 -652 2398
592 -652 2397
599 -652 2394
606 -652 2393
615 -654 2399
620 -651 2387
626 -650 2381
632 -649 2378
639 -648 2373
648 -651 2380
656 -651 2379
661 -649 2369
670 -651 2375
672 -646 2354
683 -650 2366
688 -648 2357
698 -650 2364
703 -648 2354
710 -648 2353
716 -647 2347
725 -649 2351
732 -649 2350
738 -648 2344
747 -649 2346
754 -650 2345
760 -648 2337
769 -650 2341
771 -646 2325
780 -648 2329
787 -647 2324
796 -649 2328
802 -648 2323
810 -648 2323
815 -647 2315
823 -647 2314
830 -647 2311
837 -647 2310
846 -649 2313
855 -650 2315
859 -647 2302
864 -646 2295
874 -648 2300
880 -648 2296
884 -646 2286
893 -647 2288
904 -649 2294
906 -646 2279
916 -648 2284
924 -649 2284
928 -646 2272
938 -649 2278
943 -647 2269
953 -649 2274
960 -649 2270
967 -649 2266
971 -647 2256
977 -646 2253
972 -638 2221
986 -643 2235
988 -639 2219
1022 -657 2278
1017 -649 2248
1016 -644 2226
1025 -645 2227
1035 -647 2231
1045 -649 2235
1049 -647 2225
1060 -649 2230
1065 -648 2222
1068 -646 2210
1036 -622 2126
951 -567 1936
902 -534 1819
892 -525 1786
902 -527 1792
905 -526 1784
910 -525 1778
915 -525 1774
918 -523 1767
930 -527 1776
930 -523 1762
936 -524 1760
951 -529 1774
956 -529 1771
953 -524 1751
964 -526 1757
963 -523 1742
968 -522 1737
985 -528 1755
990 -528 1751
988 -524 1733
989 -521 1722
997 -523 1723
-1610 -790 2693
-1619 -799 2729
-1616 -802 2743
-1616 -807 2765
-1609 -808 2774
-1607 -811 2790
-1600 -813 2799
-1594 -814 2809
-1588 -816 2821
-1584 -819 2835
-1578 -821 2845
-1577 -825 2865
-1571 -827 2876
-1574 -834 2903
-1574 -839 2926
-1594 -855 2985
-1631 -880 3078
-1682 -913 3199
-1670 -913 3201
-1649 -907 3185
-1634 -904 3181
-1623 -904 3185
-1608 -902 3180
-1585 -894 3159
-1573 -894 3160
-1560 -892 3158
-1539 -886 3142
-1530 -886 3148
-1515 -883 3141
-1496 -878 3127
-1485 -878 3130
-1469 -875 3123
-1455 -872 3116
-1440 -869 3111
-1430 -869 3114
-1413 -865 3103
-1402 -865 3105
-1387 -861 3097
-1376 -860 3097
-1359 -856 3086
-1343 -852 3074
-1331 -851 3073
-1318 -849 3068
-1306 -847 3066
-1293 -845 3063
-1277 -841 3051
-1269 -842 3057
-1251 -837 3042
-1241 -836 3044
-1229 -835 3042
-1219 -834 3042
-1205 -832 3036
-1190 -828 3025
-1181 -828 3029
-1168 -826 3023
-1155 -823 3017
-1142 -821 3010
-1130 -819 3006
-1118 -817 3002
-1107 -816 3000
-1092 -812 2988
-1082 -811 2988
-1069 -808 2979
-1057 -806 2975
-1052 -809 2989
-1039 -806 2981
-1026 -803 2972
-1016 -803 2974
-1003 -800 2965
-994 -800 2968
-983 -799 2964
-972 -797 2959
-957 -792 2944
-948 -792 2948
-935 -789 2938
-925 -788 2936
-898 -772 2880
-865 -751 2804
-802 -704 2630
-845 -750 2801
-863 -773 2892
-860 -778 2913
-851 -779 2915
-840 -776 2908
-828 -774 2901
-820 -774 2904
-810 -774 2904
-796 -768 2884
-785 -766 2880
-778 -767 2886
-769 -767 2887
-760 -768 2890
-747 -763 2873
-733 -758 2856
-726 -759 2863
-716 -758 2860
-708 -759 2864
-696 -755 2852
-687 -754 2850
-679 -755 2855
-668 -752 2846
-660 -753 2849
-650 -751 2844
-639 -749 2836
-630 -748 2835
-619 -745 2824
-612 -747 2833
-602 -745 2828
-590 -741 2814
-583 -743 2823
-572 -739 2809
-563 -739 2809
-553 -737 2802
-544 -736 2799
-535 -736 2799
-527 -735 2798
-518 -734 2797
-508 -732 2788
-500 -733 2791
-488 -728 2774
-481 -729 2781
-473 -730 2784
-465 -731 2787
-454 -726 2771
-445 -725 2766
-435 -721 2754
-428 -724 2766
-419 -723 2764
-410 -721 2757
-402 -721 2756
-392 -719 2748
-384 -719 2750
-375 -717 2744
-366 -715 2737
-358 -716 2742
-350 -716 2739
-341 -714 2733
-333 -714 2735
-324 -713 2732
-316 -713 2731
-306 -709 2716
-298 -709 2716
-290 -710 2721
-281 -707 2712
-273 -707 2712
-266 -708 2716
-256 -704 2701
-249 -705 2705
-240 -704 2700
-232 -705 2703
-224 -702 2695
-216 -704 2700
-208 -703 2696
-199 -700 2685
-191 -700 2687
-183 -700 2685
-175 -700 2688
-166 -697 2674
-159 -698 2679
-150 -694 2665
-142 -694 2663
-135 -695 2667
-126 -691 2654
-118 -691 2651
-111 -693 2660
-103 -692 2656
-95 -691 2653
-87 -692 2656
-79 -691 2653
-71 -687 2637
-63 -686 2635
-55 -688 2641
-48 -687 2638
-40 -686 2633
-32 -684 2627
-24 -685 2630
-16 -683 2621
-9 -680 2609
-1 -682 2617
6 -679 2605
13 -679 2606
21 -681 2613
29 -679 2604
36 -678 2600
44 -680 2606
52 -679 2603
59 -677 2595
67 -675 2586
74 -674 2582
82 -675 2588
89 -672 2576
97 -675 2585
104 -672 2574
112 -674 2581
120 -673 2577
127 -672 2571
134 -671 2569
142 -670 2564
149 -670 2565
157 -670 2560
164 -669 2559
171 -667 2551
179 -667 2548
186 -667 2549
194 -667 2548
201 -666 2543
208 -664 2537
215 -665 2536
223 -664 2534
230 -664 2534
237 -661 2520
245 -663 2526
252 -662 2523
259 -661 2517
266 -660 2512
273 -658 2507
281 -661 2516
286 -656 2496
296 -661 2513
302 -658 2503
310 -659 2506
317 -659 2503
324 -657 2494
329 -654 2481
339 -658 2495
346 -656 2490
353 -657 2492
358 -653 2474
367 -655 2481
374 -656 2483
380 -653 2471
389 -655 2480
395 -653 2470
401 -651 2460
408 -650 2455
416 -651 2460
424 -653 2466
431 -652 2459
437 -651 2454
444 -650 2448
452 -650 2450
458 -649 2444
465 -648 2439
473 -650 2444
480 -650 2443
487 -649 2437
494 -649 2437
500 -647 2429
508 -648 2429
515 -647 2426
521 -646 2418
529 -647 2424
535 -645 2415
542 -645 2411
550 -646 2413
556 -645 2407
562 -644 2402
572 -646 2410
578 -646 2407
585 -645 2401
592 -645 2401
597 -643 2391
605 -643 2391
613 -644 2391
619 -643 2386
625 -641 2378
629 -639 2366
641 -643 2383
645 -641 2370
651 -639 2362
660 -641 2367
667 -641 2367
675 -641 2366
681 -641 2362
689 -641 2360
694 -640 2353
702 -640 2353
709 -640 2351
717 -641 2353
723 -640 2347
732 -641 2349
737 -640 2342
745 -640 2341
752 -640 2338
759 -640 2337
764 -639 2329
772 -639 2329
778 -638 2324
787 -640 2326
794 -640 2324
803 -641 2327
809 -640 2321
816 -640 2320
822 -640 2314
829 -639 2311
838 -640 2312
842 -638 2303
850 -640 2304
859 -640 2304
864 -639 2298
872 -640 2297
879 -640 2294
887 -641 2295
893 -640 2290
899 -638 2282
909 -641 2288
916 -640 2284
922 -640 2281
932 -642 2283
936 -640 2273
942 -639 2269
950 -639 2267
960 -642 2272
964 -640 2262
973 -641 2263
976 -638 2251
980 -636 2240
984 -634 2230
993 -635 2232
992 -631 2213
998 -630 2207
1029 -645 2257
1049 -653 2282
1035 -640 2232
1043 -640 2230
1049 -640 2226
1060 -642 2230
1068 -642 2229
1070 -639 2215
1045 -621 2147
963 -567 1960
904 -529 1825
891 -518 1785
899 -520 1787
903 -519 1781
910 -519 1780
912 -517 1771
922 -520 1777
929 -521 1776
938 -522 1779
938 -519 1766
947 -521 1768
954 -521 1768
957 -520 1759
962 -519 1755
973 -522 1762
981 -524 1763
980 -520 1748
977 -515 1728
991 -520 1741
993 -518 1731
997 -517 1725
-1620 -786 2714
-1624 -792 2739
-1623 -796 2759
-1614 -796 2764
-1614 -801 2784
-1609 -803 2796
-1599 -803 2800
-1591 -804 2807
-1587 -807 2822
-1580 -807 2829
-1577 -811 2846
-1567 -811 2849
-1565 -815 2868
-1559 -816 2878
-1562 -823 2906
-1590 -843 2981
-1650 -881 3118
-1680 -902 3198
-1668 -901 3200
-1656 -901 3203
-1631 -893 3179
-1616 -890 3173
-1603 -888 3173
-1588 -886 3169
-1568 -880 3152
-1558 -881 3158
-1542 -877 3150
-1527 -874 3144
-1511 -871 3137
-1497 -869 3133
-1485 -868 3132
-1473 -867 3133
-1454 -862 3118
-1441 -860 3114
-1428 -858 3112
-1413 -855 3105
-1403 -855 3108
-1380 -847 3084
-1372 -848 3091
-1360 -847 3089
-1343 -843 3078
-1329 -840 3072
-1315 -837 3065
-1304 -836 3065
-1288 -832 3054
-1279 -833 3058
-1266 -830 3053
-1258 -832 3060
-1242 -828 3050
-1226 -823 3035
-1217 -823 3040
-1201 -819 3028
-1189 -818 3024
-1176 -815 3019
-1167 -815 3022
-1152 -812 3011
-1143 -812 3014
-1127 -807 3000
-1121 -809 3011
-1104 -804 2994
-1096 -805 3001
-1078 -799 2980
-1072 -801 2991
-1062 -800 2991
-1054 -801 2996
-1040 -798 2986
-1023 -792 2967
-1014 -792 2969
-1003 -791 2967
-988 -786 2953
-977 -784 2947
-968 -785 2952
-957 -783 2947
-944 -780 2937
-934 -779 2938
-919 -774 2920
-909 -773 2919
-883 -759 2866
-834 -724 2737
-806 -707 2674
-855 -757 2866
-859 -769 2912
-849 -768 2909
-839 -767 2907
-831 -767 2911
-817 -763 2896
-808 -763 2898
-798 -761 2893
-789 -761 2894
-777 -758 2885
-767 -757 2884
-756 -755 2877
-744 -752 2866
-734 -750 2862
-724 -749 2859
-716 -749 2862
-707 -749 2860
-698 -749 2864
-689 -748 2862
-676 -743 2843
-668 -744 2849
-658 -743 2846
-650 -743 2846
-636 -737 2826
-629 -738 2832
-618 -736 2823
-611 -737 2830
-601 -736 2827
-590 -733 2816
-583 -735 2824
-570 -729 2802
-563 -730 2809
-553 -728 2803
-545 -729 2807
-536 -728 2805
-525 -724 2791
-515 -722 2784
-507 -723 2788
-501 -726 2799
-488 -720 2777
-480 -720 2778
-471 -719 2775
-463 -718 2775
-453 -717 2768
-445 -717 2772
-436 -716 2766
-427 -714 2762
-417 -712 2753
-410 -713 2757
-401 -712 2756
-393 -712 2756
-382 -706 2734
-377 -713 2759
-366 -708 2741
-358 -708 2742
-348 -704 2729
-340 -705 2732
-332 -705 2734
-324 -705 2732
-316 -705 2732
-306 -701 2719
-299 -703 2728
-291 -703 2726
-283 -702 2725
-272 -697 2704
-266 -702 2725
-256 -696 2701
-249 -699 2713
-240 -697 2705
-232 -695 2697
-224 -695 2697
-215 -693 2690
-207 -693 2693
-199 -692 2686
-190 -690 2678
-183 -691 2686
-174 -689 2675
-167 -689 2678
-158 -688 2673
-151 -689 2675
-142 -687 2668
-134 -685 2660
-126 -683 2654
-118 -683 2655
-110 -683 2655
-102 -683 2653
-95 -682 2652
-87 -681 2646
-79 -681 2647
-71 -681 2645
-63 -677 2630
-55 -678 2634
-47 -678 2633
-40 -678 2632
-32 -679 2637
-24 -676 2627
-16 -674 2619
-9 -675 2623
-1 -674 2616
6 -674 2616
13 -671 2603
21 -672 2609
29 -670 2602
36 -671 2605
44 -668 2592
52 -671 2603
59 -671 2602
67 -667 2588
75 -669 2595
82 -666 2581
89 -665 2579
97 -667 2584
104 -665 2576
112 -665 2578
119 -663 2570
127 -664 2571
134 -661 2561
142 -661 2560
149 -662 2565
156 -659 2552
163 -658 2548
171 -659 2548
179 -660 2552
186 -658 2543
194 -659 2547
201 -657 2540
208 -658 2543
215 -656 2534
223 -656 2534
230 -656 2532
238 -656 2532
245 -655 2527
251 -652 2516
260 -655 2527
266 -653 2517
273 -652 2513
280 -651 2506
288 -652 2511
295 -652 2510
303 -652 2510
308 -648 2493
317 -650 2501
324 -651 2502
330 -647 2487
338 -649 2494
346 -650 2494
353 -649 2491
359 -648 2484
367 -647 2481
374 -647 2481
380 -646 2474
388 -646 2474
396 -647 2477
402 -645 2469
409 -645 2465
417 -646 2470
423 -644 2461
430 -643 2456
437 -642 2451
444 -643 2452
451 -642 2446
458 -642 2447
464 -640 2439
472 -640 2438
479 -640 2434
487 -642 2439
493 -640 2431
500 -640 2431
506 -638 2423
513 -637 2417
521 -638 2419
529 -639 2422
535 -639 2418
541 -637 2409
548 -636 2405
556 -637 2409
562 -637 2404
570 -637 2402
577 -637 2401
581 -633 2386
591 -636 2395
600 -638 2402
607 -638 2399
613 -637 2393
618 -634 2382
626 -636 2385
631 -634 2376
639 -635 2378
647 -635 2377
653 -634 2372
661 -635 2373
668 -634 2369
673 -632 2359
681 -633 2362
691 -636 2371
693 -631 2351
703 -634 2358
710 -634 2355
715 -632 2348
725 -635 2355
731 -633 2348
738 -633 2346
745 -633 2343
752 -634 2342
759 -633 2339
766 -633 2336
774 -634 2337
781 -633 2333
786 -632 2326
792 -631 2319
800 -631 2319
805 -630 2312
813 -631 2313
821 -631 2312
828 -632 2310
838 -634 2316
841 -631 2302
849 -631 2303
858 -632 2303
863 -631 2297
871 -632 2296
880 -633 2299
886 -632 2293
893 -632 2291
901 -633 2289
907 -632 2285
916 -634 2287
923 -633 2283
927 -632 2274
935 -632 2273
943 -632 2271
946 -630 2261
957 -632 2266
962 -631 2258
973 -633 2264
971 -628 2242
980 -629 2243
990 -631 2247
987 -625 2221
997 -626 2223
1023 -638 2263
1035 -642 2272
1028 -632 2236
1036 -633 2236
1045 -634 2236
1052 -634 2233
1057 -633 2227
1062 -632 2218
1070 -632 2217
1053 -618 2164
967 -564 1971
900 -521 1818
887 -510 1777
903 -516 1797
904 -513 1783
907 -512 1777
916 -514 1779
918 -511 1769
935 -518 1789
935 -514 1774
937 -512 1764
946 -515 1769
941 -508 1744
956 -513 1758
961 -513 1754
955 -507 1730
970 -512 1745
975 -511 1740
991 -517 1755
983 -510 1728
999 -515 1742
992 -508 1717
-1630 -781 2731
-1628 -785 2748
-1622 -786 2759
-1616 -788 2770
-1607 -788 2775
-1605 -792 2793
-1602 -795 2807
-1598 -798 2821
-1592 -799 2832
-1582 -800 2837
-1580 -803 2854
-1572 -804 2861
-1573 -809 2884
-1564 -810 2890
-1573 -819 2928
-1617 -848 3035
-1679 -885 3174
-1681 -892 3203
-1667 -890 3202
-1647 -885 3187
-1634 -884 3187
-1614 -879 3173
-1596 -875 3162
-1579 -871 3153
-1567 -870 3153
-1555 -869 3155
-1540 -866 3150
-1527 -865 3147
-1504 -857 3125
-1500 -861 3141
-1481 -856 3127
-1468 -854 3125
-1453 -851 3117
-1443 -851 3122
-1424 -846 3106
-1409 -843 3099
-1394 -840 3092
-1383 -839 3093
-1367 -835 3082
-1359 -837 3091
-1345 -834 3085
-1328 -829 3070
-1316 -828 3070
-1303 -826 3066
-1289 -823 3059
-1277 -822 3056
-1266 -821 3056
-1254 -820 3054
-1241 -817 3048
-1231 -817 3050
-1219 -815 3048
-1200 -809 3028
-1188 -807 3023
-1177 -806 3023
-1164 -804 3018
-1152 -802 3012
-1140 -800 3008
-1127 -798 3002
-1119 -799 3008
-1104 -795 2997
-1097 -796 3005
-1080 -791 2987
-1067 -789 2980
-1055 -786 2975
-1046 -787 2979
-1032 -783 2967
-1024 -784 2973
-1014 -783 2972
-1004 -782 2971
-992 -780 2965
-976 -775 2948
-969 -776 2955
-959 -776 2956
-943 -770 2937
-933 -770 2937
-923 -768 2934
-914 -768 2936
-894 -759 2902
-868 -745 2851
-807 -699 2677
-812 -711 2726
-846 -748 2869
-847 -757 2904
-837 -756 2903
-827 -755 2902
-819 -756 2905
-802 -748 2879
-798 -753 2897
-787 -750 2890
-776 -749 2885
-766 -747 2881
-756 -746 2879
-748 -747 2882
-736 -743 2870
-726 -742 2868
-715 -740 2860
-708 -741 2867
-695 -737 2853
-686 -737 2853
-678 -737 2857
-667 -735 2848
-659 -735 2851
-649 -733 2844
-639 -732 2843
-630 -731 2839
-618 -727 2826
-610 -728 2829
-598 -724 2816
-591 -726 2822
-581 -723 2814
-571 -721 2807
-562 -721 2806
-552 -719 2801
-543 -718 2800
-535 -719 2802
-525 -717 2796
-516 -715 2789
-507 -715 2791
-500 -716 2795
-490 -714 2787
-479 -710 2776
-471 -710 2775
-463 -711 2778
-455 -711 2781
-445 -708 2769
-436 -707 2766
-427 -707 2765
-419 -707 2766
-409 -704 2755
-402 -705 2762
-392 -703 2754
-383 -701 2746
-376 -703 2755
-365 -698 2737
-358 -699 2741
-348 -697 2732
-341 -699 2740
-332 -698 2737
-323 -694 2723
-313 -691 2714
-306 -694 2723
-298 -692 2717
-290 -693 2720
-281 -691 2715
-274 -692 2719
-265 -692 2717
-256 -689 2708
-247 -686 2694
-239 -686 2697
-231 -685 2693
-224 -687 2699
-215 -685 2692
-207 -685 2692
-199 -685 2694
-191 -683 2685
-183 -682 2682
-174 -681 2679
-166 -678 2665
-158 -679 2672
-150 -679 2672
-142 -678 2667
-134 -677 2663
-126 -677 2664
-118 -676 2659
-110 -675 2654
-102 -673 2648
-94 -672 2644
-86 -672 2644
-79 -672 2644
-71 -672 2644
-63 -671 2640
-55 -673 2646
-47 -669 2632
-39 -669 2630
-32 -669 2631
-24 -667 2623
-16 -667 2621
-8 -665 2615
-1 -663 2605
6 -666 2618
14 -664 2608
21 -664 2609
29 -664 2608
36 -662 2600
44 -662 2600
52 -661 2594
59 -659 2587
67 -659 2587
74 -658 2585
82 -658 2583
89 -658 2581
97 -657 2578
104 -656 2575
112 -657 2577
119 -656 2575
127 -656 2571
134 -654 2564
142 -654 2564
150 -656 2569
156 -651 2552
164 -652 2555
170 -649 2541
178 -650 2546
186 -650 2546
194 -651 2549
201 -650 2541
208 -650 2542
216 -650 2541
222 -647 2530
230 -649 2535
237 -648 2532
244 -646 2522
251 -644 2515
257 -641 2502
265 -644 2512
273 -644 2513
280 -643 2508
287 -643 2507
294 -641 2497
302 -643 2506
310 -644 2505
316 -642 2499
324 -643 2500
330 -640 2488
339 -643 2498
345 -641 2491
352 -640 2487
359 -639 2481
366 -639 2478
372 -637 2470
380 -637 2468
388 -638 2474
395 -637 2469
402 -638 2469
409 -637 2465
415 -635 2457
423 -636 2460
430 -636 2458
438 -636 2458
445 -636 2455
452 -636 2452
458 -635 2447
466 -635 2446
471 -632 2433
480 -635 2443
487 -634 2440
492 -632 2430
498 -630 2422
508 -634 2434
514 -632 2425
521 -631 2421
527 -630 2417
533 -629 2410
541 -630 2412
549 -630 2413
556 -630 2411
562 -629 2404
571 -631 2410
578 -630 2406
584 -629 2400
591 -629 2398
599 -630 2400
603 -627 2387
611 -628 2387
618 -628 2386
626 -628 2386
633 -628 2383
638 -626 2373
647 -628 2381
650 -624 2363
661 -627 2373
668 -628 2373
674 -626 2364
682 -627 2366
688 -626 2361
694 -625 2354
704 -627 2362
708 -624 2350
717 -626 2355
724 -626 2353
730 -625 2347
735 -624 2339
745 -626 2345
751 -625 2340
760 -627 2344
763 -623 2328
771 -624 2330
780 -625 2331
784 -623 2322
793 -625 2325
800 -624 2321
808 -625 2323
813 -624 2314
822 -625 2316
829 -625 2313
835 -624 2308
842 -624 2305
849 -624 2304
859 -626 2309
866 -626 2305
872 -625 2300
877 -624 2293
883 -623 2287
892 -625 2290
899 -624 2285
905 -624 2282
913 -624 2280
921 -624 2279
932 -627 2287
932 -622 2266
942 -625 2272
949 -624 2268
959 -627 2274
964 -625 2265
971 -625 2263
977 -624 2257
983 -624 2251
980 -618 2226
989 -619 2226
999 -620 2230
1011 -624 2239
1011 -619 2221
1033 -628 2249
1030 -622 2225
1041 -625 2230
1050 -626 2231
1058 -626 2230
1063 -625 2222
1072 -626 2222
1053 -611 2165
978 -564 1995
900 -515 1820
893 -508 1793
892 -504 1776
902 -506 1781
906 -505 1775
920 -510 1789
927 -510 1787
920 -503 1760
933 -508 1772
939 -508 1770
937 -504 1753
950 -507 1763
954 -506 1756
958 -506 1751
966 -507 1752
967 -505 1741
974 -505 1739
982 -506 1741
984 -504 1731
999 -509 1745
1002 -508 1737
-1635 -775 2744
-1628 -776 2751
-1625 -779 2767
-1617 -779 2773
-1614 -782 2789
-1607 -784 2799
-1597 -784 2802
-1595 -787 2819
-1593 -791 2836
-1586 -792 2847
-1581 -794 2857
-1574 -796 2868
-1574 -800 2888
-1571 -804 2906
-1582 -814 2948
-1635 -847 3071
-1693 -882 3203
-1676 -879 3196
-1661 -877 3193
-1644 -873 3184
-1631 -872 3183
-1612 -867 3172
-1600 -866 3172
-1580 -861 3158
-1567 -859 3155
-1554 -858 3155
-1540 -856 3152
-1525 -853 3145
-1507 -849 3135
-1493 -847 3129
-1477 -844 3122
-1463 -841 3116
-1457 -843 3129
-1441 -840 3120
-1426 -837 3113
-1410 -833 3103
-1394 -830 3093
-1383 -829 3095
-1372 -829 3096
-1354 -824 3082
-1338 -820 3071
-1329 -820 3076
-1310 -815 3058
-1303 -817 3069
-1287 -812 3055
-1274 -810 3051
-1262 -809 3050
-1246 -805 3036
-1242 -808 3053
-1226 -804 3040
-1213 -802 3036
-1199 -799 3028
-1185 -796 3019
-1177 -797 3026
-1162 -793 3013
-1153 -794 3018
-1139 -791 3009
-1129 -790 3009
-1114 -786 2997
-1101 -784 2992
-1092 -784 2994
-1081 -783 2993
-1069 -780 2986
-1062 -782 2995
-1045 -776 2976
-1034 -775 2975
-1025 -776 2978
-1009 -770 2960
-1003 -773 2973
-991 -770 2964
-979 -768 2958
-968 -766 2954
-955 -763 2944
-944 -762 2942
-934 -761 2942
-924 -760 2940
-911 -757 2928
-899 -754 2921
-874 -741 2873
-845 -724 2807
-791 -685 2656
-821 -718 2787
-841 -743 2887
-837 -747 2905
-828 -747 2906
-817 -745 2901
-808 -745 2902
-797 -743 2895
-782 -737 2873
-774 -738 2879
-766 -739 2883
-754 -736 2873
-744 -735 2871
-736 -734 2871
-725 -732 2866
-713 -730 2856
-706 -731 2863
-695 -728 2854
-684 -726 2847
-675 -726 2846
-666 -725 2844
-655 -722 2836
-645 -721 2830
-635 -719 2826
-625 -718 2821
-619 -720 2831
-609 -718 2826
-599 -717 2821
-591 -717 2825
-581 -715 2815
-571 -713 2812
-562 -713 2809
-552 -710 2800
-544 -711 2804
-534 -709 2799
-525 -708 2794
-516 -708 2795
-507 -706 2788
-496 -703 2779
-489 -704 2785
-479 -701 2774
-471 -702 2777
-463 -703 2781
-453 -700 2772
-442 -696 2755
-435 -698 2765
-426 -696 2757
-418 -696 2758
-407 -692 2745
-401 -696 2761
-393 -696 2761
-383 -692 2745
-373 -690 2737
-365 -689 2736
-358 -692 2745
-348 -689 2735
-340 -688 2732
-332 -688 2731
-323 -687 2730
-315 -686 2725
-306 -685 2723
-298 -684 2718
-289 -684 2718
-281 -682 2712
-273 -682 2710
-265 -682 2713
-256 -681 2707
-248 -680 2705
-239 -678 2697
-231 -679 2700
-223 -678 2696
-215 -677 2693
-207 -676 2691
-199 -677 2693
-190 -673 2679
-183 -676 2690
-174 -673 2680
-166 -671 2671
-158 -672 2674
-150 -670 2665
-142 -670 2668
-134 -671 2673
-126 -669 2663
-118 -666 2651
-110 -668 2658
-102 -667 2655
-94 -667 2655
-86 -664 2645
-79 -664 2644
-70 -660 2629
-63 -663 2641
-55 -663 2638
-47 -662 2636
-39 -662 2635
-32 -659 2625
-24 -660 2627
-16 -660 2628
-8 -656 2610
-1 -659 2622
6 -657 2615
14 -655 2607
21 -655 2604
29 -653 2597
37 -654 2602
44 -653 2596
52 -654 2599
59 -653 2596
67 -652 2591
74 -652 2591
82 -652 2591
89 -649 2577
97 -649 2578
104 -647 2568
112 -648 2573
119 -647 2568
127 -648 2571
134 -648 2571
141 -645 2558
149 -644 2556
156 -645 2556
164 -645 2557
171 -645 2556
179 -643 2549
186 -642 2543
193 -643 2548
200 -640 2536
207 -639 2529
215 -641 2537
222 -640 2534
228 -636 2516
236 -638 2522
245 -641 2532
251 -637 2516
258 -637 2516
266 -636 2514
273 -637 2516
281 -637 2515
288 -636 2510
295 -636 2509
302 -635 2502
310 -636 2508
316 -633 2496
323 -632 2489
330 -632 2489
337 -631 2483
345 -633 2488
351 -631 2479
358 -630 2475
366 -632 2482
373 -631 2479
378 -627 2461
388 -631 2474
393 -628 2461
401 -629 2466
408 -628 2459
417 -630 2468
422 -627 2455
430 -628 2457
436 -627 2450
443 -627 2449
451 -627 2450
457 -626 2444
462 -623 2430
470 -624 2434
478 -625 2434
485 -624 2432
493 -626 2435
498 -623 2424
506 -623 2423
514 -625 2427
521 -624 2425
526 -622 2414
534 -623 2417
542 -624 2417
548 -622 2411
556 -623 2411
563 -623 2411
571 -623 2411
576 -621 2399
582 -620 2394
588 -619 2389
596 -619 2388
604 -621 2392
612 -622 2394
617 -619 2382
625 -620 2385
634 -622 2389
640 -620 2382
645 -618 2373
653 -619 2375
660 -619 2373
668 -620 2373
675 -620 2370
681 -619 2367
687 -618 2358
695 -619 2361
700 -617 2352
708 -617 2352
715 -618 2351
721 -616 2343
732 -620 2355
738 -619 2349
745 -619 2348
752 -619 2344
759 -618 2340
765 -618 2337
771 -616 2329
776 -615 2323
785 -617 2325
793 -618 2327
798 -616 2318
808 -618 2322
814 -617 2319
819 -616 2311
826 -615 2307
836 -618 2314
843 -618 2310
848 -616 2301
855 -616 2300
862 -616 2298
868 -615 2290
878 -617 2295
884 -616 2291
893 -618 2294
897 -616 2282
905 -616 2283
912 -617 2281
920 -617 2280
928 -617 2278
935 -618 2277
940 -616 2268
950 -618 2273
956 -617 2267
962 -617 2262
971 -618 2264
976 -616 2255
981 -615 2248
988 -616 2246
997 -617 2247
992 -609 2217
