VERSION 0.7
FIELDS x y z
SIZE 4 4 4
TYPE I I I
COUNT 1 1 1
WIDTH 3663
HEIGHT 1
VIEWPOINT 0.0 0.0 0.0 1.0 0.0 0.0 0.0
POINTS 3663
DATA ascii
-543 384 1048
-543 386 1056
-539 386 1056
-515 372 1018
-502 364 999
-493 360 990
-494 363 999
-493 365 1006
-488 364 1005
-486 364 1008
-487 368 1018
-485 368 1022
-480 368 1022
-473 365 1015
-471 366 1018
-466 364 1016
-461 363 1014
-457 362 1013
-454 363 1017
-453 364 1022
-458 371 1042
-478 390 1097
-459 377 1063
-467 386 1090
-441 368 1040
-433 364 1030
-426 361 1021
-424 362 1027
-422 363 1030
-417 362 1027
-417 365 1037
-414 364 1038
-411 365 1041
-407 365 1041
-402 363 1037
-394 358 1025
-396 363 1041
-395 365 1047
-393 366 1051
-388 365 1049
-385 366 1052
-380 364 1048
-379 365 1054
-371 362 1044
-370 364 1051
-367 363 1051
-364 364 1055
-363 366 1060
-359 366 1061
-356 366 1064
-354 367 1067
-347 364 1058
-345 365 1063
-346 369 1075
-342 369 1076
-334 363 1060
-334 367 1073
-332 368 1078
-327 367 1075
-325 368 1079
-322 369 1081
-319 369 1083
-314 367 1079
-308 364 1070
-308 368 1083
-303 365 1077
-298 363 1071
-295 364 1076
-294 367 1083
-288 364 1074
-287 367 1085
-283 366 1083
-282 369 1094
-275 364 1080
-272 364 1080
-271 367 1089
-266 364 1083
-263 365 1086
-260 365 1086
-257 366 1089
-251 363 1081
-249 364 1085
-246 364 1086
-242 363 1084
-240 365 1091
-235 363 1084
-233 365 1093
-230 365 1092
-225 363 1087
-223 366 1095
-218 363 1087
-216 364 1093
-212 364 1091
-207 360 1081
-205 362 1088
-204 366 1099
-198 361 1086
-195 363 1091
-192 363 1092
-189 364 1095
-185 363 1093
-182 363 1096
-179 362 1093
-176 363 1095
-174 367 1107
-170 364 1100
-165 361 1092
-163 364 1101
-160 364 1102
-156 364 1101
-153 363 1100
-149 363 1099
-147 366 1108
-143 363 1101
-140 365 1107
-136 363 1101
-134 366 1110
-130 365 1107
-127 365 1108
-124 365 1109
-121 366 1113
-118 369 1123
-113 362 1101
-106 352 1070
-98 337 1023
-90 318 967
-84 309 938
-80 302 919
-76 300 913
-72 294 893
-69 294 894
-65 286 869
-63 289 878
-61 293 892
-56 283 860
-54 286 869
-53 291 886
-48 281 855
-45 279 849
-42 272 829
-41 286 871
-38 282 858
-37 290 883
-33 281 856
-31 284 865
-29 289 881
-26 293 893
-24 296 903
-22 301 918
-19 307 937
-17 317 968
-15 332 1015
-13 341 1042
-10 348 1064
-7 358 1095
-4 361 1105
0 360 1103
2 359 1099
5 361 1104
9 360 1101
12 361 1106
15 360 1101
19 362 1109
22 359 1097
25 359 1098
29 363 1111
32 359 1097
35 361 1106
38 361 1105
42 361 1105
45 362 1107
48 359 1099
52 361 1104
55 360 1101
59 363 1111
62 362 1108
65 362 1108
69 364 1112
72 363 1109
75 362 1107
79 363 1110
82 362 1106
86 364 1114
89 365 1117
92 363 1111
96 364 1113
99 364 1113
102 363 1108
105 361 1103
108 360 1100
112 362 1106
115 362 1106
119 364 1111
122 363 1108
125 362 1104
129 365 1114
132 364 1111
136 365 1112
138 362 1103
142 363 1106
147 366 1116
149 364 1108
153 366 1114
156 364 1110
160 366 1115
163 366 1114
166 365 1109
169 365 1109
173 364 1107
176 364 1105
181 368 1117
183 365 1108
186 364 1104
189 363 1101
195 368 1116
196 363 1102
201 367 1112
202 362 1098
208 367 1111
211 367 1111
214 366 1109
217 365 1106
220 364 1102
223 365 1103
229 368 1112
230 365 1103
234 365 1104
238 367 1108
242 368 1110
243 364 1097
247 365 1099
251 366 1103
256 367 1106
256 364 1094
261 365 1098
265 366 1100
267 364 1094
273 368 1106
275 366 1099
277 365 1093
281 366 1096
287 369 1105
291 369 1105
293 367 1098
296 367 1098
298 366 1093
303 367 1095
309 370 1105
311 368 1098
313 367 1095
318 368 1097
322 369 1099
327 371 1104
328 368 1094
331 368 1094
335 369 1096
341 371 1101
344 371 1100
344 368 1089
350 370 1094
352 368 1089
354 367 1085
362 372 1099
366 372 1098
368 371 1094
373 373 1097
373 369 1085
381 374 1099
382 372 1091
387 372 1093
391 373 1095
396 374 1096
397 372 1090
404 376 1099
407 375 1096
411 375 1096
411 372 1085
415 373 1087
419 374 1087
426 376 1094
426 373 1084
434 377 1094
438 378 1095
443 379 1097
443 376 1088
447 376 1087
452 378 1090
457 379 1092
458 377 1085
466 380 1094
467 378 1086
472 380 1090
473 377 1081
481 381 1092
485 382 1091
487 380 1086
494 383 1092
497 383 1091
503 384 1093
503 381 1084
509 384 1089
516 386 1095
515 383 1084
524 387 1093
528 387 1093
528 385 1084
532 385 1084
540 388 1090
543 387 1088
554 392 1101
549 386 1081
555 388 1085
566 393 1098
570 394 1098
572 392 1092
574 391 1087
579 392 1089
582 392 1087
588 393 1088
590 392 1084
594 393 1083
603 395 1090
604 394 1084
609 395 1084
616 397 1089
611 391 1071
615 391 1070
621 393 1074
628 395 1076
630 394 1072
633 394 1069
636 393 1066
-601 380 992
-590 376 981
-577 370 968
-574 370 970
-569 369 968
-571 372 979
-566 371 977
-555 366 967
-557 369 977
-553 369 977
-551 370 982
-542 366 974
-545 370 986
-540 369 985
-537 369 987
-532 368 987
-532 370 993
-531 372 999
-539 380 1023
-542 384 1037
-540 385 1040
-538 387 1046
-528 382 1035
-514 374 1015
-497 364 988
-492 363 987
-490 363 990
-485 362 989
-482 362 990
-482 365 1000
-483 368 1010
-482 370 1016
-475 367 1010
-471 367 1010
-466 365 1006
-462 364 1006
-456 362 1001
-452 362 1002
-453 365 1013
-451 366 1017
-457 374 1039
-478 394 1096
-466 387 1079
-444 371 1037
-442 372 1040
-428 364 1017
-422 361 1012
-417 360 1009
-421 365 1027
-416 364 1025
-412 363 1023
-412 366 1032
-409 366 1034
-402 363 1027
-401 365 1033
-396 364 1031
-393 364 1033
-390 364 1034
-386 364 1033
-385 366 1040
-383 367 1046
-383 369 1054
-375 365 1042
-371 364 1041
-369 366 1047
-366 366 1047
-365 368 1055
-359 365 1049
-358 368 1058
-355 368 1058
-351 368 1058
-346 365 1053
-341 364 1049
-341 368 1061
-338 367 1061
-332 365 1055
-332 369 1067
-329 369 1069
-324 366 1062
-324 371 1075
-322 372 1079
-317 370 1075
-313 369 1075
-307 366 1067
-306 369 1075
-301 366 1069
-297 366 1069
-294 366 1070
-292 368 1075
-289 369 1078
-286 369 1080
-282 367 1076
-279 368 1078
-274 365 1073
-272 367 1079
-270 370 1086
-264 365 1074
-262 368 1082
-258 367 1081
-255 367 1083
-250 365 1075
-248 366 1080
-244 364 1076
-239 362 1069
-236 363 1074
-234 365 1079
-230 364 1077
-226 363 1074
-224 364 1078
-219 362 1073
-216 362 1075
-213 363 1079
-210 363 1077
-206 362 1076
-204 364 1082
-200 362 1078
-197 364 1083
-194 364 1084
-191 364 1084
-187 364 1084
-184 364 1087
-180 363 1082
-177 362 1080
-175 366 1092
-173 367 1098
-168 364 1090
-165 365 1093
-162 364 1091
-159 365 1094
-156 366 1098
-152 364 1092
-149 365 1095
-144 362 1087
-141 363 1089
-139 365 1095
-135 364 1094
-133 366 1100
-130 368 1106
-126 365 1098
-123 367 1103
-121 370 1112
-116 365 1098
-112 362 1089
-104 347 1044
-96 333 1002
-89 319 959
-84 311 936
-79 304 914
-76 302 910
-74 306 920
-70 301 907
-66 293 882
-62 290 872
-58 280 842
-56 284 855
-54 285 858
-50 282 849
-46 274 826
-46 286 862
-42 280 843
-40 278 838
-39 289 873
-36 286 862
-33 286 863
-30 282 853
-28 285 861
-26 290 877
-24 295 890
-21 301 911
-19 308 930
-17 318 962
-15 332 1003
-12 342 1036
-10 351 1062
-7 358 1085
-3 361 1092
0 363 1101
2 361 1094
5 363 1099
9 361 1094
12 362 1096
15 358 1083
18 359 1089
22 363 1099
25 360 1091
28 362 1095
32 362 1097
35 360 1092
38 362 1096
42 363 1099
45 360 1091
48 361 1095
52 364 1102
55 363 1100
58 364 1102
61 363 1100
65 364 1101
68 363 1100
71 361 1092
74 360 1090
78 364 1102
81 364 1102
85 363 1100
87 361 1092
91 364 1100
95 364 1101
98 365 1103
102 365 1105
104 361 1092
108 363 1099
112 365 1104
114 363 1096
118 363 1099
122 365 1104
125 365 1103
127 361 1090
131 365 1102
135 365 1102
138 364 1099
142 365 1102
144 363 1095
148 364 1098
153 368 1110
155 365 1102
157 363 1095
161 365 1099
165 365 1099
168 365 1098
171 364 1095
176 368 1107
179 367 1104
183 367 1105
185 365 1098
189 366 1101
192 366 1099
196 368 1105
198 365 1096
202 366 1099
206 368 1103
209 367 1101
212 366 1096
215 365 1094
219 366 1095
222 365 1093
224 364 1089
230 368 1101
232 366 1093
235 365 1091
239 366 1093
243 367 1095
244 364 1086
251 368 1099
253 367 1093
254 364 1084
259 366 1088
263 367 1092
267 367 1092
271 369 1097
273 367 1089
276 366 1086
279 366 1087
283 367 1088
288 368 1092
291 368 1089
294 367 1088
297 368 1088
299 365 1080
303 366 1082
307 367 1084
311 368 1085
316 369 1089
319 369 1088
324 372 1094
323 366 1077
329 369 1086
333 370 1086
337 370 1087
341 372 1090
345 372 1091
347 370 1085
350 369 1081
353 369 1080
359 372 1088
361 371 1083
366 372 1085
367 370 1078
374 373 1088
375 371 1081
381 374 1086
384 374 1085
392 378 1096
393 375 1087
394 372 1079
398 373 1080
404 376 1086
408 376 1086
409 374 1079
410 372 1072
417 375 1080
422 376 1082
426 377 1084
427 375 1076
435 378 1085
436 376 1079
441 378 1082
445 378 1080
450 380 1085
450 377 1075
457 380 1082
457 377 1072
463 379 1077
469 381 1082
474 382 1084
475 380 1076
480 381 1078
483 380 1075
486 380 1074
493 383 1080
497 383 1079
498 381 1073
502 382 1072
510 385 1080
516 387 1085
522 388 1087
524 388 1083
524 385 1074
527 384 1071
528 382 1064
541 389 1082
541 387 1074
548 389 1079
556 392 1086
561 393 1087
565 394 1087
574 397 1095
563 387 1066
575 393 1080
578 392 1077
584 394 1079
583 391 1069
589 393 1072
596 395 1077
599 395 1074
598 392 1064
605 393 1068
614 397 1075
614 395 1068
619 395 1068
625 397 1071
629 397 1068
628 394 1060
641 400 1073
-600 384 990
-588 378 977
-581 376 973
-567 369 958
-566 370 963
-558 367 956
-562 372 970
-558 371 970
-553 370 969
-546 368 965
-546 370 971
-539 367 967
-538 369 972
-538 371 980
-530 368 973
-533 372 987
-529 372 987
-526 372 990
-528 376 1001
-529 379 1011
-530 381 1020
-526 381 1020
-524 382 1024
-513 377 1012
-499 369 992
-494 367 990
-485 363 980
-476 359 970
-479 364 985
-479 366 992
-480 369 1001
-474 367 997
-472 368 1001
-470 369 1007
-460 364 994
-458 364 996
-455 365 1000
-452 365 1001
-447 364 998
-450 368 1012
-454 375 1032
-468 389 1072
-468 392 1083
-441 372 1028
-423 359 994
-429 367 1017
-422 364 1011
-419 364 1012
-417 365 1015
-412 364 1014
-412 366 1021
-409 367 1026
-403 365 1020
-397 362 1014
-397 365 1022
-399 370 1036
-387 362 1016
-387 365 1026
-384 365 1027
-381 365 1029
-377 364 1027
-375 365 1031
-372 365 1032
-370 367 1039
-364 364 1031
-361 365 1034
-358 365 1036
-359 369 1048
-351 364 1035
-351 367 1046
-346 365 1041
-342 365 1042
-341 367 1048
-338 367 1050
-336 369 1054
-330 366 1047
-328 367 1051
-322 364 1043
-322 367 1055
-316 365 1049
-316 369 1060
-314 369 1063
-308 367 1056
-308 370 1067
-303 368 1062
-301 370 1067
-296 368 1064
-293 369 1066
-291 370 1070
-288 370 1071
-282 367 1064
-279 367 1064
-276 368 1068
-272 366 1063
-270 368 1070
-266 368 1070
-264 368 1073
-261 370 1077
-256 366 1068
-253 367 1071
-252 370 1080
-247 367 1073
-241 365 1066
-238 364 1065
-236 366 1073
-232 365 1068
-227 363 1064
-225 365 1070
-222 365 1071
-216 361 1060
-216 365 1073
-211 363 1066
-209 365 1075
-205 364 1072
-203 365 1075
-199 364 1071
-195 364 1072
-192 363 1071
-188 362 1067
-186 364 1075
-182 362 1069
-178 362 1070
-174 360 1064
-174 365 1081
-169 362 1071
-166 364 1078
-164 365 1082
-160 364 1079
-157 365 1083
-153 364 1080
-151 367 1089
-147 364 1079
-144 365 1084
-140 364 1081
-138 365 1086
-134 364 1082
-132 368 1095
-129 367 1093
-125 366 1089
-122 367 1093
-118 366 1091
-115 367 1094
-110 360 1072
-103 347 1034
-95 331 986
-88 317 946
-83 309 922
-79 305 908
-75 301 898
-71 296 883
-68 293 872
-66 299 890
-59 278 829
-57 281 839
-56 286 854
-52 281 839
-49 278 831
-49 288 860
-44 276 824
-42 280 836
-40 282 843
-37 280 837
-36 294 878
-32 282 843
-32 300 897
-28 291 871
-26 291 871
-23 296 885
-21 302 904
-19 305 913
-17 316 945
-15 331 992
-12 342 1025
-9 350 1051
-7 359 1077
-3 358 1075
0 364 1092
2 359 1077
5 361 1083
9 363 1088
12 362 1087
15 360 1079
18 360 1081
22 364 1092
25 360 1081
28 362 1087
31 361 1082
35 364 1091
38 362 1085
41 362 1087
44 362 1085
48 362 1086
51 363 1088
54 361 1083
57 360 1081
61 365 1096
65 366 1097
67 361 1081
71 363 1087
74 365 1095
77 363 1089
81 364 1091
84 363 1089
87 364 1089
90 363 1089
94 365 1094
97 362 1084
100 362 1086
103 361 1081
107 364 1091
110 364 1089
113 364 1088
117 365 1091
121 367 1098
124 365 1090
127 363 1087
130 365 1090
133 364 1088
137 365 1091
141 366 1094
144 365 1090
147 366 1092
151 367 1095
153 364 1087
157 366 1091
160 364 1086
163 363 1083
167 366 1092
171 366 1092
174 366 1090
176 363 1082
180 365 1087
184 366 1091
187 367 1091
190 366 1089
194 367 1091
197 365 1086
200 366 1088
203 365 1084
207 366 1087
210 365 1083
214 367 1089
217 366 1086
220 366 1085
222 364 1079
227 366 1085
230 366 1083
232 364 1078
236 366 1081
240 366 1082
244 367 1084
246 365 1079
249 364 1073
255 368 1084
256 365 1077
263 369 1089
265 368 1083
268 367 1081
270 366 1076
275 368 1082
280 370 1087
279 364 1070
284 367 1077
289 369 1083
291 368 1077
295 368 1079
297 367 1074
304 371 1086
308 371 1085
311 371 1084
315 371 1084
318 372 1084
322 372 1084
325 372 1083
326 369 1075
330 370 1077
334 370 1075
336 369 1072
340 370 1074
345 371 1077
349 373 1079
353 373 1079
356 373 1078
358 370 1070
363 372 1075
367 373 1077
369 372 1072
375 375 1079
380 376 1082
380 372 1070
385 374 1075
388 374 1073
392 374 1074
398 377 1080
402 377 1079
404 376 1075
410 378 1080
409 374 1068
417 378 1078
418 376 1070
425 379 1080
427 378 1075
431 378 1075
434 378 1073
437 378 1071
442 379 1073
443 377 1066
448 378 1067
455 381 1075
454 378 1064
461 380 1071
464 380 1068
466 379 1063
471 380 1067
479 383 1074
478 380 1063
484 382 1068
487 382 1065
493 384 1069
498 385 1071
502 385 1070
507 386 1073
509 385 1069
518 389 1079
515 384 1062
523 388 1071
529 389 1074
533 390 1074
535 389 1069
537 388 1065
541 388 1064
552 393 1076
551 390 1067
557 391 1069
558 390 1063
562 390 1063
573 395 1076
578 396 1075
581 395 1072
586 396 1073
585 394 1064
590 394 1064
592 393 1059
593 392 1054
600 394 1058
605 395 1058
611 396 1060
613 395 1056
617 395 1055
621 395 1054
625 396 1052
635 400 1062
-589 380 971
-586 380 972
-574 375 960
-568 373 958
-562 371 954
-556 369 951
-555 371 958
-547 368 951
-547 369 958
-548 372 967
-537 367 954
-540 371 968
-531 367 959
-531 369 966
-530 371 973
-523 368 967
-522 370 973
-525 375 987
-529 379 1001
-519 375 990
-523 380 1005
-516 377 1000
-511 376 999
-508 376 1001
-502 374 996
-490 368 981
-483 365 974
-476 362 969
-476 365 978
-475 366 983
-473 367 986
-465 364 979
-469 369 994
-464 368 993
-462 369 997
-456 366 991
-451 365 989
-446 363 986
-443 364 989
-443 366 996
-449 374 1019
-452 379 1034
-460 389 1063
-461 392 1074
-457 392 1074
-426 369 1011
-422 368 1010
-418 367 1009
-415 367 1011
-412 367 1013
-411 369 1018
-406 368 1017
-403 367 1016
-398 366 1014
-397 368 1021
-387 362 1006
-387 365 1014
-384 365 1016
-381 366 1019
-378 365 1018
-374 365 1018
-374 368 1028
-366 363 1017
-364 364 1019
-361 364 1022
-357 363 1020
-355 364 1024
-356 370 1040
-348 364 1025
-347 367 1033
-344 367 1035
-339 365 1031
-338 367 1038
-335 367 1039
-331 367 1039
-327 366 1038
-325 367 1043
-320 365 1037
-319 367 1044
-317 369 1050
-314 370 1054
-311 369 1052
-305 366 1045
-304 369 1053
-300 368 1053
-296 368 1051
-293 367 1051
-291 369 1056
-286 366 1050
-285 369 1059
-280 368 1057
-276 366 1052
-275 370 1063
-271 368 1059
-267 368 1060
-264 367 1059
-262 369 1064
-257 367 1058
-255 369 1065
-251 368 1062
-247 367 1061
-245 368 1064
-237 362 1047
-235 364 1054
-234 366 1061
-229 364 1057
-225 363 1053
-223 365 1059
-220 364 1059
-217 365 1062
-213 365 1061
-209 363 1057
-206 363 1057
-202 362 1054
-200 363 1058
-197 364 1061
-194 365 1065
-191 366 1068
-187 363 1060
-185 365 1066
-180 363 1061
-178 365 1067
-174 362 1060
-171 363 1065
-168 364 1067
-166 366 1072
-162 365 1071
-159 366 1074
-156 366 1073
-152 365 1071
-149 365 1072
-146 366 1074
-143 367 1079
-140 366 1077
-137 368 1083
-134 366 1079
-130 367 1080
-128 368 1084
-123 365 1074
-120 365 1076
-118 369 1089
-115 368 1086
-108 357 1054
-101 346 1021
-93 330 973
-86 314 925
-81 306 904
-78 304 897
-70 282 832
-69 289 852
-70 307 905
-64 292 861
-60 286 844
-58 288 849
-53 276 814
-55 295 872
-49 279 824
-46 279 824
-47 299 883
-43 288 850
-39 282 833
-36 277 818
-35 286 846
-32 283 838
-30 291 860
-26 278 822
-27 304 900
-23 296 875
-21 299 886
-18 304 900
-16 316 935
-14 330 979
-12 340 1008
-9 350 1038
-6 360 1069
-3 363 1078
0 364 1080
2 362 1076
5 362 1074
9 360 1070
12 360 1070
15 363 1080
18 362 1076
22 363 1078
25 360 1070
28 362 1074
31 363 1078
35 363 1080
37 360 1071
41 360 1070
44 362 1075
48 364 1080
51 362 1076
54 366 1086
58 365 1085
60 363 1078
64 366 1086
67 364 1080
71 365 1084
73 362 1074
77 364 1079
80 362 1075
83 364 1080
87 368 1091
90 364 1080
93 363 1078
96 364 1079
100 365 1083
103 365 1083
106 365 1083
108 361 1069
113 365 1081
117 367 1088
119 364 1079
123 366 1085
126 364 1078
129 365 1082
133 366 1084
136 365 1080
141 369 1093
142 365 1079
145 365 1078
148 362 1070
153 367 1083
155 365 1079
158 364 1074
163 368 1087
166 368 1085
168 364 1074
172 366 1080
175 366 1078
177 363 1070
182 366 1079
186 366 1080
189 368 1083
192 367 1080
195 366 1078
198 364 1072
202 366 1076
206 367 1078
208 366 1074
210 363 1066
217 369 1083
218 366 1073
221 365 1071
225 366 1073
228 366 1073
230 363 1064
236 368 1077
239 367 1075
243 369 1080
245 367 1074
250 369 1078
254 370 1081
257 370 1079
258 366 1067
264 371 1080
266 368 1073
268 367 1067
274 371 1079
277 370 1077
279 368 1069
284 370 1074
287 370 1073
291 371 1076
291 366 1062
295 368 1066
298 367 1062
306 372 1077
307 370 1070
312 371 1073
316 372 1075
317 370 1068
321 370 1067
326 372 1072
329 371 1070
330 369 1062
335 371 1068
338 370 1064
341 371 1064
348 374 1072
348 371 1064
351 370 1060
355 372 1063
362 375 1072
367 376 1075
369 375 1071
374 377 1074
374 373 1064
380 376 1071
383 376 1068
389 378 1074
389 375 1065
393 375 1064
396 375 1061
399 375 1060
403 375 1061
406 375 1060
411 376 1062
414 376 1059
416 375 1056
423 378 1063
428 379 1066
433 380 1068
434 378 1061
439 380 1066
444 381 1067
444 379 1058
449 380 1060
455 382 1065
458 381 1062
459 379 1055
464 381 1059
471 384 1065
471 380 1055
479 384 1064
478 381 1054
487 385 1064
490 385 1061
491 383 1055
494 383 1054
500 384 1056
504 385 1057
513 389 1066
513 387 1058
519 388 1062
521 387 1057
528 389 1062
538 394 1074
534 389 1058
539 390 1058
542 389 1056
548 392 1060
547 388 1050
559 394 1064
560 392 1058
567 395 1063
568 393 1057
574 395 1059
579 396 1060
581 394 1054
586 396 1057
584 392 1045
590 393 1047
595 394 1048
597 393 1044
600 393 1041
607 395 1045
613 397 1048
615 395 1043
623 398 1047
621 394 1036
-589 383 969
-590 386 978
-574 378 960
-566 375 953
-557 371 945
-549 368 939
-547 368 942
-542 367 940
-538 367 941
-540 370 953
-539 372 958
-531 369 951
-532 371 959
-524 368 953
-520 367 952
-523 372 966
-520 372 968
-519 373 973
-518 375 980
-516 376 983
-517 379 994
-513 378 993
-502 373 980
-499 373 982
-497 374 986
-493 374 986
-485 370 978
-474 364 964
-471 364 964
-471 367 974
-469 367 978
-465 367 977
-464 368 982
-460 368 984
-456 367 983
-455 369 988
-449 367 985
-446 367 985
-438 363 976
-437 365 983
-439 369 995
-448 379 1025
-461 393 1064
-452 388 1051
-438 379 1029
-426 372 1010
-418 367 999
-417 369 1005
-411 366 999
-408 366 1000
-406 368 1005
-399 365 997
-398 367 1005
-392 364 999
-392 367 1008
-388 366 1006
-385 366 1008
-382 366 1008
-379 367 1011
-377 368 1016
-373 367 1015
-370 367 1016
-366 366 1014
-361 365 1011
-356 363 1008
-356 366 1018
-354 367 1021
-351 367 1022
-346 366 1020
-343 366 1021
-342 368 1027
-338 367 1025
-334 367 1027
-331 366 1026
-330 369 1034
-327 369 1036
-326 372 1045
-320 368 1035
-313 364 1026
-315 370 1042
-313 371 1047
-308 370 1044
-302 367 1036
-302 370 1046
-298 369 1045
-296 370 1049
-291 369 1045
-289 369 1048
-284 368 1044
-281 368 1045
-277 367 1042
-276 369 1050
-272 369 1050
-270 371 1057
-267 370 1055
-261 367 1047
-259 369 1054
-256 369 1054
-252 367 1050
-248 367 1049
-247 369 1058
-242 367 1050
-238 367 1051
-235 366 1049
-232 367 1055
-229 366 1053
-226 367 1055
-220 363 1043
-218 365 1049
-214 364 1047
-210 363 1045
-209 365 1052
-206 366 1057
-201 363 1049
-200 366 1058
-195 363 1048
-191 362 1047
-188 363 1049
-187 366 1059
-184 366 1061
-180 366 1060
-177 366 1060
-173 365 1058
-170 365 1059
-167 365 1059
-164 366 1064
-161 366 1063
-158 367 1068
-154 365 1060
-151 365 1063
-148 365 1062
-146 368 1071
-142 367 1068
-139 366 1066
-135 366 1067
-133 369 1076
-130 370 1079
-126 367 1070
-123 369 1076
-119 365 1065
-118 371 1085
-113 367 1073
-107 356 1040
-100 345 1007
-92 326 953
-85 312 912
-81 310 904
-75 298 870
-75 305 891
-67 285 832
-62 275 804
-63 290 847
-60 286 837
-58 289 845
-56 291 851
-52 286 835
-49 285 833
-48 288 843
-45 286 838
-41 281 823
-38 277 810
-37 282 826
-35 287 840
-33 290 849
-29 285 834
-27 285 835
-25 291 852
-22 290 850
-21 302 887
-19 308 905
-16 312 916
-14 331 971
-12 336 988
-9 343 1007
-6 358 1053
-3 363 1069
0 363 1067
2 361 1061
5 363 1068
9 363 1069
12 362 1064
15 363 1067
18 363 1067
21 362 1065
25 363 1068
28 363 1067
31 364 1069
35 367 1080
37 363 1066
41 364 1070
44 363 1068
47 366 1077
50 363 1069
54 366 1076
57 366 1076
60 365 1075
63 365 1073
66 363 1068
70 365 1073
73 364 1069
76 365 1072
79 363 1068
82 363 1068
86 365 1072
89 365 1072
94 370 1086
96 366 1074
99 364 1070
103 367 1077
105 364 1068
109 365 1072
112 365 1070
115 363 1066
119 366 1073
121 363 1064
125 366 1072
127 362 1062
131 365 1070
135 366 1074
138 364 1068
141 365 1070
144 365 1068
148 367 1074
152 367 1075
155 366 1072
158 368 1075
162 368 1076
165 368 1076
168 367 1071
170 365 1065
175 369 1078
177 366 1067
180 364 1063
184 366 1068
187 365 1066
190 366 1066
194 368 1072
196 364 1061
201 367 1069
204 368 1071
207 366 1065
211 367 1069
215 369 1074
217 367 1067
220 367 1066
224 368 1067
226 365 1060
229 365 1059
234 368 1066
236 365 1059
238 364 1054
244 368 1066
248 369 1067
251 370 1068
254 369 1065
257 368 1063
261 369 1064
265 371 1069
269 371 1069
270 368 1060
274 369 1064
277 369 1062
282 370 1065
283 368 1058
288 370 1064
290 368 1056
294 369 1060
298 370 1061
301 370 1060
301 366 1048
307 369 1057
312 371 1060
313 368 1053
318 370 1056
323 372 1062
327 373 1063
330 372 1060
331 370 1054
334 370 1053
338 370 1053
343 372 1056
347 373 1060
352 375 1063
355 374 1060
362 378 1071
362 375 1060
368 377 1066
369 375 1059
375 378 1066
378 377 1064
385 381 1072
386 378 1064
387 376 1057
390 376 1055
391 373 1047
395 374 1049
402 377 1056
405 377 1055
406 375 1049
412 377 1052
415 377 1052
420 378 1054
423 378 1053
426 378 1051
427 376 1044
435 380 1053
442 383 1060
445 382 1058
446 380 1051
450 381 1052
458 385 1061
456 380 1048
458 379 1043
463 380 1045
468 381 1047
474 384 1053
478 384 1052
485 387 1058
488 387 1056
487 383 1045
492 384 1047
495 384 1045
500 385 1048
506 387 1051
514 390 1058
512 387 1046
519 389 1051
522 389 1049
522 386 1040
531 390 1050
533 389 1046
537 390 1046
536 386 1035
544 389 1042
551 392 1048
552 390 1042
561 394 1050
565 394 1049
572 397 1055
570 393 1042
579 396 1049
577 392 1038
581 393 1038
586 394 1038
598 400 1052
594 395 1037
603 398 1044
605 397 1040
613 400 1045
602 391 1019
619 399 1040
617 396 1030
-584 383 959
-585 386 968
-572 380 954
-557 372 937
-552 371 936
-551 372 940
-543 369 934
-543 371 942
-539 371 942
-532 368 937
-527 367 936
-526 368 941
-527 371 949
-517 366 939
-521 371 954
-517 371 953
-511 369 950
-516 375 968
-515 376 972
-514 378 978
-513 380 985
-506 377 979
-495 371 965
-494 372 971
-487 370 965
-486 371 971
-478 368 963
-474 367 964
-468 365 958
-466 366 963
-463 366 963
-459 365 963
-459 368 972
-455 367 971
-450 366 969
-445 364 967
-443 365 970
-440 365 971
-437 365 972
-434 366 976
-439 372 994
-460 392 1050
-450 387 1038
-450 390 1047
-434 379 1018
-423 372 1001
-413 366 985
-412 368 992
-405 365 985
-401 364 983
-398 364 984
-395 364 985
-394 366 993
-391 366 994
-386 364 991
-384 366 995
-381 366 997
-378 365 997
-376 367 1004
-373 367 1005
-372 369 1010
-365 366 1003
-361 365 1001
-356 363 998
-356 366 1006
-352 365 1005
-351 368 1013
-350 369 1019
-345 368 1015
-341 367 1013
-339 368 1017
-334 366 1012
-333 368 1021
-331 370 1026
-327 368 1023
-325 371 1030
-320 368 1023
-318 369 1028
-314 368 1027
-312 370 1032
-309 370 1032
-306 371 1037
-299 366 1023
-299 369 1034
-296 370 1036
-293 370 1037
-287 367 1029
-285 369 1036
-282 368 1035
-279 368 1035
-275 367 1033
-272 368 1037
-271 370 1043
-268 371 1046
-264 370 1046
-263 373 1053
-257 369 1042
-254 369 1044
-249 367 1040
-247 369 1046
-245 370 1049
-240 368 1043
-236 367 1041
-232 364 1035
-230 366 1041
-226 365 1039
-223 366 1042
-220 367 1044
-217 367 1046
-211 362 1032
-210 366 1043
-206 365 1041
-203 364 1040
-201 365 1044
-197 365 1042
-194 366 1046
-192 367 1051
-188 365 1047
-183 362 1038
-181 365 1045
-179 366 1049
-176 367 1052
-173 368 1058
-170 367 1054
-166 365 1050
-164 368 1058
-160 368 1058
-158 370 1066
-153 367 1055
-151 369 1063
-147 367 1058
-143 365 1052
-141 367 1060
-137 365 1054
-134 366 1057
-131 365 1054
-127 364 1051
-125 368 1062
-121 364 1053
-119 367 1062
-117 371 1074
-110 362 1047
-105 355 1028
-98 343 991
-90 324 938
-84 311 901
-81 310 897
-76 302 873
-72 297 859
-67 289 837
-68 301 871
-65 299 865
-59 286 828
-58 290 841
-55 290 842
-50 278 805
-47 273 791
-47 288 834
-44 284 824
-42 285 828
-38 280 812
-38 295 856
-34 287 833
-32 288 835
-29 280 812
-26 281 816
-25 298 866
-21 277 805
-21 303 880
-18 307 892
-16 316 920
-14 332 967
-12 342 997
-9 345 1004
-6 359 1044
-3 363 1058
0 363 1058
2 365 1062
5 362 1055
9 366 1065
12 360 1049
15 361 1052
18 364 1060
21 362 1056
24 363 1056
28 363 1057
31 363 1057
34 364 1059
37 364 1062
40 364 1060
44 364 1061
47 363 1058
50 366 1066
53 364 1060
56 364 1061
60 365 1062
63 366 1065
66 364 1061
70 366 1066
72 364 1061
76 365 1064
79 366 1065
82 366 1064
86 366 1066
89 365 1061
91 363 1055
96 368 1069
98 363 1057
101 363 1057
104 364 1059
108 366 1063
111 365 1061
115 367 1067
117 364 1058
121 365 1061
125 368 1070
127 365 1060
131 366 1062
134 365 1060
137 367 1065
140 366 1062
143 366 1060
146 364 1056
150 366 1060
154 368 1067
157 366 1062
159 365 1056
161 363 1050
167 368 1065
170 367 1063
172 365 1057
176 367 1062
180 368 1063
182 366 1057
187 369 1065
189 366 1057
192 366 1056
196 367 1058
200 369 1063
203 369 1062
207 369 1064
209 367 1057
211 366 1054
216 368 1059
218 366 1052
222 367 1055
225 367 1054
228 366 1052
232 368 1057
234 366 1050
239 368 1056
242 368 1055
244 367 1052
250 371 1062
254 371 1062
254 368 1051
258 368 1051
263 371 1060
266 370 1056
268 368 1050
272 370 1054
277 371 1058
277 368 1048
283 370 1054
285 370 1052
287 367 1044
291 369 1048
293 367 1043
300 372 1054
301 369 1045
306 371 1051
307 369 1044
314 372 1053
316 372 1051
321 374 1055
324 373 1053
324 369 1041
332 374 1054
334 373 1051
337 372 1047
342 375 1054
342 371 1042
345 371 1041
350 372 1044
356 376 1053
358 374 1048
360 372 1041
368 377 1054
369 374 1046
375 378 1054
377 376 1050
378 374 1043
383 375 1044
386 375 1044
390 376 1045
394 376 1044
397 376 1042
402 378 1046
404 377 1042
411 380 1050
410 376 1038
418 380 1049
423 381 1050
424 379 1044
428 380 1045
432 380 1044
436 381 1045
434 377 1032
441 379 1038
446 381 1042
449 380 1039
454 382 1041
456 381 1038
466 386 1050
465 382 1039
470 384 1043
473 383 1039
472 380 1029
483 386 1044
486 386 1042
486 383 1034
496 388 1046
497 386 1039
497 384 1030
507 388 1042
507 386 1035
515 390 1043
511 384 1026
520 388 1036
520 385 1027
527 388 1033
530 388 1031
538 391 1038
537 388 1027
550 395 1045
549 391 1033
551 390 1029
559 393 1036
562 393 1034
564 392 1030
572 395 1035
575 395 1034
579 395 1033
585 397 1035
583 393 1024
591 396 1030
595 397 1030
599 397 1028
599 394 1020
609 399 1030
613 399 1029
618 400 1029
-590 390 968
-576 384 954
-571 382 952
-558 376 938
-548 371 927
-542 369 924
-542 371 931
-538 371 932
-535 371 934
-527 368 927
-530 372 940
-521 368 931
-520 370 937
-515 368 934
-511 368 935
-512 371 944
-508 369 943
-506 370 947
-507 373 956
-505 375 961
-509 380 977
-505 380 977
-499 377 972
-492 374 966
-485 372 960
-485 374 967
-474 368 955
-467 365 947
-464 365 950
-463 366 954
-459 366 955
-456 366 957
-452 366 956
-449 365 957
-448 367 964
-444 366 962
-439 365 961
-438 366 965
-438 369 973
-434 368 973
-432 369 977
-435 375 993
-460 399 1058
-452 395 1049
-441 388 1033
-419 372 990
-412 369 983
-405 365 975
-404 367 981
-400 366 980
-396 366 980
-392 365 979
-390 366 982
-390 368 991
-384 365 984
-382 367 990
-377 365 986
-373 364 983
-373 367 993
-371 368 996
-368 368 999
-367 371 1007
-362 369 1003
-357 367 998
-353 366 997
-353 369 1006
-347 366 998
-345 367 1003
-343 368 1007
-339 368 1007
-336 368 1007
-332 367 1008
-330 369 1012
-328 369 1015
-326 371 1020
-319 367 1010
-317 368 1013
-315 369 1017
-310 367 1013
-310 371 1025
-308 372 1029
-301 368 1017
-301 371 1028
-295 368 1019
-293 370 1026
-290 370 1027
-286 369 1025
-286 373 1037
-279 367 1023
-277 369 1029
-274 370 1030
-270 369 1029
-269 371 1036
-265 370 1035
-260 368 1029
-259 370 1035
-255 369 1033
-251 369 1034
-248 368 1032
-246 370 1037
-242 369 1036
-238 367 1032
-236 369 1039
-231 367 1033
-227 366 1030
-224 366 1031
-220 364 1027
-217 365 1029
-215 367 1035
-212 367 1037
-210 369 1043
-205 364 1030
-202 366 1034
-199 365 1034
-196 366 1036
-191 362 1026
-190 367 1040
-186 365 1036
-183 366 1039
-180 366 1039
-177 365 1038
-172 361 1027
-171 367 1043
-168 366 1041
-166 369 1050
-163 369 1052
-158 367 1045
-156 367 1047
-152 367 1045
-149 367 1048
-145 365 1043
-142 365 1041
-138 364 1040
-136 366 1045
-133 365 1043
-129 365 1044
-127 367 1050
-123 366 1047
-120 364 1042
-118 367 1052
-115 369 1057
-111 365 1047
-105 357 1024
-96 338 968
-89 322 923
-84 316 905
-81 315 903
-76 305 874
-75 312 894
-71 306 878
-64 289 829
-60 283 811
-56 275 789
-55 282 807
-55 290 833
-51 285 819
-50 293 842
-45 280 803
-43 281 807
-41 285 817
-38 281 808
-35 278 798
-33 278 799
-33 297 853
-29 290 833
-26 283 813
-24 291 836
-22 292 839
-20 303 872
-18 307 885
-16 316 909
-14 330 949
-12 343 989
-9 350 1008
-6 359 1034
-3 362 1044
0 364 1051
2 361 1042
5 362 1044
9 362 1044
12 362 1044
15 363 1049
18 363 1047
21 365 1052
24 361 1042
28 364 1052
31 362 1045
34 365 1054
37 365 1053
40 365 1053
43 363 1048
47 365 1054
50 365 1052
53 365 1054
56 364 1051
59 364 1051
63 368 1060
66 366 1056
69 365 1054
72 366 1055
75 366 1057
78 366 1054
81 361 1039
85 365 1052
88 364 1048
91 364 1049
94 366 1055
98 366 1055
100 364 1048
104 365 1051
108 368 1059
111 367 1056
114 366 1053
117 367 1057
120 367 1057
123 366 1052
126 366 1051
130 366 1052
133 366 1052
136 366 1051
139 365 1049
143 369 1059
145 365 1049
150 368 1058
151 364 1045
155 366 1049
159 367 1052
161 365 1047
165 366 1049
168 366 1050
170 365 1044
176 369 1057
178 367 1052
182 370 1058
186 369 1057
187 367 1048
192 369 1055
194 368 1050
197 367 1048
201 368 1049
204 367 1047
208 369 1054
211 368 1050
213 367 1045
219 371 1056
219 366 1043
223 367 1044
225 365 1037
231 370 1051
234 369 1048
238 370 1050
239 366 1040
244 369 1048
248 371 1052
248 366 1036
254 370 1048
257 370 1046
259 368 1041
262 368 1039
267 370 1044
269 368 1040
273 369 1042
274 367 1035
281 371 1046
283 370 1042
287 371 1044
291 371 1045
292 370 1039
294 368 1034
300 371 1042
303 371 1040
308 372 1044
312 373 1045
314 372 1041
319 374 1045
319 370 1035
324 372 1038
328 373 1042
331 372 1038
335 374 1042
337 372 1036
342 374 1040
344 372 1035
347 373 1035
353 376 1043
353 372 1032
358 374 1036
364 376 1041
369 378 1045
370 376 1039
375 378 1043
375 374 1032
379 375 1034
382 374 1030
387 376 1034
388 374 1027
393 376 1031
398 377 1033
399 375 1028
404 376 1030
407 376 1029
415 381 1040
419 382 1041
423 382 1040
423 379 1032
423 376 1022
434 383 1039
433 378 1027
442 383 1039
443 382 1033
446 382 1032
450 382 1032
454 382 1031
456 381 1027
464 385 1036
465 383 1029
469 384 1030
477 387 1038
478 386 1033
480 384 1028
485 385 1029
490 387 1032
494 387 1031
497 387 1030
501 387 1029
505 388 1029
507 387 1025
511 387 1024
520 391 1034
521 389 1028
522 388 1021
528 390 1025
531 389 1023
536 390 1024
539 390 1022
538 387 1012
547 391 1021
552 392 1022
562 396 1032
563 395 1027
566 395 1024
570 395 1024
576 397 1026
577 395 1020
587 399 1030
588 397 1023
590 397 1020
591 395 1013
597 396 1015
604 399 1021
603 396 1011
610 398 1015
-577 386 947
-574 386 948
-563 381 938
-556 378 933
-544 372 920
-540 371 920
-538 372 923
-534 371 924
-529 370 922
-525 369 922
-523 371 926
-521 371 930
-513 368 923
-514 371 932
-509 370 931
-511 373 940
-508 373 943
-509 376 952
-504 375 951
-506 379 962
-509 383 975
-501 379 967
-499 381 972
-489 375 959
-486 376 962
-479 373 956
-471 369 946
-464 365 939
-464 369 949
-456 364 940
-457 368 950
-453 367 949
-452 368 954
-447 367 952
-443 367 952
-440 366 953
-437 366 954
-433 366 955
-432 368 961
-431 369 965
-428 370 969
-433 376 988
-445 389 1023
-455 401 1056
-440 391 1030
-417 373 985
-411 371 979
-406 369 975
-401 367 972
-396 366 970
-396 369 979
-393 369 979
-390 369 980
-385 367 976
-384 369 985
-379 368 981
-377 368 984
-371 365 977
-369 367 982
-369 369 990
-363 367 985
-360 367 987
-358 368 991
-355 368 991
-347 363 979
-345 364 983
-345 368 994
-342 368 995
-342 371 1004
-336 368 996
-335 370 1005
-329 367 998
-327 369 1002
-324 368 1001
-323 371 1010
-317 368 1003
-315 369 1006
-310 367 1002
-309 369 1007
-305 368 1007
-305 372 1018
-301 371 1017
-297 370 1015
-294 370 1015
-291 370 1018
-286 368 1013
-283 369 1014
-281 369 1016
-279 371 1023
-276 371 1024
-273 371 1025
-268 368 1018
-267 371 1026
-263 370 1024
-260 370 1026
-256 370 1024
-252 369 1023
-250 370 1026
-246 369 1025
-244 370 1028
-241 371 1032
-236 368 1023
-232 366 1019
-230 368 1025
-226 368 1025
-221 364 1016
-219 366 1021
-216 366 1022
-213 366 1023
-209 364 1019
-207 366 1024
-204 367 1027
-200 364 1021
-198 367 1030
-193 363 1018
-192 367 1031
-187 364 1023
-185 366 1029
-183 369 1037
-178 364 1023
-175 364 1024
-172 365 1026
-169 365 1027
-166 365 1028
-164 369 1040
-161 368 1039
-156 365 1030
-153 365 1032
-151 368 1038
-147 366 1034
-144 367 1036
-141 365 1033
-138 366 1034
-135 365 1034
-132 367 1038
-129 368 1044
-126 368 1044
-122 366 1038
-120 368 1042
-116 367 1041
-114 371 1052
-109 364 1032
-102 349 992
-94 333 946
-87 318 903
-82 312 885
-75 296 838
-76 308 875
-71 298 847
-67 292 829
-64 290 823
-62 291 826
-57 281 799
-56 290 823
-52 279 792
-50 283 804
-50 294 836
-46 285 810
-42 277 788
-40 281 800
-39 292 831
-37 295 840
-34 290 824
-31 284 809
-28 283 805
-27 296 842
-26 313 892
-22 293 834
-19 284 810
-18 307 874
-16 312 891
-14 328 935
-11 342 977
-9 350 1000
-6 358 1022
-3 364 1039
0 362 1036
2 362 1034
5 365 1044
9 364 1039
12 365 1042
15 361 1033
18 362 1036
21 364 1042
24 365 1044
27 365 1043
30 363 1036
34 363 1038
37 364 1040
40 367 1049
43 364 1039
46 365 1043
49 365 1043
53 366 1047
56 365 1044
59 365 1044
62 363 1037
66 368 1051
68 366 1046
72 369 1054
75 365 1042
78 367 1047
81 368 1050
84 367 1048
87 364 1040
90 364 1040
93 365 1042
96 365 1040
100 366 1045
103 366 1044
106 366 1044
110 368 1049
112 365 1039
116 367 1047
120 369 1050
123 370 1054
125 366 1041
129 367 1046
131 365 1040
135 367 1045
139 368 1047
142 368 1046
145 367 1042
147 365 1038
150 365 1036
154 366 1040
158 368 1045
161 367 1043
164 368 1045
167 367 1042
171 368 1045
173 367 1041
177 368 1044
180 367 1041
182 366 1038
186 366 1037
190 369 1045
193 369 1043
196 367 1039
199 368 1040
203 369 1042
206 368 1039
208 367 1036
212 368 1040
216 370 1044
218 368 1038
221 368 1036
224 367 1034
227 367 1032
231 368 1034
234 367 1033
237 368 1034
241 368 1035
247 373 1047
246 366 1027
250 368 1032
254 369 1034
257 368 1032
262 371 1039
265 370 1036
269 372 1040
271 370 1033
276 372 1039
277 369 1031
280 370 1031
285 371 1036
290 374 1043
290 370 1030
295 371 1034
297 370 1028
302 372 1035
303 370 1027
308 372 1033
311 372 1030
315 373 1033
320 374 1036
321 372 1029
326 374 1034
326 371 1023
331 372 1028
336 375 1033
338 373 1027
344 376 1036
344 372 1024
349 375 1029
355 377 1034
355 374 1026
361 376 1031
361 373 1022
366 375 1027
369 375 1025
371 374 1021
375 374 1021
382 378 1029
386 379 1032
390 380 1033
394 380 1032
393 376 1021
395 374 1015
398 374 1013
406 379 1025
410 379 1026
413 379 1023
416 379 1023
419 379 1021
425 381 1026
433 385 1035
435 384 1031
435 381 1023
441 384 1028
441 381 1019
445 381 1019
451 383 1022
456 385 1026
457 382 1019
461 383 1020
465 384 1019
468 383 1018
467 380 1007
478 386 1023
481 386 1020
486 387 1022
489 387 1020
493 387 1020
503 392 1031
500 388 1018
507 390 1023
508 388 1018
510 387 1014
514 387 1012
521 390 1019
526 392 1020
523 387 1006
526 386 1004
535 391 1013
541 393 1017
543 391 1011
550 394 1018
551 392 1011
553 391 1006
558 392 1009
565 395 1012
569 395 1012
574 396 1014
577 396 1011
579 395 1006
582 395 1005
591 398 1012
598 401 1017
602 401 1015
604 400 1012
601 396 999
-569 383 932
-566 383 934
-558 380 927
-545 374 914
-545 376 921
-531 368 904
-531 370 910
-527 370 910
-530 374 922
-521 370 915
-517 369 914
-517 371 921
-515 372 925
-511 372 926
-508 372 927
-502 370 924
-502 372 930
-499 372 933
-503 377 947
-499 376 946
-502 381 960
-503 385 970
-497 383 967
-492 381 965
-489 381 965
-481 377 957
-471 372 946
-464 369 939
-457 366 933
-456 367 938
-453 367 940
-448 366 938
-446 367 941
-444 368 945
-439 366 943
-436 367 944
-436 368 951
-435 370 957
-428 367 950
-428 370 958
-426 371 962
-430 377 979
-451 398 1036
-463 412 1073
-442 396 1034
-421 380 992
-409 372 973
-401 368 964
-401 371 972
-395 368 965
-392 368 967
-388 367 967
-385 367 968
-382 367 969
-377 365 964
-377 369 975
-373 368 973
-367 365 967
-367 367 974
-364 368 977
-361 368 979
-360 370 985
-356 369 984
-350 366 976
-348 367 981
-345 367 982
-344 370 989
-339 367 984
-334 366 981
-329 364 977
-333 371 996
-326 367 988
-323 367 989
-322 369 995
-318 369 994
-317 371 1002
-311 367 993
-308 368 994
-306 369 999
-302 368 997
-299 368 999
-297 369 1001
-293 369 1001
-292 371 1008
-289 370 1008
-284 369 1004
-282 370 1007
-280 371 1013
-276 371 1012
-272 369 1008
-270 371 1014
-266 369 1010
-264 371 1017
-262 372 1021
-259 372 1021
-254 371 1017
-250 369 1014
-248 371 1019
-244 369 1016
-242 370 1019
-238 370 1018
-232 365 1007
-230 366 1010
-227 367 1013
-224 367 1014
-220 365 1009
-217 366 1011
-214 366 1014
-212 368 1018
-208 366 1015
-205 367 1016
-201 365 1012
-198 364 1010
-195 365 1013
-193 367 1020
-190 368 1023
-185 363 1008
-183 366 1018
-179 365 1015
-177 367 1021
-174 366 1019
-171 366 1021
-167 365 1017
-164 366 1021
-161 365 1020
-158 364 1018
-155 365 1020
-152 364 1019
-148 364 1019
-146 365 1022
-143 367 1028
-140 367 1028
-137 366 1027
-134 367 1028
-130 366 1026
-127 366 1025
-125 369 1036
-122 367 1032
-118 367 1030
-115 367 1032
-113 369 1037
-106 359 1008
-101 349 981
-94 335 941
-86 319 896
-83 319 896
-78 307 863
-73 298 837
-73 308 867
-67 295 829
-63 287 806
-60 288 811
-58 288 809
-56 290 816
-52 281 792
-49 279 785
-47 280 787
-44 279 787
-44 290 818
-40 286 805
-40 297 839
-36 287 810
-33 288 811
-30 279 787
-29 290 819
-27 295 833
-23 283 798
-21 288 811
-20 309 873
-18 309 871
-15 315 889
-14 329 931
-11 343 971
-9 356 1006
-6 363 1027
-3 366 1037
0 365 1032
2 365 1033
5 364 1031
8 364 1030
12 363 1027
15 362 1024
18 364 1029
21 366 1035
24 366 1035
27 366 1036
30 362 1024
33 365 1033
37 366 1035
40 367 1038
43 365 1033
46 368 1041
49 367 1038
52 364 1029
55 366 1036
58 366 1034
62 366 1035
65 366 1037
68 366 1037
71 366 1037
74 367 1037
77 365 1031
81 367 1037
84 367 1037
86 365 1032
90 365 1032
93 366 1035
97 369 1044
99 365 1033
102 366 1034
105 366 1033
109 367 1037
113 369 1041
116 368 1039
119 369 1041
121 366 1034
124 367 1034
128 367 1034
131 366 1033
135 368 1039
138 368 1037
140 367 1034
144 368 1036
147 368 1036
149 366 1030
154 369 1039
157 370 1041
159 367 1032
164 370 1042
164 364 1024
169 368 1035
172 367 1030
175 368 1033
179 368 1034
182 369 1035
186 369 1036
188 369 1033
191 368 1030
193 365 1022
198 369 1034
202 370 1035
204 368 1028
207 368 1029
210 368 1028
215 370 1034
216 367 1025
221 370 1032
225 371 1036
225 367 1023
230 369 1027
232 367 1022
237 371 1032
239 368 1024
243 370 1029
244 366 1017
250 370 1029
252 369 1023
257 371 1030
257 368 1019
262 370 1024
267 372 1031
268 370 1023
274 373 1033
275 370 1023
281 373 1031
283 373 1029
285 370 1022
289 372 1026
292 372 1024
296 372 1024
299 372 1024
304 374 1028
305 371 1020
310 374 1027
313 374 1025
315 372 1019
319 372 1020
322 373 1021
326 374 1023
328 372 1016
332 373 1019
335 373 1018
339 373 1017
342 373 1016
346 374 1017
351 376 1023
355 377 1023
361 380 1030
360 375 1017
365 377 1022
366 375 1016
370 376 1016
375 378 1021
378 378 1019
381 377 1017
384 377 1015
389 378 1018
395 381 1024
397 380 1021
399 378 1015
405 381 1022
405 378 1013
412 381 1020
417 383 1023
416 379 1011
420 380 1013
425 382 1016
430 383 1019
427 377 1003
436 383 1015
439 382 1012
441 381 1008
448 384 1016
449 382 1009
456 385 1017
458 384 1011
463 385 1013
465 384 1011
469 385 1010
474 386 1011
482 390 1021
481 386 1010
483 385 1005
488 387 1009
492 387 1009
497 388 1010
503 390 1014
509 392 1018
508 389 1008
507 386 998
513 387 1001
517 388 1002
519 387 998
528 391 1006
529 389 999
538 394 1009
540 392 1005
545 394 1007
547 392 1002
548 391 997
553 392 997
558 393 998
561 393 997
568 396 1002
574 397 1004
576 396 1000
577 395 994
589 401 1008
586 396 995
596 400 1004
594 397 993
602 400 998
-551 375 902
-554 379 914
-552 380 917
-552 382 925
-540 375 911
-532 372 905
-528 372 905
-526 372 907
-520 370 904
-519 371 909
-517 373 914
-508 368 904
-512 373 919
-509 373 920
-504 372 918
-504 374 925
-505 377 934
-498 374 929
-497 376 934
-496 378 941
-498 381 951
-498 384 960
-499 387 969
-491 384 962
-488 383 962
-484 383 963
-472 376 947
-461 370 933
-455 367 927
-451 367 927
-448 367 929
-445 367 930
-445 369 938
-440 367 935
-434 365 931
-435 368 940
-432 369 942
-430 369 944
-428 371 950
-426 371 953
-423 371 953
-427 377 971
-444 395 1019
-454 407 1050
-447 404 1043
-414 377 976
-407 374 968
-400 370 961
-395 368 955
-396 372 966
-392 371 966
-385 367 958
-381 366 956
-380 368 962
-377 369 964
-373 367 962
-372 370 969
-365 366 960
-363 367 964
-360 367 966
-361 371 978
-354 368 969
-349 365 964
-347 367 969
-347 369 976
-344 369 978
-342 371 983
-340 372 987
-336 371 984
-332 370 984
-329 370 984
-325 368 981
-323 370 988
-321 372 992
-319 373 995
-315 372 994
-309 369 987
-311 374 1002
-306 372 998
-303 372 999
-298 370 994
-297 372 1002
-296 376 1011
-292 373 1005
-286 370 998
-283 370 1000
-279 369 997
-276 370 999
-273 369 998
-271 371 1003
-267 370 1002
-265 371 1007
-263 372 1010
-259 372 1010
-255 369 1004
-251 369 1003
-251 374 1018
-247 372 1013
-242 369 1006
-241 373 1016
-237 372 1014
-232 368 1005
-228 367 1003
-223 364 995
-223 369 1010
-218 366 1002
-216 366 1004
-212 366 1004
-209 366 1005
-207 367 1006
-203 367 1007
-199 365 1003
-198 368 1012
-194 366 1007
-191 367 1009
-187 364 1003
-185 367 1011
-181 365 1006
-178 366 1009
-175 366 1010
-172 366 1010
-170 368 1015
-167 367 1015
-165 369 1021
-160 366 1013
-157 366 1012
-154 366 1014
-151 366 1015
-148 365 1013
-145 367 1019
-141 364 1009
-137 362 1005
-135 364 1009
-132 365 1014
-130 366 1018
-126 367 1019
-123 365 1015
-121 367 1021
-117 366 1019
-114 366 1019
-112 369 1028
-106 362 1007
-100 349 971
-92 331 921
-85 319 887
-76 293 816
-76 304 847
-74 307 856
-67 289 806
-67 299 832
-63 292 815
-62 299 833
-60 299 834
-55 287 801
-51 282 785
-49 281 785
-47 283 789
-45 284 794
-43 289 807
-39 276 771
-36 274 765
-35 283 790
-33 288 805
-31 289 808
-29 293 818
-26 291 813
-24 296 827
-23 311 870
-19 294 822
-17 307 857
-15 314 877
-13 328 919
-11 342 957
-8 347 971
-6 362 1015
-3 364 1021
0 364 1020
2 363 1019
5 365 1022
8 364 1019
12 366 1026
15 364 1022
18 365 1023
21 365 1025
24 363 1017
27 366 1025
30 363 1017
33 366 1026
36 366 1027
39 364 1021
42 364 1021
46 365 1024
49 364 1021
52 367 1029
55 364 1020
58 367 1028
61 366 1025
64 365 1022
68 369 1034
71 367 1028
74 366 1026
76 364 1019
80 365 1023
83 367 1029
86 365 1022
89 366 1026
92 367 1026
96 367 1028
98 365 1021
102 367 1026
104 365 1021
108 369 1031
111 365 1021
114 366 1022
118 369 1031
120 366 1023
124 368 1029
128 370 1032
130 368 1028
133 367 1025
137 369 1031
139 367 1024
143 368 1028
146 368 1027
150 370 1030
153 371 1033
156 369 1028
157 366 1018
161 367 1023
165 369 1027
167 367 1022
170 366 1018
174 368 1024
178 369 1027
181 369 1026
184 369 1024
187 370 1027
189 366 1016
192 367 1017
196 369 1023
199 368 1020
202 367 1018
207 371 1027
209 368 1020
212 368 1019
215 369 1021
219 370 1021
222 370 1022
225 370 1022
227 368 1016
233 371 1025
233 368 1014
238 370 1021
239 367 1010
245 371 1020
249 372 1023
252 371 1021
254 370 1016
257 369 1015
260 370 1017
265 373 1023
268 373 1022
272 374 1025
274 371 1016
276 370 1013
279 370 1013
286 374 1023
285 370 1010
292 374 1021
291 370 1008
296 372 1012
300 373 1016
302 371 1011
309 375 1020
311 374 1016
312 372 1009
315 372 1009
321 375 1016
324 374 1013
326 373 1011
330 374 1012
334 375 1014
337 374 1010
340 375 1011
342 373 1004
344 372 1001
353 378 1017
354 376 1010
359 377 1013
364 379 1017
365 377 1010
371 380 1018
374 380 1016
374 376 1006
377 376 1005
384 379 1012
385 378 1007
390 379 1009
394 380 1011
397 380 1010
398 378 1003
401 377 1000
406 379 1003
411 381 1007
412 379 1001
422 384 1015
421 381 1005
427 383 1010
428 381 1002
432 382 1003
436 382 1003
439 383 1003
440 381 997
443 380 994
449 383 1000
453 383 1000
457 384 1000
461 384 1001
466 386 1003
464 381 990
474 386 1002
475 385 997
479 385 996
485 388 1002
491 390 1005
493 389 1001
497 389 1001
498 388 995
503 389 997
505 387 992
508 387 991
515 390 996
516 388 990
517 387 985
522 388 986
529 390 990
532 390 989
539 393 995
543 393 993
547 394 994
554 396 998
552 392 986
556 393 987
563 395 991
564 394 985
568 394 985
578 398 994
582 399 993
585 399 992
582 394 979
587 396 980
589 394 975
-545 374 890
-541 373 891
-540 375 896
-541 377 904
-541 379 911
-531 375 902
-528 375 903
-526 375 906
-518 372 899
-513 371 898
-509 370 898
-512 374 911
-505 372 906
-503 372 908
-505 376 918
-495 371 908
-495 373 916
-494 375 921
-494 377 928
-491 377 930
-493 381 941
-496 386 955
-494 386 958
-488 384 953
-491 389 969
-485 387 963
-475 382 952
-461 373 931
-453 369 923
-446 366 916
-445 367 921
-441 366 921
-442 369 930
-437 368 927
-433 368 928
-430 368 929
-429 369 933
-429 372 942
-422 368 935
-422 371 943
-420 372 946
-424 378 965
-432 388 989
-451 408 1043
-448 408 1046
-418 384 985
-403 373 958
-398 371 953
-396 373 959
-392 372 958
-391 374 964
-387 372 961
-377 366 946
-376 368 953
-374 369 956
-370 368 954
-366 367 953
-364 368 958
-361 368 959
-358 368 960
-356 369 963
-353 369 964
-351 370 968
-345 367 961
-343 368 965
-340 369 967
-338 370 970
-333 368 967
-334 372 978
-329 369 972
-326 370 975
-324 371 978
-319 369 974
-319 373 985
-316 373 986
-313 372 985
-309 372 986
-306 371 985
-302 370 983
-301 373 992
-300 376 1000
-296 374 996
-293 374 998
-291 376 1003
-286 373 996
-280 370 989
-279 372 995
-274 370 989
-269 367 982
-269 372 996
-264 369 991
-261 369 992
-260 372 1001
-256 370 996
-253 370 996
-251 372 1001
-246 369 996
-244 371 1001
-240 370 998
-239 372 1005
-234 370 1000
-231 369 999
-227 368 997
-223 367 995
-221 368 997
-217 367 995
-213 365 991
-212 369 1001
-209 369 1001
-204 366 995
-203 368 1001
-199 368 1002
-195 366 996
-193 368 1003
-189 366 997
-186 366 999
-182 364 994
-181 367 1003
-176 364 994
-174 366 1001
-171 367 1003
-168 367 1004
-166 368 1007
-161 365 999
-158 364 997
-156 367 1005
-152 366 1003
-148 363 995
-145 362 993
-143 366 1004
-140 365 1004
-137 366 1006
-133 363 998
-132 368 1012
-128 366 1008
-125 365 1006
-123 368 1012
-119 367 1012
-116 367 1012
-113 367 1012
-110 367 1012
-105 361 995
-98 347 957
-90 328 904
-82 309 851
-81 314 865
-77 309 854
-70 292 805
-71 306 843
-64 289 796
-66 305 843
-60 291 803
-56 284 784
-54 288 796
-50 278 768
-49 284 786
-49 297 820
-45 291 804
-43 291 805
-41 295 816
-38 287 794
-34 282 779
-33 292 807
