VERSION 0.7
FIELDS x y z
SIZE 4 4 4
TYPE I I I
COUNT 1 1 1
WIDTH 3898
HEIGHT 1
VIEWPOINT 0.0 0.0 0.0 1.0 0.0 0.0 0.0
POINTS 3898
DATA ascii
274 371 976
276 370 974
280 372 977
283 370 973
286 371 972
291 374 980
293 373 976
296 372 973
299 371 971
304 374 979
306 372 973
310 374 975
314 375 978
314 372 969
319 373 972
321 373 970
327 375 975
329 374 971
334 376 977
335 374 969
338 374 969
342 375 970
347 378 976
349 376 970
352 376 970
357 377 973
359 376 970
361 375 966
363 374 962
368 376 965
368 373 958
374 376 964
379 377 966
381 377 963
383 375 959
385 375 956
394 380 969
396 379 966
398 378 962
403 379 964
407 381 967
412 382 969
411 378 958
419 383 970
421 382 965
424 382 964
428 383 965
436 386 972
436 384 964
436 381 956
442 383 961
447 385 964
450 385 963
451 383 957
457 386 962
459 384 958
465 386 962
471 389 968
475 390 968
479 390 967
479 387 959
478 384 949
487 389 960
487 386 952
489 386 949
497 389 957
502 391 959
509 393 963
507 389 952
512 391 955
515 391 952
514 387 942
518 388 943
524 390 946
526 389 943
531 390 943
533 389 940
541 392 946
546 394 948
547 393 944
550 392 942
555 393 942
562 396 947
568 398 949
567 395 941
575 398 948
-525 372 854
-520 371 852
-516 370 852
-516 372 859
-514 373 862
-509 372 861
-511 375 870
-505 373 867
-505 375 874
-499 373 870
-495 372 869
-489 369 864
-481 365 857
-477 365 857
-476 367 863
-474 367 865
-472 368 868
-474 371 879
-471 371 880
-467 371 880
-467 373 888
-465 374 890
-469 379 905
-469 382 913
-468 384 919
-463 382 915
-456 379 910
-446 373 897
-442 372 895
-436 370 892
-433 370 893
-432 371 898
-430 372 902
-424 369 896
-423 371 902
-424 374 911
-422 376 915
-419 376 917
-415 374 915
-410 373 913
-406 371 910
-401 370 907
-400 372 914
-401 375 923
-397 375 923
-395 375 926
-391 375 926
-386 372 921
-387 376 932
-386 378 938
-383 378 939
-378 376 934
-376 377 939
-368 372 928
-358 365 912
-360 370 925
-357 371 927
-352 368 923
-350 369 924
-346 368 924
-343 368 925
-341 368 927
-337 368 926
-338 371 936
-331 367 927
-329 369 932
-329 372 940
-325 371 940
-322 370 939
-320 372 943
-316 370 941
-315 372 947
-311 372 946
-305 369 939
-303 369 940
-300 369 941
-298 371 947
-296 372 951
-294 372 953
-290 371 951
-286 370 949
-285 373 957
-281 372 954
-279 373 958
-277 373 961
-272 371 956
-267 369 951
-266 371 958
-262 369 953
-261 372 961
-257 371 959
-253 370 957
-248 367 950
-248 371 960
-244 369 958
-241 370 960
-238 369 958
-237 372 967
-232 369 959
-227 367 955
-226 369 960
-222 368 958
-220 370 964
-215 365 954
-213 367 958
-209 366 956
-206 365 953
-204 367 960
-202 369 965
-198 367 962
-195 367 961
-191 364 955
-189 366 960
-184 363 953
-182 365 960
-180 366 962
-176 364 958
-174 367 966
-171 365 962
-169 368 969
-164 365 961
-163 368 971
-160 367 969
-157 368 972
-153 365 964
-150 365 964
-148 367 971
-145 366 968
-140 363 961
-138 365 966
-135 364 963
-131 363 961
-129 365 968
-127 365 968
-124 367 973
-120 365 967
-117 363 963
-114 363 964
-112 365 968
-111 372 988
-105 362 962
-99 352 936
-93 341 905
-86 327 868
-83 323 860
-75 304 808
-75 312 830
-66 284 755
-66 294 782
-65 301 800
-58 280 745
-60 300 800
-56 295 786
-53 290 773
-48 279 741
-47 285 760
-47 295 787
-45 298 794
-41 288 766
-37 280 745
-37 295 786
-32 276 736
-32 291 776
-28 278 742
-26 283 754
-25 296 790
-21 279 743
-20 295 788
-19 303 809
-15 290 775
-14 306 816
-12 317 848
-10 331 886
-8 348 929
-5 360 962
-3 368 986
0 365 977
2 366 979
5 362 970
8 364 975
11 363 973
14 364 974
17 363 972
20 366 981
23 364 974
26 366 979
29 368 985
32 366 979
35 368 984
38 365 978
41 366 981
44 365 976
47 364 974
50 366 979
53 363 971
56 368 985
59 367 982
62 366 979
65 365 977
68 365 976
71 365 975
74 368 983
77 366 978
80 368 985
83 367 981
85 365 976
89 366 977
92 368 984
95 369 985
97 364 972
101 367 980
104 369 986
106 365 975
110 368 982
112 366 977
115 364 970
119 366 977
122 368 980
125 369 983
128 367 979
132 370 986
134 368 980
137 367 977
139 366 975
143 367 976
145 366 973
149 368 979
152 369 981
155 369 980
158 368 979
162 370 984
164 369 979
166 366 970
169 366 970
172 366 971
176 369 977
179 367 973
184 371 982
185 368 975
189 370 979
191 368 975
194 367 971
197 368 973
201 369 975
204 370 976
208 372 982
210 370 976
214 371 979
217 371 978
221 372 981
221 367 967
224 368 969
228 369 970
230 368 967
234 369 969
238 371 973
242 372 975
244 370 970
247 370 970
249 369 966
253 370 969
257 372 974
260 372 972
261 369 963
266 372 970
269 371 968
271 370 964
275 372 969
279 372 969
281 371 966
285 373 969
288 372 967
292 373 969
293 371 963
298 374 969
300 372 962
305 374 969
307 373 965
309 372 962
316 377 973
317 374 965
320 374 964
323 374 964
328 376 968
329 374 961
332 374 959
335 374 960
343 379 972
342 374 959
347 377 966
351 378 966
350 374 954
356 376 960
359 377 960
363 378 962
368 379 965
371 379 963
374 379 963
376 378 958
380 379 960
385 381 964
384 376 951
391 381 961
391 378 953
396 380 957
402 382 962
404 381 957
408 381 958
410 381 955
413 380 953
417 382 955
421 382 956
425 383 955
425 380 947
434 385 960
431 380 944
443 387 962
441 383 950
446 385 954
451 386 955
452 385 950
461 389 961
463 388 957
470 391 963
469 388 954
476 391 960
476 388 952
475 385 943
483 389 951
483 386 943
489 388 946
489 386 940
496 389 945
501 390 947
502 389 942
503 387 936
507 388 937
511 388 936
514 388 935
521 391 940
526 392 942
523 388 929
531 391 935
540 395 944
539 392 935
544 393 936
545 392 932
550 393 933
558 397 940
558 394 933
564 396 935
569 397 936
-522 373 848
-523 376 856
-516 373 850
-514 374 855
-508 371 850
-510 375 861
-511 378 868
-503 375 863
-499 373 862
-498 375 866
-493 373 864
-485 369 856
-485 371 863
-478 368 858
-473 367 856
-472 369 861
-465 365 855
-464 367 860
-463 368 864
-461 369 868
-461 371 874
-461 374 883
-457 373 881
-457 375 888
-455 376 891
-453 376 894
-452 379 901
-447 377 898
-443 376 896
-439 375 896
-435 374 896
-434 376 901
-431 375 902
-425 373 898
-422 373 899
-421 375 904
-421 378 912
-419 379 916
-412 375 907
-408 374 907
-404 373 907
-401 373 908
-398 373 909
-399 377 919
-397 377 921
-394 377 922
-389 376 920
-386 376 921
-382 375 920
-382 377 927
-379 378 929
-374 375 925
-370 374 923
-365 373 920
-360 370 916
-357 370 917
-354 370 916
-352 371 922
-347 368 915
-345 370 920
-343 371 923
-337 367 915
-335 369 920
-331 367 917
-330 369 924
-327 370 925
-325 370 927
-322 370 929
-320 372 933
-316 370 931
-313 370 931
-309 369 930
-308 371 936
-306 372 940
-300 369 931
-300 372 941
-297 372 942
-296 375 950
-292 373 947
-288 372 943
-283 370 939
-281 371 944
-277 370 940
-275 371 944
-272 371 945
-268 369 941
-265 368 941
-263 370 945
-260 371 948
-259 372 953
-254 370 948
-253 372 954
-246 367 942
-244 368 946
-244 372 957
-240 372 956
-237 370 953
-235 372 958
-232 372 959
-229 372 960
-225 371 957
-222 371 959
-217 368 950
-215 368 952
-211 367 949
-209 368 954
-206 368 952
-201 365 947
-200 367 953
-197 368 955
-194 367 954
-190 366 952
-187 365 950
-183 364 947
-180 364 948
-178 365 951
-175 366 953
-172 364 950
-170 366 955
-167 366 956
-164 366 957
-162 369 965
-158 365 955
-156 368 961
-152 365 956
-148 364 952
-146 367 961
-143 366 960
-141 367 962
-137 366 958
-133 362 951
-131 363 953
-129 367 962
-125 365 959
-122 363 954
-119 364 956
-117 366 961
-113 364 958
-111 367 966
-108 367 966
-104 361 951
-98 350 923
-91 336 884
-88 334 879
-80 316 832
-76 311 819
-73 308 811
-68 298 784
-65 296 779
-62 290 765
-60 292 769
-57 289 762
-55 292 770
-52 285 753
-49 283 747
-47 285 753
-45 286 753
-41 277 730
-42 296 780
-38 288 760
-36 292 772
-33 286 756
-30 281 743
-28 276 728
-27 296 782
-25 296 782
-22 293 774
-19 283 748
-18 292 773
-16 305 808
-14 306 809
-12 317 840
-10 333 882
-8 346 917
-5 361 956
-2 363 964
0 365 969
2 364 966
5 363 963
8 365 969
11 365 969
14 363 963
17 367 974
20 365 968
23 366 971
26 365 969
29 365 967
32 366 972
35 368 975
38 366 971
41 365 968
43 363 964
46 364 965
49 365 968
53 366 971
56 367 972
58 366 970
61 366 970
64 365 968
67 366 971
71 369 978
74 368 974
76 366 968
79 366 969
82 366 969
85 364 964
88 367 973
91 367 971
94 366 969
96 364 964
100 368 973
103 366 967
106 367 972
108 363 961
113 370 978
115 369 974
118 368 974
121 367 971
124 369 974
127 368 971
130 368 972
133 369 973
136 367 968
138 367 967
141 365 963
145 369 973
149 370 974
150 367 966
154 369 971
158 370 974
159 367 965
162 367 966
167 370 973
169 368 966
172 369 969
174 367 964
178 368 966
180 367 964
185 370 971
187 368 965
191 372 974
194 370 969
196 369 966
200 370 969
203 371 970
205 368 962
208 369 965
212 370 968
215 370 966
217 370 965
220 369 963
222 368 960
226 369 960
230 370 964
234 372 968
236 370 963
238 369 958
242 371 963
244 370 960
249 372 966
250 369 957
256 374 970
257 371 960
260 370 958
265 373 966
265 369 954
270 372 960
275 374 966
274 369 953
280 374 963
282 371 956
286 373 959
289 373 960
293 374 961
295 373 957
297 371 952
302 374 958
307 376 964
307 373 955
311 374 956
314 374 955
320 377 963
320 374 953
323 374 953
328 376 958
329 373 950
331 373 948
339 377 959
341 376 955
345 378 958
349 379 960
349 375 950
349 372 941
357 377 953
358 375 945
363 377 951
364 375 945
371 380 955
374 379 953
374 376 944
379 378 948
384 380 951
387 380 951
388 377 943
393 379 947
397 380 947
402 382 952
400 377 937
407 381 948
408 379 941
413 381 944
415 380 941
425 386 954
427 385 950
430 385 950
429 381 939
434 383 942
437 382 940
442 384 943
445 384 941
451 386 946
456 388 950
459 388 946
463 388 947
466 388 946
468 387 942
470 387 940
477 389 944
480 390 944
483 390 942
485 388 937
494 393 947
492 389 937
489 384 923
496 387 929
502 389 932
503 387 926
513 393 938
510 388 927
518 392 934
519 390 928
522 390 926
525 390 924
535 395 934
532 391 922
540 394 928
542 393 925
544 392 922
554 397 931
546 389 910
556 394 921
561 395 921
-518 373 840
-518 375 846
-512 373 844
-512 375 850
-505 372 844
-499 370 841
-499 372 848
-500 375 855
-496 374 856
-492 373 854
-490 374 859
-482 370 850
-480 371 855
-471 367 845
-470 367 849
-471 371 859
-467 369 857
-464 370 858
-456 365 850
-457 369 860
-459 372 869
-457 373 872
-455 374 877
-455 377 884
-455 379 890
-455 381 898
-452 381 898
-448 381 899
-446 381 901
-440 379 897
-439 381 904
-432 377 895
-428 376 895
-428 379 902
-421 375 895
-417 375 895
-418 378 904
-414 377 902
-408 374 898
-408 377 906
-401 373 897
-397 372 897
-398 375 906
-396 377 911
-394 378 914
-389 375 910
-391 380 922
-385 377 917
-382 377 917
-380 378 921
-378 380 926
-374 378 923
-371 379 925
-365 375 919
-358 371 909
-352 368 903
-351 370 909
-346 367 903
-345 370 910
-342 370 912
-338 369 910
-336 370 913
-331 367 907
-331 371 917
-325 367 908
-326 371 920
-323 371 920
-321 373 926
-317 371 923
-314 371 924
-311 371 924
-308 371 925
-305 371 926
-304 373 933
-300 372 931
-297 372 932
-296 374 937
-293 373 937
-288 371 933
-286 372 935
-280 369 928
-278 369 931
-278 373 942
-274 372 938
-271 372 940
-267 371 938
-264 370 936
-261 370 937
-258 370 939
-255 370 939
-252 370 940
-251 373 947
-247 372 945
-245 373 950
-240 369 940
-238 371 945
-236 372 949
-232 371 947
-229 371 946
-226 370 946
-222 369 944
-220 370 948
-217 370 948
-214 370 948
-211 369 947
-207 369 947
-204 367 943
-201 369 947
-198 368 947
-195 368 945
-192 366 943
-190 369 949
-186 367 945
-182 364 939
-181 369 952
-177 367 947
-174 366 946
-173 370 955
-169 367 949
-165 365 945
-162 366 947
-160 367 950
-157 367 951
-154 367 950
-151 366 950
-148 368 953
-144 364 944
-142 366 951
-140 367 953
-137 367 953
-133 365 950
-131 367 956
-127 365 951
-124 364 946
-122 366 953
-119 366 955
-116 367 957
-112 363 947
-112 371 968
-108 370 966
-102 360 938
-97 350 913
-90 335 875
-81 313 817
-79 313 817
-77 315 823
-72 305 795
-68 298 779
-66 302 790
-60 286 748
-59 292 763
-57 294 767
-55 294 768
-52 291 761
-49 287 751
-45 279 730
-46 295 771
-42 284 744
-39 278 727
-39 294 770
-37 295 773
-35 299 783
-30 284 742
-29 287 753
-26 281 735
-25 302 791
-22 295 773
-19 286 749
-18 301 790
-16 298 781
-14 320 841
-12 321 843
-10 332 872
-7 343 901
-5 355 932
-2 364 957
0 366 961
2 369 969
5 365 958
8 367 964
11 364 957
14 365 960
17 364 957
20 365 959
23 366 961
26 366 962
29 363 954
32 364 958
35 365 960
38 368 968
40 366 961
43 365 959
46 367 965
49 366 962
52 366 963
55 368 966
58 367 963
61 369 969
64 367 965
67 367 965
70 368 967
73 367 963
75 365 958
79 368 966
81 366 961
84 366 960
87 367 962
90 366 960
93 367 963
97 369 967
100 368 965
102 367 963
105 368 964
109 369 968
111 367 961
114 368 963
117 368 965
120 367 960
122 365 955
126 368 962
129 368 963
132 368 963
135 368 962
139 371 969
141 369 963
144 369 963
146 367 958
150 369 963
153 368 961
156 369 963
159 369 961
161 368 959
165 369 962
168 370 963
170 368 958
174 369 961
177 369 960
180 370 962
184 372 967
187 373 968
188 368 957
193 371 963
195 369 958
198 370 959
201 370 960
205 371 962
208 372 963
209 368 951
212 368 951
214 367 948
221 373 964
221 369 952
224 369 953
229 372 960
231 371 956
235 371 957
238 372 958
240 371 955
243 371 954
246 371 954
249 370 952
254 373 959
256 372 954
258 371 952
262 372 953
265 372 952
268 372 953
273 375 959
274 372 950
279 375 958
282 374 956
283 372 948
286 372 948
289 372 947
292 373 948
295 372 945
301 376 955
303 374 950
305 373 947
309 374 947
312 374 947
313 372 942
320 376 951
318 371 937
326 377 950
327 375 944
333 378 952
334 375 944
338 376 946
343 378 950
342 374 938
350 379 951
350 377 943
354 378 945
358 378 945
359 376 939
366 380 948
368 379 944
371 379 942
375 380 946
378 380 944
380 379 940
383 379 938
384 377 933
391 380 941
392 379 936
399 382 943
400 380 936
404 381 938
406 380 935
409 380 934
418 385 945
419 384 940
424 385 943
425 383 936
429 385 939
432 384 935
436 385 937
439 385 935
444 386 938
447 386 936
450 386 934
454 387 936
458 388 937
460 387 932
465 388 936
468 388 933
474 391 938
475 388 932
480 390 935
482 389 930
485 389 928
490 391 932
492 390 928
493 388 922
494 386 917
508 395 935
506 391 924
511 392 926
509 388 916
514 390 917
517 389 915
521 390 915
529 394 923
533 394 922
532 391 914
538 393 916
542 393 916
549 396 921
547 393 911
554 395 916
555 394 910
-517 375 837
-509 372 831
-504 370 829
-502 371 832
-506 376 845
-498 372 837
-495 372 840
-497 376 849
-494 375 850
-488 374 848
-486 374 850
-478 370 843
-476 371 846
-473 371 847
-469 369 846
-464 368 844
-462 369 847
-458 368 846
-453 366 844
-459 373 861
-456 373 864
-454 374 867
-457 379 879
-450 376 874
-452 380 884
-450 380 887
-452 384 898
-447 383 895
-446 384 900
-440 382 896
-439 383 901
-437 385 905
-432 383 902
-426 380 898
-420 378 893
-421 381 902
-412 376 891
-409 375 891
-406 375 892
-401 373 889
-400 375 895
-399 377 901
-398 379 906
-394 378 905
-393 379 909
-389 378 909
-386 378 909
-381 377 907
-378 377 907
-378 379 915
-377 382 922
-375 382 924
-369 379 919
-364 377 914
-356 372 903
-352 371 902
-349 371 902
-346 370 902
-340 367 896
-340 370 904
-337 371 906
-334 371 907
-331 370 906
-329 371 909
-324 368 905
-324 372 913
-323 374 920
-317 370 912
-316 373 919
-311 371 915
-309 372 918
-305 370 915
-303 371 918
-301 372 921
-298 372 922
-294 371 922
-294 374 931
-290 373 928
-288 374 930
-284 373 929
-280 371 926
-277 372 928
-276 374 935
-275 376 940
-267 370 925
-265 371 931
-261 370 928
-260 372 934
-257 372 935
-254 372 935
-251 372 935
-250 374 941
-246 373 939
-241 369 931
-237 368 929
-236 371 936
-233 371 937
-230 370 936
-228 372 940
-224 370 936
-221 370 938
-218 371 940
-215 370 938
-210 367 931
-208 367 934
-205 367 933
-204 371 943
-201 370 942
-196 367 935
-194 368 938
-191 368 938
-188 369 941
-185 367 938
-183 370 946
-179 368 940
-175 364 932
-173 367 939
-171 368 943
-167 366 937
-164 365 936
-162 368 943
-160 369 947
-156 369 946
-153 367 942
-151 369 948
-148 368 947
-143 365 939
-140 363 934
-138 365 941
-134 364 937
-132 365 939
-130 368 948
-126 363 937
-123 364 938
-120 363 937
-118 366 945
-115 366 945
-113 369 953
-111 371 959
-107 368 951
-102 360 931
-95 346 895
-93 350 907
-80 310 800
-78 312 808
-76 313 809
-72 308 798
-67 300 775
-62 286 739
-62 298 771
-58 290 750
-57 295 764
-54 290 750
-50 284 736
-47 278 719
-47 292 756
-45 291 755
-41 282 731
-39 286 741
-37 285 739
-34 279 722
-33 291 754
-30 280 725
-28 286 741
-27 297 772
-24 290 752
-23 302 784
-21 306 796
-18 306 796
-16 308 801
-14 321 834
-12 325 847
-9 328 854
-7 340 885
-5 353 920
-2 362 943
0 366 955
3 368 958
5 364 947
8 365 951
11 368 958
14 366 954
17 365 951
20 362 943
23 364 948
26 365 950
29 366 952
32 368 958
34 364 949
38 369 961
40 365 952
43 365 952
46 367 956
49 367 955
52 367 956
55 367 955
58 366 952
61 366 954
63 366 952
66 367 955
70 369 961
72 367 955
75 366 954
78 367 955
81 366 953
84 368 958
87 366 953
90 367 955
94 370 963
96 367 953
99 369 959
101 367 953
105 371 963
108 369 958
110 367 953
113 366 950
117 369 957
120 369 957
123 369 958
125 368 955
127 365 946
131 367 951
134 369 956
136 366 949
140 370 958
143 370 958
146 368 954
149 369 953
151 368 951
154 366 947
159 371 959
161 370 957
163 368 950
167 370 955
169 369 951
172 369 952
176 371 956
179 371 956
181 369 950
183 367 945
186 366 943
192 372 958
194 370 951
198 373 959
201 373 957
202 370 949
206 371 951
207 367 942
211 370 949
214 370 949
219 373 956
222 373 954
224 371 949
226 370 947
232 375 957
234 373 952
236 371 947
239 371 946
242 372 949
244 370 942
248 373 949
252 374 951
254 372 946
257 372 945
259 371 941
263 372 943
266 372 943
269 372 943
273 374 947
274 371 939
277 370 936
282 374 945
283 371 937
288 374 943
291 373 941
297 377 949
298 375 943
299 373 937
303 374 939
306 374 940
310 375 941
314 376 942
316 375 938
318 373 934
322 374 936
328 378 944
330 377 940
331 375 935
335 376 937
337 375 934
344 379 943
344 376 934
349 378 937
354 380 942
353 376 931
357 377 933
363 380 938
368 382 944
370 380 938
371 379 934
371 376 926
378 380 935
381 380 932
385 380 933
386 379 928
390 380 929
393 380 929
399 382 933
401 381 930
405 383 932
406 380 926
409 380 923
418 385 935
416 381 925
421 383 928
422 381 922
426 382 922
434 387 932
435 384 925
437 383 922
447 389 935
449 388 932
451 387 928
456 389 931
457 387 926
458 385 919
464 388 924
469 390 927
470 387 920
477 391 928
482 393 930
483 390 923
487 392 925
489 391 921
490 389 915
496 391 920
499 391 918
503 391 917
504 390 913
512 393 919
509 389 907
516 392 912
516 389 906
519 389 903
526 392 908
535 396 917
532 392 905
537 393 907
540 393 905
548 397 911
553 398 912
553 396 907
-506 371 819
-507 373 827
-499 370 820
-498 371 824
-500 374 833
-499 376 839
-496 375 839
-492 375 840
-491 376 845
-483 372 837
-483 375 844
-477 372 839
-472 371 838
-470 371 840
-467 371 842
-463 371 842
-461 371 844
-456 369 841
-459 374 854
-452 371 849
-453 374 857
-452 375 861
-452 378 869
-449 377 869
-449 380 876
-448 382 882
-444 380 881
-442 382 885
-441 383 890
-441 386 898
-436 384 894
-437 388 904
-430 384 897
-429 386 902
-420 380 891
-412 376 881
-410 376 884
-406 376 883
-402 375 884
-398 374 882
-395 373 882
-395 376 890
-394 378 896
-393 380 900
-391 381 905
-388 380 905
-384 380 904
-382 381 908
-376 377 901
-378 382 913
-374 381 912
-372 382 917
-366 380 911
-357 373 896
-351 370 889
-349 371 893
-345 369 890
-341 368 889
-340 371 895
-336 370 894
-333 369 893
-331 369 896
-329 371 901
-325 369 897
-324 371 903
-320 370 901
-319 372 907
-315 371 906
-312 371 907
-309 371 908
-306 371 909
-303 370 908
-300 371 909
-298 371 912
-296 373 917
-293 372 916
-291 373 919
-290 376 926
-286 375 925
-284 375 927
-280 374 926
-277 374 926
-273 373 923
-270 373 925
-267 373 924
-262 370 919
-260 371 922
-258 372 926
-254 370 921
-253 374 931
-250 372 928
-247 374 932
-243 371 926
-241 373 933
-238 373 933
-234 371 929
-230 369 925
-228 370 927
-226 371 931
-222 370 930
-220 371 933
-215 368 926
-214 371 933
-211 370 932
-208 371 935
-204 369 931
-202 370 933
-198 367 927
-196 369 932
-192 367 928
-191 372 940
-186 366 926
-184 368 932
-181 368 932
-177 367 930
-173 365 924
-172 367 931
-169 368 933
-165 365 927
-163 367 933
-160 366 929
-156 365 928
-154 367 934
-152 368 938
-148 366 933
-146 368 936
-143 366 933
-140 367 935
-137 367 936
-134 367 937
-131 367 937
-129 367 938
-125 364 930
-123 367 937
-120 367 937
-116 363 929
-114 367 940
-111 366 938
-110 372 954
-105 365 935
-100 359 919
-94 347 891
-84 321 821
-80 314 804
-76 306 784
-69 290 744
-68 295 755
-69 311 796
-64 299 767
-61 296 760
-59 295 756
-56 292 749
-54 291 748
-49 280 718
-49 293 753
-45 284 730
-44 288 739
-42 287 738
-38 281 721
-37 287 738
-35 288 740
-32 286 736
-31 290 746
-29 299 770
-26 291 748
-23 287 737
-22 294 757
-20 300 773
-17 287 738
-16 310 798
-13 292 751
-12 334 862
-9 327 844
-7 337 869
-5 352 909
-2 365 941
0 366 944
3 366 944
5 365 943
8 364 941
11 366 945
14 367 947
17 364 939
20 367 949
23 367 949
25 365 941
28 366 945
31 367 949
34 366 946
37 367 948
40 365 943
43 366 944
45 364 941
49 367 946
52 369 953
55 368 950
58 369 952
61 369 952
63 366 945
67 370 955
69 370 954
72 367 948
75 367 945
78 370 953
80 366 944
84 370 954
87 368 950
89 365 941
92 369 950
95 368 947
98 366 944
101 368 947
104 369 951
107 370 951
110 369 949
113 370 952
116 369 948
119 368 947
122 369 949
124 368 946
128 372 956
130 369 947
133 370 949
136 369 947
139 370 949
141 367 943
145 370 949
148 370 948
151 370 949
154 369 946
156 367 940
159 367 939
164 373 955
165 368 940
169 371 950
172 370 945
175 371 947
177 369 942
180 369 942
184 372 950
187 371 946
188 368 939
193 372 947
195 370 942
197 369 939
202 372 946
204 370 941
208 372 945
210 371 942
213 371 943
214 368 933
220 372 945
223 372 944
223 369 934
229 373 945
231 372 940
233 371 937
237 371 938
241 373 942
243 372 940
247 373 942
249 372 937
252 371 936
254 371 934
259 374 941
262 374 941
266 375 942
265 370 929
271 373 937
272 372 932
277 374 937
278 371 930
284 375 939
286 374 934
289 373 933
291 373 931
294 373 930
299 375 934
300 373 928
305 376 935
307 374 929
310 374 929
312 373 925
318 377 935
323 379 939
323 375 929
327 377 931
331 378 933
333 377 929
337 377 931
341 379 934
345 380 934
345 376 926
348 377 925
351 376 923
355 378 926
358 378 926
364 381 931
365 379 926
369 379 926
373 380 927
374 379 923
379 381 926
379 378 918
388 384 932
388 380 922
393 383 927
397 383 928
395 379 915
400 380 918
407 384 926
406 381 916
412 383 921
415 383 920
417 382 918
421 383 917
428 387 925
431 386 923
436 388 926
436 386 920
444 390 928
446 389 925
451 390 926
449 386 916
453 387 916
460 391 923
458 386 912
464 388 915
469 390 917
475 392 922
478 392 921
478 389 913
478 387 907
481 387 905
490 391 913
493 391 912
495 391 909
503 394 916
502 392 908
505 391 906
511 393 909
515 394 910
516 393 905
518 391 900
521 392 900
529 395 905
531 394 902
534 394 900
536 393 897
540 394 897
543 394 894
548 395 897
-504 372 814
-496 368 808
-499 372 818
-495 371 818
-492 371 820
-493 374 827
-496 379 839
-485 372 827
-485 375 833
-482 375 835
-477 373 833
-472 371 830
-464 367 823
-464 370 829
-463 371 834
-460 370 834
-455 369 833
-454 371 837
-454 372 843
-449 371 842
-448 373 846
-448 375 853
-446 376 856
-446 378 863
-445 380 869
-445 382 874
-445 385 883
-443 385 885
-442 387 890
-439 387 891
-438 389 898
-432 387 894
-427 384 890
-421 382 885
-419 383 889
-407 374 870
-402 372 865
-404 377 879
-398 374 873
-391 370 865
-393 374 876
-388 372 872
-392 379 889
-389 379 891
-388 381 896
-381 377 888
-380 379 894
-379 381 901
-375 380 899
-372 379 899
-369 380 901
-367 380 903
-360 376 895
-356 375 892
-351 373 889
-347 371 887
-343 370 885
-339 369 883
-339 372 890
-335 371 889
-332 371 890
-327 369 886
-326 370 891
-325 372 897
-320 370 893
-317 370 893
-315 371 897
-313 372 900
-310 371 899
-304 368 893
-304 372 902
-303 373 907
-299 372 905
-297 373 907
-295 374 911
-289 370 903
-288 372 909
-286 374 913
-282 373 912
-282 376 920
-277 374 916
-274 374 916
-272 375 920
-265 369 906
-265 373 917
-263 373 919
-257 369 909
-254 369 910
-252 371 915
-249 370 914
-248 373 922
-244 371 917
-240 370 915
-238 370 917
-235 371 920
-233 372 923
-227 367 912
-226 371 921
-223 370 918
-220 370 919
-217 370 921
-214 370 921
-211 369 919
-208 369 921
-206 369 922
-202 368 918
-199 367 917
-196 367 918
-194 370 925
-191 369 925
-188 369 925
-184 367 919
-182 367 920
-178 366 919
-177 369 925
-174 368 925
-170 367 924
-168 368 924
-165 367 924
-162 368 927
-160 369 929
-157 369 931
-154 368 929
-151 369 930
-148 368 928
-145 367 927
-142 366 926
-140 368 931
-136 368 930
-132 365 923
-129 364 920
-128 367 929
-125 366 928
-122 368 932
-119 366 928
-117 368 933
-113 367 932
-110 367 931
-110 373 948
-105 368 934
-99 358 910
-94 347 882
-88 337 857
-81 321 816
-73 300 761
-75 314 798
-71 309 786
-67 302 767
-62 290 738
-62 301 765
-60 305 776
-54 286 726
-53 292 742
-48 279 709
-49 295 752
-45 283 719
-43 287 732
-39 276 702
-38 281 715
-37 290 740
-34 286 729
-32 285 726
-30 290 738
-28 288 734
-26 294 749
-24 291 741
-21 290 740
-19 294 749
-17 289 738
-15 299 764
-13 306 782
-11 309 788
-9 330 843
-7 340 869
-5 361 925
-2 368 942
0 364 932
3 366 938
5 366 936
8 367 939
11 368 941
14 366 936
17 366 937
20 368 941
22 365 935
25 367 938
28 367 939
31 366 938
34 368 943
37 364 930
40 367 938
42 366 936
45 365 933
49 369 944
51 367 938
55 370 947
57 366 937
60 367 939
63 367 939
66 368 941
69 369 944
72 368 942
75 369 944
77 369 942
80 369 943
83 369 943
86 367 939
89 369 942
91 368 939
95 369 941
97 366 934
101 370 944
104 370 943
107 370 944
109 369 942
112 367 937
115 371 945
117 367 936
122 372 949
123 367 935
127 369 940
130 370 941
132 369 939
135 369 940
138 368 936
140 368 935
144 369 939
146 367 932
150 369 938
152 369 936
156 371 941
159 370 938
160 367 930
165 371 940
167 370 937
170 370 937
174 371 939
176 369 935
179 370 937
184 374 947
184 369 933
188 371 938
191 370 936
193 369 932
196 369 931
201 372 939
203 371 935
205 369 930
206 367 924
211 370 932
213 369 928
216 369 928
222 373 938
223 370 929
227 373 936
229 370 929
233 372 933
233 369 924
238 371 930
239 368 922
243 370 925
248 373 932
250 372 929
252 370 924
256 372 928
260 373 930
262 373 928
266 373 929
269 374 930
273 376 934
276 376 934
277 373 925
281 374 928
285 376 931
285 372 920
289 373 922
292 373 922
296 374 924
298 373 921
301 373 920
306 376 925
307 374 920
311 375 923
314 375 921
317 375 921
323 379 929
324 376 922
328 377 924
332 378 925
335 378 924
339 379 926
338 376 916
342 376 916
347 378 921
349 378 919
351 377 915
358 380 923
359 379 919
364 381 922
367 380 920
369 380 917
373 381 920
374 379 914
379 381 917
379 378 910
384 380 913
388 381 914
393 383 917
395 382 914
398 382 913
401 382 912
402 380 906
408 382 910
412 384 913
415 384 912
419 384 911
421 383 908
424 383 908
428 384 909
434 386 913
435 385 907
440 387 911
441 385 906
449 389 914
454 391 916
455 389 911
455 386 903
462 390 910
463 388 905
471 392 913
469 388 902
477 392 910
476 389 901
483 392 907
485 391 904
491 393 908
491 391 900
496 392 903
496 389 894
502 392 898
512 397 910
507 391 893
515 395 901
510 388 885
521 394 897
523 394 894
527 395 895
529 393 890
534 395 893
534 392 885
539 394 887
542 394 886
-500 372 807
-497 372 809
-495 372 811
-494 373 815
-492 374 818
-488 374 819
-491 378 830
-484 375 825
-485 377 832
-477 374 825
-472 372 822
-470 372 825
-469 374 830
-465 373 829
-458 370 824
-462 376 838
-455 372 831
-452 372 832
-448 371 832
-444 369 830
-447 374 843
-442 373 841
-444 376 850
-442 378 854
-444 382 866
-441 382 866
-441 384 872
-438 384 874
-436 385 878
-435 387 883
-430 385 880
-428 385 882
-423 384 880
-415 379 871
-412 379 872
-403 374 861
-402 375 866
-399 375 866
-396 375 868
-393 375 868
-393 378 876
-390 377 876
-386 376 874
-380 374 870
-384 379 885
-379 378 883
-381 383 896
-376 380 891
-373 381 893
-368 379 889
-366 379 891
-363 379 893
-358 377 888
-354 375 886
-347 372 878
-346 374 884
-342 372 882
-339 372 882
-337 373 884
-333 372 883
-328 369 878
-327 371 884
-324 371 885
-321 370 884
-320 373 891
-317 373 891
-314 372 891
-310 371 890
-306 370 888
-306 373 896
-303 373 896
-301 374 900
-296 372 896
-296 375 904
-291 373 900
-289 374 903
-287 375 906
-282 372 900
-280 373 903
-279 375 910
-275 374 908
-273 375 912
-268 372 906
-266 372 907
-263 373 910
-261 374 912
-258 374 912
-253 371 907
-250 371 907
-247 371 907
-245 371 908
-243 374 915
-237 368 903
-236 371 911
-234 372 915
-229 369 907
-227 370 911
-226 372 916
-222 370 913
-219 371 915
-216 370 913
-213 371 915
-209 369 912
-208 371 917
-205 371 918
-200 367 909
-198 368 912
-195 369 914
-193 370 917
-189 367 911
-186 368 915
-183 367 911
-181 370 919
-177 367 912
-175 369 918
-172 368 915
-170 370 923
-166 367 915
-163 367 915
-162 370 923
-158 367 916
-154 365 912
-152 368 920
-148 365 914
-147 368 921
-144 369 923
-141 367 920
-139 371 930
-135 368 922
-133 369 925
-130 368 923
-127 368 925
-124 366 920
-121 367 921
-118 366 919
-114 364 916
-112 366 921
-110 369 927
-108 371 933
-103 364 916
-98 355 893
-92 344 865
-87 335 843
-77 309 778
-74 305 768
-73 309 777
-68 300 754
-67 303 763
-60 286 721
-59 290 731
-58 295 744
-54 289 729
-52 287 723
-48 280 707
-46 280 705
-46 291 734
-44 294 741
-42 296 748
-38 286 723
-37 292 738
-35 293 739
-32 286 722
-29 279 704
-28 294 743
-26 296 749
-24 293 741
-23 308 778
-20 301 762
-18 308 779
-15 303 768
-13 303 767
-11 314 795
-9 331 838
-7 343 869
-5 354 897
-2 367 931
0 367 931
3 368 933
5 366 930
8 367 931
11 364 924
14 365 927
17 368 932
19 364 922
22 367 932
25 365 925
28 366 928
31 368 933
34 368 933
37 369 937
40 368 933
42 367 930
45 367 931
48 368 934
51 367 929
53 365 925
57 369 936
60 369 936
62 367 929
65 368 932
69 370 939
71 367 930
74 368 933
77 370 937
79 366 926
82 368 932
85 368 932
89 370 937
91 369 934
95 372 941
97 368 930
100 370 936
103 369 933
106 371 938
108 369 933
111 367 929
114 369 933
117 370 934
120 368 930
122 368 930
126 370 935
128 369 930
132 371 936
134 368 928
136 367 926
140 371 934
144 371 935
147 372 936
148 368 925
150 367 923
153 367 924
156 367 923
161 371 932
163 369 928
166 370 928
169 370 929
172 370 929
174 369 925
177 369 925
181 371 929
183 370 927
187 371 928
189 370 925
192 370 926
195 370 925
198 370 925
202 372 929
203 369 921
208 372 929
210 371 926
214 373 929
216 371 924
219 372 925
221 370 920
226 373 928
228 372 925
232 374 929
235 374 927
238 374 928
239 371 921
243 373 924
248 376 932
247 370 917
251 372 920
255 374 923
259 375 926
261 374 922
265 376 926
267 374 921
272 377 929
272 373 917
276 374 921
277 372 915
281 374 918
285 374 919
287 373 914
292 377 923
293 374 914
296 374 914
298 373 912
305 378 923
306 376 916
311 377 919
313 377 918
315 375 912
319 376 915
321 376 913
330 382 928
329 378 915
332 378 916
337 380 919
337 377 910
341 378 913
342 376 908
348 380 915
350 378 911
354 379 912
357 379 911
361 380 912
362 378 907
365 378 905
367 378 903
373 380 909
376 380 908
378 379 904
384 383 911
388 383 912
387 380 902
391 381 903
395 381 904
400 383 907
405 385 911
408 386 911
409 383 904
414 386 909
417 385 906
421 386 907
423 386 905
425 385 902
432 388 909
432 385 901
439 389 907
442 388 905
447 390 909
449 389 905
450 388 900
454 388 900
453 385 891
462 390 902
467 392 904
466 388 895
468 388 892
471 387 890
477 390 894
485 394 903
485 391 895
488 391 893
494 393 897
498 394 897
495 390 885
498 390 884
504 391 887
509 394 890
510 392 884
516 393 887
517 393 883
523 394 885
525 394 883
524 390 874
532 394 880
537 396 883
542 397 883
-492 369 792
-491 370 798
-492 373 804
-489 373 807
-488 374 811
-486 375 814
-482 374 814
-483 377 822
-478 375 819
-476 376 822
-467 371 812
-465 371 815
-463 372 818
-458 371 816
-457 372 820
-453 371 821
-454 374 829
-450 373 827
-445 371 825
-443 372 827
-438 370 826
-440 374 835
-437 374 837
-436 376 842
-437 379 850
-437 382 858
-432 380 855
-432 382 861
-432 384 868
-427 382 865
-423 381 864
-416 378 858
-415 379 862
-412 379 864
-409 379 864
-399 373 851
-403 379 866
-395 374 856
-391 373 856
-390 375 860
-391 378 870
-385 375 864
-381 375 864
-380 376 867
-377 376 868
-375 377 872
-377 382 884
-373 380 883
-369 379 881
-370 383 892
-362 378 881
-360 379 885
-356 378 883
-351 375 877
-347 374 876
-340 370 866
-337 370 867
-334 370 868
-330 368 866
-330 371 874
-328 372 877
-326 372 879
-321 371 876
-321 374 885
-314 369 874
-316 374 887
-310 371 881
-308 372 883
-303 369 877
-304 374 890
-300 372 887
-299 374 892
-295 373 890
-293 374 893
-288 372 890
-286 373 893
-284 374 896
-281 374 896
-282 378 908
-279 378 909
-274 375 902
-273 377 909
-268 374 903
-266 375 906
-261 373 900
-258 372 899
-255 372 900
-253 373 903
-248 371 899
-246 372 902
-244 373 905
-243 375 911
-239 374 908
-235 372 905
-234 374 912
-229 371 905
-228 374 912
-224 372 909
-220 370 905
-218 373 910
-214 370 905
-210 368 901
-209 372 910
-207 373 915
-203 370 907
-200 371 911
-197 370 909
-193 368 903
-190 367 902
-187 367 902
-186 371 912
-184 372 915
-179 368 906
-176 368 906
-176 373 920
-173 372 919
-169 371 916
-166 370 913
-163 370 915
-160 369 913
-158 371 917
-154 368 910
-152 369 915
-148 368 911
-146 368 913
-143 370 917
-141 370 918
-137 367 912
-135 369 916
-132 369 917
-129 370 919
-127 371 922
-123 367 914
-120 369 918
-112 352 877
-119 383 955
-113 373 930
-109 367 916
-107 370 923
-101 360 897
-96 350 874
-89 337 841
-87 338 844
-78 314 785
-77 320 799
-73 311 776
-72 319 796
-65 300 748
-61 292 730
-60 298 743
-57 294 735
-54 287 717
-53 295 737
-50 291 728
-47 285 711
-45 288 719
-43 291 727
-41 292 731
-39 293 734
-37 294 736
-35 294 736
-31 285 713
-30 292 731
-27 290 725
-25 286 716
-23 286 717
-21 288 722
-17 273 684
-17 291 730
-15 303 759
-13 315 790
-11 323 811
-9 332 834
-7 343 863
-5 356 896
-2 366 921
0 367 924
3 364 916
5 370 931
8 366 921
11 366 920
14 366 922
17 367 924
19 366 919
22 365 917
25 366 920
28 366 919
31 369 929
34 368 925
36 367 923
39 368 926
42 366 921
45 366 921
48 369 928
51 368 924
54 369 927
57 371 931
59 367 923
62 370 929
65 368 924
68 369 926
71 369 926
73 369 926
76 369 927
79 368 925
82 369 927
85 368 924
88 370 928
91 370 929
93 369 924
97 371 931
99 367 921
102 370 927
104 367 921
108 370 928
110 368 922
114 371 929
116 369 924
119 368 922
123 372 930
125 371 928
128 371 927
130 369 923
134 370 926
136 368 920
139 369 923
142 370 923
145 371 925
148 372 928
150 370 922
154 372 927
155 367 916
159 368 918
162 371 924
166 372 927
168 369 920
171 371 923
174 371 922
176 370 919
181 373 927
182 370 920
185 371 921
188 370 919
191 372 922
194 371 920
197 371 919
199 369 913
203 372 922
206 372 920
210 373 923
213 373 923
216 374 923
218 373 920
220 372 918
222 370 913
227 374 922
230 373 918
231 370 911
234 371 913
237 371 911
241 372 915
244 372 914
246 372 913
250 373 914
254 375 920
255 372 909
259 374 914
261 373 911
265 373 912
268 374 914
270 373 910
273 374 911
277 375 914
279 374 909
282 374 909
286 375 912
289 375 910
293 377 914
295 375 909
297 374 904
299 373 903
305 376 910
308 377 912
311 376 908
316 379 914
315 375 903
321 378 910
322 377 905
325 376 904
328 377 904
332 378 906
335 377 904
337 377 902
342 379 906
345 379 904
349 380 907
349 377 897
353 378 901
358 380 904
362 381 906
364 380 902
370 384 909
369 379 898
372 379 897
377 381 901
378 380 896
383 381 899
385 380 895
388 380 894
393 382 897
398 385 902
398 382 895
403 384 897
404 382 893
409 383 895
411 383 893
416 384 895
420 385 896
424 386 897
428 388 899
433 389 901
438 391 904
439 389 899
443 390 899
450 394 907
450 390 898
447 386 886
453 388 891
457 389 891
461 390 892
462 388 886
468 390 890
472 391 890
476 392 891
478 391 888
473 384 871
485 392 886
489 393 887
488 389 878
494 392 882
499 393 884
501 392 880
508 395 886
510 395 883
512 394 880
514 393 876
518 394 876
518 392 870
524 393 872
532 397 879
532 395 873
536 396 873
-494 373 794
-491 373 797
-488 373 797
-486 373 800
-482 372 799
-483 375 807
-479 374 806
-479 377 813
-476 377 815
-472 375 814
-467 374 812
-461 371 807
-461 373 814
-455 371 809
-453 372 813
-454 375 821
-448 372 816
-443 370 813
-438 369 811
-442 374 824
-438 373 824
-439 376 833
-432 373 827
-433 376 834
-437 381 848
-432 380 847
-432 382 854
-431 384 858
-428 384 860
-422 381 854
-416 379 850
-412 377 849
-408 376 846
-406 377 850
-405 378 855
-400 376 851
-394 373 846
-393 375 850
-392 377 857
-390 378 860
-388 379 863
-383 376 859
-381 377 862
-378 377 864
-375 377 863
-375 380 871
-374 381 876
-373 383 881
-368 382 879
-365 381 878
-361 380 877
-357 379 876
-355 380 879
-349 376 872
-342 372 864
-339 372 864
-336 371 864
-334 372 867
-330 371 865
-328 372 867
-327 373 872
-324 373 873
-319 371 869
-319 374 877
-311 368 864
-313 373 877
-309 372 875
-305 371 875
-304 373 880
-301 373 880
-301 376 889
-296 374 884
-291 370 876
-289 372 883
-287 374 886
-285 374 888
-282 374 889
-280 374 890
-276 373 888
-273 373 889
-269 371 886
-267 373 891
-266 374 895
-261 372 890
-260 374 896
-257 374 896
-253 372 893
-250 372 893
-248 374 898
-245 373 897
-243 374 899
-239 372 896
-236 373 898
-232 371 894
-230 372 898
-227 372 898
-226 373 903
-221 370 896
-220 373 903
-215 370 896
-215 375 908
-211 372 903
-206 369 896
-205 372 903
-202 372 904
-199 372 905
-196 370 901
-192 369 900
-189 369 899
-187 369 900
-184 370 904
-180 367 897
-179 371 905
-177 372 908
-173 370 905
-172 373 912
-168 370 906
-164 367 900
-163 372 912
-158 368 903
-159 377 924
-154 370 909
-151 370 908
-148 370 910
-146 372 915
-142 369 909
-140 371 912
-137 372 915
-134 371 914
-131 368 908
-127 367 905
-125 368 908
-122 368 908
-120 370 912
-116 367 906
-114 367 907
-112 372 920
-107 364 900
-105 368 911
-99 357 883
-96 354 875
-88 337 833
-81 320 791
-76 307 759
-74 311 768
-70 301 745
-68 302 748
-66 307 760
-64 305 755
-59 295 730
-57 294 727
-54 290 718
-52 293 725
-49 288 713
-47 287 711
-44 285 706
-42 286 709
-40 288 714
-38 288 713
-36 290 720
-34 291 723
-32 294 731
-29 284 706
-28 292 725
-25 285 707
-24 304 756
-21 290 721
-19 299 744
-17 300 745
-15 299 744
-13 316 785
-11 315 782
-9 330 821
-7 344 856
-4 354 882
-2 362 901
0 365 911
3 367 914
5 368 917
8 368 917
11 367 914
14 371 925
17 369 921
19 367 915
22 366 912
25 368 916
28 364 907
31 367 914
33 368 916
36 366 913
39 369 921
42 368 917
45 370 922
48 369 919
50 368 918
53 366 912
56 367 914
59 367 915
61 367 915
64 367 915
67 368 916
70 368 917
73 368 916
76 370 922
78 366 912
81 367 913
85 371 923
87 370 920
90 369 917
93 369 919
96 370 920
99 371 923
101 370 920
104 370 918
106 367 912
110 369 916
112 369 916
116 372 924
118 368 913
121 369 914
124 370 918
126 367 909
130 372 921
133 371 920
136 373 923
139 371 919
141 370 917
144 370 916
147 370 914
149 370 915
152 370 914
156 372 918
159 371 917
162 372 918
164 370 913
167 371 916
171 373 919
172 370 911
176 371 915
179 372 915
181 372 915
184 371 914
186 370 911
191 373 918
192 370 910
195 371 911
199 373 916
202 372 913
205 373 914
208 372 912
210 371 910
213 372 910
216 372 910
220 375 916
222 373 911
224 371 906
228 373 911
231 373 910
234 374 911
237 374 912
238 371 904
242 373 907
245 372 905
247 372 903
252 374 909
254 373 906
257 373 905
260 373 905
264 375 908
265 373 901
272 378 914
275 378 913
276 375 906
278 374 902
283 378 910
283 374 900
285 373 896
288 373 896
294 377 905
298 379 908
297 374 896
303 378 905
307 378 905
309 377 902
313 379 906
315 377 900
319 379 905
321 377 899
324 378 899
325 376 894
329 377 896
334 379 901
334 376 892
339 378 896
341 377 893
347 381 901
347 378 892
352 380 896
354 379 892
356 377 889
363 382 899
362 378 887
368 381 894
372 382 895
373 380 890
380 384 899
378 379 886
384 383 893
384 380 885
389 382 888
395 384 894
396 383 889
400 384 890
404 385 892
408 385 891
411 385 890
414 386 891
414 383 883
421 386 889
422 385 884
428 388 890
433 390 893
438 392 896
440 391 893
442 389 888
443 388 883
447 388 883
449 388 881
455 390 885
459 391 886
460 389 880
464 390 882
466 389 879
467 387 872
473 390 877
476 390 875
481 392 878
485 393 879
487 392 876
488 390 870
496 394 878
498 393 874
501 393 873
503 392 870
507 393 870
511 394 870
512 392 864
520 396 871
518 392 861
525 395 867
532 398 871
534 397 868
-491 374 790
-486 372 786
-485 373 791
-479 371 787
-478 372 792
-474 371 791
-474 374 798
-473 375 803
-476 379 813
-466 373 802
-463 373 803
-462 375 808
-459 375 810
-452 371 803
-449 371 804
-446 370 804
-446 373 811
-443 373 813
-439 372 811
-436 371 812
-436 374 818
-435 376 825
-432 376 825
-431 377 830
-429 377 831
-431 382 844
-430 384 849
-430 386 854
-424 383 851
-422 384 854
-413 379 843
-411 379 844
-408 379 845
-402 376 841
-402 378 847
-395 374 839
-393 375 842
-391 376 845
-387 375 844
-388 378 853
-382 376 849
-380 377 852
-381 380 860
-375 377 854
-394 399 907
-374 381 867
-369 380 865
-366 379 864
-365 381 871
-359 378 865
-358 380 869
-355 379 869
-350 377 865
-345 374 860
-341 374 859
-336 372 856
-334 372 857
-333 374 863
-330 374 864
-326 373 862
-322 371 860
-320 372 863
-317 371 861
-315 372 865
-311 371 864
-310 373 870
-306 372 867
-305 373 871
-303 375 875
-300 374 876
-296 373 874
-294 374 876
-291 374 878
-287 373 875
-285 373 878
-283 375 881
-282 376 886
-278 375 883
-275 375 885
-271 373 882
-269 374 884
-266 374 886
-264 375 888
-258 371 878
-259 376 892
-255 375 890
-251 372 884
-250 374 891
-245 372 886
-243 372 887
-241 374 892
-238 373 891
-237 376 899
-232 373 891
-229 374 894
-226 373 894
-224 373 894
-221 373 894
-218 374 897
-215 374 897
-212 373 896
-211 375 902
-206 371 893
-204 372 896
-200 371 894
-196 369 889
-195 372 898
-191 371 894
-189 372 898
-186 370 895
-183 370 895
-180 370 896
-177 369 894
-174 369 893
-172 370 897
-169 370 899
-165 367 892
-164 370 899
-161 370 900
-158 371 902
-155 371 902
-153 371 904
-150 370 902
-147 371 905
-145 371 905
-142 371 905
-140 374 912
-136 372 908
-134 372 909
-130 369 902
-127 370 903
-124 368 901
-122 371 907
-119 370 904
-115 367 899
-114 371 908
-112 373 913
-108 371 908
-106 372 911
-99 359 881
-94 350 859
-85 328 804
-80 318 781
-77 313 768
-76 319 782
-69 301 739
-67 301 737
-65 301 739
-62 298 732
-59 299 734
-56 291 715
-55 298 731
-51 289 710
-47 280 688
-47 293 720
-45 293 719
-42 287 705
-40 288 708
-36 279 687
-34 275 676
-33 287 706
-32 295 727
-29 291 716
-27 293 720
-24 280 690
-24 304 749
-21 294 725
-20 307 756
-16 293 722
-15 313 771
-14 326 805
-10 306 755
-9 328 809
-7 344 850
-4 355 876
-2 364 898
0 370 914
3 367 907
5 368 909
8 367 907
11 365 903
14 367 907
17 369 913
19 369 912
22 370 915
25 368 909
28 370 914
30 368 910
33 369 912
36 369 911
39 368 910
42 367 908
44 369 912
47 368 910
50 370 913
53 368 908
56 368 909
58 368 910
61 368 909
64 369 912
67 368 908
70 369 910
72 369 911
76 371 915
78 370 912
81 371 915
84 369 910
87 369 911
89 369 909
92 370 912
96 373 920
98 370 911
101 371 913
103 369 909
106 368 907
109 369 909
112 369 909
115 370 911
118 372 914
121 371 913
123 370 910
126 369 907
129 370 908
131 370 908
135 372 913
137 370 909
140 370 908
144 373 915
146 371 911
149 371 910
152 371 909
154 370 907
158 373 912
160 371 908
163 370 906
166 371 907
170 373 913
171 370 905
173 369 901
179 374 914
181 373 911
183 373 909
187 374 911
187 369 898
190 370 900
195 374 910
198 373 908
201 373 908
203 373 905
208 375 912
208 371 900
212 373 905
214 372 903
217 371 900
222 376 910
223 373 903
225 371 898
228 372 899
234 377 911
233 371 896
237 372 899
241 374 901
244 375 903
246 372 896
248 372 896
254 376 903
256 374 899
259 375 901
261 374 897
265 375 899
266 374 895
270 375 897
273 375 897
277 376 899
279 376 897
283 376 897
285 375 894
289 377 897
290 375 893
295 377 897
297 376 893
302 379 899
304 378 897
304 374 888
310 378 895
312 377 893
317 379 896
320 379 896
322 378 892
324 378 891
328 379 892
331 378 890
335 381 894
336 378 887
339 378 886
342 378 886
348 382 894
349 380 888
352 380 887
356 380 887
359 381 887
360 379 882
367 383 890
369 382 887
368 379 878
377 385 891
381 386 893
381 383 884
384 382 883
387 383 883
390 382 880
397 386 889
397 384 883
402 386 885
405 386 884
410 388 888
411 386 883
416 388 885
421 389 888
422 388 883
425 387 881
429 389 883
434 390 885
434 388 878
437 388 877
438 387 873
445 389 878
448 390 878
451 390 877
449 386 866
457 389 873
459 388 870
461 388 867
468 392 874
467 388 864
474 391 870
476 391 868
483 394 873
486 394 872
490 394 872
491 393 867
495 394 868
495 392 862
497 391 858
505 394 865
509 395 864
508 392 856
513 394 859
517 394 859
521 395 859
527 398 863
527 395 856
-485 372 778
-482 372 780
-477 370 776
-478 373 785
-475 372 785
-473 373 789
-473 375 794
-473 377 801
-473 380 807
-465 376 800
-463 377 803
-459 375 801
-452 372 795
-450 372 798
-444 369 794
-445 373 802
-441 371 801
-437 371 801
-439 374 810
-437 375 812
-430 372 808
-430 374 813
-428 375 816
-427 376 820
-429 381 832
-429 383 838
-427 384 842
-427 386 848
-419 382 840
-414 379 835
-416 384 847
-408 379 838
-407 380 842
-399 376 834
-398 378 839
-393 376 835
-391 376 837
-389 377 841
-388 379 847
-382 376 841
-379 375 840
-376 376 842
-357 359 805
-373 378 850
-371 379 852
-370 380 857
-368 381 860
-363 379 858
-362 381 862
-359 381 863
-358 382 867
-352 380 862
-349 379 861
-345 378 860
-339 374 853
-337 375 855
-334 374 855
-330 373 854
-326 372 852
-325 374 858
-322 373 857
-319 374 859
-314 371 854
-315 375 864
-311 374 863
-308 374 862
-303 371 858
-301 372 860
-301 375 868
-299 376 872
-294 374 868
-292 374 870
-289 374 870
-286 373 869
-283 373 870
-281 374 873
-279 376 877
-275 374 874
-274 377 881
-271 376 880
-268 376 882
-265 375 880
-262 376 882
-259 374 879
-257 376 883
-253 374 880
-251 375 884
-249 376 886
-246 376 888
-242 374 884
-239 374 884
-236 373 883
-234 375 888
-230 373 884
-229 376 892
-224 372 883
-223 374 889
-221 376 894
-218 376 894
-213 373 887
-212 376 895
-208 373 888
-207 375 896
-202 373 890
-199 371 886
-195 370 884
-195 374 894
-191 372 889
-189 373 894
-185 372 891
-182 372 892
-179 370 888
-177 371 892
-174 372 893
-170 370 889
-168 372 894
-165 370 891
-163 371 894
-160 372 896
-158 373 898
-155 372 896
-152 372 896
-148 369 891
-146 372 898
-144 373 901
-141 372 898
-138 371 898
-135 371 898
-132 371 899
-130 371 899
-127 371 900
-124 370 897
-120 369 895
-117 368 892
-116 373 905
-115 376 914
-115 386 939
-109 376 914
-103 367 893
-97 355 863
-93 348 845
-86 335 813
-80 321 781
-73 301 731
-73 312 757
-69 303 736
-65 294 715
-61 288 701
-61 298 726
-59 298 724
-56 298 724
-52 286 697
-51 294 716
-50 299 728
-46 290 707
-44 287 698
-41 286 696
-40 292 713
-37 287 701
-34 280 682
-32 281 685
-32 293 716
-28 284 694
-26 284 693
-25 292 713
-22 281 686
-20 284 693
-18 289 707
-17 310 757
-14 300 733
-13 318 777
-11 329 804
-9 333 815
-7 343 840
-4 353 865
-2 360 882
0 366 898
3 368 900
5 367 898
8 368 901
11 368 902
14 367 900
16 369 904
19 368 901
22 368 902
25 370 905
28 368 901
30 370 907
33 367 900
36 369 905
39 370 906
41 369 905
44 369 903
47 370 906
50 370 906
52 369 903
55 368 902
58 372 910
61 371 908
64 371 908
66 368 901
69 368 900
72 369 903
75 370 904
78 369 903
80 370 904
83 369 902
86 368 900
89 372 910
92 370 903
95 372 909
97 370 905
100 370 904
103 371 905
105 367 896
108 371 905
111 370 903
114 370 903
117 370 903
120 371 904
123 371 904
126 373 908
128 372 906
131 370 901
134 371 903
136 370 901
139 371 902
142 371 903
144 370 899
147 369 898
151 371 902
154 374 908
156 370 897
158 370 897
162 373 904
164 369 895
168 372 903
171 373 903
173 371 899
177 375 907
178 370 894
183 374 903
185 373 902
187 370 894
190 371 897
193 371 896
197 374 902
200 375 903
201 372 895
204 372 896
208 373 898
211 375 901
213 373 896
215 372 893
219 373 895
221 372 893
225 373 894
228 374 895
230 372 891
235 376 899
236 373 891
237 371 887
242 374 893
243 370 884
247 373 889
251 375 893
255 376 896
255 372 884
260 375 893
262 374 889
267 377 896
266 372 883
272 376 892
272 373 883
276 374 885
281 377 892
284 376 889
288 379 895
288 375 884
292 376 887
293 374 881
297 375 883
301 377 887
305 378 888
308 379 889
310 378 886
315 380 890
316 377 883
321 380 889
322 378 884
324 377 880
329 379 884
