VERSION 0.7
FIELDS x y z
SIZE 4 4 4
TYPE I I I
COUNT 1 1 1
WIDTH 3536
HEIGHT 1
VIEWPOINT 0.0 0.0 0.0 1.0 0.0 0.0 0.0
POINTS 3536
DATA ascii
118 821 2426
125 818 2417
131 807 2385
137 805 2377
139 776 2293
153 812 2399
161 815 2406
172 834 2464
183 851 2514
186 830 2451
185 794 2345
193 799 2358
203 810 2392
211 814 2403
219 816 2407
230 831 2453
237 831 2450
245 832 2454
251 826 2435
258 824 2430
266 828 2442
273 826 2433
282 832 2450
287 824 2427
294 823 2423
302 825 2428
308 821 2415
315 820 2412
321 817 2402
327 815 2398
333 812 2388
341 814 2392
349 814 2393
355 813 2388
361 809 2374
369 812 2385
374 807 2369
383 811 2378
388 806 2363
405 825 2418
408 818 2397
416 818 2397
417 807 2363
425 808 2366
431 806 2359
440 808 2363
446 807 2359
453 807 2358
460 806 2353
458 791 2308
471 801 2337
482 807 2354
488 805 2348
493 801 2334
501 803 2339
510 806 2345
515 803 2335
521 800 2328
529 802 2332
536 801 2326
544 802 2329
550 801 2325
558 803 2328
566 803 2328
573 803 2327
579 801 2321
586 801 2318
592 799 2311
596 796 2300
598 788 2278
606 790 2280
617 794 2292
626 797 2298
634 798 2300
642 799 2301
648 798 2297
656 799 2297
663 799 2296
672 801 2301
683 806 2312
679 793 2273
666 770 2205
666 761 2180
677 767 2193
670 751 2146
693 769 2196
709 779 2224
720 783 2234
732 788 2247
741 790 2251
751 794 2259
755 790 2247
758 787 2234
758 779 2209
748 762 2159
731 738 2090
750 750 2123
767 760 2148
792 778 2198
811 790 2229
818 789 2225
821 786 2214
823 781 2199
823 775 2177
838 781 2195
851 788 2210
862 791 2218
876 797 2232
876 791 2213
879 787 2199
891 791 2208
888 782 2182
895 782 2179
899 780 2170
913 786 2185
922 788 2187
926 785 2177
935 787 2179
945 789 2182
947 785 2169
956 786 2170
965 788 2173
981 795 2190
986 794 2182
983 785 2157
1008 799 2193
1018 802 2197
1028 804 2200
1036 804 2198
1042 804 2193
1040 797 2171
1035 787 2142
1037 783 2128
1022 767 2081
1009 752 2038
875 647 1751
759 558 1506
715 522 1407
716 519 1397
717 517 1388
723 518 1388
774 550 1474
894 632 1692
933 655 1752
938 655 1748
943 654 1743
949 654 1742
965 661 1758
963 656 1740
963 652 1726
974 655 1733
972 650 1715
987 656 1730
991 655 1723
995 654 1717
1003 655 1718
1002 650 1702
1012 653 1706
1019 654 1707
-1394 911 2292
-1385 910 2294
-1372 906 2289
-1350 897 2271
-1339 895 2270
-1329 893 2269
-1323 894 2276
-1309 890 2270
-1298 888 2268
-1281 881 2255
-1276 884 2265
-1261 878 2255
-1260 882 2270
-1231 868 2236
-1230 872 2251
-1227 875 2262
-1218 874 2264
-1199 866 2246
-1192 866 2250
-1176 860 2238
-1175 864 2253
-1158 857 2238
-1148 856 2238
-1133 850 2227
-1126 850 2230
-1118 849 2232
-1108 848 2230
-1092 841 2216
-1082 839 2214
-1069 834 2204
-1033 812 2149
-980 775 2055
-956 762 2021
-949 762 2024
-956 772 2056
-952 775 2065
-951 779 2079
-944 779 2082
-941 782 2093
-944 790 2117
-963 811 2178
-967 821 2206
-960 821 2211
-951 819 2207
-949 824 2223
-948 829 2241
-942 830 2246
-938 833 2257
-930 833 2258
-933 841 2285
-928 843 2294
-918 841 2289
-909 840 2288
-905 842 2297
-905 849 2320
-893 845 2311
-893 851 2331
-885 851 2332
-879 852 2340
-871 852 2341
-866 853 2348
-858 853 2349
-857 860 2370
-845 855 2361
-840 857 2368
-832 857 2369
-826 859 2377
-818 857 2376
-810 857 2378
-805 859 2386
-797 859 2387
-794 864 2405
-785 862 2401
-778 862 2404
-774 867 2419
-762 861 2404
-755 862 2409
-750 865 2420
-744 867 2428
-733 862 2416
-726 863 2422
-722 867 2434
-712 864 2428
-706 866 2435
-699 867 2441
-688 862 2427
-673 853 2406
-665 852 2404
-663 859 2426
-657 860 2431
-653 865 2447
-648 869 2460
-644 874 2475
-635 871 2470
-629 874 2479
-619 870 2471
-603 859 2440
-589 848 2412
-570 831 2365
-552 817 2325
-537 804 2289
-525 797 2272
-509 783 2232
-498 776 2214
-488 771 2201
-478 766 2189
-467 759 2170
-456 752 2150
-448 750 2145
-439 745 2132
-431 742 2127
-422 738 2117
-414 735 2108
-417 753 2161
-404 741 2128
-395 735 2111
-379 718 2064
-386 743 2136
-379 741 2134
-375 746 2148
-378 765 2203
-379 782 2253
-373 783 2258
-358 765 2207
-379 825 2383
-343 762 2201
-339 767 2216
-342 789 2280
-329 775 2241
-319 769 2224
-299 736 2131
-280 705 2041
-275 707 2048
-276 726 2102
-267 720 2085
-259 715 2073
-253 715 2072
-261 755 2189
-259 769 2233
-252 768 2231
-239 749 2176
-236 759 2205
-235 776 2256
-223 759 2206
-227 796 2316
-206 746 2170
-201 752 2188
-194 749 2181
-190 759 2211
-179 744 2167
-171 737 2145
-161 723 2105
-159 740 2155
-170 826 2407
-177 893 2606
-167 882 2575
-160 885 2584
-147 855 2495
-132 812 2371
-128 831 2427
-118 814 2376
-106 775 2264
-100 784 2289
-92 774 2262
-88 799 2334
-80 791 2312
-72 775 2265
-65 781 2281
-58 772 2257
-49 750 2191
-42 736 2151
-36 740 2163
-29 741 2165
-23 748 2186
-17 759 2218
-10 737 2155
-3 731 2137
2 739 2160
9 741 2169
15 753 2203
22 775 2267
30 797 2333
38 827 2420
47 850 2488
54 854 2499
62 856 2505
70 858 2513
77 852 2495
83 844 2470
88 820 2399
98 845 2473
106 847 2480
110 822 2404
121 848 2482
128 845 2471
132 825 2413
133 785 2295
139 781 2284
151 806 2357
160 818 2392
169 825 2413
183 857 2506
184 829 2424
189 818 2391
194 809 2364
204 820 2396
211 820 2397
213 802 2344
225 820 2396
238 839 2449
246 842 2459
254 844 2463
261 844 2462
269 845 2467
276 844 2464
284 845 2467
289 838 2443
297 839 2446
302 834 2431
310 835 2433
317 833 2426
323 831 2421
330 829 2414
337 828 2411
345 829 2413
351 827 2406
358 826 2402
363 822 2389
370 822 2389
376 818 2377
385 822 2389
391 819 2378
397 816 2369
404 815 2366
412 817 2371
417 813 2359
425 815 2363
431 813 2357
438 812 2351
446 814 2356
452 812 2348
459 811 2347
460 801 2316
468 802 2319
481 812 2346
486 808 2334
493 808 2331
501 810 2337
509 811 2339
514 808 2328
522 810 2332
530 810 2331
538 811 2334
547 814 2341
552 811 2330
556 806 2316
565 809 2323
570 806 2314
576 805 2308
583 805 2306
588 801 2295
597 804 2300
597 794 2273
605 795 2274
618 803 2295
627 806 2301
633 804 2295
639 803 2290
651 808 2304
650 799 2274
651 791 2252
657 791 2248
663 789 2241
663 781 2217
667 777 2204
671 773 2193
679 776 2197
683 772 2186
697 780 2205
715 792 2240
723 793 2240
730 794 2239
739 795 2243
747 796 2243
751 794 2233
750 785 2207
725 751 2111
711 731 2051
719 732 2053
732 738 2067
752 751 2103
790 783 2190
810 795 2223
822 800 2235
819 791 2205
809 774 2157
808 767 2136
835 786 2185
853 797 2213
866 802 2225
873 802 2223
875 797 2208
880 795 2200
885 793 2191
885 787 2172
884 780 2151
895 784 2158
911 791 2176
920 793 2180
930 795 2183
939 797 2186
942 793 2173
949 794 2171
956 794 2169
975 803 2193
971 794 2165
981 796 2168
989 797 2169
991 793 2153
1024 813 2206
1029 812 2199
1036 812 2197
1041 810 2189
1038 802 2163
1034 793 2137
1035 789 2123
1018 771 2071
996 749 2008
832 621 1663
739 548 1463
705 519 1385
734 537 1431
730 530 1411
734 530 1408
789 566 1502
896 639 1693
931 660 1746
939 661 1747
949 664 1752
953 663 1747
966 668 1757
960 659 1732
964 658 1725
972 660 1727
978 660 1725
991 664 1734
992 661 1723
992 657 1710
1010 665 1728
1005 658 1706
1021 665 1720
1017 658 1701
-1396 920 2292
-1383 917 2288
-1372 914 2287
-1349 904 2267
-1346 907 2278
-1334 905 2276
-1326 904 2279
-1316 902 2278
-1302 899 2273
-1287 893 2263
-1267 885 2246
-1263 887 2256
-1250 883 2250
-1256 893 2277
-1233 882 2254
-1228 883 2262
-1214 879 2254
-1195 871 2237
-1195 876 2253
-1181 871 2246
-1167 866 2237
-1156 864 2233
-1154 868 2247
-1144 866 2245
-1126 858 2228
-1123 861 2239
-1105 853 2222
-1098 853 2227
-1082 846 2212
-1080 850 2225
-1050 833 2182
-994 793 2082
-958 770 2024
-950 769 2023
-951 775 2042
-952 781 2062
-952 787 2080
-947 788 2086
-942 790 2093
-948 801 2125
-953 810 2154
-963 825 2196
-962 830 2212
-956 831 2217
-948 830 2219
-944 833 2229
-944 839 2249
-938 840 2255
-937 846 2273
-931 847 2277
-928 851 2291
-921 851 2295
-908 846 2283
-895 841 2272
-892 844 2284
-893 852 2308
-886 852 2312
-878 852 2312
-875 856 2326
-865 853 2321
-859 855 2329
-853 856 2335
-843 853 2329
-839 856 2340
-830 855 2340
-826 858 2350
-817 857 2349
-812 859 2357
-807 862 2368
-796 858 2359
-793 862 2374
-785 861 2373
-778 862 2378
-770 862 2379
-767 866 2393
-756 862 2383
-749 863 2388
-741 862 2390
-737 866 2402
-727 863 2395
-723 867 2408
-713 864 2403
-706 864 2405
-698 863 2404
-686 858 2391
-673 851 2374
-652 834 2328
-633 819 2288
-611 799 2233
-600 793 2219
-594 794 2224
-584 790 2215
-576 788 2210
-566 784 2200
-553 775 2177
-544 772 2169
-535 768 2161
-524 762 2145
-514 758 2134
-506 755 2128
-495 748 2110
-488 747 2107
-478 742 2094
-468 736 2080
-460 734 2076
-458 741 2096
-447 734 2076
-443 736 2086
-434 733 2078
-429 735 2085
-424 737 2091
-419 740 2100
-412 738 2098
-411 747 2124
-406 751 2136
-399 750 2134
-399 761 2167
-385 747 2128
-380 750 2138
-376 755 2152
-377 770 2196
-376 782 2233
-372 787 2249
-356 768 2194
-356 784 2240
-345 772 2208
-346 790 2262
-336 783 2242
-327 778 2227
-310 754 2161
-292 724 2075
-283 718 2059
-272 707 2027
-271 720 2066
-269 731 2099
-256 711 2042
-249 709 2035
-245 715 2054
-264 791 2274
-255 785 2257
0 0 0
-245 796 2292
-221 739 2126
-222 763 2196
-216 767 2209
-208 761 2193
-198 750 2161
-189 738 2127
-181 734 2117
-174 731 2107
-167 724 2090
-159 719 2075
-153 719 2075
-153 752 2171
-167 853 2465
-161 860 2484
-140 784 2267
-124 734 2121
-115 715 2066
-114 753 2176
-111 771 2229
-104 774 2240
-97 772 2232
-92 782 2261
-85 780 2256
-79 787 2277
-71 779 2255
-65 779 2255
-57 772 2236
-49 752 2178
-42 749 2168
-36 757 2193
-31 786 2277
-26 830 2406
-19 836 2421
-11 783 2269
-3 743 2152
2 737 2135
9 742 2150
15 743 2152
22 747 2166
28 753 2182
36 769 2229
44 801 2321
53 834 2417
61 852 2471
69 852 2470
77 857 2485
83 849 2462
90 842 2439
95 825 2390
102 825 2391
110 825 2392
116 819 2374
123 820 2375
132 830 2406
128 763 2209
132 745 2158
135 728 2109
153 790 2287
170 837 2426
176 835 2418
181 825 2388
192 840 2433
202 850 2460
206 837 2424
216 848 2454
218 826 2389
220 806 2333
233 829 2399
244 843 2437
255 854 2469
263 855 2473
269 851 2460
276 849 2453
283 850 2457
290 848 2450
297 847 2445
304 845 2439
310 843 2433
317 840 2424
326 846 2440
332 842 2429
340 843 2430
347 842 2427
354 841 2424
360 839 2417
367 837 2410
375 839 2415
384 842 2424
388 836 2404
396 836 2404
402 834 2399
408 832 2390
417 834 2396
421 829 2382
430 832 2389
435 827 2374
442 827 2371
448 824 2364
456 826 2367
461 822 2354
464 814 2332
462 798 2284
482 820 2347
490 822 2349
496 820 2343
503 819 2341
509 818 2335
518 820 2342
525 821 2341
531 819 2334
538 819 2332
543 815 2320
547 811 2309
556 813 2313
563 813 2311
566 808 2295
571 805 2285
586 816 2316
589 810 2298
595 809 2293
597 801 2268
607 806 2281
623 817 2311
630 816 2308
632 810 2288
636 806 2275
634 795 2244
634 786 2216
638 783 2205
645 782 2202
647 777 2186
659 783 2201
663 780 2190
671 781 2193
674 776 2177
684 780 2185
677 764 2139
681 761 2130
688 761 2129
688 755 2108
690 750 2092
690 741 2068
694 739 2059
692 730 2032
690 722 2007
689 713 1982
690 708 1966
696 708 1964
711 717 1988
747 747 2068
788 780 2160
811 797 2203
817 796 2199
793 766 2112
800 766 2112
825 784 2157
841 792 2178
851 795 2184
854 791 2171
862 792 2173
867 790 2165
873 789 2160
874 784 2142
875 779 2126
895 790 2155
910 797 2172
922 802 2182
929 802 2179
937 802 2178
943 802 2174
947 799 2164
952 797 2156
964 801 2166
965 796 2149
981 803 2165
980 797 2145
1004 810 2179
1018 816 2191
1032 821 2202
1035 818 2192
1039 815 2182
1036 807 2157
1032 799 2131
1030 792 2109
1013 774 2058
987 748 1988
803 605 1604
725 542 1434
717 533 1407
704 520 1371
707 518 1365
764 557 1464
806 584 1533
921 662 1739
927 663 1736
947 673 1762
949 670 1751
952 668 1742
964 673 1752
975 676 1758
973 670 1739
975 668 1730
989 673 1742
981 664 1714
981 660 1702
1003 671 1727
1008 670 1722
1014 670 1719
1011 664 1700
1013 661 1691
-1406 935 2306
-1382 924 2283
-1375 924 2290
-1363 921 2287
-1351 918 2283
-1334 913 2273
-1323 910 2272
-1314 910 2274
-1294 901 2256
-1288 901 2262
-1274 897 2255
-1262 894 2252
-1253 893 2252
-1239 888 2244
-1227 885 2241
-1213 881 2233
-1211 884 2246
-1197 879 2237
-1191 881 2244
-1179 878 2240
-1169 876 2238
-1161 875 2240
-1149 871 2234
-1141 871 2238
-1120 861 2215
-1117 864 2226
-1106 861 2223
-1095 858 2217
-1081 853 2208
-1071 851 2205
-1058 846 2196
-1003 807 2098
-967 784 2041
-948 774 2018
-950 781 2039
-954 790 2065
-947 789 2066
-945 793 2079
-941 796 2088
-944 804 2113
-951 816 2147
-966 835 2200
-959 835 2203
-953 835 2208
-953 842 2228
-948 844 2236
-944 847 2247
-941 850 2258
-935 851 2264
-926 850 2264
-930 860 2292
-917 855 2282
-908 853 2280
-895 848 2269
-884 844 2262
-881 848 2276
-882 856 2298
-872 853 2293
-868 856 2305
-858 854 2300
-852 854 2305
-847 858 2317
-838 855 2312
-831 856 2316
-824 856 2319
-817 857 2324
-809 856 2324
-805 859 2335
-794 856 2328
-791 859 2340
-782 858 2340
-775 858 2342
-763 853 2330
-753 849 2322
-744 848 2320
-733 844 2311
-718 835 2288
-701 823 2257
-685 812 2231
-669 802 2204
-657 795 2186
-643 786 2165
-631 780 2150
-622 776 2141
-608 767 2117
-602 768 2121
-587 758 2095
-574 749 2073
-564 744 2060
-556 742 2057
-551 743 2061
-545 745 2067
-536 741 2057
-529 740 2057
-523 740 2059
-516 739 2058
-510 740 2060
-502 737 2055
-499 741 2068
-492 740 2066
-486 741 2070
-477 738 2062
-473 740 2070
-472 750 2098
-468 752 2107
-448 731 2049
-449 744 2085
-445 747 2096
-435 741 2080
-435 752 2113
-427 749 2106
-418 744 2093
-412 744 2095
-413 758 2134
-404 754 2123
-398 754 2125
-392 756 2132
-386 756 2133
-380 758 2138
-373 757 2137
-374 770 2177
-381 800 2263
-371 792 2241
-362 789 2232
-360 799 2262
-341 771 2184
-343 791 2242
-338 796 2256
-319 766 2172
-316 774 2195
-306 767 2176
-285 731 2074
-274 719 2041
-266 711 2021
-260 712 2023
-258 724 2059
-248 713 2030
-240 707 2013
-241 730 2077
-246 765 2178
-229 730 2078
-238 779 2221
-223 751 2142
-220 764 2180
-208 744 2123
-201 743 2121
-194 739 2108
-186 732 2091
-178 728 2078
-171 722 2063
-164 720 2057
-157 716 2047
-150 714 2041
-145 717 2050
-139 720 2059
-140 758 2170
-129 734 2100
-119 713 2040
-113 708 2026
-109 723 2071
-105 740 2120
-104 778 2229
-96 770 2207
-91 783 2243
-83 768 2200
-76 764 2191
-71 782 2243
-64 784 2249
-57 779 2234
-51 781 2241
-45 802 2301
-40 832 2387
-34 871 2500
-28 894 2568
-20 888 2549
-12 858 2462
-4 791 2270
2 747 2142
9 742 2130
15 749 2150
21 746 2141
28 751 2155
35 752 2158
41 753 2162
48 765 2196
56 789 2264
65 813 2333
75 842 2418
83 855 2456
90 854 2452
97 847 2431
107 866 2487
110 837 2403
119 845 2427
126 843 2418
130 822 2360
135 809 2321
135 770 2210
152 830 2381
163 849 2436
171 852 2445
171 818 2346
185 848 2431
188 829 2376
197 838 2403
206 843 2418
213 844 2421
219 837 2398
222 822 2355
232 831 2381
240 836 2396
250 846 2423
261 855 2450
265 845 2419
272 844 2416
282 853 2442
289 851 2436
296 852 2436
304 851 2435
308 843 2411
315 843 2410
325 850 2429
332 849 2426
340 849 2425
348 851 2430
355 851 2428
362 850 2425
369 850 2424
376 848 2419
384 850 2424
391 849 2419
397 846 2411
405 847 2411
410 843 2401
418 843 2400
425 842 2396
432 843 2398
438 841 2390
445 839 2383
453 841 2389
458 837 2375
466 839 2380
471 835 2367
461 804 2278
481 826 2341
494 836 2369
501 836 2367
507 834 2360
514 834 2358
522 835 2360
530 835 2360
534 830 2344
539 828 2336
547 829 2338
552 825 2326
559 825 2326
567 827 2328
571 822 2312
577 820 2307
585 821 2308
590 818 2299
595 815 2290
595 805 2259
600 802 2249
612 810 2269
618 808 2262
614 794 2221
613 784 2192
617 779 2178
621 777 2170
626 775 2161
630 772 2151
638 773 2153
644 772 2150
654 776 2159
664 780 2168
651 757 2102
625 719 1995
623 709 1966
628 708 1962
635 709 1963
640 707 1956
641 702 1939
643 698 1927
643 691 1907
652 694 1912
660 696 1917
663 693 1906
665 689 1893
671 688 1890
678 689 1891
698 704 1930
730 730 1998
777 770 2107
784 770 2107
778 758 2070
794 767 2093
807 773 2107
820 778 2120
829 781 2126
831 776 2111
838 777 2110
853 784 2126
858 783 2121
860 778 2106
876 786 2125
893 796 2149
912 806 2175
921 807 2176
928 808 2174
936 808 2173
942 807 2168
950 808 2169
950 802 2149
953 799 2138
979 815 2179
975 805 2149
981 805 2146
1006 819 2182
1026 830 2206
1034 830 2204
1040 829 2200
1040 823 2181
1033 813 2150
1031 805 2126
1033 801 2113
1012 780 2053
962 736 1936
774 588 1543
722 545 1426
723 542 1418
717 534 1395
714 528 1377
739 544 1415
832 608 1581
924 671 1743
943 680 1765
947 679 1759
950 677 1751
947 670 1731
959 674 1739
972 679 1749
975 677 1741
971 671 1721
976 670 1717
989 675 1726
1000 678 1733
1002 676 1722
1007 675 1718
1016 677 1720
1021 677 1717
1024 674 1707
-1363 914 2233
-1393 939 2299
-1374 932 2286
-1367 932 2291
-1352 927 2283
-1333 919 2268
-1318 914 2260
-1316 918 2273
-1307 918 2276
-1287 908 2257
-1275 905 2254
-1257 898 2240
-1252 900 2248
-1238 895 2240
-1234 898 2250
-1215 889 2233
-1208 890 2239
-1198 888 2236
-1190 887 2239
-1168 877 2216
-1167 881 2231
-1158 881 2233
-1138 871 2211
-1139 877 2232
-1128 874 2227
-1111 866 2211
-1109 871 2225
-1092 863 2210
-1090 867 2222
-1080 865 2221
-1064 858 2206
-1015 824 2122
-969 792 2043
-948 781 2016
-951 788 2038
-951 794 2056
-952 801 2076
-945 800 2077
-944 805 2092
-938 806 2098
-947 819 2136
-967 843 2201
-964 846 2212
-959 848 2221
-952 848 2223
-954 857 2249
-944 854 2244
-940 856 2253
-930 854 2251
-923 854 2254
-921 859 2268
-912 857 2267
-902 855 2264
-889 850 2252
-877 844 2241
-872 846 2249
-872 853 2269
-868 856 2280
-860 856 2283
-854 857 2288
-843 854 2281
-839 857 2293
-822 846 2267
-799 830 2224
-783 821 2203
-769 813 2184
-752 803 2159
-738 795 2139
-723 786 2118
-714 783 2112
-701 777 2096
-695 777 2100
-682 769 2080
-677 771 2086
-665 764 2071
-655 761 2064
-646 758 2056
-638 756 2053
-628 752 2045
-621 751 2044
-610 745 2030
-603 744 2028
-594 741 2021
-587 740 2021
-579 738 2017
-574 739 2022
-567 738 2022
-558 735 2014
-556 740 2029
-547 737 2022
-543 739 2029
-536 739 2031
-523 730 2007
-521 735 2023
-525 750 2066
-512 740 2039
-507 742 2047
-504 746 2061
-497 746 2061
-501 760 2102
-475 730 2020
-480 748 2072
-468 739 2047
-472 756 2095
-464 753 2088
-461 758 2105
-449 750 2082
-442 749 2081
-442 760 2113
-435 757 2107
-436 770 2145
-422 758 2113
-421 767 2139
-409 757 2112
-404 760 2121
-399 763 2131
-392 763 2130
-387 765 2137
-381 765 2139
-375 766 2143
-374 777 2175
-379 802 2247
-362 781 2189
-346 760 2131
-364 814 2285
-346 788 2211
-340 790 2217
-309 733 2060
-299 725 2037
-298 738 2074
-305 770 2166
-290 750 2109
-274 724 2038
-269 726 2044
-259 715 2014
-259 733 2065
-249 721 2033
-239 711 2005
-233 710 2003
-248 776 2190
-238 764 2157
-232 767 2167
-220 747 2111
-213 745 2105
-204 735 2078
-197 734 2075
-190 731 2067
-182 726 2052
-176 724 2048
-169 721 2041
-163 721 2041
-157 721 2042
-150 719 2035
-143 715 2026
-135 705 1998
-129 707 2004
-127 728 2062
-121 729 2068
-114 726 2058
-108 723 2049
-102 723 2050
-100 753 2136
-98 791 2246
-91 789 2240
-82 772 2191
-76 773 2196
-74 817 2321
-70 852 2420
-62 849 2412
-56 863 2452
-44 784 2227
-35 743 2111
-30 780 2216
-27 874 2486
-20 905 2573
-12 898 2555
-4 866 2464
2 798 2268
9 753 2141
15 748 2125
22 755 2147
28 755 2147
34 753 2142
41 756 2149
47 757 2151
54 758 2154
61 765 2174
69 778 2212
77 796 2264
86 822 2338
95 837 2381
104 849 2415
111 850 2418
117 839 2385
126 849 2414
130 832 2366
137 831 2363
145 838 2382
153 839 2386
157 822 2336
168 842 2392
177 850 2416
186 861 2446
195 868 2466
196 840 2386
191 787 2235
204 813 2309
208 801 2274
220 822 2333
225 813 2308
236 828 2350
240 818 2321
251 830 2354
249 803 2275
259 811 2300
280 853 2419
289 859 2433
294 853 2416
299 846 2397
306 846 2396
311 839 2376
323 850 2407
333 857 2426
341 860 2432
346 854 2416
354 855 2417
360 852 2408
368 853 2412
375 854 2412
382 852 2404
389 852 2406
397 853 2407
403 850 2397
412 854 2407
417 850 2395
424 849 2393
432 851 2396
441 853 2401
445 846 2382
451 845 2378
461 850 2389
468 849 2386
474 846 2378
469 824 2314
478 829 2327
495 845 2369
504 848 2377
509 844 2367
518 847 2374
525 847 2371
531 845 2365
536 841 2354
544 842 2353
549 839 2343
558 842 2351
561 835 2330
573 842 2348
576 836 2330
583 835 2327
591 836 2329
595 832 2315
596 824 2290
597 815 2263
596 804 2233
598 798 2215
582 767 2127
558 727 2014
546 703 1947
552 703 1945
550 694 1917
540 674 1861
565 697 1923
550 672 1853
577 697 1920
568 679 1870
588 696 1916
598 701 1927
590 685 1881
594 681 1871
600 682 1872
604 680 1865
607 677 1853
612 676 1850
618 676 1847
627 679 1856
627 673 1838
633 673 1836
640 674 1837
643 671 1827
648 671 1825
653 670 1821
666 677 1837
688 693 1880
719 719 1948
758 751 2035
769 755 2043
779 759 2051
789 762 2059
805 771 2080
813 772 2081
818 771 2075
824 770 2071
838 777 2087
848 780 2094
859 784 2100
879 796 2131
898 807 2158
914 814 2176
924 817 2181
929 815 2174
940 819 2180
946 818 2176
950 815 2165
961 818 2171
966 816 2163
973 817 2162
976 813 2149
992 821 2167
1010 830 2188
1021 833 2193
1032 836 2199
1039 835 2194
1038 829 2175
1038 823 2156
1035 815 2133
1033 808 2111
1002 779 2031
928 716 1865
759 581 1510
736 561 1454
717 542 1403
716 538 1391
708 528 1363
748 555 1430
855 630 1624
932 682 1756
933 679 1745
943 682 1748
953 685 1753
958 684 1750
964 684 1747
961 678 1729
975 683 1739
981 683 1736
985 682 1730
986 679 1719
999 684 1729
997 678 1712
1010 683 1721
1006 676 1702
1022 683 1715
1016 675 1692
-957 648 1565
-1316 895 2171
-1391 951 2311
-1378 947 2306
-1350 934 2277
-1335 929 2269
-1329 930 2276
-1308 920 2257
-1307 925 2273
-1289 918 2260
-1280 917 2260
-1263 910 2248
-1248 905 2239
-1239 904 2240
-1231 904 2243
-1214 896 2229
-1207 897 2233
-1189 889 2218
-1182 889 2221
-1173 888 2223
-1166 888 2227
-1155 885 2223
-1147 885 2226
-1138 884 2226
-1126 880 2221
-1114 877 2215
-1105 875 2214
-1096 874 2215
-1090 874 2220
-1076 869 2210
-1059 862 2194
-1024 839 2139
-982 810 2068
-950 789 2017
-948 793 2031
-951 801 2054
-949 805 2067
-944 806 2074
-945 813 2093
-936 811 2091
-943 823 2125
-959 843 2179
-965 854 2212
-960 857 2221
-954 857 2226
-952 862 2241
-948 864 2250
-941 865 2255
-927 859 2241
-926 865 2259
-918 863 2259
-905 858 2247
-900 860 2256
-886 854 2242
-877 851 2238
-867 849 2234
-863 852 2246
-858 854 2253
-859 862 2277
-845 855 2260
-844 861 2280
-833 857 2272
-793 823 2184
-745 781 2074
-712 753 2001
-705 752 2000
-695 748 1992
-686 746 1987
-677 742 1980
-670 741 1979
-664 742 1984
-656 740 1980
-648 738 1976
-640 735 1972
-635 737 1978
-628 736 1978
-624 739 1986
-617 738 1985
-611 738 1986
-606 739 1991
-595 734 1979
-599 746 2015
-595 749 2024
-586 745 2015
-591 759 2056
-575 747 2024
-564 740 2008
-566 752 2040
-535 719 1952
-544 739 2008
-551 757 2059
-536 745 2029
-534 751 2046
-523 745 2030
-526 757 2066
-523 762 2080
-502 741 2024
-505 755 2064
-496 751 2054
-493 755 2068
-485 753 2064
-476 749 2054
-470 749 2055
-472 762 2094
-458 749 2059
-453 752 2068
-457 769 2115
-447 763 2100
-430 744 2050
-435 764 2106
-429 766 2112
-424 768 2118
-417 766 2116
-411 768 2122
-404 767 2120
-399 770 2128
-393 769 2129
-388 774 2142
-381 771 2137
-376 776 2150
-372 781 2167
-363 775 2150
-356 773 2146
-346 767 2131
-351 792 2201
-344 792 2201
-341 801 2227
-311 746 2075
-297 726 2020
-290 723 2013
-306 779 2171
-292 762 2123
-275 734 2045
-271 739 2062
-258 721 2010
-255 729 2035
-253 741 2068
-239 716 2000
-231 713 1991
-231 731 2043
-233 756 2114
-225 749 2095
-215 740 2069
-208 737 2062
-202 735 2057
-195 733 2052
-188 730 2045
-181 728 2039
-174 724 2029
-167 719 2015
-163 728 2041
-155 723 2026
-146 705 1977
-143 722 2025
-137 720 2019
-132 729 2048
-131 756 2123
-124 751 2109
-117 748 2100
-108 731 2054
-101 722 2030
-96 737 2072
-92 750 2108
-90 789 2219
-89 838 2356
-83 853 2399
-79 880 2477
-70 870 2449
-60 829 2333
-49 779 2192
-40 727 2045
-32 704 1981
-28 732 2059
-24 792 2230
-19 885 2493
-12 911 2566
-5 913 2574
2 873 2460
9 806 2271
15 756 2128
21 752 2118
28 760 2139
34 760 2141
41 759 2137
47 762 2146
54 759 2137
60 758 2136
67 761 2145
73 764 2153
81 771 2171
89 784 2207
95 785 2210
105 807 2273
118 855 2408
126 859 2420
134 865 2437
137 837 2356
150 871 2453
150 831 2339
158 834 2347
174 881 2480
175 851 2396
182 848 2386
180 806 2267
182 787 2213
185 771 2168
193 774 2178
198 770 2165
206 776 2181
207 755 2123
211 746 2096
216 740 2077
227 757 2125
239 777 2181
262 828 2327
279 859 2412
288 864 2427
294 858 2409
299 852 2391
303 844 2367
314 854 2394
323 859 2410
331 860 2412
339 862 2415
348 865 2424
354 864 2420
360 859 2406
367 859 2403
373 856 2396
381 858 2399
389 859 2401
395 857 2396
403 858 2397
409 855 2387
415 852 2378
425 858 2395
431 856 2388
437 852 2376
439 842 2347
447 844 2353
458 851 2371
468 857 2385
474 854 2376
476 845 2350
469 819 2277
493 850 2361
503 853 2368
509 852 2365
517 853 2367
522 848 2353
529 848 2351
536 848 2351
542 847 2344
550 848 2347
559 850 2350
565 848 2344
570 845 2334
578 846 2335
587 848 2340
591 844 2328
599 845 2329
598 833 2294
593 817 2247
589 802 2205
586 788 2167
539 716 1966
496 652 1789
513 667 1828
513 660 1807
523 665 1821
530 666 1822
521 649 1773
544 670 1829
538 655 1789
552 666 1816
577 689 1878
589 696 1896
575 673 1830
576 667 1814
583 669 1817
589 668 1814
593 667 1808
597 665 1801
606 668 1810
610 667 1804
613 664 1795
621 666 1798
628 668 1802
633 666 1797
636 663 1787
644 666 1793
651 668 1796
672 683 1834
712 718 1926
750 749 2010
768 761 2039
780 766 2051
784 764 2043
803 776 2072
820 786 2097
821 780 2080
833 786 2092
849 794 2112
856 794 2110
860 792 2102
885 808 2144
913 827 2191
924 831 2198
930 830 2194
937 829 2190
945 830 2189
948 827 2178
956 828 2177
966 830 2180
970 827 2172
975 826 2164
984 827 2166
1000 835 2182
1015 841 2195
1024 842 2197
1035 845 2201
1037 841 2188
1036 835 2168
1039 831 2157
1033 821 2126
1021 805 2083
999 783 2022
884 688 1773
741 573 1473
727 558 1432
713 544 1394
713 540 1383
739 557 1423
759 568 1449
878 653 1665
930 687 1750
937 688 1750
947 690 1754
948 687 1742
963 694 1757
963 690 1743
968 689 1739
978 692 1743
976 686 1727
990 692 1738
989 686 1722
991 684 1712
991 680 1700
1008 687 1715
1016 689 1715
1022 689 1713
1019 683 1695
-856 585 1399
-1008 692 1660
-1390 959 2307
-1392 965 2328
-1362 950 2294
-1357 952 2304
-1333 941 2281
-1316 934 2268
-1298 927 2254
-1289 926 2256
-1281 925 2259
-1266 920 2251
-1250 914 2240
-1245 916 2248
-1232 912 2241
-1221 909 2240
-1201 900 2221
-1193 900 2223
-1181 896 2218
-1174 896 2222
-1158 889 2209
-1155 893 2222
-1143 890 2217
-1133 887 2214
-1126 888 2219
-1108 879 2201
-1099 878 2200
-1089 875 2197
-1087 879 2212
-1071 873 2198
-1062 871 2197
-1039 858 2167
-986 820 2074
-957 802 2030
-946 798 2024
-950 806 2048
-951 813 2068
-944 813 2071
-941 816 2083
-937 819 2091
-939 826 2113
-953 845 2165
-967 864 2216
-973 875 2248
-961 871 2239
-961 878 2260
-949 873 2250
-949 880 2272
-944 882 2280
-932 878 2271
-920 873 2263
-913 873 2265
-900 868 2254
-893 867 2256
-879 861 2242
-862 851 2218
-849 845 2206
-845 849 2218
-846 857 2241
-840 858 2247
-834 859 2252
-823 855 2243
-772 809 2125
-714 755 1986
-689 735 1934
-691 744 1960
-682 740 1952
-683 749 1976
-671 743 1962
-657 733 1940
-657 740 1959
-656 746 1976
-648 744 1975
-650 754 2001
-631 739 1963
-636 751 1999
-621 741 1973
-625 753 2007
-615 748 1997
-611 751 2006
-606 753 2013
-608 763 2040
-589 747 2001
-588 754 2020
-582 754 2022
-576 754 2024
-555 735 1975
-562 753 2023
-554 750 2019
-548 750 2020
-545 755 2035
-534 749 2019
-539 764 2061
-526 755 2040
-523 760 2054
-522 767 2076
-508 755 2045
-505 761 2062
-492 750 2034
-493 762 2067
-493 771 2094
-471 747 2030
-476 765 2078
-459 748 2034
-463 765 2083
-461 771 2101
-452 767 2090
-446 769 2097
-445 777 2120
-437 775 2116
-432 778 2126
-426 779 2129
-422 783 2143
-416 784 2147
-411 787 2156
-406 789 2163
-400 790 2166
-394 791 2170
-390 797 2187
-385 801 2199
-379 801 2200
-377 813 2234
-367 806 2216
-355 792 2180
-345 785 2160
-350 812 2237
-327 774 2132
-318 769 2120
-297 734 2022
-290 731 2017
-284 732 2019
-292 766 2114
-282 757 2092
-269 740 2045
-263 740 2044
-251 723 1999
-249 734 2031
-243 735 2034
-232 721 1995
-226 721 1996
-240 786 2177
-224 755 2092
-213 738 2045
-206 736 2040
-199 730 2025
-193 731 2027
-186 731 2027
-180 728 2021
-174 731 2028
-169 734 2038
-158 714 1983
-158 740 2056
-150 734 2040
-143 727 2021
-137 728 2023
-133 739 2055
-132 771 2144
-127 780 2170
-121 779 2169
-111 757 2107
-102 737 2053
-94 727 2023
-91 750 2090
-89 789 2199
-87 831 2315
-80 827 2304
-73 828 2309
-64 801 2233
-54 759 2116
-47 747 2082
-40 737 2056
-34 737 2055
-28 752 2096
-23 778 2171
-18 834 2326
-12 913 2547
-5 930 2597
2 924 2579
10 877 2448
16 806 2250
21 761 2122
28 756 2110
34 765 2135
41 764 2132
47 764 2132
54 763 2129
60 764 2131
66 763 2129
73 764 2132
80 768 2141
86 766 2137
92 766 2137
100 775 2162
110 802 2238
123 847 2362
132 855 2385
132 812 2266
145 851 2374
152 848 2365
160 854 2383
165 840 2343
160 782 2179
164 768 2142
172 777 2167
179 779 2171
185 775 2158
191 774 2156
198 774 2156
202 767 2135
206 756 2105
210 750 2088
217 750 2088
226 761 2118
238 778 2165
257 820 2280
271 840 2338
284 857 2384
288 848 2359
291 838 2329
295 828 2301
307 842 2340
320 857 2380
329 864 2399
337 865 2401
344 864 2399
353 868 2407
360 866 2402
367 866 2402
373 863 2393
380 863 2392
388 864 2394
394 861 2385
401 861 2385
407 858 2375
410 848 2346
415 845 2336
422 844 2332
425 836 2309
431 833 2301
444 846 2335
458 858 2367
465 858 2365
471 856 2358
479 856 2359
469 826 2276
487 846 2329
501 857 2358
507 855 2351
515 856 2352
522 857 2353
528 855 2346
534 852 2338
541 852 2336
552 857 2351
558 855 2344
566 856 2344
571 854 2337
579 854 2337
583 850 2324
594 855 2335
598 850 2320
604 848 2315
597 830 2262
592 812 2213
554 751 2044
509 682 1854
512 679 1845
511 670 1819
543 704 1909
528 677 1836
545 692 1874
566 710 1922
549 682 1845
569 699 1890
587 714 1928
600 722 1949
590 703 1896
570 672 1810
575 672 1809
581 672 1808
585 670 1802
592 672 1804
597 671 1800
605 673 1806
610 672 1800
613 669 1791
620 671 1795
626 671 1794
633 672 1795
636 670 1787
646 674 1796
651 674 1794
670 687 1828
712 723 1923
751 756 2009
768 768 2037
777 769 2040
786 772 2045
801 780 2065
822 794 2100
817 783 2068
828 787 2076
844 796 2097
847 792 2085
858 796 2094
893 822 2160
919 839 2202
925 838 2198
934 841 2200
941 840 2197
948 840 2194
952 837 2184
960 838 2182
965 837 2177
973 837 2175
978 835 2168
985 835 2164
1000 842 2180
1013 846 2188
1023 849 2192
1032 850 2193
1041 851 2193
1040 845 2174
1031 831 2136
1035 829 2128
1014 807 2067
988 781 1997
844 663 1692
744 580 1478
709 549 1396
706 543 1379
719 549 1392
722 548 1388
776 585 1480
902 676 1709
929 692 1747
935 692 1744
953 701 1763
960 701 1762
956 694 1741
970 700 1754
973 698 1745
978 698 1741
984 697 1738
980 690 1717
996 697 1732
996 693 1718
1013 701 1735
1011 695 1718
1017 695 1715
1021 694 1710
1029 696 1710
-846 583 1380
-905 627 1488
-1308 910 2168
-1409 985 2352
-1439 1012 2421
-1379 975 2337
-1357 965 2318
-1322 946 2275
-1309 943 2272
-1294 937 2262
-1280 932 2255
-1267 929 2251
-1259 928 2253
-1243 922 2241
-1232 919 2239
-1214 912 2224
-1211 915 2235
-1194 908 2222
-1182 904 2217
-1179 907 2228
-1169 906 2228
-1151 898 2211
-1141 895 2209
-1135 897 2216
-1120 890 2204
-1112 889 2205
-1095 882 2191
-1095 888 2208
-1084 884 2203
-1077 885 2207
-1065 881 2201
-1049 874 2186
-993 833 2087
-958 810 2031
-949 807 2027
-945 809 2036
-946 816 2056
-943 819 2066
-943 825 2083
-938 826 2090
-947 841 2130
-960 858 2177
-972 875 2224
-964 874 2224
-962 879 2239
-958 882 2249
-948 879 2246
-948 886 2266
-944 889 2277
-933 886 2272
-935 894 2296
-930 897 2305
-921 895 2303
-904 886 2282
-893 882 2275
-873 869 2244
-855 859 2220
-844 855 2212
-838 855 2216
-833 858 2226
-826 858 2228
-818 856 2226
-770 814 2118
-711 758 1975
-678 730 1902
-694 753 1966
-666 730 1907
-685 757 1979
-655 731 1912
-656 738 1934
-649 737 1934
-656 753 1976
-632 731 1922
-644 752 1979
-637 752 1980
-630 751 1979
-627 755 1992
-627 762 2011
-620 761 2011
-596 739 1956
-588 737 1952
-587 744 1971
-604 773 2050
-590 762 2024
-590 772 2050
-571 754 2005
-577 770 2050
-569 768 2045
-551 752 2005
-543 750 2001
-534 746 1992
-541 765 2044
-528 755 2018
-523 756 2024
-522 765 2049
-514 761 2041
-512 769 2062
-502 762 2046
-505 778 2089
-493 768 2065
-489 772 2077
-487 779 2098
-480 778 2095
-473 777 2093
-471 784 2115
-473 798 2154
-460 788 2129
-455 790 2135
-449 790 2136
-443 791 2141
-432 783 2120
-434 799 2163
-427 798 2163
-418 793 2151
-416 802 2177
-412 808 2193
-409 815 2215
-403 817 2221
-396 816 2220
-391 819 2229
-385 822 2239
-383 832 2265
-369 815 2222
-363 818 2231
-356 816 2227
-350 820 2237
-346 825 2251
-329 802 2190
-312 776 2120
-291 740 2022
-283 733 2005
-281 746 2039
-273 740 2023
-274 758 2075
-266 756 2069
-251 731 2002
-244 728 1995
-244 744 2038
-232 726 1992
-225 725 1988
-232 768 2106
-238 807 2217
-215 750 2060
-205 739 2028
-198 735 2019
-192 735 2020
-185 731 2010
-177 723 1987
-175 741 2038
-166 728 2003
-158 717 1973
-155 735 2023
-150 738 2031
-144 737 2030
-138 738 2032
-134 753 2074
-132 775 2136
-127 783 2158
-120 783 2160
-114 781 2155
-102 748 2063
-97 756 2085
-90 752 2074
-87 775 2140
-78 757 2088
-70 735 2030
-65 744 2054
-60 759 2097
-54 764 2109
-48 771 2131
-42 774 2137
-36 786 2171
-29 790 2182
-23 798 2205
-17 805 2225
-11 843 2330
-4 913 2524
2 931 2575
10 938 2594
17 883 2441
23 815 2254
28 763 2109
34 760 2102
41 769 2127
47 770 2130
53 767 2121
60 766 2119
66 768 2123
73 772 2133
80 772 2135
86 772 2133
92 773 2136
100 780 2156
109 798 2206
119 820 2268
128 836 2311
134 830 2295
144 851 2351
146 820 2267
147 790 2183
147 753 2080
151 745 2057
158 746 2061
168 764 2110
179 785 2169
184 778 2148
189 772 2130
195 771 2128
202 774 2135
208 771 2127
214 769 2121
220 767 2116
229 776 2139
241 796 2195
255 818 2254
261 816 2248
264 803 2213
268 795 2191
269 780 2147
285 806 2219
301 833 2294
323 873 2402
331 874 2405
338 874 2404
343 868 2387
350 867 2384
358 868 2386
365 870 2389
373 871 2391
381 871 2392
386 867 2380
392 865 2372
400 864 2371
404 859 2354
405 845 2314
406 834 2284
413 833 2280
420 833 2280
427 832 2276
441 847 2316
455 860 2351
464 863 2358
472 864 2360
477 861 2349
474 843 2299
479 839 2289
498 859 2342
505 859 2340
514 861 2345
521 861 2343
525 857 2331
535 860 2338
541 858 2333
550 861 2339
556 859 2332
562 857 2325
569 858 2326
578 860 2330
584 858 2324
590 857 2318
600 861 2327
604 856 2315
601 842 2273
592 820 2213
593 812 2189
569 770 2075
557 745 2006
562 742 1998
569 744 1999
571 738 1984
581 743 1996
586 741 1989
599 750 2010
609 755 2023
616 755 2021
602 730 1953
587 706 1886
574 682 1822
577 680 1813
583 680 1813
591 682 1818
595 681 1811
606 686 1825
607 681 1810
615 684 1815
619 682 1809
629 686 1818
630 681 1804
640 686 1813
645 684 1808
651 685 1808
658 687 1811
684 707 1863
720 737 1942
754 767 2017
764 769 2022
774 773 2030
784 777 2037
800 786 2059
811 790 2069
817 790 2065
824 790 2063
837 796 2078
848 800 2086
859 804 2094
896 832 2165
916 844 2193
926 846 2197
932 845 2191
941 847 2195
945 845 2185
951 843 2179
959 844 2179
967 844 2177
973 844 2172
979 843 2168
987 843 2165
998 847 2172
1013 854 2187
1025 857 2193
1034 859 2194
1038 856 2184
1035 848 2160
1032 840 2137
1023 827 2100
993 797 2023
971 774 1960
796 630 1593
716 563 1420
710 554 1395
711 551 1386
745 574 1443
730 559 1402
790 601 1505
905 684 1712
927 696 1739
939 701 1749
950 705 1756
949 700 1741
966 708 1758
962 700 1737
972 703 1741
969 697 1723
979 700 1727
985 699 1723
984 695 1709
1000 702 1724
997 696 1705
1006 698 1708
1011 697 1703
1023 701 1710
1033 704 1714
-851 591 1387
-960 670 1576
-1266 888 2096
-1402 989 2339
-1392 987 2339
-1387 989 2349
-1391 998 2374
-1372 990 2360
-1346 977 2333
-1322 965 2309
-1288 946 2267
-1286 950 2280
-1259 936 2250
-1251 936 2253
-1236 930 2244
-1223 926 2238
-1206 919 2224
-1200 920 2231
-1185 914 2219
-1184 919 2235
-1170 914 2228
-1155 908 2215
-1141 903 2207
-1132 901 2207
-1118 896 2198
-1105 891 2189
-1099 892 2194
-1086 888 2188
-1077 886 2187
-1075 891 2201
-1059 884 2187
-1050 882 2186
-1006 850 2111
-965 822 2043
-949 814 2026
-943 815 2030
-943 820 2046
-945 827 2068
-945 833 2086
-946 841 2108
-952 852 2138
-958 863 2169
-957 869 2188
-960 878 2212
-957 881 2225
-953 885 2237
-954 892 2257
-943 889 2252
-940 893 2266
-933 893 2269
-922 890 2263
-937 911 2320
-924 905 2308
-922 911 2325
-912 908 2321
-900 904 2313
-879 889 2278
-854 872 2236
-836 861 2210
-828 860 2210
-803 841 2164
-789 834 2147
-759 809 2085
-713 767 1979
-690 749 1934
-694 759 1963
-681 752 1946
-667 743 1926
-680 764 1983
-657 746 1937
-662 759 1972
-666 770 2002
-640 747 1945
-647 762 1986
-615 732 1909
-633 760 1985
-628 762 1992
-621 761 1991
-604 748 1958
-614 767 2011
-605 765 2006
-585 747 1960
-605 781 2052
-599 781 2054
-581 766 2016
-568 757 1994
-590 794 2094
-566 771 2034
-553 761 2011
-553 771 2037
-549 773 2046
-544 775 2052
-540 779 2064
-534 779 2065
-534 788 2091
-530 792 2103
-521 789 2096
-509 780 2075
-509 789 2100
-499 784 2089
-500 796 2122
-489 789 2104
-486 795 2121
-478 792 2115
-474 796 2128
-472 804 2149
-469 809 2164
-454 795 2128
-458 813 2179
-448 807 2163
-442 809 2169
-436 811 2176
-430 812 2179
-424 813 2184
-418 814 2189
-413 817 2199
-408 820 2208
-403 824 2219
-395 821 2212
-389 822 2216
-384 826 2228
-379 829 2237
-373 833 2248
-365 830 2242
-359 831 2246
-349 824 2227
-343 824 2230
-337 828 2240
-330 826 2236
-311 796 2156
-295 771 2089
-277 741 2008
-270 738 2001
-270 756 2050
-272 779 2113
-261 765 2078
-248 744 2019
-240 740 2009
-235 743 2019
-225 731 1986
-223 743 2019
-240 822 2237
-218 769 2094
-204 740 2015
-196 734 1998
-194 748 2036
-185 736 2005
-177 730 1988
-172 734 2001
-168 743 2025
-162 741 2021
-157 748 2039
-150 745 2033
-145 749 2043
-139 750 2048
-136 768 2097
-132 785 2143
-127 790 2157
-121 796 2176
-118 815 2227
-106 777 2124
-99 773 2114
-93 779 2131
-87 786 2149
-79 772 2112
-70 743 2031
-65 759 2077
-60 773 2115
-55 788 2157
-49 790 2163
-42 789 2160
-36 792 2168
-30 818 2240
-24 827 2265
-17 818 2240
-10 809 2215
-4 852 2334
2 924 2531
10 950 2603
18 933 2558
24 889 2435
30 824 2257
34 767 2100
40 759 2079
47 774 2121
54 774 2119
60 776 2125
66 774 2121
73 774 2119
79 776 2124
86 776 2125
92 775 2124
99 777 2129
107 793 2172
116 808 2213
123 814 2228
130 813 2225
136 806 2208
137 774 2117
138 745 2037
145 748 2047
153 757 2070
161 769 2104
169 775 2120
178 788 2155
180 766 2094
186 764 2088
191 760 2077
200 770 2105
208 776 2122
214 774 2116
219 771 2108
228 780 2130
242 805 2199
258 835 2280
268 845 2308
275 846 2309
273 817 2228
269 787 2146
285 812 2215
310 864 2356
321 873 2381
329 878 2392
338 881 2401
344 877 2390
352 879 2395
358 876 2386
365 875 2382
371 872 2373
377 870 2367
383 867 2356
390 868 2358
397 865 2351
401 858 2331
399 841 2282
405 838 2273
413 840 2279
417 834 2260
429 844 2287
440 852 2309
454 864 2340
462 866 2343
470 867 2346
476 866 2341
480 860 2323
473 835 2256
493 858 2317
505 865 2335
509 861 2323
518 863 2327
527 867 2336
533 864 2327
541 865 2329
547 865 2326
552 861 2314
562 865 2324
568 863 2319
574 862 2314
581 861 2310
589 862 2312
597 863 2312
603 862 2309
595 840 2249
580 809 2162
571 788 2104
570 777 2073
564 760 2028
567 756 2014
572 754 2008
577 753 2005
584 754 2005
595 759 2017
604 763 2026
609 761 2019
611 756 2004
601 736 1950
584 708 1874
583 699 1850
585 694 1834
592 697 1839
605 704 1859
610 703 1855
618 705 1858
623 705 1855
626 701 1844
636 706 1855
642 706 1853
654 713 1869
666 719 1885
667 714 1869
674 715 1870
685 720 1882
706 736 1923
740 765 1994
750 769 2004
766 779 2027
770 776 2018
786 785 2040
804 796 2068
817 803 2083
825 804 2082
825 797 2064
832 798 2062
838 797 2059
856 808 2084
894 837 2158
914 849 2187
923 851 2189
929 850 2183
937 851 2183
944 851 2181
950 849 2173
957 849 2171
960 846 2159
968 846 2158
978 849 2162
984 848 2158
996 852 2165
1011 859 2180
1024 864 2189
1034 866 2192
1037 863 2180
1026 848 2140
1028 844 2126
1015 827 2082
991 802 2014
947 761 1909
772 616 1541
731 580 1448
695 547 1365
693 542 1349
728 566 1407
739 570 1417
813 624 1548
915 697 1729
932 706 1748
931 701 1731
941 704 1737
953 709 1746
950 702 1727
970 712 1749
974 710 1742
971 704 1724
978 705 1723
991 710 1733
993 707 1723
993 703 1710
1004 706 1715
999 699 1694
1013 705 1705
1018 704 1699
1031 709 1709
-858 601 1398
-1055 743 1732
-1367 967 2261
-1396 992 2325
-1385 990 2325
-1408 1012 2381
-1365 987 2326
-1370 997 2353
-1365 999 2362
-1373 1011 2394
-1335 988 2346
-1310 976 2320
-1281 960 2287
-1256 947 2260
-1240 941 2249
-1230 939 2248
-1214 932 2235
-1202 929 2231
-1191 927 2229
-1176 920 2217
-1166 918 2217
-1159 919 2221
-1138 908 2198
-1133 909 2206
-1124 908 2207
-1109 902 2195
-1100 900 2194
-1085 894 2183
-1079 895 2188
-1071 894 2189
-1055 887 2174
-1044 884 2171
-1010 861 2118
-976 838 2063
-950 821 2025
-946 824 2034
-938 822 2033
-943 833 2063
-949 844 2094
-939 841 2089
-951 858 2132
-942 856 2131
-951 871 2171
-950 876 2188
-954 886 2217
-953 892 2233
-948 894 2241
-942 896 2248
-941 901 2264
-934 901 2267
-936 910 2293
-927 909 2293
-923 913 2305
-920 916 2317
-920 924 2339
-912 923 2340
-901 920 2334
-883 909 2310
-838 870 2213
-819 858 2184
-786 830 2116
-756 806 2055
-741 797 2035
-713 773 1976
-691 756 1935
-682 753 1928
-681 758 1944
-677 761 1953
-674 764 1964
-672 769 1977
-678 783 2017
-657 766 1974
-649 764 1972
-643 764 1974
-638 765 1978
-631 765 1979
-628 769 1991
-619 765 1984
-617 771 2000
-613 773 2006
-608 774 2012
-602 775 2015
-598 778 2026
-595 782 2039
-583 775 2022
-574 770 2011
-576 782 2044
-576 791 2069
-566 785 2055
-565 793 2077
-552 784 2056
-562 807 2118
-548 796 2091
-538 792 2080
-534 795 2089
-530 798 2100
-530 808 2129
-526 813 2142
-510 797 2102
-506 802 2115
-502 806 2129
-498 810 2140
-493 812 2147
-485 810 2145
-480 813 2151
-474 813 2155
-467 813 2155
-462 815 2163
-456 816 2167
-451 819 2175
-445 821 2181
-439 822 2186
-433 824 2192
-427 824 2195
-422 828 2205
-415 828 2208
-408 826 2204
-403 831 2217
-395 829 2212
-390 831 2221
-384 832 2225
-379 836 2236
-373 838 2241
-366 840 2247
-357 833 2231
-352 838 2246
-345 838 2245
-339 839 2249
-332 838 2248
-323 833 2236
-311 819 2199
-290 782 2100
-270 744 1998
-267 753 2022
-274 790 2123
-268 793 2132
-250 757 2037
-236 734 1976
-231 736 1982
-223 729 1963
-219 735 1979
-222 767 2068
-221 785 2117
-204 748 2016
-201 760 2050
-192 747 2014
-186 747 2016
-180 748 2021
-176 756 2042
-167 745 2013
-162 750 2027
-157 755 2039
-152 759 2051
-147 765 2068
-143 778 2104
-138 787 2131
-137 817 2212
-125 788 2132
-122 806 2182
-116 810 2193
-109 810 2194
-103 810 2195
-94 794 2151
-87 786 2130
-81 792 2145
-73 780 2115
-67 789 2138
-61 794 2152
-56 808 2191
-50 813 2205
-42 785 2130
-36 809 2196
-31 834 2264
-24 847 2298
-17 841 2282
-10 819 2223
-3 812 2205
2 864 2344
10 928 2520
18 955 2594
26 947 2572
32 904 2454
36 828 2247
40 771 2093
46 765 2076
54 781 2118
60 779 2115
66 779 2113
72 776 2107
79 777 2110
85 779 2114
92 779 2113
98 778 2111
106 787 2136
115 810 2197
123 818 2219
126 795 2157
128 768 2083
136 779 2112
141 771 2090
147 768 2082
156 781 2117
167 805 2182
174 803 2177
180 804 2179
179 767 2078
186 771 2089
195 784 2125
201 780 2113
208 782 2117
212 774 2097
219 777 2103
228 785 2125
243 815 2205
264 860 2327
280 891 2412
288 892 2413
288 871 2356
278 820 2216
292 841 2273
309 868 2344
318 874 2362
327 878 2371
333 874 2360
344 885 2388
349 880 2374
357 880 2375
362 875 2360
371 879 2370
379 882 2377
383 875 2357
388 868 2338
396 871 2345
400 864 2324
406 862 2318
410 854 2297
416 853 2292
421 849 2282
431 855 2295
442 863 2315
451 867 2326
459 868 2329
468 871 2335
475 871 2333
481 868 2325
473 841 2251
491 860 2302
502 868 2322
507 865 2312
513 862 2303
520 863 2304
530 867 2313
537 867 2312
546 869 2316
552 868 2312
558 866 2305
567 869 2313
574 868 2308
580 866 2302
588 868 2305
592 863 2291
599 863 2288
593 844 2237
567 797 2112
557 774 2049
555 763 2017
557 757 2001
562 755 1994
569 757 1997
576 758 1998
581 756 1992
590 759 1998
601 765 2013
604 761 2001
603 752 1975
603 744 1954
598 731 1916
605 732 1918
613 734 1921
619 734 1920
626 735 1922
634 737 1926
648 746 1947
655 747 1949
659 744 1939
663 742 1931
678 752 1955
686 754 1960
690 752 1953
705 761 1973
700 749 1940
717 761 1970
727 764 1977
741 773 1996
750 775 2001
754 772 1992
767 779 2008
784 790 2033
807 806 2073
826 818 2102
827 813 2085
829 808 2071
832 804 2060
832 798 2042
857 815 2084
887 837 2137
910 852 2173
916 851 2168
927 855 2176
932 854 2169
940 854 2167
944 852 2159
957 857 2169
965 857 2168
965 851 2149
973 851 2148
982 853 2149
990 854 2149
1003 860 2160
1020 867 2177
1035 875 2192
1036 869 2175
1031 859 2147
1027 849 2120
1008 828 2063
989 807 2009
929 752 1870
766 616 1527
720 575 1424
701 556 1375
731 576 1422
742 581 1432
747 581 1431
844 653 1606
929 714 1753
931 711 1743
947 719 1760
952 718 1755
955 716 1747
962 716 1746
977 723 1759
970 714 1733
977 714 1731
985 715 1732
989 714 1726
988 709 1712
1004 716 1726
1003 712 1711
1010 712 1710
1022 716 1717
1026 715 1710
1034 717 1711
-856 604 1392
-1031 731 1689
-1350 962 2229
-1371 983 2281
-1392 1003 2333
-1384 1003 2337
-1369 998 2330
-1357 996 2328
-1353 998 2339
-1357 1007 2363
-1351 1008 2371
-1322 993 2339
-1328 1004 2368
-1281 974 2302
-1263 966 2288
-1248 960 2278
-1228 951 2260
-1203 938 2231
-1191 934 2227
-1177 928 2217
-1169 928 2220
-1160 927 2220
-1142 919 2204
-1133 918 2205
-1128 919 2212
-1115 914 2203
-1100 908 2192
-1089 905 2188
-1077 901 2183
-1070 901 2185
-1060 899 2184
-1049 895 2178
-1029 884 2154
-979 848 2068
-955 833 2034
-944 829 2028
-939 830 2034
-938 835 2048
-944 847 2080
-937 846 2082
-931 847 2088
-945 865 2135
-934 862 2130
-928 863 2136
-949 889 2203
-938 886 2197
-934 888 2207
-936 897 2231
-938 905 2254
-932 907 2261
-931 913 2280
-930 919 2297
-921 918 2297
-920 924 2315
-916 928 2327
-916 935 2348
-906 933 2345
-893 927 2334
-854 894 2252
-821 867 2187
-780 831 2097
-748 804 2031
-728 788 1995
-711 777 1969
-695 766 1942
-688 765 1942
-683 766 1947
-677 766 1949
-674 771 1963
-670 773 1970
-666 775 1978
-661 777 1984
-653 775 1981
-651 780 1997
-647 783 2005
-645 788 2021
-632 780 2000
-631 787 2021
-630 793 2039
-620 788 2029
-611 785 2021
-620 804 2073
-605 794 2048
-590 782 2020
-597 799 2066
-594 805 2082
-586 802 2075
-574 795 2061
-576 806 2090
-573 811 2104
-559 801 2080
-556 805 2092
-552 809 2106
-546 809 2106
-541 812 2115
-535 812 2118
-528 812 2118
-523 814 2126
-518 817 2134
-511 817 2136
-506 818 2141
-499 818 2141
-494 821 2152
-488 822 2156
-482 823 2159
-475 823 2160
-470 825 2168
-463 825 2169
-458 826 2174
-452 829 2182
-445 828 2180
-438 826 2178
-432 828 2183
-426 829 2188
-421 832 2197
-414 832 2197
-407 833 2201
-402 835 2207
-395 834 2207
-389 837 2215
-383 837 2217
-378 841 2228
-369 837 2218
-366 846 2244
-356 839 2226
-350 839 2228
-343 840 2232
-339 846 2248
-330 840 2233
-323 841 2236
-313 833 2216
-298 811 2158
-277 771 2051
-261 743 1979
-261 758 2020
-269 800 2133
-256 782 2085
-236 739 1970
-228 733 1954
-223 736 1964
-217 736 1964
-214 746 1992
-218 780 2083
-206 759 2028
-197 752 2009
-191 752 2010
-190 769 2056
-180 755 2020
-175 759 2031
-170 763 2042
-165 771 2065
-162 787 2109
-158 798 2137
-154 811 2174
-149 817 2191
-142 813 2181
-135 814 2183
-129 816 2188
-122 816 2188
-116 818 2196
-107 803 2156
-102 817 2192
-96 818 2198
-89 813 2184
-82 810 2176
-76 814 2186
-69 808 2170
-63 816 2191
-56 814 2188
-49 816 2192
-41 784 2106
-36 817 2197
-31 848 2279
-24 845 2274
-17 852 2290
-10 835 2245
-3 815 2193
3 822 2211
10 862 2318
18 932 2508
26 956 2573
33 949 2553
39 902 2428
43 833 2242
46 773 2080
52 767 2064
61 801 2154
67 798 2146
73 786 2114
79 782 2103
85 784 2108
92 782 2104
98 782 2103
104 784 2107
111 788 2117
119 798 2146
126 801 2154
128 769 2067
133 765 2057
144 792 2127
151 795 2136
163 821 2205
174 841 2261
180 839 2254
181 811 2178
178 771 2070
181 757 2033
191 772 2072
202 789 2118
