VERSION 0.7
FIELDS x y z
SIZE 4 4 4
TYPE I I I
COUNT 1 1 1
WIDTH 3267
HEIGHT 1
VIEWPOINT 0.0 0.0 0.0 1.0 0.0 0.0 0.0
POINTS 3267
DATA ascii
-521 -780 2801
-510 -776 2789
-501 -776 2788
-492 -775 2786
-484 -775 2787
-474 -773 2780
-463 -768 2762
-457 -771 2777
-449 -772 2779
-439 -769 2769
-431 -770 2773
-421 -768 2766
-412 -767 2763
-403 -764 2755
-394 -762 2749
-388 -766 2765
-376 -760 2744
-369 -761 2747
-360 -760 2744
-351 -759 2740
-343 -759 2740
-334 -756 2731
-327 -759 2742
-318 -758 2738
-308 -754 2724
-299 -752 2717
-291 -751 2714
-283 -751 2716
-275 -751 2716
-266 -750 2712
-257 -747 2702
-249 -747 2701
-242 -749 2710
-233 -745 2697
-225 -745 2698
-218 -748 2708
-208 -743 2691
-200 -744 2694
-192 -742 2687
-183 -739 2676
-176 -741 2683
-168 -741 2684
-159 -738 2673
-151 -735 2663
-144 -740 2680
-135 -737 2670
-127 -734 2659
-119 -735 2662
-111 -735 2661
-103 -732 2652
-96 -734 2660
-87 -730 2645
-79 -729 2641
-71 -730 2643
-64 -728 2637
-56 -729 2639
-48 -727 2634
-40 -727 2634
-32 -729 2639
-24 -726 2627
-17 -726 2630
-9 -725 2624
-1 -723 2616
6 -724 2620
13 -721 2610
21 -722 2611
29 -720 2605
36 -719 2603
44 -721 2608
52 -718 2596
59 -720 2603
67 -718 2595
75 -719 2599
82 -718 2595
90 -715 2586
97 -714 2582
105 -714 2581
112 -715 2582
120 -713 2577
127 -711 2569
135 -713 2575
142 -711 2568
149 -709 2558
157 -710 2562
164 -709 2558
172 -708 2555
179 -707 2550
187 -709 2554
194 -709 2554
201 -706 2544
208 -704 2536
216 -706 2542
223 -704 2535
231 -704 2534
238 -704 2534
246 -704 2532
251 -699 2514
260 -702 2523
267 -700 2516
274 -699 2512
282 -700 2515
288 -698 2507
296 -698 2504
303 -698 2505
311 -698 2504
318 -699 2505
325 -697 2498
333 -699 2505
340 -698 2499
347 -697 2494
354 -697 2494
361 -695 2484
367 -693 2477
373 -691 2470
381 -692 2472
390 -694 2476
397 -695 2479
404 -693 2471
411 -693 2472
417 -691 2461
424 -690 2458
432 -690 2458
439 -690 2456
448 -693 2464
452 -688 2446
461 -690 2451
466 -687 2441
474 -688 2440
482 -688 2441
488 -687 2436
497 -690 2445
501 -686 2428
510 -687 2430
517 -687 2429
522 -684 2417
530 -685 2419
537 -685 2417
544 -684 2414
552 -685 2416
557 -682 2404
564 -682 2401
574 -686 2414
578 -682 2397
587 -683 2401
594 -683 2400
601 -683 2398
608 -684 2397
616 -684 2395
623 -684 2394
628 -682 2385
637 -683 2387
643 -682 2384
649 -681 2378
658 -682 2380
664 -682 2375
670 -681 2370
677 -680 2368
683 -679 2361
689 -678 2354
699 -680 2360
705 -679 2355
712 -679 2354
718 -678 2346
727 -680 2350
733 -678 2344
742 -681 2350
748 -680 2345
756 -681 2345
762 -680 2340
769 -679 2335
776 -679 2333
784 -679 2332
792 -680 2333
797 -679 2326
804 -678 2322
811 -679 2321
819 -679 2319
827 -680 2319
837 -682 2324
844 -682 2321
846 -678 2305
853 -678 2304
863 -680 2307
867 -678 2298
874 -677 2294
884 -679 2299
891 -679 2296
897 -678 2290
906 -680 2292
909 -677 2280
919 -679 2284
926 -679 2280
931 -678 2274
939 -678 2273
948 -679 2274
954 -679 2270
959 -677 2261
972 -681 2271
973 -677 2255
981 -677 2253
988 -677 2250
1018 -693 2300
996 -673 2230
1007 -676 2237
1011 -674 2226
1021 -676 2231
1034 -680 2239
1038 -678 2230
1051 -682 2240
1057 -681 2233
1064 -681 2231
1069 -679 2222
1067 -673 2200
1006 -631 2057
916 -570 1858
895 -553 1800
901 -553 1797
902 -551 1785
902 -547 1772
910 -549 1773
918 -550 1774
918 -547 1761
934 -553 1778
930 -546 1755
941 -550 1763
952 -553 1770
961 -555 1772
956 -549 1751
969 -552 1760
975 -553 1758
973 -549 1742
986 -553 1751
991 -552 1746
991 -549 1734
994 -547 1725
1001 -548 1724
-1678 -861 2796
-1647 -850 2766
-1637 -850 2770
-1667 -870 2841
-1690 -887 2901
-1709 -903 2957
-1738 -923 3030
-1751 -936 3075
-1727 -928 3056
-1700 -919 3031
-1745 -949 3134
-1776 -972 3214
-1773 -976 3233
-1755 -972 3225
-1740 -970 3222
-1725 -968 3220
-1711 -965 3217
-1687 -958 3198
-1680 -960 3209
-1659 -954 3192
-1636 -947 3174
-1628 -948 3183
-1610 -944 3173
-1593 -940 3164
-1581 -939 3165
-1570 -939 3169
-1550 -933 3153
-1538 -932 3153
-1522 -928 3145
-1508 -926 3142
-1493 -923 3137
-1476 -919 3125
-1458 -914 3113
-1442 -910 3103
-1437 -914 3119
-1419 -908 3104
-1408 -908 3106
-1392 -904 3097
-1378 -901 3092
-1363 -898 3084
-1355 -899 3092
-1339 -895 3080
-1326 -893 3078
-1313 -890 3072
-1299 -888 3066
-1283 -884 3055
-1272 -883 3055
-1258 -879 3047
-1247 -879 3048
-1233 -875 3040
-1225 -877 3048
-1211 -874 3041
-1199 -872 3038
-1182 -866 3020
-1170 -865 3019
-1158 -863 3015
-1147 -862 3014
-1137 -861 3015
-1124 -858 3007
-1111 -856 3001
-1098 -853 2994
-1086 -851 2989
-1080 -853 3001
-1063 -848 2983
-1052 -846 2980
-1041 -845 2977
-1032 -845 2982
-1015 -839 2962
-1006 -838 2962
-992 -835 2951
-981 -833 2949
-974 -835 2957
-957 -829 2937
-942 -823 2920
-915 -807 2864
-857 -764 2713
-821 -738 2626
-880 -800 2846
-893 -819 2916
-882 -818 2915
-874 -819 2919
-864 -818 2918
-852 -815 2910
-841 -813 2904
-829 -810 2895
-819 -808 2891
-812 -810 2900
-801 -808 2893
-793 -809 2899
-781 -806 2891
-771 -804 2885
-761 -803 2882
-751 -802 2881
-743 -803 2886
-728 -796 2864
-719 -796 2863
-711 -797 2868
-700 -794 2859
-690 -792 2854
-678 -788 2842
-670 -789 2846
-660 -787 2842
-651 -786 2840
-640 -784 2833
-632 -785 2838
-623 -784 2836
-612 -780 2824
-601 -777 2813
-593 -779 2820
-584 -778 2819
-575 -777 2816
-567 -777 2817
-556 -775 2810
-547 -773 2804
-537 -771 2798
-528 -770 2796
-518 -768 2790
-511 -769 2795
-501 -767 2789
-490 -764 2777
-483 -766 2785
-473 -762 2774
-464 -761 2770
-456 -762 2775
-447 -760 2768
-439 -762 2774
-429 -758 2763
-420 -757 2760
-409 -753 2744
-403 -757 2759
-395 -756 2758
-385 -753 2747
-377 -753 2749
-368 -752 2744
-359 -750 2740
-350 -748 2733
-343 -750 2741
-334 -749 2737
-325 -746 2725
-317 -747 2730
-309 -747 2732
-300 -746 2729
-291 -744 2721
-283 -743 2717
-273 -739 2703
-267 -743 2717
-257 -739 2705
-250 -741 2711
-242 -740 2708
-233 -737 2699
-224 -735 2689
-217 -737 2698
-209 -737 2697
-200 -736 2694
-192 -735 2691
-184 -733 2686
-176 -734 2688
-167 -731 2676
-159 -731 2678
-152 -732 2681
-143 -728 2666
-135 -729 2670
-127 -729 2671
-119 -724 2651
-111 -726 2658
-103 -727 2663
-95 -724 2652
-87 -725 2658
-79 -724 2653
-71 -720 2638
-63 -720 2636
-56 -719 2635
-48 -719 2635
-40 -720 2636
-32 -717 2626
-24 -717 2627
-17 -718 2630
-9 -716 2621
-1 -717 2624
6 -713 2610
13 -714 2615
21 -714 2615
29 -712 2605
36 -710 2598
44 -711 2602
52 -712 2605
59 -711 2600
67 -710 2598
74 -709 2593
82 -707 2587
90 -708 2588
97 -709 2591
105 -706 2580
112 -706 2581
120 -704 2573
127 -705 2574
135 -704 2571
141 -699 2554
150 -703 2566
157 -703 2567
164 -700 2553
171 -699 2551
180 -702 2559
186 -698 2547
194 -698 2545
202 -700 2550
209 -699 2547
216 -698 2543
223 -696 2534
231 -696 2533
237 -694 2525
245 -695 2529
253 -694 2526
260 -693 2521
267 -693 2518
273 -690 2509
282 -692 2515
288 -691 2508
296 -691 2507
304 -692 2509
309 -687 2493
317 -690 2500
324 -688 2493
332 -690 2498
339 -689 2495
346 -688 2490
354 -689 2493
359 -684 2473
368 -686 2481
374 -685 2475
382 -687 2480
390 -688 2483
396 -685 2472
404 -685 2471
410 -684 2466
416 -682 2457
425 -684 2463
433 -684 2464
439 -683 2458
446 -682 2454
455 -684 2461
459 -680 2443
466 -680 2443
475 -681 2446
480 -679 2436
487 -679 2433
495 -680 2437
502 -679 2431
510 -679 2432
518 -682 2438
523 -678 2425
530 -678 2423
538 -679 2425
545 -678 2421
551 -677 2414
556 -675 2404
565 -676 2409
571 -674 2400
579 -676 2403
583 -673 2390
594 -676 2401
601 -676 2399
607 -675 2392
615 -676 2396
622 -675 2390
629 -675 2389
637 -677 2392
643 -675 2385
648 -672 2373
658 -675 2382
666 -676 2382
671 -674 2375
676 -671 2363
684 -673 2365
691 -672 2361
697 -672 2358
705 -672 2358
713 -673 2359
721 -674 2359
726 -671 2349
733 -672 2348
738 -669 2337
745 -669 2335
754 -671 2340
761 -671 2338
769 -671 2336
775 -671 2332
783 -672 2333
790 -671 2329
798 -672 2331
804 -671 2324
811 -671 2322
818 -671 2319
826 -671 2318
832 -670 2311
842 -673 2318
845 -670 2304
855 -672 2309
860 -671 2303
868 -671 2300
874 -670 2295
883 -672 2299
889 -670 2292
896 -671 2290
902 -670 2286
910 -671 2284
916 -669 2278
924 -670 2277
932 -671 2277
939 -671 2275
944 -669 2267
953 -671 2269
960 -671 2265
969 -672 2267
978 -673 2269
984 -673 2263
991 -672 2258
1031 -694 2330
1000 -669 2242
1004 -667 2231
1006 -664 2218
1023 -670 2236
1043 -678 2261
1038 -670 2231
1047 -672 2232
1055 -673 2232
1062 -672 2228
1070 -673 2227
1064 -664 2196
1012 -628 2071
920 -566 1866
888 -543 1788
898 -546 1793
902 -545 1786
902 -541 1773
914 -545 1782
918 -544 1777
915 -539 1756
931 -545 1773
928 -540 1754
942 -544 1766
952 -547 1771
947 -541 1749
950 -539 1740
956 -540 1739
969 -544 1749
978 -545 1751
981 -544 1743
980 -540 1728
997 -546 1745
994 -542 1727
1002 -543 1728
-1628 -826 2716
-1617 -825 2718
-1614 -828 2732
-1625 -839 2772
-1637 -850 2813
-1642 -857 2842
-1638 -861 2858
-1640 -867 2883
-1640 -872 2905
-1643 -879 2931
-1676 -902 3013
-1724 -933 3124
-1738 -946 3172
-1739 -953 3199
-1733 -955 3212
-1719 -954 3211
-1712 -956 3222
-1687 -947 3199
-1673 -945 3197
-1662 -945 3201
-1643 -941 3190
-1629 -939 3188
-1615 -936 3185
-1596 -931 3173
-1583 -930 3173
-1563 -924 3156
-1549 -922 3153
-1538 -922 3156
-1519 -916 3142
-1502 -913 3133
-1486 -908 3123
-1473 -907 3121
-1460 -905 3120
-1444 -902 3112
-1431 -900 3109
-1416 -897 3101
-1401 -893 3093
-1393 -895 3102
-1375 -890 3088
-1364 -889 3089
-1346 -883 3074
-1336 -883 3077
-1325 -882 3076
-1306 -877 3060
-1294 -875 3058
-1284 -874 3059
-1273 -873 3059
-1256 -869 3046
-1245 -868 3046
-1232 -866 3041
-1220 -864 3039
-1208 -862 3034
-1195 -860 3030
-1181 -856 3021
-1170 -855 3020
-1160 -855 3021
-1146 -851 3012
-1130 -847 2999
-1123 -848 3007
-1107 -843 2992
-1096 -842 2990
-1088 -843 2998
-1077 -842 2996
-1062 -838 2983
-1050 -836 2978
-1040 -835 2978
-1030 -834 2976
-1018 -832 2971
-1007 -830 2968
-992 -826 2956
-980 -823 2948
-972 -824 2953
-963 -824 2955
-945 -817 2932
-928 -810 2910
-895 -789 2835
-823 -732 2634
-842 -757 2724
-888 -806 2903
-883 -809 2917
-876 -811 2926
-863 -808 2915
-858 -812 2932
-840 -803 2903
-831 -803 2903
-820 -801 2898
-815 -804 2912
-799 -798 2890
-792 -799 2897
-779 -795 2886
-772 -797 2893
-762 -795 2890
-749 -791 2875
-739 -789 2870
-731 -790 2875
-720 -788 2869
-711 -788 2870
-700 -785 2861
-692 -786 2865
-681 -783 2858
-671 -782 2853
-660 -779 2843
-653 -781 2853
-640 -775 2833
-630 -773 2828
-622 -774 2832
-611 -771 2823
-602 -771 2824
-593 -770 2821
-584 -770 2820
-575 -769 2820
-566 -767 2814
-556 -765 2809
-547 -765 2806
-539 -765 2810
-528 -762 2799
-519 -761 2797
-511 -761 2799
-501 -759 2791
-491 -757 2785
-482 -756 2783
-473 -754 2775
-465 -754 2778
-454 -751 2766
-448 -754 2779
-437 -749 2762
-428 -748 2759
-422 -752 2773
-410 -746 2752
-402 -747 2755
-396 -750 2766
-385 -744 2747
-376 -744 2748
-368 -744 2748
-359 -741 2738
-352 -744 2747
-342 -741 2738
-334 -741 2740
-326 -740 2736
-317 -740 2736
-309 -739 2732
-300 -737 2726
-290 -733 2711
-283 -736 2722
-274 -734 2714
-266 -733 2714
-257 -731 2706
-249 -731 2706
-241 -730 2704
-233 -731 2705
-224 -727 2691
-216 -726 2690
-208 -727 2693
-199 -724 2683
-192 -726 2691
-184 -725 2687
-175 -724 2682
-167 -721 2672
-160 -724 2684
-151 -720 2669
-143 -720 2667
-135 -719 2664
-127 -720 2670
-119 -716 2655
-111 -719 2666
-103 -717 2657
-95 -718 2661
-87 -713 2643
-79 -713 2644
-72 -716 2653
-64 -716 2653
-56 -712 2639
-48 -713 2641
-40 -711 2635
-32 -708 2625
-24 -709 2626
-17 -707 2618
-9 -709 2628
-1 -708 2622
6 -705 2612
13 -706 2615
21 -703 2603
29 -704 2605
36 -704 2606
44 -704 2605
52 -703 2600
59 -702 2597
67 -700 2590
74 -699 2586
82 -700 2589
89 -697 2578
97 -698 2583
105 -698 2581
112 -696 2574
119 -696 2572
127 -697 2575
135 -696 2573
142 -695 2566
150 -697 2573
157 -694 2561
164 -692 2556
171 -692 2552
179 -692 2554
187 -691 2551
194 -691 2547
201 -689 2541
208 -688 2537
216 -688 2535
223 -687 2532
231 -688 2534
237 -686 2526
245 -687 2530
253 -689 2533
260 -686 2522
267 -685 2518
274 -685 2519
282 -687 2524
289 -685 2514
297 -686 2518
303 -682 2504
309 -681 2497
318 -682 2502
324 -680 2494
333 -684 2506
339 -682 2497
345 -678 2484
354 -681 2494
360 -678 2483
367 -678 2478
374 -677 2474
381 -677 2474
389 -678 2476
396 -678 2475
404 -678 2474
410 -675 2463
418 -678 2471
424 -675 2458
433 -678 2469
439 -676 2460
446 -675 2457
451 -672 2442
458 -672 2442
465 -671 2438
473 -671 2438
482 -674 2446
487 -671 2433
495 -672 2436
502 -671 2431
509 -672 2433
516 -671 2427
522 -670 2423
529 -669 2418
536 -669 2416
544 -670 2419
552 -671 2419
558 -669 2411
565 -669 2410
573 -669 2410
578 -667 2400
586 -668 2401
591 -666 2392
598 -666 2390
608 -668 2396
614 -667 2390
617 -663 2375
627 -666 2384
631 -663 2371
644 -668 2388
649 -666 2379
656 -666 2378
664 -666 2376
670 -666 2372
675 -663 2362
681 -663 2357
692 -666 2368
697 -664 2360
706 -666 2364
711 -664 2354
718 -664 2351
724 -663 2346
735 -666 2356
737 -662 2338
746 -663 2341
753 -663 2337
762 -665 2342
768 -663 2334
777 -665 2338
783 -665 2335
792 -665 2336
795 -663 2323
803 -663 2324
811 -664 2323
817 -663 2318
823 -662 2313
834 -665 2320
838 -663 2310
846 -664 2310
854 -664 2308
860 -663 2302
869 -665 2306
874 -663 2297
887 -667 2309
889 -664 2295
897 -664 2294
901 -662 2284
914 -666 2295
919 -665 2289
926 -665 2285
931 -663 2277
939 -663 2275
946 -663 2272
953 -663 2270
962 -664 2271
968 -664 2266
974 -663 2260
978 -661 2250
989 -664 2257
985 -656 2227
1006 -666 2257
998 -656 2221
1015 -662 2239
1021 -662 2234
1041 -670 2258
1040 -664 2237
1044 -663 2228
1051 -663 2225
1063 -666 2233
1071 -666 2231
1070 -661 2210
1022 -627 2094
937 -571 1903
895 -541 1802
893 -537 1785
908 -543 1801
904 -537 1779
918 -541 1791
918 -538 1778
923 -538 1774
934 -540 1780
931 -535 1760
939 -537 1762
936 -532 1744
956 -540 1768
949 -533 1740
962 -537 1752
966 -536 1745
976 -538 1749
977 -536 1737
978 -533 1727
990 -536 1734
991 -534 1724
1002 -537 1729
-1616 -811 2698
-1600 -807 2691
-1611 -818 2731
-1614 -824 2756
-1614 -829 2776
-1605 -829 2781
-1603 -833 2799
-1603 -838 2820
-1599 -841 2834
-1603 -848 2863
-1619 -862 2914
-1633 -874 2961
-1665 -897 3043
-1681 -911 3095
-1694 -924 3143
-1692 -928 3164
-1696 -936 3196
-1683 -935 3196
-1672 -935 3200
-1653 -930 3187
-1637 -927 3182
-1618 -922 3170
-1606 -921 3170
-1596 -921 3176
-1576 -916 3162
-1559 -912 3152
-1546 -910 3151
-1528 -906 3138
-1519 -906 3145
-1497 -899 3124
-1489 -900 3132
-1475 -898 3128
-1462 -896 3126
-1442 -890 3110
-1429 -888 3106
-1418 -888 3107
-1406 -886 3107
-1388 -882 3093
-1378 -882 3097
-1361 -877 3085
-1350 -876 3085
-1331 -870 3068
-1317 -867 3061
-1309 -868 3068
-1294 -865 3060
-1287 -867 3069
-1276 -866 3071
-1255 -859 3046
-1246 -859 3050
-1234 -857 3049
-1218 -853 3037
-1206 -851 3032
-1197 -852 3038
-1182 -848 3027
-1168 -844 3017
-1155 -842 3011
-1148 -843 3020
-1132 -839 3005
-1120 -837 3001
-1111 -837 3007
-1097 -833 2995
-1089 -835 3002
-1075 -831 2991
-1059 -826 2975
-1051 -827 2983
-1043 -828 2988
-1024 -820 2962
-1016 -821 2969
-1001 -816 2954
-993 -818 2961
-982 -816 2958
-970 -814 2951
-961 -814 2953
-950 -812 2948
-932 -804 2923
-910 -793 2883
-866 -762 2774
-814 -723 2635
-867 -779 2839
-882 -800 2917
-873 -800 2920
-863 -799 2919
-852 -797 2914
-845 -798 2920
-830 -792 2901
-821 -793 2904
-811 -792 2901
-797 -787 2886
-790 -789 2894
-778 -786 2884
-768 -784 2880
-757 -781 2871
-750 -784 2882
-737 -779 2867
-729 -780 2871
-720 -779 2871
-709 -777 2865
-699 -775 2858
-689 -774 2855
-679 -773 2852
-669 -770 2845
-660 -770 2845
-650 -769 2842
-640 -767 2835
-629 -764 2828
-622 -765 2833
-613 -765 2834
-600 -760 2817
-593 -761 2822
-583 -760 2818
-573 -758 2811
-565 -758 2812
-555 -756 2805
-546 -756 2806
-537 -754 2801
-525 -750 2786
-519 -752 2798
-508 -749 2784
-501 -751 2794
-490 -747 2780
-482 -748 2784
-472 -744 2773
-464 -745 2774
-454 -743 2768
-446 -743 2769
-436 -741 2761
-430 -744 2776
-419 -739 2759
-412 -741 2767
-402 -738 2755
-393 -737 2752
-385 -737 2753
-374 -732 2735
-367 -734 2743
-359 -734 2744
-350 -731 2734
-341 -730 2729
-333 -730 2732
-324 -728 2723
-315 -727 2720
-308 -730 2732
-299 -726 2717
-291 -728 2725
-283 -727 2720
-275 -727 2722
-266 -724 2711
-257 -724 2710
-249 -724 2710
-241 -721 2702
-233 -721 2702
-224 -720 2697
-217 -721 2702
-208 -717 2689
-199 -716 2684
-191 -716 2684
-184 -717 2688
-175 -716 2683
-167 -714 2676
-159 -713 2673
-151 -714 2677
-143 -711 2666
-135 -714 2677
-127 -711 2667
-119 -711 2666
-111 -709 2659
-103 -708 2653
-95 -707 2651
-87 -708 2655
-79 -703 2638
-71 -706 2647
-63 -702 2632
-56 -706 2645
-48 -701 2630
-40 -702 2630
-32 -701 2627
-24 -701 2628
-17 -701 2626
-9 -699 2619
-1 -698 2614
6 -698 2614
13 -697 2612
21 -697 2611
29 -698 2616
36 -694 2598
44 -694 2600
52 -697 2608
59 -695 2600
67 -692 2590
75 -693 2594
82 -693 2592
90 -693 2592
97 -688 2573
105 -690 2581
112 -691 2584
120 -689 2575
127 -686 2566
135 -688 2570
142 -687 2569
149 -686 2562
157 -685 2557
164 -685 2557
172 -687 2564
179 -682 2547
186 -683 2549
193 -682 2543
201 -680 2538
208 -681 2539
215 -678 2528
223 -679 2530
230 -680 2532
237 -678 2524
244 -677 2520
252 -677 2520
260 -679 2527
266 -676 2514
274 -677 2516
281 -677 2515
288 -674 2505
295 -674 2503
303 -675 2506
309 -673 2499
318 -675 2506
325 -674 2502
332 -673 2496
339 -673 2496
346 -672 2491
354 -673 2493
361 -672 2488
367 -670 2478
375 -672 2485
381 -669 2473
390 -671 2480
396 -670 2474
402 -668 2465
408 -666 2458
418 -669 2467
425 -669 2465
433 -670 2467
438 -667 2457
445 -666 2450
452 -666 2451
459 -665 2444
465 -663 2436
473 -664 2439
480 -663 2436
487 -663 2434
494 -664 2433
502 -664 2433
508 -663 2428
515 -662 2425
524 -664 2431
530 -663 2423
537 -662 2420
542 -661 2412
550 -661 2412
557 -661 2411
566 -663 2417
573 -662 2412
578 -660 2401
586 -661 2405
591 -658 2391
601 -661 2401
605 -658 2388
613 -659 2388
620 -658 2386
627 -658 2384
633 -657 2378
642 -659 2383
648 -657 2376
653 -656 2367
663 -659 2377
669 -658 2371
674 -656 2362
682 -656 2360
692 -659 2368
698 -657 2361
705 -657 2359
711 -657 2356
720 -658 2359
724 -656 2348
734 -658 2353
739 -656 2346
748 -657 2347
754 -656 2342
761 -656 2340
767 -655 2333
773 -655 2330
781 -655 2329
789 -656 2329
797 -657 2331
802 -655 2321
808 -654 2315
815 -654 2314
824 -655 2315
833 -657 2318
838 -655 2309
843 -654 2303
855 -657 2313
861 -657 2308
868 -657 2305
872 -654 2294
881 -656 2296
888 -656 2294
894 -655 2289
902 -655 2286
910 -656 2287
917 -656 2285
924 -656 2282
930 -655 2276
940 -657 2279
943 -654 2268
952 -655 2268
961 -657 2272
967 -656 2266
972 -655 2258
979 -654 2254
987 -655 2252
985 -649 2229
1011 -662 2269
1011 -657 2250
1020 -658 2252
1045 -670 2289
1029 -655 2235
1039 -657 2238
1046 -656 2233
1053 -657 2231
1062 -658 2232
1071 -659 2232
1069 -654 2211
1026 -623 2104
941 -567 1912
890 -533 1794
892 -530 1784
896 -530 1778
902 -530 1776
911 -531 1778
914 -530 1770
927 -534 1782
929 -532 1773
935 -532 1770
931 -527 1749
942 -530 1756
949 -530 1755
967 -537 1774
961 -531 1751
967 -531 1748
977 -533 1753
973 -528 1732
983 -530 1738
990 -531 1735
992 -529 1727
999 -530 1726
-1607 -797 2686
-1613 -805 2716
-1612 -809 2734
-1614 -815 2759
-1608 -817 2769
-1605 -820 2784
-1599 -822 2795
-1596 -825 2811
-1596 -830 2832
-1584 -828 2831
-1590 -836 2864
-1592 -842 2889
-1600 -852 2927
-1603 -859 2954
-1608 -867 2987
-1636 -887 3061
-1663 -908 3135
-1683 -924 3198
-1672 -924 3202
-1654 -920 3192
-1641 -919 3192
-1624 -915 3185
-1604 -910 3170
-1591 -908 3169
-1578 -906 3167
-1562 -903 3160
-1537 -895 3134
-1524 -893 3133
-1516 -894 3141
-1499 -890 3131
-1487 -889 3132
-1473 -887 3128
-1457 -884 3119
-1441 -880 3109
-1429 -879 3110
-1415 -876 3104
-1407 -877 3112
-1386 -871 3092
-1372 -868 3087
-1361 -867 3088
-1347 -864 3081
-1334 -863 3078
-1322 -861 3076
-1308 -858 3068
-1298 -858 3072
-1283 -855 3063
-1268 -851 3053
-1252 -847 3041
-1243 -847 3045
-1228 -843 3035
-1215 -841 3031
-1206 -842 3035
-1191 -838 3025
-1180 -837 3024
-1170 -837 3026
-1154 -831 3010
-1145 -832 3016
-1136 -832 3018
-1119 -827 3001
-1110 -827 3006
-1097 -824 2999
-1086 -823 2997
-1073 -820 2989
-1062 -819 2987
-1048 -815 2975
-1040 -816 2982
-1031 -816 2984
-1017 -813 2973
-1002 -808 2960
-994 -809 2964
-982 -807 2959
-972 -806 2957
-960 -804 2952
-952 -805 2958
-937 -800 2942
-919 -791 2914
-884 -769 2834
-819 -720 2653
-833 -739 2728
-873 -783 2891
-873 -791 2921
-863 -790 2921
-850 -786 2909
-839 -784 2902
-831 -785 2908
-820 -783 2903
-809 -781 2897
-799 -780 2895
-788 -778 2888
-779 -778 2889
-767 -774 2878
-759 -775 2882
-748 -772 2875
-738 -772 2874
-729 -771 2872
-717 -768 2863
-707 -766 2856
-696 -764 2850
-686 -763 2847
-676 -761 2842
-669 -763 2850
-661 -763 2852
-650 -760 2844
-642 -761 2849
-631 -758 2838
-621 -756 2833
-611 -754 2826
-601 -753 2823
-591 -751 2817
-582 -750 2815
-573 -750 2814
-565 -750 2815
-556 -749 2813
-545 -746 2804
-537 -746 2804
-527 -745 2800
-517 -742 2791
-509 -742 2792
-498 -738 2780
-491 -741 2791
-481 -738 2780
-474 -739 2787
-463 -735 2773
-455 -735 2773
-446 -735 2772
-438 -736 2776
-428 -732 2763
-420 -733 2767
-409 -728 2750
-401 -728 2750
-394 -730 2757
-385 -729 2755
-377 -728 2753
-367 -726 2745
-359 -727 2748
-350 -724 2739
-342 -724 2740
-333 -723 2737
-325 -723 2736
-316 -721 2731
-307 -718 2719
-299 -719 2722
-290 -716 2710
-282 -718 2718
-273 -715 2708
-265 -716 2711
-257 -715 2710
-249 -713 2703
-240 -711 2695
-232 -711 2694
-224 -711 2696
-216 -713 2703
-208 -711 2697
-200 -709 2690
-192 -710 2692
-183 -708 2686
-175 -708 2685
-167 -705 2673
-158 -704 2669
-151 -705 2673
-143 -703 2667
-135 -702 2665
-127 -704 2671
-119 -701 2661
-111 -702 2663
-103 -701 2659
-95 -701 2658
-87 -700 2655
-79 -698 2648
-71 -697 2646
-63 -695 2638
-55 -694 2634
-48 -696 2640
-40 -693 2629
-32 -693 2629
-24 -694 2631
-16 -692 2625
-9 -691 2622
-1 -692 2625
6 -690 2615
13 -690 2615
21 -688 2608
29 -690 2614
36 -688 2606
44 -684 2593
52 -687 2603
59 -686 2597
67 -684 2590
74 -684 2592
82 -683 2586
90 -683 2586
97 -681 2579
105 -684 2587
112 -681 2577
119 -680 2573
127 -680 2572
135 -680 2570
142 -680 2570
149 -676 2555
156 -675 2550
164 -677 2558
172 -677 2557
179 -677 2558
187 -676 2553
193 -671 2535
202 -677 2553
209 -674 2544
216 -673 2540
222 -670 2528
229 -669 2520
238 -672 2531
244 -670 2523
252 -669 2520
259 -670 2522
267 -669 2520
273 -668 2512
281 -669 2516
288 -667 2510
295 -667 2508
302 -665 2499
310 -667 2503
317 -666 2499
324 -666 2499
331 -664 2492
339 -665 2495
345 -663 2486
353 -665 2490
360 -664 2487
367 -663 2483
374 -663 2480
380 -660 2470
387 -660 2467
397 -663 2478
404 -664 2479
409 -659 2459
417 -661 2466
424 -660 2462
431 -660 2460
437 -658 2453
444 -657 2446
452 -658 2450
460 -659 2452
465 -656 2440
475 -660 2452
480 -657 2439
487 -656 2435
494 -656 2435
500 -655 2427
509 -656 2432
515 -655 2425
521 -654 2419
531 -657 2429
535 -653 2416
541 -652 2409
549 -653 2411
557 -653 2409
563 -652 2405
570 -652 2401
578 -653 2404
586 -654 2405
592 -652 2398
600 -653 2399
607 -653 2398
612 -650 2387
621 -652 2391
626 -650 2383
634 -651 2384
639 -649 2374
648 -651 2379
655 -651 2377
662 -650 2374
671 -652 2379
672 -646 2355
685 -652 2373
687 -647 2353
697 -650 2363
706 -651 2365
712 -650 2358
717 -648 2349
725 -649 2350
731 -648 2344
741 -650 2351
745 -648 2340
753 -649 2342
759 -648 2337
769 -650 2342
773 -647 2330
780 -647 2327
788 -648 2329
796 -649 2330
803 -648 2325
810 -649 2324
818 -649 2324
822 -647 2312
830 -647 2311
840 -650 2319
843 -647 2304
852 -648 2307
860 -649 2307
865 -647 2299
875 -649 2303
881 -648 2298
888 -648 2294
895 -648 2293
905 -650 2297
908 -647 2284
919 -650 2291
921 -646 2275
929 -647 2275
937 -648 2275
944 -648 2271
952 -648 2270
961 -649 2272
971 -651 2276
974 -649 2264
979 -647 2256
1007 -661 2301
993 -647 2250
1005 -651 2258
1004 -645 2237
1012 -646 2237
1023 -649 2242
1030 -648 2237
1037 -648 2235
1045 -649 2234
1052 -649 2230
1061 -650 2231
1066 -648 2223
1075 -650 2225
1035 -621 2124
948 -565 1929
890 -527 1796
894 -526 1790
900 -526 1788
904 -525 1782
912 -527 1784
918 -527 1781
919 -523 1768
927 -525 1770
929 -523 1760
930 -520 1748
941 -523 1756
944 -522 1747
957 -526 1757
963 -526 1756
966 -525 1748
976 -527 1752
979 -525 1744
982 -524 1736
987 -523 1731
995 -525 1733
998 -523 1725
-1609 -789 2692
-1611 -795 2715
-1619 -804 2750
-1615 -806 2763
-1606 -806 2768
-1601 -808 2780
-1606 -816 2809
-1596 -815 2813
-1583 -814 2811
-1581 -818 2829
-1577 -820 2843
-1573 -823 2858
-1571 -827 2876
-1572 -833 2900
-1571 -837 2920
-1588 -852 2975
-1636 -883 3087
-1678 -912 3192
-1664 -909 3189
-1653 -909 3194
-1630 -902 3173
-1611 -897 3161
-1604 -899 3172
-1590 -897 3169
-1569 -891 3152
-1559 -891 3156
-1541 -887 3146
-1528 -886 3145
-1515 -884 3143
-1496 -879 3128
-1482 -876 3124
-1466 -873 3116
-1456 -873 3119
-1442 -871 3116
-1427 -868 3108
-1414 -866 3106
-1399 -863 3098
-1384 -859 3090
-1373 -858 3090
-1359 -856 3084
-1341 -851 3071
-1330 -850 3070
-1320 -850 3074
-1306 -847 3067
-1290 -844 3057
-1276 -840 3048
-1265 -839 3048
-1254 -838 3048
-1241 -836 3044
-1225 -832 3032
-1217 -833 3038
-1201 -829 3026
-1193 -829 3031
-1175 -824 3014
-1167 -825 3019
-1155 -823 3017
-1137 -817 2997
-1129 -818 3003
-1119 -818 3005
-1107 -816 3000
-1096 -814 2997
-1084 -813 2994
-1074 -812 2995
-1060 -808 2983
-1051 -808 2985
-1040 -807 2985
-1027 -804 2976
-1014 -801 2966
-1004 -801 2968
-993 -799 2964
-981 -797 2957
-969 -794 2951
-958 -793 2950
-948 -792 2946
-936 -790 2942
-924 -787 2934
-901 -775 2890
-858 -746 2782
-803 -705 2631
-850 -754 2816
-867 -777 2905
-860 -779 2914
-852 -779 2916
-840 -776 2908
-828 -773 2899
-816 -771 2891
-809 -772 2899
-800 -772 2899
-788 -769 2891
-781 -771 2898
-768 -767 2885
-757 -765 2878
-747 -763 2874
-738 -762 2873
-728 -761 2870
-718 -760 2868
-706 -757 2857
-698 -757 2861
-690 -757 2862
-679 -755 2854
-667 -751 2842
-656 -749 2833
-646 -746 2826
-640 -750 2839
-629 -747 2833
-618 -744 2822
-611 -746 2828
-599 -742 2816
-589 -740 2810
-582 -741 2816
-574 -742 2820
-564 -740 2811
-556 -741 2818
-546 -738 2807
-535 -735 2796
-526 -734 2795
-517 -733 2793
-506 -729 2779
-499 -732 2789
-490 -731 2785
-482 -731 2788
-474 -731 2788
-464 -729 2781
-453 -725 2767
-447 -729 2781
-437 -726 2771
-428 -724 2767
-418 -721 2754
-410 -722 2758
-402 -721 2757
-393 -721 2755
-383 -717 2744
-375 -718 2745
-366 -716 2739
-358 -716 2742
-349 -714 2734
-341 -714 2732
-332 -714 2732
-323 -710 2720
-315 -711 2724
-307 -711 2726
-299 -711 2723
-290 -708 2714
-282 -708 2713
-274 -709 2717
-265 -707 2713
-257 -705 2705
-249 -705 2705
-240 -703 2698
-231 -702 2693
-224 -703 2696
-216 -702 2695
-208 -703 2698
-200 -704 2703
-191 -700 2685
-183 -701 2690
-175 -698 2678
-167 -698 2678
-159 -698 2679
-150 -696 2670
-143 -696 2673
-135 -695 2669
-127 -694 2665
-119 -693 2662
-110 -690 2648
-103 -691 2654
-95 -690 2650
-87 -688 2643
-79 -691 2651
-71 -689 2644
-63 -690 2648
-55 -686 2634
-48 -688 2639
-40 -686 2632
-32 -686 2633
-24 -682 2618
-16 -682 2618
-9 -682 2616
-1 -683 2620
6 -680 2608
13 -680 2609
21 -681 2611
29 -680 2608
36 -679 2605
44 -679 2603
52 -677 2597
59 -677 2596
67 -676 2590
74 -676 2589
82 -677 2593
90 -675 2588
97 -675 2585
105 -675 2584
112 -673 2576
120 -672 2575
127 -671 2569
134 -671 2568
142 -672 2572
150 -671 2567
157 -669 2559
164 -669 2557
172 -669 2556
178 -666 2544
186 -668 2552
194 -667 2549
201 -665 2540
208 -665 2540
215 -664 2536
223 -666 2541
231 -667 2543
235 -658 2509
245 -663 2528
252 -661 2521
258 -660 2515
265 -659 2509
274 -661 2515
281 -661 2514
287 -658 2505
295 -658 2502
303 -659 2506
309 -658 2500
317 -659 2503
323 -656 2492
330 -655 2485
339 -658 2495
345 -656 2488
353 -656 2487
358 -652 2471
368 -656 2487
374 -654 2478
381 -654 2475
389 -655 2479
396 -655 2476
402 -652 2464
408 -651 2458
417 -653 2466
424 -652 2462
431 -652 2458
438 -651 2455
445 -651 2453
451 -650 2449
458 -648 2441
464 -647 2435
472 -649 2440
480 -649 2440
487 -649 2439
493 -648 2432
500 -647 2428
509 -649 2435
514 -646 2422
521 -646 2419
529 -647 2423
536 -647 2421
540 -643 2405
549 -645 2409
557 -646 2412
562 -644 2402
571 -646 2408
577 -644 2399
583 -643 2395
591 -644 2397
599 -644 2396
605 -643 2389
614 -645 2397
619 -643 2388
626 -643 2384
631 -640 2373
640 -642 2378
645 -641 2370
653 -641 2369
661 -642 2372
668 -642 2371
674 -641 2363
683 -642 2367
689 -642 2362
695 -640 2354
702 -640 2353
710 -641 2353
718 -642 2356
725 -642 2354
731 -641 2349
739 -641 2348
746 -642 2346
752 -640 2339
760 -641 2339
763 -638 2326
773 -640 2332
778 -639 2325
789 -641 2331
793 -639 2320
802 -641 2325
809 -641 2323
816 -640 2318
821 -639 2311
830 -640 2312
838 -641 2313
846 -642 2314
851 -640 2307
858 -640 2302
862 -638 2293
873 -640 2299
880 -640 2297
886 -640 2293
893 -640 2289
900 -639 2285
911 -642 2293
916 -641 2285
921 -640 2278
930 -641 2279
935 -639 2272
944 -640 2272
950 -640 2268
963 -643 2278
964 -640 2262
973 -641 2264
977 -639 2253
980 -636 2241
986 -636 2237
993 -635 2232
997 -633 2222
1016 -641 2246
1031 -646 2261
1032 -642 2244
1033 -638 2228
1045 -641 2235
1053 -642 2235
1062 -643 2235
1061 -639 2216
1072 -640 2219
1039 -617 2133
951 -561 1937
899 -526 1815
901 -524 1805
899 -520 1787
900 -517 1775
908 -518 1776
909 -515 1763
923 -520 1777
923 -517 1764
934 -520 1771
939 -519 1766
941 -517 1757
953 -521 1766
954 -518 1753
954 -515 1740
964 -517 1745
973 -519 1749
975 -517 1738
984 -519 1741
989 -519 1738
999 -521 1741
1002 -520 1734
-1615 -783 2705
-1623 -792 2738
-1621 -795 2754
-1612 -795 2760
-1611 -800 2779
-1607 -802 2794
-1594 -801 2792
-1597 -806 2817
-1590 -808 2826
-1582 -809 2834
-1576 -811 2845
-1572 -813 2859
-1570 -817 2876
-1563 -818 2885
-1560 -822 2903
-1592 -844 2984
-1654 -882 3124
-1672 -897 3183
-1671 -903 3207
-1649 -896 3188
-1635 -895 3186
-1615 -889 3171
-1601 -888 3170
-1587 -885 3165
-1570 -882 3158
-1554 -879 3150
-1543 -878 3152
-1528 -875 3147
-1508 -870 3131
-1495 -868 3129
-1485 -868 3133
-1466 -863 3118
-1453 -861 3116
-1440 -859 3112
-1426 -857 3109
-1414 -856 3107
-1399 -852 3099
-1385 -850 3095
-1371 -847 3088
-1360 -847 3089
-1341 -841 3073
-1330 -840 3072
-1320 -840 3076
-1301 -834 3057
-1289 -833 3057
-1278 -832 3055
-1269 -832 3060
-1249 -826 3039
-1239 -826 3042
-1225 -822 3033
-1212 -820 3029
-1204 -821 3035
-1194 -821 3038
-1176 -815 3017
-1167 -815 3022
-1157 -815 3022
-1139 -809 3004
-1130 -809 3007
-1116 -806 2999
-1103 -803 2990
-1095 -804 2997
-1082 -801 2989
-1071 -801 2989
-1062 -800 2991
-1051 -800 2990
-1035 -794 2973
-1027 -795 2977
-1015 -793 2972
-1004 -791 2968
-993 -790 2965
-979 -786 2954
-968 -785 2950
-957 -783 2949
-947 -783 2948
-931 -777 2927
-922 -776 2929
-908 -773 2917
-880 -756 2855
-823 -714 2701
-809 -709 2681
-852 -755 2857
-861 -770 2918
-849 -767 2909
-838 -765 2903
-828 -764 2901
-814 -760 2886
-808 -762 2897
-799 -763 2899
-788 -760 2892
-777 -758 2885
-765 -755 2875
-756 -755 2876
-746 -753 2871
-736 -752 2869
-727 -752 2869
-716 -749 2861
-707 -749 2861
-697 -747 2856
-687 -746 2853
-678 -746 2854
-667 -743 2846
-657 -741 2838
-651 -744 2852
-637 -738 2830
-629 -739 2835
-620 -738 2830
-610 -736 2827
-601 -736 2825
-591 -734 2821
-583 -734 2822
-573 -732 2815
-563 -731 2811
-554 -730 2810
-544 -728 2803
-535 -727 2801
-527 -727 2801
-515 -722 2783
-508 -724 2789
-497 -721 2780
-489 -721 2783
-480 -719 2775
-472 -720 2779
-462 -718 2772
-454 -718 2775
-447 -719 2779
-438 -718 2776
-427 -714 2760
-418 -714 2760
-410 -714 2762
-401 -712 2754
-393 -712 2755
-383 -710 2747
-376 -712 2756
-368 -711 2753
-358 -707 2739
-351 -709 2748
-341 -706 2735
-333 -707 2740
-323 -703 2725
-315 -704 2728
-306 -701 2717
-298 -701 2718
-290 -701 2720
-282 -702 2722
-273 -699 2713
-265 -699 2711
-258 -701 2719
-248 -697 2706
-240 -696 2702
-232 -697 2707
-224 -696 2701
-215 -694 2693
-208 -695 2699
-200 -694 2695
-191 -692 2689
-182 -689 2675
-175 -690 2680
-166 -689 2675
-158 -687 2671
-150 -687 2668
-142 -685 2663
-135 -688 2673
-127 -686 2666
-119 -687 2669
-110 -683 2654
-103 -685 2662
-95 -683 2654
-87 -682 2648
-79 -683 2655
-71 -680 2642
-63 -679 2638
-55 -677 2630
-47 -677 2630
-40 -676 2627
-32 -677 2630
-24 -677 2630
-16 -675 2620
-9 -676 2624
-1 -674 2617
6 -675 2620
14 -674 2617
21 -671 2603
29 -670 2601
37 -672 2607
44 -669 2597
52 -668 2592
59 -669 2595
67 -668 2590
74 -666 2583
82 -666 2582
89 -666 2583
97 -664 2574
104 -664 2574
112 -664 2574
119 -663 2568
127 -663 2567
135 -664 2571
142 -661 2561
150 -664 2571
156 -660 2555
164 -661 2558
171 -660 2553
179 -661 2555
186 -658 2545
194 -659 2548
201 -657 2539
209 -659 2547
216 -657 2539
223 -657 2537
231 -658 2539
237 -655 2527
244 -654 2523
251 -653 2519
260 -656 2528
266 -653 2518
274 -653 2516
280 -652 2510
288 -653 2513
295 -650 2503
301 -649 2497
309 -650 2502
316 -649 2496
324 -650 2498
330 -648 2491
338 -648 2490
345 -648 2489
352 -647 2482
360 -649 2490
366 -645 2474
373 -646 2476
381 -647 2478
388 -646 2473
397 -648 2482
402 -645 2466
409 -645 2466
416 -644 2461
424 -644 2462
431 -644 2461
437 -643 2453
445 -643 2453
450 -641 2444
456 -638 2433
464 -640 2436
472 -642 2442
479 -641 2437
487 -641 2438
492 -638 2426
500 -639 2428
507 -640 2429
514 -639 2425
522 -640 2426
529 -640 2426
534 -637 2410
542 -637 2412
548 -637 2407
555 -636 2405
561 -635 2400
569 -635 2398
578 -638 2405
582 -634 2390
591 -637 2399
599 -637 2398
605 -636 2392
613 -637 2395
618 -635 2384
623 -633 2375
633 -636 2383
640 -635 2380
649 -637 2386
653 -634 2371
661 -635 2372
668 -635 2371
673 -633 2363
682 -634 2365
687 -633 2357
693 -632 2352
704 -635 2361
710 -633 2354
716 -633 2350
724 -634 2351
731 -633 2348
740 -635 2351
745 -633 2343
751 -633 2339
758 -633 2337
765 -632 2333
771 -631 2328
779 -632 2329
787 -632 2327
793 -632 2322
802 -633 2325
804 -629 2308
813 -631 2313
819 -630 2307
828 -632 2311
838 -634 2316
842 -631 2305
852 -634 2311
856 -631 2299
864 -632 2299
872 -632 2298
878 -632 2294
886 -632 2294
894 -633 2293
900 -632 2287
908 -633 2288
913 -631 2278
924 -634 2285
927 -631 2273
937 -633 2277
944 -633 2274
950 -632 2269
956 -632 2263
962 -631 2258
970 -632 2258
972 -628 2242
983 -631 2250
993 -633 2253
986 -624 2218
1000 -629 2232
1022 -638 2261
1026 -636 2251
1038 -639 2258
1037 -634 2239
1044 -634 2236
1049 -632 2227
1057 -633 2225
1065 -634 2226
1070 -632 2217
1048 -615 2155
965 -562 1966
896 -519 1811
889 -511 1783
907 -518 1804
906 -515 1789
903 -510 1769
918 -515 1784
920 -513 1774
927 -513 1772
935 -514 1774
942 -515 1774
944 -513 1764
954 -516 1769
956 -514 1759
955 -510 1744
971 -515 1759
974 -514 1751
979 -514 1748
989 -516 1752
993 -515 1745
995 -513 1736
994 -509 1721
-1619 -776 2714
-1623 -782 2740
-1623 -787 2761
-1616 -788 2769
-1613 -791 2786
-1608 -794 2798
-1597 -793 2799
-1595 -796 2816
-1585 -796 2820
-1584 -800 2840
-1583 -805 2860
-1572 -804 2861
-1567 -806 2874
-1561 -808 2885
-1565 -815 2914
-1615 -846 3031
-1677 -884 3170
-1678 -890 3197
-1662 -888 3192
-1650 -887 3193
-1631 -882 3181
-1610 -877 3165
-1601 -877 3171
-1588 -875 3170
-1570 -871 3159
-1559 -871 3163
-1541 -867 3152
-1523 -862 3139
-1507 -859 3130
-1494 -857 3129
-1484 -857 3132
-1471 -856 3132
-1452 -851 3117
-1442 -851 3120
-1422 -845 3103
-1409 -843 3098
-1393 -839 3090
-1384 -840 3096
-1363 -833 3074
-1355 -834 3081
-1341 -832 3076
-1330 -831 3077
-1318 -829 3073
-1304 -827 3067
-1291 -824 3063
-1283 -826 3071
-1264 -820 3051
-1250 -817 3043
-1236 -814 3037
-1227 -815 3041
-1217 -814 3042
-1206 -813 3042
-1189 -808 3027
-1176 -806 3021
-1166 -805 3021
-1152 -803 3014
-1142 -802 3015
-1124 -796 2995
-1116 -797 3001
-1105 -796 3000
-1094 -794 2997
-1085 -795 3001
-1071 -791 2989
-1060 -790 2989
-1045 -785 2974
-1037 -787 2981
-1025 -784 2973
-1015 -784 2975
-1000 -779 2960
-992 -780 2965
-980 -778 2959
-966 -774 2946
-956 -773 2945
-944 -771 2941
-936 -772 2944
-923 -768 2934
-911 -766 2929
-891 -757 2895
-865 -742 2840
-802 -695 2660
-820 -718 2751
-849 -751 2878
-847 -757 2904
-842 -760 2920
-827 -755 2901
-817 -754 2899
-808 -754 2900
-795 -750 2885
-786 -750 2887
-775 -747 2879
-767 -748 2884
-756 -746 2878
-745 -744 2871
-734 -741 2864
-729 -745 2878
-715 -739 2858
-708 -742 2869
-695 -737 2853
-688 -738 2859
-675 -733 2841
-668 -735 2850
-657 -733 2841
-648 -732 2840
-638 -730 2835
-627 -728 2827
-618 -727 2826
-609 -726 2823
-599 -725 2819
-589 -723 2814
-580 -723 2812
-574 -725 2823
-563 -722 2811
-553 -720 2803
-545 -720 2806
-535 -719 2803
-527 -719 2803
-516 -715 2789
-506 -713 2784
-497 -712 2779
-489 -712 2782
-480 -712 2782
-471 -710 2774
-464 -713 2786
-453 -709 2772
-444 -707 2766
-436 -708 2770
-427 -706 2761
-419 -707 2766
-408 -702 2750
-401 -704 2758
-393 -704 2759
-384 -702 2751
-375 -702 2750
-365 -698 2738
-358 -699 2741
-349 -698 2737
-341 -698 2738
-332 -697 2734
-323 -696 2729
-316 -696 2732
-307 -695 2729
-298 -693 2722
-290 -693 2720
-281 -690 2709
-272 -689 2707
-265 -691 2716
-257 -691 2713
-249 -690 2709
-240 -688 2703
-230 -683 2685
-223 -685 2694
-215 -684 2690
-206 -683 2684
-199 -683 2685
-191 -683 2684
-182 -682 2681
-175 -682 2681
-166 -681 2678
-158 -680 2674
-150 -678 2668
-142 -679 2671
-134 -677 2662
-126 -678 2666
-118 -676 2660
-110 -674 2651
-102 -676 2657
-94 -673 2648
-87 -674 2652
-79 -674 2651
-71 -672 2643
-63 -672 2644
-55 -671 2638
-47 -670 2634
-40 -671 2638
-32 -667 2621
-24 -669 2628
-16 -666 2619
-9 -666 2619
-1 -666 2617
6 -664 2610
14 -664 2611
21 -664 2607
29 -660 2593
36 -662 2600
44 -660 2591
52 -661 2594
59 -661 2597
67 -660 2591
74 -657 2580
82 -658 2582
90 -659 2588
97 -659 2585
104 -656 2574
112 -655 2570
120 -657 2578
127 -654 2564
134 -653 2560
142 -655 2566
150 -656 2569
156 -652 2554
164 -653 2558
170 -649 2540
178 -650 2543
186 -651 2549
193 -649 2540
200 -648 2534
208 -651 2544
215 -649 2538
221 -644 2516
230 -648 2531
237 -647 2527
244 -646 2521
251 -644 2514
258 -644 2515
266 -646 2520
273 -645 2514
281 -645 2513
288 -645 2513
294 -642 2499
303 -645 2510
309 -643 2503
317 -644 2506
324 -642 2499
331 -641 2494
338 -640 2489
345 -640 2488
353 -642 2493
358 -638 2475
366 -639 2481
373 -638 2475
380 -638 2473
387 -637 2471
394 -637 2468
402 -638 2471
408 -636 2461
415 -636 2459
423 -637 2462
429 -634 2449
436 -634 2450
445 -636 2457
451 -635 2451
459 -635 2450
465 -633 2441
472 -633 2439
480 -635 2445
487 -634 2438
493 -633 2434
499 -631 2426
507 -632 2427
513 -630 2420
521 -632 2423
528 -632 2422
534 -629 2411
542 -631 2416
551 -633 2421
557 -631 2415
563 -630 2408
571 -631 2411
577 -630 2403
583 -629 2398
592 -630 2403
598 -629 2397
606 -630 2397
610 -626 2383
617 -626 2381
627 -629 2389
633 -628 2386
637 -625 2371
646 -627 2376
651 -625 2365
662 -628 2377
668 -627 2372
675 -627 2370
680 -625 2359
688 -626 2362
694 -625 2354
702 -626 2356
710 -626 2357
715 -624 2347
724 -627 2354
730 -625 2347
737 -625 2345
743 -624 2339
751 -625 2339
759 -626 2340
764 -624 2333
772 -625 2332
780 -625 2331
785 -624 2323
794 -625 2327
800 -624 2321
806 -624 2317
817 -626 2324
821 -624 2315
828 -624 2312
834 -624 2307
843 -625 2309
850 -625 2306
857 -625 2303
864 -624 2299
873 -626 2303
880 -626 2300
885 -625 2293
894 -626 2294
899 -624 2286
905 -623 2280
914 -625 2282
921 -625 2280
926 -624 2273
936 -625 2277
939 -623 2265
948 -624 2267
955 -624 2264
963 -624 2262
970 -625 2260
976 -624 2254
983 -624 2250
983 -619 2232
988 -618 2224
1000 -621 2233
1014 -625 2244
1024 -627 2249
1017 -618 2214
1033 -624 2231
1042 -625 2233
1049 -625 2229
1060 -628 2235
1065 -627 2227
1072 -626 2223
1057 -614 2175
973 -561 1984
901 -516 1823
900 -512 1806
899 -508 1789
904 -507 1785
908 -507 1779
921 -510 1790
919 -506 1773
926 -507 1772
932 -507 1770
934 -505 1760
943 -507 1763
948 -507 1760
952 -506 1753
962 -508 1758
961 -504 1742
974 -508 1753
972 -504 1736
973 -502 1724
986 -505 1735
994 -507 1736
995 -504 1725
-1636 -775 2744
-1628 -776 2752
-1621 -777 2760
-1620 -781 2778
-1611 -781 2785
-1606 -783 2796
-1603 -786 2813
-1597 -788 2822
-1595 -792 2840
-1580 -789 2835
-1584 -796 2863
-1577 -797 2872
-1568 -798 2879
-1572 -804 2908
-1587 -817 2958
-1637 -848 3074
-1689 -880 3196
-1676 -879 3197
-1665 -879 3200
-1648 -875 3192
-1628 -870 3179
-1611 -867 3169
-1597 -865 3166
-1580 -861 3157
-1564 -858 3150
-1550 -856 3147
-1536 -854 3143
-1525 -853 3145
-1511 -851 3143
-1490 -845 3123
-1478 -844 3123
-1464 -842 3118
-1451 -840 3117
-1434 -836 3106
-1423 -835 3106
-1408 -832 3099
-1393 -829 3091
-1379 -827 3086
-1362 -823 3074
-1356 -825 3086
-1342 -823 3080
-1329 -820 3075
-1321 -822 3084
-1295 -811 3048
-1287 -812 3056
-1276 -811 3055
-1267 -812 3060
-1245 -804 3035
-1235 -804 3036
-1226 -804 3042
-1214 -803 3039
-1200 -799 3029
-1189 -798 3028
-1175 -796 3020
-1161 -792 3011
-1156 -796 3026
-1137 -789 3004
-1127 -788 3004
-1117 -788 3004
-1101 -783 2990
-1093 -784 2997
-1079 -781 2987
-1071 -782 2991
-1057 -779 2983
-1045 -777 2978
-1035 -776 2976
-1024 -775 2974
-1010 -771 2962
-999 -770 2960
-990 -770 2964
-978 -768 2957
-967 -766 2951
-960 -767 2960
-944 -762 2942
-934 -762 2942
-923 -760 2938
-910 -756 2927
-899 -754 2920
-879 -745 2888
-843 -722 2799
-791 -684 2655
-827 -723 2808
-838 -741 2877
-836 -746 2902
-827 -746 2901
-815 -744 2894
-808 -745 2900
-793 -740 2882
-785 -740 2884
-775 -739 2883
-763 -735 2870
-755 -737 2877
-743 -733 2867
-732 -731 2859
-726 -733 2869
-715 -731 2863
-708 -733 2869
-695 -728 2853
-686 -728 2855
-676 -727 2851
-665 -723 2839
-656 -723 2839
-649 -725 2849
-637 -721 2835
-628 -720 2832
-620 -722 2838
-610 -719 2829
-597 -714 2811
-592 -719 2830
-581 -715 2817
-571 -714 2812
-563 -713 2813
-551 -709 2798
-544 -711 2804
-534 -708 2796
-526 -710 2803
-516 -707 2791
-507 -706 2791
-495 -702 2774
-489 -705 2787
-478 -700 2770
-470 -701 2774
-463 -702 2778
-453 -700 2773
-444 -699 2768
-436 -700 2772
-427 -698 2767
-418 -697 2763
-410 -698 2766
-402 -697 2764
-391 -693 2748
-383 -693 2749
-375 -692 2747
-367 -693 2750
-357 -690 2738
-349 -691 2743
-340 -689 2735
-332 -689 2737
-323 -687 2727
-316 -689 2738
-307 -687 2729
-298 -685 2724
-290 -685 2723
-280 -681 2707
-272 -680 2705
-264 -681 2708
-257 -682 2711
-249 -682 2713
-240 -681 2707
-232 -679 2700
-223 -677 2695
-215 -677 2695
-207 -676 2692
-198 -675 2686
-190 -674 2684
-183 -675 2686
-174 -671 2672
-166 -672 2675
-159 -674 2685
-150 -670 2667
-142 -669 2665
-134 -671 2672
-126 -667 2657
-118 -667 2657
-110 -665 2649
-102 -666 2653
-94 -666 2651
-86 -665 2649
-78 -663 2641
-71 -663 2641
-63 -662 2637
-55 -662 2636
-47 -661 2630
-39 -660 2628
-32 -661 2632
-24 -661 2630
-16 -658 2617
-8 -658 2620
-1 -657 2615
6 -656 2612
14 -657 2612
21 -656 2610
29 -655 2606
36 -654 2600
44 -655 2604
52 -653 2598
59 -653 2597
67 -655 2604
75 -653 2597
82 -651 2587
89 -649 2578
97 -648 2575
105 -650 2582
112 -648 2574
120 -649 2575
127 -646 2565
134 -645 2560
142 -646 2562
149 -644 2554
156 -644 2556
164 -644 2555
171 -644 2552
179 -644 2550
185 -641 2539
193 -641 2537
200 -641 2537
208 -641 2538
216 -642 2540
222 -640 2534
229 -638 2525
236 -638 2522
245 -641 2533
252 -639 2524
258 -635 2510
266 -637 2516
273 -637 2515
281 -637 2514
288 -637 2514
295 -636 2510
301 -633 2498
309 -635 2503
316 -633 2495
323 -633 2494
331 -634 2496
338 -633 2491
345 -632 2487
352 -632 2484
359 -632 2483
365 -630 2476
372 -630 2473
379 -629 2467
386 -628 2464
394 -629 2466
401 -629 2466
408 -628 2460
416 -629 2463
422 -627 2455
429 -627 2453
437 -627 2453
444 -627 2452
451 -628 2452
456 -625 2438
463 -623 2433
471 -625 2439
479 -625 2438
486 -625 2435
494 -627 2440
498 -623 2423
506 -623 2424
514 -624 2426
522 -625 2427
527 -623 2418
535 -624 2419
542 -623 2415
550 -624 2418
556 -623 2412
563 -623 2410
571 -623 2410
577 -623 2406
583 -621 2400
588 -619 2388
596 -620 2390
605 -621 2395
612 -621 2391
618 -620 2386
625 -620 2384
633 -621 2385
639 -620 2381
646 -619 2376
652 -619 2371
658 -618 2366
666 -618 2365
673 -618 2364
680 -618 2361
687 -617 2357
697 -620 2367
703 -619 2360
711 -620 2361
714 -617 2348
721 -616 2344
732 -620 2354
737 -618 2347
743 -617 2341
751 -617 2339
758 -618 2338
764 -617 2332
772 -618 2334
778 -617 2327
786 -618 2329
792 -617 2323
798 -616 2318
807 -617 2322
813 -616 2315
820 -616 2311
830 -618 2317
835 -617 2311
839 -615 2300
849 -617 2304
854 -615 2296
863 -617 2299
868 -615 2292
879 -618 2300
885 -617 2293
894 -619 2296
897 -616 2283
906 -617 2285
912 -616 2280
920 -617 2279
929 -618 2281
934 -617 2273
941 -617 2271
949 -617 2270
953 -615 2260
966 -619 2271
970 -617 2261
974 -616 2252
982 -616 2250
988 -615 2245
992 -613 2234
1016 -624 2270
1025 -625 2271
1035 -627 2275
1005 -604 2189
1034 -617 2234
1043 -619 2236
1048 -617 2228
1056 -618 2227
1064 -619 2227
1065 -615 2211
1059 -608 2180
981 -559 2002
911 -515 1844
897 -504 1801
903 -504 1799
905 -502 1788
908 -501 1781
914 -501 1778
916 -499 1769
925 -501 1773
925 -497 1758
931 -498 1756
944 -502 1767
952 -503 1768
946 -497 1744
965 -504 1766
960 -498 1741
966 -498 1739
977 -501 1747
986 -502 1748
989 -501 1742
997 -502 1742
988 -495 1713
-1630 -763 2737
-1632 -768 2761
-1632 -773 2781
-1615 -769 2773
-1613 -773 2790
-1606 -774 2798
-1602 -777 2813
-1600 -780 2830
-1596 -783 2845
-1585 -782 2846
-1587 -788 2872
-1583 -791 2886
-1575 -791 2893
-1570 -794 2906
-1595 -811 2975
-1659 -849 3119
-1687 -869 3195
-1671 -866 3189
-1661 -866 3195
-1644 -863 3186
-1627 -859 3179
-1612 -857 3175
-1594 -853 3163
-1581 -852 3163
-1565 -848 3155
-1550 -846 3150
-1535 -843 3144
-1519 -840 3136
-1503 -837 3128
-1492 -836 3131
-1473 -831 3115
-1461 -830 3115
-1450 -830 3117
-1433 -826 3106
-1417 -822 3096
-1407 -822 3099
-1391 -818 3090
-1381 -818 3093
-1365 -815 3084
-1355 -815 3087
-1342 -813 3083
-1326 -809 3072
-1316 -809 3075
-1299 -804 3061
-1287 -803 3059
-1272 -799 3048
-1262 -799 3051
-1250 -798 3048
-1233 -793 3034
-1223 -793 3037
-1212 -792 3034
-1197 -789 3025
-1189 -789 3030
-1175 -786 3023
-1160 -783 3011
-1152 -783 3017
-1136 -779 3003
-1128 -780 3010
-1117 -779 3007
-1101 -774 2993
-1092 -775 2997
-1077 -770 2983
-1069 -771 2988
-1054 -767 2976
-1045 -767 2979
-1033 -765 2973
-1023 -764 2972
-1009 -761 2961
-1001 -762 2968
-991 -761 2967
-976 -756 2951
-964 -755 2946
-954 -754 2945
-945 -754 2947
-933 -751 2939
-922 -750 2935
-911 -748 2931
-898 -745 2919
-884 -741 2905
-864 -731 2872
-822 -703 2762
-787 -680 2674
-827 -722 2841
-831 -733 2884
-825 -736 2898
-816 -735 2898
-805 -734 2893
-796 -734 2895
-786 -732 2892
-774 -730 2882
-763 -727 2876
-753 -726 2871
-744 -725 2871
-736 -726 2875
-727 -726 2875
-715 -723 2865
-702 -718 2849
-695 -719 2855
-687 -721 2861
-675 -717 2848
-665 -715 2842
-653 -711 2828
-645 -713 2834
-636 -712 2832
-624 -708 2819
-619 -711 2833
-609 -709 2826
-598 -707 2817
-589 -707 2818
-580 -705 2814
-570 -703 2806
-561 -703 2805
-553 -704 2811
-541 -699 2793
-535 -703 2808
-525 -700 2800
-515 -698 2790
-507 -698 2791
-496 -695 2781
-487 -694 2778
-480 -695 2782
-470 -692 2772
-462 -693 2777
-453 -692 2774
-443 -689 2763
-434 -688 2760
-426 -688 2759
-416 -686 2753
-408 -686 2752
-400 -686 2752
-390 -684 2745
-383 -684 2748
-374 -684 2748
-365 -682 2742
-357 -681 2738
-348 -680 2735
-340 -679 2731
-332 -681 2738
-323 -679 2732
-314 -677 2723
-306 -678 2726
-298 -677 2726
-288 -673 2709
-281 -674 2713
-273 -674 2712
-265 -674 2714
-256 -671 2703
-247 -671 2702
-240 -672 2708
-231 -670 2700
-222 -667 2688
-214 -666 2682
-207 -669 2694
-198 -664 2675
-190 -664 2677
-182 -666 2682
-174 -663 2671
-166 -664 2677
-157 -661 2665
-150 -663 2671
-142 -662 2670
-134 -659 2657
-126 -661 2664
-118 -660 2658
-110 -657 2650
-102 -658 2654
-94 -658 2653
-86 -657 2649
-78 -656 2644
-71 -657 2646
-63 -655 2641
-55 -652 2627
-47 -653 2630
-39 -651 2622
-32 -650 2621
-24 -653 2630
-16 -649 2614
-8 -649 2615
-1 -648 2612
6 -648 2612
14 -648 2609
21 -649 2614
29 -647 2607
37 -647 2607
44 -644 2593
52 -644 2593
59 -645 2597
67 -645 2596
74 -641 2579
82 -642 2583
90 -643 2586
97 -640 2574
105 -643 2584
112 -640 2575
119 -639 2567
126 -638 2562
134 -639 2566
142 -638 2561
148 -635 2551
157 -639 2566
163 -635 2550
171 -634 2544
178 -635 2549
186 -634 2545
193 -635 2546
201 -635 2546
207 -632 2532
215 -633 2536
222 -632 2532
229 -630 2524
237 -632 2528
244 -630 2521
252 -631 2524
259 -630 2520
266 -629 2516
