VERSION 0.7
FIELDS x y z
SIZE 4 4 4
TYPE I I I
COUNT 1 1 1
WIDTH 3558
HEIGHT 1
VIEWPOINT 0.0 0.0 0.0 1.0 0.0 0.0 0.0
POINTS 3558
DATA ascii
-485 191 1821
-472 188 1792
-471 190 1810
-455 186 1771
-452 186 1779
-438 183 1745
-424 179 1712
-419 179 1711
-426 184 1765
-426 186 1785
-410 181 1740
-404 181 1737
-398 180 1734
-408 187 1802
-385 179 1726
-388 183 1761
-378 181 1741
-380 184 1775
-370 182 1751
-358 178 1721
-351 177 1712
-349 179 1726
-346 180 1738
-340 179 1736
-328 176 1699
-321 174 1689
-319 176 1704
-319 179 1734
-317 180 1749
-300 174 1688
-298 175 1701
-300 180 1746
-300 182 1772
-280 174 1689
-277 174 1695
-274 176 1713
-274 179 1742
-265 176 1719
-257 174 1697
-251 173 1692
-251 177 1726
-244 175 1710
-235 172 1682
-227 170 1666
-223 171 1671
-225 176 1719
-217 174 1702
-215 176 1724
-199 167 1638
-194 167 1634
-192 169 1657
-192 173 1700
-189 175 1715
-178 169 1657
-174 170 1673
-167 168 1646
-163 169 1657
-160 170 1671
-157 172 1694
-151 171 1685
-143 167 1645
-143 173 1700
-133 167 1648
-132 171 1684
-127 172 1692
-123 173 1706
-115 168 1657
-109 167 1646
-106 169 1666
-100 167 1652
-94 165 1633
-90 166 1637
-85 165 1633
-78 161 1592
-76 166 1638
-71 166 1637
-67 167 1656
-62 167 1655
-57 165 1636
-52 165 1638
-46 162 1605
-43 167 1657
-38 165 1630
-33 166 1649
-28 162 1602
-23 162 1604
-18 158 1567
-14 164 1630
-9 163 1614
-5 163 1618
0 161 1601
4 165 1639
8 162 1607
13 161 1596
18 160 1589
22 160 1593
27 163 1623
31 158 1573
37 163 1619
41 161 1596
46 162 1614
50 161 1595
55 161 1602
58 158 1573
62 156 1549
69 161 1606
74 162 1612
75 154 1533
82 159 1582
85 157 1562
91 160 1588
94 157 1565
100 160 1587
104 158 1573
106 154 1536
112 157 1563
117 157 1565
122 157 1566
127 158 1574
132 158 1576
133 155 1539
143 161 1602
144 156 1557
149 157 1565
154 158 1570
155 154 1530
159 154 1530
166 156 1553
169 155 1542
176 157 1566
178 155 1538
182 154 1533
192 159 1581
192 155 1543
194 153 1525
200 154 1531
203 153 1522
208 154 1529
215 156 1548
220 156 1547
219 152 1512
229 155 1544
229 153 1517
236 154 1535
243 156 1548
243 153 1521
248 153 1521
255 155 1539
255 152 1508
262 154 1526
268 154 1533
274 155 1541
277 154 1531
281 154 1527
279 151 1494
289 153 1521
293 153 1518
301 155 1536
305 154 1532
309 154 1532
320 158 1563
317 154 1525
316 151 1500
325 154 1521
324 151 1493
325 149 1475
330 149 1478
339 152 1499
345 152 1505
346 151 1489
347 149 1476
347 147 1455
359 151 1489
361 150 1477
370 152 1496
369 149 1470
375 150 1477
378 149 1469
383 149 1473
393 151 1492
399 152 1497
396 149 1469
400 149 1469
400 148 1451
418 153 1500
418 151 1483
426 152 1495
432 152 1497
429 150 1471
418 145 1418
437 150 1468
439 149 1458
440 148 1445
446 148 1450
455 150 1463
460 150 1465
460 148 1450
451 144 1408
467 148 1443
480 150 1468
485 151 1470
483 149 1448
482 147 1431
494 149 1453
490 147 1426
497 148 1435
497 146 1419
508 148 1437
510 147 1431
516 148 1432
518 147 1426
527 149 1438
530 148 1432
543 150 1454
548 150 1454
542 148 1426
538 145 1401
544 146 1404
554 147 1418
552 146 1402
558 146 1404
572 148 1426
563 145 1393
572 146 1403
586 149 1424
584 147 1407
594 148 1419
605 150 1433
590 145 1386
609 149 1420
606 147 1401
610 147 1398
624 149 1418
629 149 1419
628 148 1404
619 145 1372
643 149 1414
635 146 1387
649 149 1406
645 147 1385
657 148 1399
639 143 1351
663 148 1390
669 148 1392
660 145 1363
676 148 1385
677 147 1376
689 148 1391
683 146 1368
691 147 1373
697 147 1374
691 145 1351
700 146 1359
706 146 1361
708 146 1354
701 143 1330
752 153 1416
875 177 1638
935 188 1738
946 189 1746
954 189 1746
954 188 1733
954 187 1720
968 188 1732
968 187 1721
-1312 274 2278
-1315 276 2301
-1294 274 2282
-1286 273 2284
-1272 272 2276
-1258 270 2266
-1245 269 2261
-1230 268 2250
-1221 267 2249
-1214 267 2253
-1202 266 2248
-1196 266 2254
-1184 265 2248
-1173 264 2244
-1159 263 2234
-1138 259 2210
-1059 243 2072
-989 228 1950
-975 226 1937
-979 229 1961
-990 233 1999
-992 235 2017
-992 236 2034
-989 237 2044
-986 238 2053
-988 240 2074
-1024 250 2167
-1032 253 2200
-1020 252 2192
-1009 251 2186
-1002 251 2187
-984 248 2167
-975 247 2164
-978 250 2188
-989 254 2231
-987 256 2245
-986 257 2261
-983 258 2273
-981 259 2287
-975 259 2291
-972 261 2305
-967 261 2311
-965 263 2327
-962 264 2340
-957 264 2346
-955 265 2362
-948 265 2365
-943 266 2373
-944 268 2397
-933 267 2389
-936 270 2418
-928 270 2419
-923 270 2426
-918 271 2436
-916 273 2451
-905 272 2447
-902 273 2459
-896 273 2467
-887 273 2465
-880 273 2468
-868 271 2455
-859 271 2455
-846 269 2439
-829 266 2413
-819 265 2409
-803 262 2384
-788 259 2363
-772 256 2338
-756 254 2313
-738 250 2281
-721 246 2250
-700 241 2205
-678 236 2159
-658 231 2117
-639 227 2079
-619 222 2033
-599 217 1990
-587 214 1969
-570 210 1934
-554 207 1902
-544 205 1888
-531 202 1861
-526 202 1866
-511 199 1833
-527 207 1912
-482 191 1769
-505 202 1874
-477 193 1791
-478 196 1817
-488 202 1876
-459 192 1786
-461 195 1813
-458 196 1826
-432 188 1746
-441 194 1803
-421 187 1741
-423 190 1775
-418 190 1774
-408 188 1757
-411 192 1793
-389 184 1721
-389 186 1741
-381 185 1728
-371 183 1709
-379 189 1771
-373 188 1768
-355 182 1705
-356 185 1737
-339 179 1679
-345 184 1733
-339 184 1732
-333 183 1727
-326 182 1714
-328 186 1753
-318 183 1727
-315 184 1738
-314 187 1766
-301 182 1717
-296 182 1721
-288 180 1706
-285 181 1715
-283 183 1735
-276 182 1725
-268 180 1704
-261 178 1691
-256 179 1694
-254 181 1716
-245 178 1686
-242 179 1699
-233 176 1672
-231 178 1694
-225 177 1686
-226 182 1733
-213 176 1672
-206 174 1655
-207 178 1697
-201 177 1688
-195 176 1678
-188 175 1666
-184 176 1675
-181 177 1692
-172 173 1654
-167 172 1645
-167 177 1695
-159 174 1665
-155 175 1675
-149 173 1658
-144 173 1660
-138 172 1645
-137 177 1691
-128 172 1645
-123 171 1639
-118 171 1635
-117 176 1691
-112 176 1690
-104 171 1638
-100 171 1645
-96 173 1659
-89 169 1622
-87 174 1674
-82 173 1663
-74 168 1610
-74 178 1710
-68 174 1675
-63 173 1668
-56 168 1613
-52 171 1642
-48 173 1662
-42 169 1626
-38 169 1631
-32 167 1613
-28 167 1606
-23 165 1594
-19 171 1646
-14 168 1617
-9 166 1597
-4 168 1619
0 166 1604
4 166 1603
8 166 1603
13 172 1658
18 167 1615
23 169 1629
27 165 1591
32 170 1643
36 165 1593
41 165 1591
45 164 1582
50 167 1613
54 164 1584
60 166 1605
64 166 1599
69 166 1603
72 162 1563
77 165 1591
82 164 1588
85 161 1561
91 164 1583
97 166 1604
101 165 1592
106 165 1597
110 165 1599
111 160 1547
120 166 1610
122 162 1571
126 161 1560
131 162 1568
138 165 1594
139 161 1561
142 159 1542
148 161 1559
154 163 1572
158 161 1560
164 163 1574
166 161 1553
174 163 1581
173 159 1538
179 160 1544
184 160 1550
188 160 1549
196 163 1576
197 160 1546
202 160 1549
210 163 1572
208 158 1528
215 160 1543
222 162 1563
226 161 1561
227 159 1534
236 162 1565
234 157 1521
235 155 1494
248 161 1550
247 157 1514
254 159 1530
260 159 1539
265 160 1540
267 158 1526
270 157 1516
277 159 1534
283 160 1539
276 153 1478
287 157 1511
294 158 1525
298 158 1520
308 161 1548
311 160 1542
312 158 1521
306 153 1471
322 158 1525
317 154 1482
326 156 1502
329 155 1494
331 154 1481
337 155 1490
343 156 1495
340 152 1464
350 155 1487
363 158 1521
363 157 1504
373 159 1524
373 157 1504
378 157 1506
369 152 1454
385 156 1497
380 153 1461
392 156 1488
395 155 1481
394 153 1462
407 156 1492
404 153 1464
408 153 1464
421 156 1492
417 153 1463
428 155 1482
429 154 1470
430 153 1460
436 154 1464
443 154 1470
430 149 1413
445 152 1447
444 150 1428
457 153 1456
457 152 1441
467 154 1456
468 152 1444
474 153 1451
478 153 1447
480 152 1439
485 152 1439
480 149 1411
502 155 1460
497 152 1433
505 153 1441
509 153 1439
515 153 1443
515 152 1430
527 154 1451
534 155 1455
530 152 1431
526 150 1408
534 151 1417
531 149 1395
550 153 1433
541 149 1397
543 149 1390
552 150 1400
563 152 1415
567 151 1413
569 151 1405
571 150 1400
582 152 1414
576 149 1387
601 154 1435
585 149 1387
597 151 1403
586 147 1365
597 149 1380
601 149 1377
614 151 1396
623 152 1404
617 150 1380
632 152 1402
632 151 1390
633 150 1382
639 151 1383
649 152 1393
672 156 1433
649 150 1371
659 151 1381
653 149 1358
654 148 1350
665 149 1361
679 152 1380
676 150 1363
696 153 1393
702 154 1393
704 153 1387
717 155 1401
687 148 1333
699 149 1347
699 148 1336
706 149 1339
760 159 1431
886 184 1657
939 194 1745
947 194 1746
940 192 1719
959 194 1742
957 193 1726
972 195 1740
980 195 1742
-1309 281 2274
-1300 281 2274
-1286 279 2267
-1282 280 2276
-1268 278 2268
-1252 276 2255
-1238 275 2247
-1232 275 2252
-1222 275 2251
-1211 274 2248
-1197 272 2238
-1192 273 2247
-1181 271 2241
-1168 270 2234
-1152 268 2220
-1137 266 2209
-1059 250 2072
-988 234 1949
-972 232 1931
-981 235 1964
-990 239 1998
-993 241 2020
-992 243 2033
-987 243 2039
-988 245 2057
-991 247 2079
-1019 256 2156
-1029 260 2194
-1014 258 2179
-1011 258 2189
-999 257 2181
-987 256 2172
-974 254 2162
-979 257 2189
-985 260 2222
-991 264 2254
-988 265 2265
-980 264 2264
-982 267 2288
-979 268 2300
-978 269 2318
-974 270 2327
-970 271 2338
-964 271 2344
-961 272 2357
-958 274 2369
-953 274 2377
-950 275 2390
-941 275 2387
-939 276 2404
-934 277 2412
-930 278 2425
-927 279 2437
-921 279 2444
-915 280 2450
-913 281 2466
-910 283 2481
-909 285 2502
-898 284 2493
-896 285 2513
-892 286 2523
-889 288 2538
-881 288 2541
-876 289 2550
-869 289 2554
-870 291 2581
-862 291 2583
-854 291 2585
-849 292 2596
-843 293 2604
-832 291 2593
-824 291 2595
-818 292 2605
-808 291 2597
-793 288 2575
-776 285 2548
-764 283 2534
-747 280 2504
-732 277 2480
-713 272 2443
-688 266 2383
-666 260 2332
-644 254 2282
-624 248 2235
-596 240 2161
-576 234 2111
-559 230 2073
-542 226 2034
-540 227 2050
-551 234 2116
-537 231 2089
-522 227 2055
-509 224 2030
-490 218 1978
-477 215 1948
-469 214 1938
-447 207 1874
-438 205 1860
-431 204 1853
-431 207 1878
-412 200 1821
-406 200 1819
-414 206 1878
-385 194 1770
-389 199 1818
-383 199 1816
-356 187 1710
-350 187 1707
-348 188 1721
-339 186 1702
-350 195 1786
-330 187 1710
-321 184 1688
-321 187 1714
-316 187 1718
-312 188 1723
-304 186 1705
-299 186 1706
-297 188 1726
-287 185 1699
-285 186 1715
-281 187 1725
-272 185 1701
-270 186 1716
-266 187 1725
-260 186 1716
-250 183 1688
-250 186 1720
-244 186 1716
-234 181 1676
-241 191 1767
-227 184 1702
-218 181 1672
-214 181 1674
-209 180 1671
-204 181 1677
-200 182 1686
-190 177 1642
-184 176 1632
-186 182 1692
-178 179 1657
-173 178 1655
-171 182 1691
-166 181 1686
-159 179 1660
-158 183 1702
-147 176 1637
-143 177 1643
-141 181 1681
-138 183 1709
-127 175 1628
-125 179 1667
-122 181 1687
-114 176 1644
-111 179 1673
-104 176 1641
-103 182 1700
-97 179 1673
-89 174 1628
-85 176 1643
-81 177 1657
-74 172 1610
-73 179 1677
-66 175 1637
-61 175 1641
-57 176 1649
-52 175 1637
-47 175 1637
-42 172 1606
-38 174 1634
-32 172 1613
-28 174 1631
-23 174 1630
-18 173 1617
-13 169 1588
-9 174 1632
-4 172 1615
0 171 1605
4 171 1599
9 175 1643
13 175 1639
18 170 1595
22 171 1601
27 172 1610
32 172 1613
36 169 1590
42 174 1638
46 171 1607
51 173 1621
56 173 1626
60 171 1609
63 168 1577
69 171 1604
72 168 1578
79 172 1619
81 167 1567
87 169 1587
92 171 1604
94 166 1558
101 170 1599
102 163 1535
111 172 1615
114 168 1579
120 170 1599
124 170 1596
129 170 1600
133 169 1590
136 167 1568
143 170 1603
144 166 1557
148 165 1549
155 168 1581
156 164 1544
162 166 1559
164 163 1535
172 166 1562
175 165 1549
178 164 1538
182 163 1534
187 164 1541
195 167 1566
196 164 1538
204 166 1563
203 162 1518
211 165 1547
216 165 1550
219 164 1540
224 164 1543
228 164 1536
234 165 1551
241 166 1562
239 162 1521
241 161 1507
253 166 1554
254 163 1530
260 164 1538
260 161 1514
265 161 1514
269 161 1511
270 159 1493
281 163 1530
284 162 1521
291 164 1534
288 159 1493
297 162 1517
295 159 1484
308 163 1524
304 158 1483
318 164 1530
317 160 1501
320 160 1495
328 161 1510
325 158 1474
335 160 1499
342 162 1511
339 158 1479
348 161 1499
352 160 1496
349 157 1463
359 159 1488
362 159 1478
365 158 1473
372 159 1482
383 162 1508
383 160 1491
381 157 1462
385 157 1462
397 160 1488
391 156 1449
397 157 1456
408 159 1479
413 159 1480
415 159 1472
423 160 1484
424 158 1468
419 155 1437
429 157 1456
431 156 1446
443 159 1470
439 156 1442
446 157 1449
452 157 1453
463 160 1474
465 159 1466
461 156 1439
468 157 1445
479 159 1466
477 157 1444
483 157 1448
480 155 1424
495 158 1454
496 157 1444
500 157 1440
502 156 1433
511 158 1447
512 157 1434
513 156 1424
514 155 1413
526 157 1433
530 157 1432
527 154 1409
539 157 1431
541 156 1422
541 155 1410
537 152 1386
554 156 1417
559 156 1417
557 154 1401
559 154 1392
567 155 1400
575 156 1409
583 157 1416
585 156 1410
589 156 1406
582 153 1377
600 156 1409
611 158 1422
613 157 1416
610 155 1396
611 155 1387
610 153 1374
630 157 1409
628 156 1392
641 158 1410
632 154 1379
635 154 1373
639 154 1372
649 155 1382
657 156 1388
651 154 1364
661 155 1374
658 153 1358
667 154 1366
666 153 1353
674 154 1359
686 155 1372
684 154 1358
698 156 1375
701 156 1371
691 153 1341
701 154 1350
699 152 1335
729 158 1383
772 166 1453
893 191 1670
939 200 1744
938 198 1729
946 199 1730
954 199 1733
965 200 1739
966 199 1728
971 199 1724
-1302 287 2261
-1297 288 2269
-1290 288 2273
-1275 286 2264
-1269 286 2268
-1247 283 2246
-1226 280 2225
-1230 282 2248
-1218 281 2244
-1207 280 2240
-1198 279 2239
-1186 278 2235
-1178 278 2236
-1171 278 2240
-1153 275 2221
-1143 275 2219
-1064 257 2082
-996 242 1964
-973 238 1932
-976 241 1955
-989 245 1996
-992 247 2016
-991 249 2031
-983 248 2031
-983 250 2046
-986 252 2069
-1011 260 2138
-1026 266 2187
-1018 265 2187
-1008 264 2183
-1003 265 2188
-985 262 2167
-972 260 2157
-974 263 2179
-992 269 2237
-992 271 2255
-989 272 2267
-990 274 2287
-984 274 2293
-979 275 2301
-976 276 2312
-969 276 2315
-967 277 2330
-964 279 2343
-962 280 2358
-958 281 2369
-955 282 2381
-949 282 2387
-942 282 2391
-943 285 2414
-937 285 2421
-934 287 2434
-931 288 2446
-924 288 2450
-921 289 2465
-918 291 2480
-914 291 2490
-909 292 2501
-906 294 2516
-897 293 2514
-892 294 2525
-889 295 2537
-883 296 2544
-880 298 2561
-876 299 2574
-873 300 2590
-862 299 2584
-859 301 2598
-854 302 2610
-852 304 2631
-846 304 2637
-840 305 2647
-830 304 2641
-827 306 2659
-822 307 2669
-813 307 2670
-810 308 2685
-801 308 2685
-796 309 2698
-789 309 2703
-781 309 2704
-775 310 2715
-765 309 2707
-758 309 2713
-744 307 2693
-729 304 2669
-719 303 2663
-706 301 2645
-698 301 2646
-696 303 2671
-682 300 2648
-671 299 2639
-656 296 2612
-641 292 2581
-625 289 2551
-610 285 2522
-593 280 2480
-574 275 2435
-557 270 2395
-540 265 2350
-522 260 2306
-504 254 2255
-485 248 2200
-472 244 2170
-457 240 2134
-441 234 2085
-428 231 2053
-413 226 2014
-399 222 1975
-387 218 1945
-383 219 1951
-371 215 1922
-363 214 1910
-340 203 1817
-337 205 1828
-333 206 1837
-327 206 1838
-314 200 1793
-301 195 1749
-299 197 1768
-296 199 1780
-289 197 1770
-279 194 1740
-268 190 1703
-262 189 1699
-266 195 1755
-255 191 1717
-249 191 1716
-238 186 1668
-237 188 1696
-232 189 1703
-222 184 1659
-224 191 1717
-219 190 1711
-210 186 1680
-209 190 1715
-197 184 1659
-200 191 1725
-193 189 1709
-184 185 1669
-179 185 1674
-178 189 1706
-166 181 1634
-162 182 1643
-157 182 1644
-152 182 1646
-149 183 1661
-144 184 1664
-137 180 1630
-133 181 1645
-129 182 1650
-123 181 1642
-121 185 1678
-112 177 1611
-110 182 1654
-106 184 1672
-100 181 1644
-98 186 1690
-90 181 1648
-85 181 1645
-80 179 1629
-75 179 1628
-71 180 1636
-66 179 1633
-61 180 1637
-56 178 1625
-52 180 1643
-46 177 1613
-43 180 1644
-38 181 1652
-33 180 1637
-28 180 1642
-23 177 1616
-18 177 1612
-14 175 1595
-9 174 1592
-4 177 1615
0 182 1665
4 177 1620
8 173 1579
13 179 1636
18 173 1580
23 178 1625
27 178 1629
32 176 1613
36 175 1596
41 174 1589
45 174 1587
50 174 1589
55 176 1610
60 176 1614
65 176 1612
68 174 1589
73 175 1601
77 172 1578
81 170 1558
87 174 1589
91 174 1590
96 173 1583
99 171 1568
104 171 1568
107 170 1553
115 174 1593
117 171 1569
124 174 1589
127 173 1579
131 171 1564
134 169 1543
141 172 1575
145 172 1570
149 171 1567
152 169 1542
158 171 1561
164 172 1573
166 170 1556
169 168 1535
175 170 1552
184 173 1588
186 171 1568
190 171 1563
192 168 1539
196 168 1539
199 167 1527
203 166 1521
214 171 1567
212 166 1521
218 168 1533
223 168 1537
227 168 1534
229 166 1516
237 168 1540
243 169 1549
244 167 1524
250 168 1531
251 166 1513
260 168 1537
261 166 1517
273 171 1561
273 168 1532
278 168 1535
279 166 1517
281 165 1504
294 170 1547
295 168 1530
295 165 1505
292 161 1468
307 167 1520
306 164 1492
313 165 1505
318 165 1504
320 164 1493
330 167 1520
325 162 1477
340 167 1522
340 165 1503
346 166 1507
347 164 1491
351 164 1492
349 161 1463
359 164 1486
358 161 1461
363 161 1464
370 162 1472
384 167 1512
389 167 1513
379 161 1456
386 162 1466
390 162 1461
402 165 1492
404 164 1481
405 162 1468
403 160 1443
415 163 1471
416 162 1457
423 162 1464
424 161 1454
432 163 1465
435 162 1458
445 164 1477
441 161 1448
445 161 1446
450 161 1448
450 159 1431
457 160 1438
462 160 1439
470 162 1451
474 162 1447
476 161 1441
480 161 1438
488 162 1449
484 159 1422
505 165 1470
488 158 1406
510 163 1457
498 158 1409
515 162 1442
513 160 1424
517 160 1421
529 162 1442
533 162 1440
526 159 1407
537 161 1425
535 159 1404
552 162 1436
545 159 1407
547 158 1400
559 161 1418
550 157 1382
567 160 1412
567 159 1399
568 158 1391
585 161 1419
573 157 1378
590 160 1408
580 157 1373
590 158 1384
595 158 1386
599 158 1382
611 160 1398
618 161 1403
615 159 1384
619 159 1383
640 163 1419
625 158 1373
644 162 1404
635 158 1373
642 159 1378
666 164 1418
650 159 1373
664 161 1392
651 157 1352
670 160 1383
681 162 1393
679 160 1379
668 157 1345
680 158 1359
692 160 1372
693 159 1365
697 159 1362
698 159 1354
713 161 1373
696 156 1330
692 154 1312
785 174 1478
896 197 1676
943 206 1751
942 205 1736
953 206 1744
955 205 1734
961 205 1731
974 206 1742
968 204 1718
-1307 296 2269
-1292 294 2258
-1281 293 2256
-1265 291 2244
-1246 288 2227
-1254 291 2257
-1243 291 2254
-1229 289 2245
-1205 285 2218
-1197 285 2220
-1201 287 2245
-1186 286 2234
-1178 285 2235
-1152 281 2203
-1152 282 2220
-1133 279 2198
-1058 263 2070
-1002 250 1975
-974 245 1934
-974 246 1949
-989 252 1995
-992 254 2016
-988 254 2024
-986 256 2036
-981 256 2042
-987 259 2070
-1002 264 2117
-1028 273 2191
-1017 272 2184
-1009 272 2184
-1000 271 2182
-988 270 2175
-973 267 2158
-977 270 2184
-983 274 2217
-992 278 2255
-992 280 2274
-985 280 2277
-984 281 2292
-982 283 2308
-979 284 2319
-974 284 2326
-967 284 2328
-963 285 2339
-966 288 2368
-957 288 2366
-951 288 2372
-949 290 2387
-947 291 2401
-940 291 2407
-937 293 2420
-936 294 2437
-931 295 2446
-928 297 2461
-917 296 2455
-919 298 2481
-911 298 2482
-911 300 2504
-905 301 2512
-902 302 2526
-896 303 2535
-888 303 2536
-886 305 2554
-879 305 2558
-877 307 2578
-872 308 2586
-869 309 2602
-860 309 2601
-857 311 2619
-849 311 2620
-848 313 2644
-840 313 2645
-839 315 2669
-828 314 2661
-822 315 2670
-822 318 2697
-815 318 2702
-808 319 2708
-802 319 2717
-794 319 2719
-789 321 2733
-782 321 2739
-773 321 2737
-771 323 2759
-763 323 2761
-753 322 2757
-744 322 2757
-738 323 2765
-730 323 2768
-717 321 2751
-706 319 2740
-699 320 2748
-690 319 2746
-679 318 2737
-671 318 2736
-661 317 2731
-652 316 2726
-641 315 2717
-633 315 2718
-622 313 2706
-612 312 2699
-604 312 2700
-593 310 2685
-583 309 2678
-570 306 2657
-558 304 2636
-548 303 2629
-533 298 2593
-522 296 2576
-507 292 2543
-494 289 2514
-477 283 2464
-463 279 2431
-449 275 2397
-433 269 2349
-419 265 2312
-403 259 2261
-390 255 2222
-376 250 2183
-363 246 2145
-350 240 2101
-340 238 2083
-326 232 2030
-315 229 2001
-303 224 1960
-294 221 1938
-285 219 1916
-281 220 1930
-280 224 1962
-264 216 1891
-248 207 1816
-236 201 1762
-231 201 1766
-236 210 1847
-217 198 1742
-211 197 1734
-207 197 1736
-202 198 1742
-191 192 1689
-182 188 1655
-178 188 1658
-176 191 1683
-174 194 1712
-165 190 1671
-159 188 1661
-156 191 1681
-149 188 1663
-147 192 1691
-138 186 1642
-136 190 1675
-128 186 1642
-124 187 1650
-120 188 1663
-115 188 1659
-109 185 1634
-105 187 1654
-101 189 1673
-94 185 1634
-92 190 1686
-86 186 1648
-82 188 1664
-75 184 1633
-71 185 1637
-66 183 1625
-61 183 1623
-57 185 1645
-51 182 1613
-47 184 1636
-42 183 1625
-38 185 1640
-32 180 1601
-28 182 1617
-23 180 1599
-19 184 1631
-14 183 1623
-9 181 1607
-4 183 1631
0 180 1601
4 182 1615
9 183 1631
13 184 1638
18 182 1615
23 182 1616
28 185 1649
31 178 1584
37 183 1631
41 178 1581
45 179 1592
50 178 1582
56 182 1621
60 182 1619
64 179 1593
70 182 1623
72 177 1574
77 178 1585
82 177 1578
87 179 1593
90 175 1560
96 179 1591
100 176 1572
105 178 1588
108 175 1559
114 177 1580
118 177 1581
123 177 1581
132 183 1632
132 177 1577
139 180 1607
140 175 1564
145 176 1568
152 179 1598
155 177 1576
160 178 1582
164 176 1573
167 175 1556
171 175 1559
177 176 1570
173 168 1495
185 174 1554
190 176 1564
195 175 1563
196 173 1540
200 172 1533
204 172 1530
210 173 1542
217 175 1555
215 170 1513
228 177 1572
228 173 1536
233 173 1538
236 172 1528
238 170 1512
241 169 1502
248 171 1521
251 170 1512
255 170 1507
260 170 1508
266 171 1521
272 172 1526
274 170 1514
277 169 1504
288 174 1541
286 169 1503
293 171 1517
288 166 1468
300 170 1506
309 172 1527
309 170 1506
312 169 1501
320 171 1514
326 172 1521
329 171 1513
330 169 1497
332 168 1487
338 169 1494
341 168 1487
349 170 1499
355 170 1506
361 171 1511
362 169 1497
363 168 1482
365 167 1474
373 168 1484
373 166 1467
382 168 1485
386 168 1484
387 167 1469
395 168 1482
401 169 1485
402 167 1472
402 166 1455
415 169 1487
419 169 1482
416 166 1458
423 167 1466
414 162 1417
436 169 1479
445 170 1492
440 167 1461
444 166 1457
446 165 1448
455 167 1463
453 165 1441
456 164 1435
465 166 1449
474 168 1462
479 168 1463
487 169 1475
483 166 1446
476 162 1412
497 168 1459
510 171 1483
497 165 1432
503 165 1436
499 163 1410
513 166 1437
514 164 1425
527 167 1447
529 167 1442
524 164 1415
534 165 1428
543 167 1440
543 165 1426
556 168 1448
554 166 1430
554 165 1416
561 165 1422
568 166 1426
556 161 1384
569 164 1405
571 163 1398
583 165 1416
589 166 1419
593 165 1414
587 163 1389
599 165 1405
602 164 1401
601 163 1388
600 161 1373
614 164 1394
627 166 1412
627 165 1400
630 165 1396
627 163 1377
629 162 1370
631 161 1363
656 167 1407
660 167 1404
664 167 1403
660 164 1382
666 165 1385
684 168 1411
664 162 1358
678 164 1375
682 164 1374
676 162 1352
685 163 1359
696 165 1371
675 158 1318
692 161 1342
705 163 1356
703 162 1341
710 162 1344
793 180 1493
902 204 1687
940 211 1743
945 211 1740
953 211 1741
955 211 1733
962 211 1733
973 212 1739
970 210 1721
-1305 302 2264
-1283 299 2243
-1283 301 2260
-1265 298 2243
-1261 299 2252
-1249 298 2247
-1235 296 2240
-1219 294 2227
-1201 291 2210
-1199 293 2224
-1185 291 2213
-1183 292 2227
-1157 287 2194
-1163 290 2223
-1149 289 2212
-1134 286 2199
-1071 272 2095
-1003 257 1977
-976 251 1938
-971 252 1943
-985 257 1987
-992 260 2015
-992 262 2032
-986 262 2035
-983 263 2045
-988 266 2070
-994 269 2101
-1023 279 2179
-1018 279 2186
-1009 278 2183
-995 276 2170
-983 275 2162
-973 274 2157
-974 276 2178
-993 283 2238
-994 285 2258
-995 288 2280
-989 288 2285
-982 288 2287
-979 289 2300
-979 291 2318
-978 293 2336
-972 293 2341
-966 294 2347
-960 294 2353
-957 295 2366
-953 296 2375
-954 299 2399
-948 299 2404
-943 300 2412
-938 300 2421
-934 301 2433
-929 302 2440
-925 303 2451
-922 305 2467
-917 305 2475
-913 306 2488
-912 309 2508
-908 310 2521
-898 309 2516
-895 311 2531
-892 312 2546
-888 313 2558
-884 314 2572
-877 315 2576
-870 315 2581
-865 316 2591
-864 318 2612
-858 319 2620
-852 320 2629
-848 321 2644
-841 321 2648
-832 321 2647
-831 323 2669
-826 325 2683
-826 327 2709
-812 325 2693
-808 327 2707
-802 327 2716
-798 329 2732
-793 330 2743
-788 331 2756
-778 331 2754
-768 330 2748
-763 331 2760
-759 333 2780
-749 332 2775
-744 333 2787
-734 333 2783
-717 329 2750
-709 329 2752
-703 329 2761
-694 329 2761
-681 327 2742
-676 328 2755
-666 327 2751
-653 325 2732
-644 324 2730
-639 325 2741
-628 324 2732
-620 324 2733
-612 324 2735
-601 323 2725
-592 322 2719
-583 321 2714
-575 321 2716
-566 320 2712
-557 320 2708
-549 320 2711
-540 319 2707
-530 317 2694
-521 317 2692
-512 316 2689
-503 316 2683
-493 314 2674
-484 313 2664
-477 314 2674
-467 312 2658
-456 310 2641
-448 309 2639
-437 308 2624
-428 306 2614
-418 304 2599
-406 302 2577
-396 299 2558
-384 296 2532
-371 292 2496
-359 288 2463
-348 284 2432
-336 280 2400
-324 276 2364
-311 271 2320
-298 265 2276
-287 261 2238
-276 257 2204
-264 252 2162
-254 248 2131
-242 243 2084
-233 239 2056
-223 235 2020
-215 232 1996
-206 229 1968
-197 226 1942
-192 226 1946
-181 220 1889
-173 216 1860
-161 208 1788
-160 213 1836
-152 210 1807
-145 208 1790
-142 211 1818
-131 203 1748
-123 198 1702
-118 198 1707
-110 192 1658
-109 200 1722
-102 196 1687
-97 195 1682
-93 196 1694
-87 195 1680
-82 193 1670
-77 194 1675
-71 191 1646
-66 190 1645
-63 194 1679
-57 192 1658
-52 189 1630
-47 190 1642
-43 192 1657
-38 191 1652
-33 191 1657
-28 187 1620
-23 189 1640
-19 192 1666
-14 188 1629
-9 188 1628
-4 189 1639
0 191 1651
4 183 1583
9 188 1626
13 189 1635
18 186 1609
22 182 1574
28 190 1645
31 182 1582
37 186 1615
41 186 1616
46 184 1599
51 187 1625
54 182 1581
60 185 1602
66 191 1657
67 179 1554
73 182 1584
77 181 1575
81 181 1570
86 182 1578
91 182 1578
94 179 1558
98 179 1551
103 179 1552
109 181 1571
113 181 1571
115 176 1530
122 180 1567
129 184 1601
133 183 1588
136 181 1573
140 180 1564
143 178 1549
149 180 1565
153 179 1553
155 176 1531
160 177 1540
170 182 1584
172 180 1562
177 181 1571
179 178 1541
180 175 1515
189 179 1556
193 178 1549
198 178 1549
201 177 1536
212 183 1590
210 177 1537
215 178 1540
219 178 1541
225 178 1548
225 175 1514
233 177 1539
239 179 1550
242 178 1542
245 176 1527
248 175 1519
257 179 1550
260 178 1539
260 174 1511
258 170 1472
274 178 1540
271 173 1496
277 174 1502
282 174 1505
289 176 1521
292 175 1511
290 171 1479
307 178 1543
301 172 1488
308 174 1503
317 177 1525
319 175 1510
322 174 1504
324 173 1492
328 172 1487
340 176 1521
340 174 1502
346 175 1509
350 175 1504
350 173 1487
356 173 1492
361 173 1491
358 170 1459
373 175 1503
370 172 1474
379 174 1492
384 173 1490
382 171 1464
392 173 1486
399 174 1496
401 173 1485
401 171 1467
401 169 1452
411 172 1472
413 171 1462
416 170 1456
419 170 1450
427 171 1463
432 171 1462
432 170 1448
443 172 1468
441 170 1447
457 174 1482
457 172 1468
458 171 1456
456 169 1436
470 172 1466
469 170 1448
476 171 1455
479 171 1449
484 171 1449
489 171 1449
489 169 1436
499 172 1452
492 167 1416
505 170 1442
508 170 1436
517 171 1447
516 170 1431
515 168 1414
534 173 1454
532 170 1434
532 169 1421
537 169 1423
534 167 1401
551 171 1434
556 171 1433
553 169 1414
550 166 1393
563 169 1414
580 173 1445
572 169 1411
563 165 1379
588 171 1426
594 172 1429
586 168 1399
592 168 1400
601 170 1409
602 169 1401
612 170 1411
609 168 1393
612 168 1388
625 170 1407
624 169 1392
629 169 1394
625 166 1372
639 169 1392
637 167 1376
645 168 1383
647 168 1377
655 169 1383
653 167 1367
658 167 1368
651 164 1342
671 168 1372
681 169 1381
690 171 1389
684 168 1366
693 169 1374
688 167 1353
707 170 1381
681 163 1319
695 165 1336
711 168 1357
749 176 1419
801 187 1508
916 212 1712
942 217 1746
947 217 1743
942 214 1721
964 218 1748
971 218 1749
965 216 1725
974 216 1728
-1326 315 2300
-1308 312 2284
-1289 310 2269
-1276 308 2263
-1267 308 2263
-1250 305 2249
-1238 304 2244
-1229 304 2245
-1208 300 2223
-1204 301 2233
-1196 301 2234
-1177 298 2215
-1162 296 2204
-1158 296 2213
-1149 296 2211
-1137 294 2205
-1089 284 2129
-1006 264 1981
-975 257 1935
-974 259 1949
-983 263 1982
-993 267 2017
-990 268 2027
-987 269 2037
-986 270 2051
-982 271 2058
-989 274 2090
-1019 284 2169
-1016 286 2181
-1006 284 2176
-997 284 2174
-976 280 2147
-978 282 2168
-975 283 2179
-992 290 2234
-991 292 2252
-990 293 2268
-989 295 2285
-987 297 2298
-981 297 2303
-974 297 2307
-972 298 2321
-974 301 2345
-971 302 2358
-965 303 2363
-958 303 2368
-955 304 2380
-949 305 2386
-948 306 2403
-941 306 2406
-935 307 2414
-938 310 2442
-933 311 2452
-926 311 2455
-926 313 2477
-916 312 2472
-913 314 2488
-909 315 2499
-904 316 2508
-900 317 2521
-896 318 2532
-892 320 2544
-888 321 2557
-881 321 2563
-877 323 2576
-873 324 2589
-870 326 2606
-861 325 2604
-860 328 2626
-857 330 2645
-843 327 2627
-843 330 2652
-838 331 2663
-829 331 2665
-828 333 2688
-823 334 2699
-817 335 2707
-807 334 2704
-807 338 2733
-798 337 2732
-788 336 2726
-784 338 2742
-779 339 2754
-771 340 2760
-764 340 2764
-753 339 2757
-748 340 2770
-742 341 2779
-732 340 2776
-721 339 2765
-709 337 2751
-701 337 2753
-693 337 2756
-683 336 2749
-674 336 2750
-666 335 2750
-657 335 2747
-650 336 2755
-639 334 2741
-630 333 2742
-621 333 2739
-612 332 2734
-605 332 2739
-595 331 2730
-586 331 2731
-576 330 2721
-569 330 2729
-558 328 2714
-550 328 2713
-542 328 2715
-532 327 2708
-524 327 2706
-514 325 2697
-507 326 2701
-500 326 2707
-490 325 2697
-480 324 2688
-471 323 2680
-462 322 2678
-454 322 2675
-446 322 2676
-439 322 2680
-428 320 2663
-419 319 2658
-412 319 2662
-404 319 2662
-396 318 2657
-387 317 2649
-378 316 2642
-370 316 2641
-361 315 2633
-352 313 2622
-345 314 2625
-336 313 2619
-327 312 2609
-319 311 2607
-309 308 2585
-301 308 2580
-292 306 2570
-283 305 2557
-275 303 2547
-265 301 2531
-255 298 2504
-246 296 2489
-235 291 2450
-225 288 2417
-215 283 2384
-206 280 2356
-195 275 2317
-186 271 2280
-177 268 2258
-167 263 2212
-158 259 2181
-149 254 2138
-141 250 2110
-133 248 2086
-125 244 2053
-117 240 2021
-110 238 2005
-103 234 1971
-97 232 1961
-90 229 1932
-82 223 1880
-76 223 1884
-71 223 1881
-65 223 1882
-57 214 1806
-53 218 1842
-48 219 1846
-41 210 1777
-35 206 1738
-30 203 1719
-25 208 1760
-20 202 1705
-14 197 1661
-10 200 1689
-5 200 1690
0 198 1674
4 199 1683
9 195 1648
14 197 1663
19 199 1682
23 194 1638
28 192 1623
32 192 1628
37 194 1638
41 190 1605
45 188 1590
50 189 1596
55 190 1612
60 190 1612
64 189 1600
69 189 1602
73 187 1584
77 186 1572
82 188 1591
86 186 1576
92 189 1604
96 188 1588
99 185 1565
104 185 1568
108 184 1558
115 188 1591
118 186 1576
123 186 1575
129 189 1598
130 184 1556
137 186 1579
142 188 1590
143 182 1541
151 187 1586
154 185 1566
157 183 1546
161 182 1541
169 187 1582
174 187 1581
174 182 1537
178 181 1533
186 185 1564
191 185 1565
194 184 1556
198 183 1553
204 185 1564
210 186 1575
208 180 1523
214 182 1536
221 183 1550
225 183 1545
228 181 1534
228 178 1504
236 181 1528
242 182 1538
241 178 1502
246 178 1505
255 181 1533
254 178 1499
259 178 1505
267 180 1524
272 181 1527
274 179 1512
281 181 1526
286 181 1529
287 179 1507
288 177 1488
300 181 1527
298 177 1495
311 182 1537
300 174 1463
317 181 1520
316 178 1494
316 175 1472
329 180 1513
326 176 1481
334 177 1492
335 176 1476
345 179 1502
349 179 1501
352 178 1494
350 175 1467
357 176 1475
360 175 1470
367 176 1479
372 177 1480
372 175 1462
386 179 1498
386 177 1482
396 180 1503
388 174 1455
399 177 1478
404 177 1478
410 178 1484
408 175 1459
410 174 1452
423 178 1482
420 174 1453
425 175 1455
434 176 1468
446 180 1496
437 174 1447
444 175 1456
444 173 1441
454 176 1459
467 179 1484
458 174 1442
464 174 1446
470 175 1449
466 172 1423
480 175 1452
481 174 1440
486 174 1440
487 173 1430
497 175 1444
495 173 1425
496 171 1413
495 170 1398
510 173 1428
511 172 1417
517 173 1421
528 175 1436
532 175 1435
529 172 1412
539 174 1426
546 175 1432
549 175 1428
554 175 1428
554 173 1415
559 174 1417
575 177 1444
566 173 1408
563 171 1389
588 177 1438
578 172 1402
587 174 1412
588 173 1402
597 174 1412
598 173 1403
590 170 1372
608 174 1403
615 174 1407
622 175 1411
623 174 1401
613 170 1369
614 169 1359
632 173 1389
631 171 1373
645 174 1394
641 172 1374
661 176 1406
650 172 1370
668 175 1397
666 173 1382
663 172 1367
664 171 1356
691 176 1401
689 175 1387
676 170 1350
697 175 1382
706 176 1389
690 171 1347
701 172 1358
708 173 1361
702 170 1339
708 171 1339
810 194 1523
913 217 1705
936 221 1735
946 222 1741
957 223 1748
962 223 1744
965 223 1736
971 223 1734
981 224 1739
-1321 321 2290
-1307 320 2282
-1294 318 2277
-1284 318 2276
-1268 315 2264
-1253 313 2254
-1244 313 2254
-1239 313 2262
-1227 312 2257
-1214 311 2249
-1192 307 2226
-1196 310 2250
-1170 305 2218
-1160 304 2215
-1139 300 2192
-1139 302 2209
-1104 295 2158
-1018 273 2004
-973 263 1931
-975 265 1950
-982 269 1979
-992 273 2014
-992 275 2030
-986 275 2033
-984 276 2046
-980 277 2054
-992 282 2095
-1016 290 2164
-1013 291 2174
-1001 290 2166
-992 289 2163
-985 289 2164
-973 287 2156
-975 290 2177
-990 296 2230
-994 300 2258
-994 302 2276
-989 302 2282
-985 303 2292
-980 304 2300
-978 305 2315
-977 307 2332
-970 307 2335
-969 309 2352
-961 309 2352
-960 311 2372
-955 311 2380
-953 313 2395
-946 313 2398
-944 315 2414
-940 316 2426
-937 317 2439
-934 319 2453
-928 319 2459
-921 319 2463
-923 323 2490
-915 323 2493
-908 323 2496
-907 325 2517
-904 326 2531
-897 326 2535
-892 327 2544
-889 329 2561
-886 331 2576
-877 330 2575
-872 331 2585
-867 332 2596
-861 333 2604
-857 335 2618
-852 335 2627
-848 337 2643
-843 338 2651
-838 339 2664
-831 339 2668
-827 341 2683
-825 343 2705
-815 343 2702
-809 343 2711
-804 345 2722
-796 344 2723
-791 346 2735
-785 347 2747
-779 348 2757
-776 350 2777
-765 349 2769
-757 349 2770
-751 350 2780
-742 349 2781
-735 350 2786
-720 346 2761
-710 345 2754
-704 347 2765
-693 345 2757
-685 345 2756
-676 345 2757
-667 344 2755
-657 343 2747
-650 343 2751
-638 341 2737
-631 342 2743
-621 341 2739
-614 341 2743
-605 341 2739
-595 340 2732
-586 339 2728
-577 338 2726
-567 337 2718
-560 337 2722
-550 337 2717
-543 337 2721
-534 336 2718
-525 335 2710
-515 334 2700
-505 332 2689
-499 334 2705
-488 331 2685
-481 332 2695
-472 331 2685
-462 330 2678
-456 331 2687
-448 331 2686
-438 329 2675
-429 328 2668
-422 328 2671
-413 327 2665
-404 327 2661
-396 327 2660
-387 326 2653
-380 326 2660
-373 326 2660
-363 324 2647
-355 324 2649
-346 323 2637
-338 322 2634
-332 324 2647
-322 322 2631
-314 321 2627
-305 320 2617
-299 322 2633
-290 320 2618
-283 320 2622
-274 318 2609
-265 317 2599
-259 318 2612
-250 317 2604
-242 316 2595
-234 315 2587
-226 314 2581
-218 314 2582
-210 313 2569
-202 313 2570
-194 312 2562
-186 311 2559
-178 310 2551
-170 309 2543
-163 308 2538
-155 307 2529
-147 307 2526
-139 304 2508
-131 303 2497
-123 301 2479
-115 299 2464
-107 297 2448
-100 296 2440
-91 291 2404
-83 288 2379
-76 285 2354
-68 282 2330
-61 278 2295
-53 275 2270
-46 271 2241
-39 268 2214
-32 263 2176
-25 260 2150
-19 257 2123
-13 253 2089
-6 250 2065
0 248 2048
5 245 2021
10 242 1996
16 239 1972
21 236 1950
27 234 1937
32 234 1931
37 225 1857
43 233 1929
50 240 1986
54 230 1899
56 215 1776
61 215 1780
64 209 1731
71 215 1776
76 215 1779
80 211 1746
84 208 1723
87 204 1684
92 204 1687
95 200 1650
99 199 1645
105 200 1651
110 202 1668
112 195 1613
117 197 1628
122 197 1625
129 201 1662
128 192 1587
137 198 1640
139 194 1604
142 192 1586
148 193 1599
153 193 1599
155 190 1571
159 189 1564
166 193 1597
168 190 1567
171 188 1555
178 191 1579
181 189 1559
185 189 1559
192 190 1573
191 185 1527
199 189 1561
202 187 1545
204 185 1528
212 188 1551
215 187 1541
218 185 1529
222 185 1524
225 184 1515
234 187 1544
238 187 1543
244 188 1551
243 184 1513
256 190 1566
249 182 1497
257 184 1518
263 186 1529
264 183 1507
276 188 1549
270 181 1492
277 183 1504
285 185 1522
288 184 1512
294 185 1520
294 182 1495
293 179 1471
300 180 1482
310 184 1512
313 183 1504
314 181 1485
311 177 1452
322 180 1481
329 182 1490
336 183 1504
342 184 1509
346 184 1505
347 182 1492
350 181 1485
352 180 1475
360 182 1489
363 181 1481
362 178 1456
374 182 1487
379 182 1488
379 180 1470
377 177 1445
387 180 1467
397 183 1489
410 186 1518
407 183 1489
408 181 1477
412 181 1473
421 183 1490
427 184 1494
419 178 1448
420 177 1436
427 178 1446
430 177 1439
441 180 1462
452 183 1482
449 180 1457
452 179 1451
459 180 1458
456 177 1434
461 177 1434
465 178 1434
470 177 1433
474 178 1433
479 178 1433
484 178 1435
489 178 1434
503 182 1462
496 177 1427
507 180 1444
514 181 1451
508 177 1421
512 177 1419
526 180 1444
530 180 1442
530 178 1428
525 175 1403
541 179 1433
534 175 1401
544 177 1413
547 177 1410
555 178 1417
553 176 1399
563 178 1413
572 179 1423
568 177 1402
578 178 1414
571 175 1384
586 178 1408
596 180 1421
596 178 1409
601 178 1408
588 173 1366
620 181 1429
617 179 1412
599 173 1357
633 181 1423
633 180 1412
627 177 1386
633 177 1389
642 179 1397
645 178 1394
642 176 1375
639 174 1359
665 180 1402
655 176 1370
654 175 1358
671 178 1382
661 174 1350
674 176 1367
676 176 1359
677 175 1352
694 178 1374
695 177 1367
694 176 1354
697 175 1349
703 176 1351
705 175 1344
723 179 1368
818 201 1538
916 223 1710
940 228 1742
942 227 1732
949 227 1733
958 228 1736
968 229 1742
968 228 1728
974 228 1726
-1320 328 2287
-1313 329 2292
-1295 326 2277
-1286 325 2278
-1271 323 2269
-1259 322 2263
-1248 321 2261
-1244 322 2270
-1228 320 2258
-1210 317 2241
-1201 316 2242
-1195 317 2248
-1183 315 2241
-1166 313 2227
-1158 312 2228
-1144 310 2218
-1117 305 2182
-1028 283 2024
-981 271 1947
-973 271 1945
-977 273 1967
-991 279 2012
-991 281 2028
-984 281 2029
-981 282 2040
-978 283 2049
-989 288 2089
-1010 295 2148
-1009 297 2165
-1003 297 2169
-989 295 2157
-986 296 2166
-975 295 2161
-977 297 2181
-989 303 2226
-993 306 2253
-992 308 2269
-989 309 2282
-989 312 2301
-986 313 2314
-977 312 2311
-976 314 2329
-969 314 2332
-966 315 2344
-962 316 2356
-959 318 2367
-957 319 2384
-952 320 2391
-948 321 2402
-945 323 2416
-942 324 2430
-940 326 2446
-930 325 2441
-929 327 2460
-923 328 2468
-915 327 2468
-915 330 2490
-912 332 2506
-904 331 2508
-904 334 2529
-900 335 2543
-893 336 2547
-889 337 2561
-882 337 2564
-878 338 2576
-872 339 2585
-869 341 2601
-865 342 2615
-860 343 2625
-854 344 2633
-850 346 2647
-842 345 2648
-841 348 2673
-835 349 2681
-829 350 2688
-822 350 2694
-816 351 2702
-813 353 2724
-803 352 2719
-800 354 2736
-793 355 2742
-787 356 2751
-778 356 2753
-772 356 2760
-769 359 2780
-756 357 2767
-751 358 2778
-741 357 2775
-733 357 2777
-721 355 2763
-709 353 2752
-703 354 2763
-694 354 2760
-684 353 2752
-676 353 2755
-668 353 2757
-657 351 2747
-648 350 2742
-638 350 2738
-632 351 2748
-623 350 2745
-613 349 2738
-605 349 2738
-594 347 2729
-586 347 2731
-576 346 2721
-568 346 2721
-560 346 2722
-550 345 2716
-543 345 2719
-532 343 2705
-524 343 2706
-517 343 2710
-507 342 2703
-498 341 2699
-488 340 2689
-480 340 2689
-474 341 2697
-465 339 2690
-456 339 2689
-448 339 2686
-438 337 2676
-431 337 2679
-422 336 2673
-415 337 2678
-406 336 2672
-399 337 2678
-387 333 2652
-380 333 2655
-370 332 2644
-364 333 2653
-355 332 2643
-348 332 2651
-339 331 2644
-331 331 2638
-323 330 2634
-314 329 2628
-306 329 2628
-299 329 2629
-291 328 2623
-283 328 2624
-275 328 2624
-266 326 2610
-258 325 2603
-250 325 2605
-243 326 2610
-235 325 2605
-228 325 2603
-219 323 2590
-212 324 2601
-203 322 2583
-196 323 2591
-188 321 2579
-181 322 2584
-173 321 2584
-165 320 2570
-157 318 2561
-150 320 2572
-142 318 2556
-135 319 2564
-127 318 2560
-119 316 2546
-111 316 2543
-104 316 2546
-97 316 2545
-89 315 2540
-82 315 2540
-74 314 2534
-67 315 2539
-60 314 2534
-52 313 2528
-45 312 2519
-37 311 2513
-30 311 2506
-23 309 2498
-16 310 2506
-8 308 2489
-1 308 2485
5 307 2478
12 307 2482
19 305 2463
26 304 2453
33 302 2442
40 301 2430
47 300 2425
54 298 2412
60 296 2390
67 294 2376
73 291 2354
79 288 2331
85 286 2309
91 282 2284
96 280 2261
102 277 2238
107 274 2213
112 271 2189
118 268 2167
122 264 2132
127 261 2107
131 258 2086
136 255 2060
140 252 2036
145 250 2023
150 248 2005
154 245 1979
157 242 1952
162 240 1940
171 246 1985
173 239 1933
170 228 1838
181 235 1898
182 230 1858
186 227 1837
188 224 1810
192 222 1793
199 224 1811
206 226 1822
205 219 1768
201 209 1689
217 221 1781
214 212 1713
217 211 1703
218 207 1668
226 210 1694
239 217 1753
234 208 1680
237 206 1665
238 203 1636
239 200 1614
246 202 1628
249 201 1616
258 204 1641
259 201 1617
260 198 1591
260 194 1563
267 196 1578
269 194 1564
273 193 1555
273 191 1533
278 191 1532
288 195 1566
295 196 1577
298 195 1569
297 191 1536
307 195 1563
301 188 1511
304 187 1503
312 189 1519
316 189 1514
328 193 1549
326 190 1519
333 191 1529
332 188 1505
335 187 1499
343 189 1514
342 186 1486
343 184 1472
351 186 1489
357 187 1493
369 191 1524
370 189 1507
366 185 1476
381 190 1516
376 185 1475
383 186 1486
381 183 1459
392 186 1484
394 185 1476
393 183 1455
397 183 1454
404 184 1462
407 183 1455
418 186 1478
420 185 1470
426 186 1473
422 182 1443
444 189 1502
438 185 1468
430 180 1423
452 187 1480
458 188 1484
449 182 1442
457 184 1450
461 183 1448
467 184 1453
467 183 1440
466 181 1422
470 180 1420
480 183 1437
487 183 1441
486 181 1424
503 186 1462
498 183 1433
509 185 1449
511 184 1442
512 183 1431
519 184 1437
520 182 1426
530 184 1440
527 182 1419
524 179 1398
540 183 1429
531 179 1393
548 183 1424
543 180 1398
557 183 1423
568 185 1438
568 184 1425
574 184 1427
580 184 1429
589 186 1441
579 181 1402
581 181 1396
591 183 1409
597 183 1410
602 183 1411
605 183 1406
610 183 1405
608 181 1388
614 181 1392
623 183 1401
623 181 1389
629 182 1391
640 184 1405
627 179 1364
661 187 1427
647 182 1385
665 186 1412
655 182 1380
662 182 1385
664 182 1378
657 179 1353
680 184 1389
677 182 1372
677 180 1361
682 181 1362
681 179 1347
721 188 1417
671 174 1308
695 179 1345
706 181 1356
706 180 1346
711 180 1344
833 209 1565
926 231 1728
939 233 1740
944 233 1735
955 234 1743
966 236 1750
970 235 1744
975 235 1741
978 234 1733
-1329 338 2302
-1306 334 2279
-1299 334 2284
-1288 333 2282
-1271 331 2268
-1265 331 2273
-1257 331 2277
-1239 328 2261
-1230 327 2261
-1218 326 2255
-1203 324 2245
-1199 325 2255
-1188 324 2250
-1165 319 2223
-1159 320 2228
-1148 319 2225
-1125 314 2197
-1058 297 2082
-993 281 1969
-972 277 1942
-980 281 1973
-991 285 2010
-990 287 2024
-987 288 2035
-988 290 2052
-983 290 2057
-985 293 2078
-1013 303 2154
-1019 307 2184
-1008 306 2179
-994 303 2166
-988 304 2171
-974 301 2157
-972 303 2170
-988 310 2225
-997 315 2262
-995 316 2276
-988 316 2279
-984 317 2289
-985 320 2310
-977 319 2311
-973 320 2321
-973 323 2341
-969 323 2351
-963 324 2356
-959 325 2368
-955 326 2377
-951 327 2389
-948 328 2401
-946 330 2418
-941 331 2426
-935 331 2432
-931 333 2444
-932 336 2468
-923 335 2467
-918 336 2476
-917 338 2495
-909 338 2497
-909 341 2521
-901 341 2522
-896 341 2530
-894 344 2548
-889 345 2558
-883 345 2566
-879 347 2580
-874 348 2591
-871 349 2605
-863 349 2606
-860 351 2624
-849 350 2616
-846 352 2635
-845 355 2658
-839 356 2666
-833 356 2673
-828 358 2687
-822 359 2695
-814 359 2698
-805 358 2697
-801 360 2712
-794 360 2717
-792 363 2740
-784 363 2740
-783 366 2768
-772 364 2759
-765 365 2767
-758 366 2772
-752 367 2784
-747 368 2797
-738 368 2796
-721 363 2762
-714 364 2769
-704 363 2763
-692 361 2752
-685 361 2756
-678 362 2762
-668 361 2757
-660 361 2759
-649 359 2749
-640 359 2745
-631 358 2744
-623 358 2743
-613 357 2739
-604 357 2737
-596 357 2737
-589 357 2740
-578 355 2728
-569 355 2728
-559 353 2715
-551 353 2719
-541 352 2710
-534 352 2714
-526 352 2714
-516 351 2708
-508 350 2705
-499 350 2701
-489 348 2693
-483 349 2703
-475 350 2706
-465 348 2694
-455 346 2683
-448 346 2685
-440 346 2684
-430 345 2676
-422 344 2671
-413 344 2668
-407 344 2676
-397 343 2666
-388 342 2660
-381 342 2661
-372 341 2655
-364 341 2653
-355 340 2646
-348 340 2648
-339 339 2644
-332 339 2644
-323 338 2634
-315 337 2633
-307 337 2631
-298 336 2623
-290 335 2616
-283 335 2621
-275 336 2625
-266 334 2613
-259 334 2614
-250 332 2602
-243 333 2608
-235 332 2602
-228 333 2607
-219 331 2598
-212 331 2593
-204 330 2592
-196 329 2584
-189 330 2588
-180 329 2580
-173 328 2577
-165 327 2572
-158 328 2574
-150 328 2575
-143 327 2571
-135 326 2567
-127 326 2562
-119 324 2551
-112 325 2554
-105 325 2560
-97 324 2551
-90 324 2547
-82 323 2543
-74 322 2538
-67 323 2546
-60 323 2544
-53 322 2539
-45 322 2535
-38 322 2539
-30 320 2527
-23 321 2530
-16 320 2523
-8 320 2529
-1 319 2520
5 319 2518
12 318 2514
20 318 2512
27 319 2515
34 318 2508
41 318 2511
48 316 2499
56 316 2498
63 316 2499
70 315 2487
77 315 2490
84 314 2482
91 314 2480
98 314 2478
106 314 2479
113 313 2475
119 312 2464
127 313 2472
134 312 2467
140 311 2459
147 311 2458
154 310 2447
160 308 2438
168 309 2441
174 308 2435
181 307 2429
187 306 2417
194 305 2412
200 303 2397
206 302 2385
212 301 2380
218 300 2367
224 299 2363
231 299 2359
237 298 2352
241 295 2327
246 292 2308
251 290 2292
255 287 2269
262 288 2273
266 284 2243
272 284 2240
276 281 2216
280 279 2203
284 276 2182
287 273 2157
292 272 2146
295 269 2123
299 267 2103
303 265 2086
306 262 2065
310 260 2050
312 257 2023
318 257 2024
319 253 1996
324 253 1990
325 249 1959
329 247 1946
332 245 1929
335 243 1913
355 254 1999
344 242 1900
339 234 1842
356 242 1903
345 231 1818
345 228 1787
331 215 1688
338 216 1696
363 229 1796
373 232 1818
382 234 1833
360 217 1703
373 222 1741
383 225 1761
381 221 1728
366 209 1637
385 217 1697
386 215 1681
395 217 1698
401 218 1702
403 216 1688
402 213 1661
404 211 1648
414 214 1667
409 209 1627
409 206 1605
414 207 1609
425 209 1630
415 202 1574
422 203 1581
428 204 1585
412 194 1508
424 198 1535
431 198 1540
439 200 1552
443 200 1551
452 202 1564
465 205 1592
450 197 1524
465 201 1556
458 196 1517
467 198 1530
474 199 1538
464 193 1488
474 195 1506
479 195 1506
473 191 1470
487 195 1501
493 195 1504
488 192 1474
497 193 1486
498 192 1474
509 194 1493
502 190 1457
509 191 1462
518 193 1475
511 188 1441
522 191 1460
528 191 1461
531 191 1458
540 192 1468
538 190 1450
540 189 1441
548 190 1450
557 192 1460
561 192 1459
541 183 1393
560 188 1430
577 193 1460
575 190 1441
566 186 1406
592 193 1459
588 190 1438
579 186 1403
601 191 1444
592 187 1411
608 191 1437
609 190 1426
611 189 1418
616 189 1419
620 189 1417
642 194 1454
641 193 1442
640 191 1427
638 189 1412
637 187 1396
658 192 1433
666 193 1439
662 190 1416
644 184 1367
681 193 1434
661 186 1382
679 190 1407
681 189 1401
690 191 1409
671 184 1360
692 189 1390
696 189 1388
708 191 1402
696 186 1367
705 187 1374
694 183 1341
713 187 1369
695 181 1324
719 186 1359
847 218 1591
929 238 1732
939 239 1738
943 238 1733
950 239 1734
958 239 1735
966 240 1735
978 241 1744
981 241 1737
-1320 343 2286
-1306 342 2278
-1302 343 2288
-1288 341 2279
-1276 339 2276
-1263 338 2269
-1256 338 2274
-1241 336 2263
-1229 335 2258
-1222 335 2263
-1209 333 2255
-1205 334 2265
-1187 331 2247
-1178 330 2248
-1163 328 2236
-1151 327 2230
-1135 324 2215
-1074 309 2113
-1002 290 1987
-973 283 1944
-975 285 1962
-987 291 2002
-989 293 2022
-987 294 2034
-982 295 2039
-982 297 2056
-985 299 2077
-1007 308 2142
-1022 315 2191
-1017 315 2197
-1003 313 2185
-988 310 2169
-973 308 2154
-977 311 2182
-987 316 2221
-996 321 2260
-995 323 2276
-989 323 2280
-985 324 2290
-981 325 2300
-981 328 2319
-975 328 2326
-977 331 2350
-966 330 2344
-962 331 2354
-963 334 2376
-954 333 2374
-957 337 2403
-950 337 2405
-943 337 2410
-940 338 2422
-937 340 2436
-934 341 2450
-923 340 2443
-925 343 2471
-925 346 2493
-917 346 2495
-913 347 2507
-904 347 2506
-902 349 2524
-898 350 2537
-892 351 2542
-890 353 2562
-880 352 2557
-878 354 2575
-873 355 2587
-867 356 2594
-863 357 2608
-862 360 2631
-853 360 2629
-849 361 2644
-843 362 2651
-836 362 2657
-832 364 2671
-827 365 2681
-823 367 2699
-819 368 2711
-809 368 2707
-806 370 2727
-800 371 2736
-793 371 2741
-783 370 2737
-778 372 2749
-775 374 2770
-765 374 2767
-755 373 2762
-750 374 2773
-747 377 2797
-738 376 2794
-721 372 2764
-714 372 2768
-702 370 2756
-692 369 2752
-683 369 2750
-677 370 2758
-667 368 2751
-660 369 2759
-649 368 2748
-640 367 2743
-632 367 2748
-621 365 2735
-614 366 2742
-602 363 2726
-596 364 2733
-587 364 2731
-579 364 2732
-568 362 2722
-558 360 2711
-552 362 2723
-543 361 2717
-533 359 2709
-525 359 2710
-517 359 2709
-509 359 2712
-499 357 2699
-489 356 2690
-480 355 2685
-473 356 2692
-465 355 2689
-456 355 2689
-448 354 2683
-440 354 2686
-432 354 2685
-422 353 2676
-414 352 2672
