VERSION 0.7
FIELDS x y z
SIZE 4 4 4
TYPE I I I
COUNT 1 1 1
WIDTH 3592
HEIGHT 1
VIEWPOINT 0.0 0.0 0.0 1.0 0.0 0.0 0.0
POINTS 3592
DATA ascii
411 351 1423
414 350 1419
421 352 1425
424 351 1421
428 351 1419
431 350 1412
440 354 1428
444 353 1424
445 351 1413
450 351 1414
458 354 1425
462 353 1421
466 353 1419
472 354 1423
478 355 1426
483 356 1429
485 355 1421
491 356 1424
494 355 1419
500 356 1422
505 356 1423
520 364 1451
531 368 1467
528 363 1445
530 361 1437
537 362 1441
545 365 1451
551 366 1453
561 370 1466
557 364 1442
566 367 1453
561 361 1428
570 364 1437
579 366 1446
580 364 1436
585 365 1437
592 366 1440
595 365 1435
605 368 1446
606 366 1437
626 375 1470
623 371 1452
627 371 1450
634 372 1453
637 371 1447
633 366 1427
636 365 1421
639 364 1415
653 369 1435
661 371 1441
663 370 1434
675 374 1447
679 373 1444
684 374 1443
694 377 1452
698 376 1448
716 383 1474
730 388 1492
737 389 1494
737 387 1483
738 385 1474
738 383 1462
735 378 1443
745 381 1452
751 382 1453
751 379 1441
758 380 1443
758 378 1433
769 381 1441
769 379 1430
772 378 1425
767 373 1406
776 375 1412
776 373 1401
783 374 1403
789 374 1402
790 373 1394
788 370 1379
766 357 1331
739 343 1274
-489 235 829
-487 235 831
-514 249 884
-528 257 914
-601 294 1049
-685 337 1205
-711 352 1260
-710 353 1268
-696 349 1253
-678 341 1229
-673 341 1229
-658 335 1211
-648 332 1202
-645 333 1206
-648 336 1221
-655 342 1244
-682 358 1304
-722 381 1392
-772 410 1499
-755 403 1477
-674 363 1330
-565 306 1124
-545 298 1093
-546 300 1103
-544 301 1108
-540 300 1108
-532 298 1101
-537 303 1120
-532 302 1119
-535 306 1135
-521 300 1115
-514 298 1109
-526 307 1143
-526 309 1152
-522 308 1153
-515 306 1147
-507 304 1139
-507 306 1148
-504 307 1152
-502 307 1157
-502 310 1168
-511 318 1199
-542 339 1281
-563 355 1342
-561 356 1350
-557 356 1350
-552 356 1351
-548 355 1352
-545 356 1357
-531 350 1334
-528 350 1338
-527 353 1347
-524 354 1354
-518 352 1350
-514 352 1351
-507 351 1346
-508 354 1361
-503 353 1359
-497 352 1356
-488 349 1345
-483 348 1342
-477 347 1340
-472 346 1338
-467 346 1338
-467 348 1349
-468 352 1366
-464 352 1367
-459 352 1367
-457 353 1374
-452 352 1372
-445 351 1367
-445 354 1379
-443 355 1387
-438 355 1386
-439 359 1405
-435 359 1408
-422 352 1378
-413 348 1365
-410 349 1370
-408 351 1378
-405 351 1381
-401 352 1385
-400 355 1397
-395 354 1395
-393 356 1404
-386 353 1395
-379 351 1387
-373 349 1381
-371 351 1390
-368 353 1396
-362 350 1389
-359 352 1394
-353 350 1389
-349 350 1391
-348 353 1401
-342 351 1395
-335 348 1386
-334 352 1401
-328 350 1395
-327 353 1407
-321 351 1402
-316 350 1399
-306 343 1371
-303 345 1380
-298 344 1375
-293 343 1372
-288 342 1368
-285 343 1375
-279 341 1367
-276 342 1373
-274 344 1381
-266 340 1364
-264 342 1372
-259 341 1371
-255 341 1370
-252 343 1378
-246 339 1365
-241 339 1365
-239 342 1376
-233 339 1366
-230 340 1369
-225 338 1364
-221 339 1368
-215 335 1355
-213 339 1368
-207 335 1355
-202 335 1353
-200 337 1364
-195 335 1357
-191 337 1363
-190 340 1378
-184 337 1366
-181 340 1380
-176 338 1371
-174 342 1389
-169 340 1378
-164 338 1373
-159 336 1364
-157 339 1378
-152 339 1378
-150 342 1389
-144 338 1374
-141 341 1386
-136 339 1378
-133 341 1388
-128 338 1377
-125 342 1391
-116 328 1337
-110 322 1310
-101 307 1251
-93 294 1198
-86 285 1158
-81 279 1136
-76 273 1112
-72 270 1098
-69 269 1094
-64 264 1077
-61 265 1081
-58 265 1081
-55 266 1085
-52 266 1083
-49 267 1090
-46 266 1086
-42 267 1089
-40 269 1096
-37 272 1111
-34 272 1112
-31 277 1133
-28 281 1149
-26 293 1199
-24 310 1270
-21 320 1307
-18 328 1342
-14 340 1392
-10 342 1399
-6 341 1397
-2 340 1391
1 341 1395
5 342 1400
9 343 1406
14 344 1410
18 342 1400
22 342 1399
26 339 1388
30 339 1388
34 342 1402
38 341 1399
42 340 1393
46 341 1397
51 342 1400
55 347 1422
59 344 1409
64 346 1417
67 344 1409
71 343 1407
75 341 1398
80 344 1407
83 341 1396
88 343 1406
93 346 1416
96 344 1408
101 344 1407
105 346 1416
108 342 1399
113 343 1402
117 343 1403
122 347 1419
125 344 1406
130 345 1412
135 346 1416
138 345 1410
142 344 1407
148 347 1419
152 346 1416
153 340 1390
159 344 1405
167 351 1436
168 345 1409
173 348 1422
179 350 1432
181 347 1418
183 342 1396
189 346 1414
193 345 1410
197 345 1409
200 343 1401
206 345 1408
209 344 1402
214 345 1409
218 345 1405
222 344 1402
229 349 1420
231 346 1411
235 346 1409
240 347 1411
241 342 1392
247 345 1404
253 347 1410
258 348 1415
261 347 1411
265 347 1408
270 347 1410
275 348 1412
275 343 1393
281 345 1398
288 348 1412
291 348 1409
295 346 1403
298 346 1400
303 346 1400
307 346 1398
312 347 1403
315 345 1397
320 346 1398
325 347 1402
328 346 1398
334 348 1403
338 347 1401
342 347 1399
347 348 1401
352 349 1404
357 350 1408
360 348 1402
366 350 1406
372 352 1415
371 346 1391
379 350 1404
384 351 1408
387 350 1402
395 352 1412
396 350 1400
404 353 1413
407 352 1408
410 351 1402
418 354 1413
418 350 1399
428 355 1416
427 351 1398
433 352 1404
438 353 1405
444 354 1409
442 349 1389
448 351 1394
458 355 1410
462 354 1406
465 353 1401
470 354 1402
479 357 1414
481 356 1407
482 353 1395
491 357 1408
493 355 1401
510 364 1436
517 366 1442
523 367 1443
522 363 1427
528 364 1432
536 366 1438
542 367 1440
543 365 1431
548 365 1430
550 364 1424
558 366 1431
555 361 1410
563 363 1417
570 365 1424
572 363 1414
584 368 1432
588 368 1428
587 364 1413
596 367 1424
599 366 1419
607 369 1427
615 371 1432
618 369 1426
626 372 1433
626 369 1422
633 370 1424
634 368 1415
642 370 1421
647 371 1421
656 373 1429
660 373 1426
664 373 1423
668 372 1420
674 373 1421
684 376 1430
687 375 1425
709 384 1459
723 389 1476
728 389 1475
736 391 1480
743 392 1481
744 390 1472
740 386 1453
741 384 1444
739 380 1427
743 380 1424
748 380 1423
750 378 1415
759 381 1422
760 379 1413
766 379 1413
765 377 1400
773 378 1404
773 376 1393
782 378 1399
780 375 1386
784 375 1382
789 375 1381
787 372 1367
780 366 1345
-482 234 816
-526 257 898
-565 277 970
-647 318 1119
-711 352 1240
-715 356 1257
-711 356 1259
-702 353 1252
-683 346 1228
-675 344 1223
-661 339 1206
-656 338 1207
-646 335 1198
-642 335 1199
-642 337 1207
-646 341 1225
-659 350 1260
-680 363 1309
-745 400 1446
-763 412 1492
-707 385 1393
-584 320 1160
-551 304 1103
-546 303 1102
-538 301 1095
-539 304 1106
-536 304 1108
-549 313 1146
-528 303 1109
-513 297 1087
-518 302 1107
-519 304 1118
-535 316 1163
-516 306 1130
-522 312 1153
-499 301 1111
-537 325 1205
-509 311 1151
-507 312 1157
-498 309 1147
-506 316 1176
-526 330 1231
-551 348 1301
-560 357 1334
-550 353 1322
-547 354 1326
-541 353 1323
-545 358 1343
-538 356 1340
-535 357 1344
-529 356 1341
-519 352 1327
-516 352 1331
-515 354 1340
-512 356 1346
-508 355 1347
-500 353 1338
-496 353 1340
-492 353 1341
-484 350 1332
-480 350 1334
-472 348 1326
-467 347 1324
-464 347 1328
-459 347 1326
-466 355 1361
-462 355 1363
-455 352 1353
-453 355 1362
-443 350 1347
-446 356 1369
-443 356 1373
-437 355 1369
-432 354 1367
-435 360 1392
-424 354 1371
-419 354 1370
-408 348 1346
-405 349 1352
-404 351 1363
-397 349 1356
-395 351 1364
-395 355 1379
-390 353 1375
-389 357 1390
-383 355 1382
-373 349 1362
-375 355 1386
-369 354 1382
-366 354 1385
-363 355 1390
-358 354 1387
-354 355 1390
-348 353 1384
-342 352 1379
-340 354 1389
-331 348 1369
-329 351 1379
-330 356 1400
-321 350 1379
-318 352 1385
-308 346 1363
-304 345 1362
-300 345 1363
-294 344 1358
-291 345 1362
-286 344 1360
-281 342 1352
-278 343 1358
-272 341 1352
-270 343 1359
-264 341 1353
-261 342 1356
-259 345 1367
-253 342 1358
-249 343 1363
-245 342 1360
-241 343 1363
-237 342 1362
-231 339 1350
-227 340 1353
-222 338 1347
-219 339 1352
-212 335 1337
-210 339 1351
-205 337 1344
-201 337 1345
-198 339 1354
-194 338 1350
-190 339 1355
-184 334 1336
-182 338 1353
-179 340 1359
-174 339 1356
-170 338 1354
-165 337 1350
-163 341 1367
-158 339 1358
-155 339 1360
-151 340 1364
-147 340 1367
-142 337 1353
-139 341 1371
-135 340 1367
-131 341 1369
-128 343 1377
-122 338 1358
-115 330 1326
-108 319 1284
-99 305 1228
-92 294 1183
-86 286 1150
-80 279 1120
-76 274 1103
-72 273 1097
-67 267 1073
-64 267 1073
-61 268 1079
-58 267 1073
-54 266 1072
-52 268 1077
-48 266 1070
-45 267 1076
-42 269 1084
-39 269 1086
-36 273 1100
-34 277 1119
-31 278 1122
-28 284 1146
-25 291 1174
-23 308 1243
-20 316 1276
-17 329 1331
-14 343 1386
-10 344 1389
-6 344 1390
-2 342 1383
1 341 1379
5 343 1385
9 340 1374
13 340 1375
18 344 1391
22 343 1387
26 343 1385
30 343 1387
34 343 1387
38 343 1387
42 342 1385
46 341 1381
50 343 1389
54 341 1377
59 345 1395
63 347 1406
67 344 1390
71 343 1388
74 342 1382
79 342 1385
83 342 1383
87 343 1386
91 342 1385
96 346 1399
99 342 1384
104 345 1396
108 344 1391
112 343 1387
116 343 1387
119 342 1381
123 341 1377
130 348 1408
133 346 1399
137 345 1395
141 346 1396
146 347 1401
149 345 1392
152 342 1382
159 348 1406
164 350 1412
167 349 1407
172 349 1407
177 351 1416
180 348 1402
185 350 1412
186 345 1389
194 350 1412
195 346 1395
202 350 1410
206 349 1407
209 349 1405
213 348 1399
216 347 1395
220 346 1392
224 345 1389
228 345 1389
232 345 1389
237 347 1393
243 349 1402
245 346 1390
249 345 1387
255 348 1396
255 343 1376
262 346 1389
267 348 1395
270 346 1387
277 350 1403
279 347 1391
280 343 1373
289 349 1395
291 347 1387
294 344 1376
300 347 1386
303 345 1379
308 347 1385
312 346 1381
316 346 1380
321 347 1384
326 347 1385
333 351 1400
335 349 1389
341 351 1396
342 347 1381
349 350 1393
351 348 1383
358 350 1392
360 348 1381
365 349 1386
371 351 1392
375 351 1391
378 349 1384
388 354 1403
388 351 1387
392 351 1387
397 351 1388
401 351 1387
405 351 1384
412 353 1392
416 353 1391
420 353 1389
424 352 1387
431 355 1396
433 353 1388
435 351 1379
443 354 1389
447 354 1389
454 356 1396
457 355 1390
466 359 1405
466 355 1389
474 358 1398
470 352 1374
483 359 1399
489 360 1402
491 358 1394
504 364 1417
511 366 1424
516 366 1423
519 365 1418
517 361 1400
527 365 1413
531 364 1411
533 363 1402
539 364 1406
546 366 1412
554 368 1418
552 364 1402
557 364 1402
562 365 1402
570 367 1409
571 364 1399
579 367 1407
587 369 1412
592 369 1413
603 373 1426
596 366 1399
599 366 1394
604 366 1393
614 369 1405
619 369 1405
623 369 1402
631 371 1408
633 370 1400
638 370 1401
645 371 1402
649 371 1401
661 375 1415
657 370 1395
670 375 1412
674 375 1408
684 378 1418
690 379 1419
705 384 1439
715 387 1448
732 394 1469
736 393 1467
734 390 1451
733 386 1437
735 385 1431
733 381 1414
731 378 1401
734 377 1395
741 378 1397
748 380 1401
756 382 1405
758 380 1397
768 383 1404
765 379 1389
774 381 1394
776 380 1387
777 378 1379
780 377 1374
780 375 1363
785 375 1363
785 373 1352
-518 254 876
-604 298 1029
-710 351 1218
-740 368 1280
-736 368 1283
-713 359 1252
-701 355 1240
-697 355 1242
-679 348 1220
-668 344 1208
-658 341 1200
-651 340 1197
-649 341 1202
-641 339 1196
-642 341 1207
-640 342 1213
-640 344 1222
-657 356 1265
-708 385 1374
-749 410 1464
-719 396 1418
-643 357 1277
-555 310 1111
-543 305 1095
-543 307 1104
-539 307 1104
-540 310 1116
-575 332 1197
-521 303 1094
-528 309 1119
-509 300 1087
-536 318 1154
-518 309 1123
-510 306 1115
-498 301 1098
-526 321 1170
-508 312 1139
-511 316 1157
-506 315 1155
-507 318 1166
-507 320 1176
-533 339 1248
-549 352 1296
-548 353 1305
-546 355 1312
-544 356 1318
-540 356 1321
-532 354 1312
-527 353 1312
-526 355 1320
-518 353 1313
-514 352 1313
-512 354 1320
-509 354 1324
-499 351 1312
-503 356 1334
-493 352 1320
-490 352 1322
-488 354 1329
-478 350 1315
-471 348 1309
-471 351 1321
-463 347 1310
-458 347 1309
-453 347 1309
-453 349 1320
-449 349 1321
-448 352 1333
-446 353 1341
-446 356 1353
-437 352 1339
-435 354 1348
-433 356 1354
-428 355 1354
-429 359 1370
-420 356 1358
-413 353 1350
-403 348 1330
-404 352 1347
-396 349 1336
-398 354 1359
-396 356 1364
-391 355 1364
-389 357 1371
-382 354 1363
-378 354 1364
-367 348 1342
-366 351 1354
-367 356 1373
-365 358 1381
-357 354 1367
-353 354 1368
-347 352 1363
-343 352 1363
-337 350 1356
-334 351 1362
-327 349 1353
-331 357 1386
-325 354 1377
-322 356 1385
-315 352 1371
-308 350 1362
-301 346 1348
-293 342 1332
-291 344 1341
-289 346 1351
-284 345 1347
-279 344 1342
-275 344 1343
-272 345 1350
-265 341 1336
-262 343 1341
-260 345 1352
-254 342 1341
-250 343 1346
-245 342 1340
-241 342 1341
-237 341 1337
-234 342 1345
-227 338 1330
-224 339 1333
-221 341 1341
-215 338 1329
-213 341 1342
-209 341 1343
-204 338 1333
-200 340 1339
-197 341 1345
-192 338 1335
-189 341 1345
-185 340 1344
-182 342 1350
-176 338 1338
-174 342 1351
-169 340 1344
-166 341 1350
-162 342 1354
-159 343 1360
-154 343 1358
-149 340 1348
-145 341 1351
-141 339 1345
-139 344 1365
-134 342 1356
-129 341 1351
-126 343 1361
-122 341 1354
-113 328 1303
-106 319 1265
-97 304 1207
-90 294 1166
-84 285 1130
-79 279 1109
-75 275 1090
-71 271 1076
-67 268 1064
-63 268 1063
-60 267 1061
-57 267 1061
-54 267 1061
-51 267 1062
-48 267 1063
-45 268 1066
-42 268 1067
-39 273 1085
-36 272 1083
-33 275 1097
-30 277 1103
-27 283 1128
-25 291 1160
-23 307 1222
-20 321 1279
-17 329 1314
-14 341 1362
-10 344 1375
-6 341 1360
-2 342 1365
1 341 1363
5 342 1365
9 342 1367
13 345 1379
17 345 1378
21 342 1368
25 343 1371
30 347 1385
33 342 1365
38 345 1380
42 344 1374
46 342 1368
50 345 1378
54 343 1372
58 342 1367
62 345 1377
66 347 1386
70 344 1376
73 341 1362
78 342 1367
82 341 1363
87 346 1380
90 342 1368
94 344 1375
98 342 1367
103 346 1380
105 341 1360
111 345 1378
115 346 1380
119 344 1371
123 346 1379
127 346 1379
130 343 1367
136 346 1381
141 348 1388
144 345 1376
149 349 1391
152 347 1383
156 345 1375
162 351 1397
164 345 1374
169 347 1384
174 349 1388
178 348 1385
182 348 1385
185 347 1381
191 349 1390
194 348 1383
198 348 1385
202 347 1379
207 349 1387
207 343 1362
214 347 1378
217 346 1373
221 346 1373
226 347 1378
231 347 1379
236 349 1384
239 347 1378
245 350 1389
248 348 1379
254 351 1392
255 346 1371
259 346 1371
265 349 1382
265 344 1362
273 348 1377
276 347 1373
281 348 1375
288 352 1389
290 349 1378
295 350 1381
299 350 1380
302 348 1373
306 348 1374
309 347 1367
316 350 1378
319 349 1375
326 352 1385
327 349 1373
329 346 1362
335 348 1367
342 352 1381
344 349 1371
348 349 1371
353 350 1371
359 351 1378
364 353 1382
367 351 1373
369 349 1364
376 352 1375
382 353 1380
385 353 1377
390 353 1378
393 352 1373
399 354 1380
401 352 1371
408 354 1379
408 350 1364
417 354 1379
422 355 1379
427 356 1381
430 355 1378
437 357 1384
437 353 1369
443 355 1374
451 358 1386
452 355 1374
456 355 1372
461 356 1375
466 356 1375
467 354 1363
476 358 1377
487 362 1394
490 362 1390
503 368 1412
503 364 1399
516 370 1421
515 367 1405
521 368 1408
523 366 1401
530 368 1406
526 362 1384
534 365 1392
541 366 1396
545 366 1394
552 368 1400
555 367 1394
559 367 1394
565 368 1395
563 364 1378
571 366 1386
579 368 1393
582 368 1389
585 367 1384
589 366 1381
600 371 1395
594 364 1369
608 370 1389
617 372 1397
612 367 1374
622 370 1387
628 371 1388
630 369 1380
640 373 1392
641 371 1383
657 377 1404
654 373 1388
657 372 1382
665 374 1388
674 377 1395
680 378 1397
695 383 1417
703 385 1421
716 390 1438
720 389 1433
733 394 1448
720 384 1411
722 383 1403
725 382 1399
734 385 1406
734 382 1393
733 379 1381
742 381 1388
749 383 1391
751 381 1383
758 382 1385
760 381 1379
765 381 1378
765 379 1367
776 382 1376
774 379 1362
773 376 1350
786 380 1362
789 380 1358
-658 326 1112
-782 389 1332
-765 383 1313
-746 376 1290
-718 364 1251
-706 360 1238
-702 360 1241
-691 356 1231
-674 350 1210
-662 345 1197
-652 342 1188
-639 337 1173
-641 340 1186
-650 347 1212
-631 339 1186
-625 338 1184
-628 342 1199
-644 353 1239
-689 379 1335
-731 405 1428
-733 409 1444
-678 380 1346
-588 333 1177
-549 312 1107
-540 309 1097
-539 310 1103
-538 312 1112
-535 313 1115
-508 299 1066
-519 307 1099
-541 322 1153
-514 309 1106
-532 321 1154
-532 323 1163
-527 323 1162
-513 316 1140
-511 318 1146
-510 319 1152
-503 317 1148
-508 322 1167
-514 328 1192
-536 345 1253
-544 353 1284
-543 354 1292
-542 357 1302
-536 355 1297
-530 354 1295
-520 350 1281
-522 354 1298
-514 351 1290
-513 353 1298
-508 352 1296
-503 352 1296
-506 357 1317
-496 352 1302
-501 359 1328
-494 357 1320
-492 358 1327
-478 351 1302
-478 354 1314
-467 349 1298
-464 350 1301
-461 350 1305
-455 349 1302
-454 351 1310
-452 353 1318
-448 353 1318
-446 354 1326
-440 352 1321
-439 355 1333
-434 354 1330
-434 357 1343
-423 352 1324
-424 356 1340
-420 356 1340
-424 363 1370
-407 352 1329
-405 354 1338
-399 352 1331
-392 349 1322
-394 354 1342
-389 353 1340
-385 354 1343
-378 351 1334
-377 354 1345
-371 352 1338
-364 350 1330
-361 350 1334
-361 354 1350
-355 352 1344
-351 352 1344
-350 355 1357
-346 355 1358
-339 352 1348
-333 350 1339
-333 355 1359
-328 353 1354
-323 352 1350
-322 356 1367
-314 351 1350
-313 355 1362
-304 349 1343
-296 344 1324
-293 346 1332
-288 345 1327
-282 342 1319
-281 345 1331
-275 343 1325
-273 345 1333
-270 347 1339
-264 344 1331
-260 344 1330
-257 345 1337
-252 343 1330
-248 344 1334
-243 342 1325
-238 341 1321
-235 342 1325
-231 343 1329
-225 339 1317
-223 342 1327
-219 341 1326
-213 338 1316
-207 336 1306
-206 340 1321
-203 341 1328
-197 339 1319
-192 337 1312
-190 339 1320
-187 342 1332
-183 341 1332
-180 342 1335
-175 340 1329
-172 343 1338
-169 344 1343
-164 342 1336
-160 342 1337
-156 342 1338
-152 341 1334
-149 343 1344
-144 341 1336
-141 344 1346
-137 344 1348
-132 342 1340
-130 346 1357
-125 343 1346
-120 340 1334
-112 328 1288
-104 317 1244
-95 301 1180
-89 293 1148
-83 285 1118
-79 281 1100
-74 276 1082
-70 273 1071
-67 271 1063
-63 269 1056
-60 268 1052
-57 269 1057
-53 267 1049
-50 267 1048
-47 268 1054
-44 269 1057
-41 269 1057
-38 272 1068
-36 274 1077
-33 277 1091
-30 279 1097
-27 283 1114
-25 293 1154
-23 308 1215
-20 319 1257
-17 333 1311
-14 343 1352
-10 341 1346
-6 345 1360
-2 345 1362
1 344 1357
5 345 1360
9 345 1360
13 344 1358
17 346 1367
21 347 1368
25 347 1370
29 347 1368
33 345 1363
38 350 1381
42 348 1372
46 348 1374
50 347 1368
54 348 1372
58 346 1365
61 345 1363
65 343 1353
69 345 1362
74 347 1367
78 346 1366
81 345 1360
86 346 1366
90 347 1368
93 344 1357
98 348 1374
102 345 1362
105 344 1358
109 342 1348
115 348 1374
118 347 1367
123 349 1374
126 346 1364
130 345 1359
135 348 1372
139 348 1371
142 345 1358
147 348 1370
151 347 1365
154 345 1360
159 348 1370
164 348 1371
168 349 1373
171 348 1368
176 349 1372
181 350 1378
185 349 1374
188 349 1371
192 348 1369
197 350 1374
202 351 1377
205 350 1373
209 350 1374
213 348 1368
216 347 1361
220 348 1364
223 346 1356
228 348 1363
231 346 1355
236 347 1358
242 350 1372
245 348 1364
248 347 1358
250 344 1344
256 346 1353
261 348 1359
265 347 1357
269 347 1356
274 349 1362
277 347 1356
281 347 1353
285 347 1353
293 352 1372
294 348 1358
300 350 1365
303 349 1361
306 347 1352
310 348 1354
314 348 1352
320 350 1359
324 350 1358
326 348 1350
334 352 1365
338 351 1363
341 350 1355
346 351 1361
350 350 1357
356 353 1366
359 352 1361
360 349 1348
368 352 1362
371 351 1356
378 353 1364
379 351 1355
384 352 1356
390 353 1360
396 355 1368
399 354 1361
404 354 1363
408 354 1361
415 357 1372
414 353 1353
421 355 1361
420 351 1344
430 355 1360
435 356 1362
439 356 1361
441 354 1352
447 355 1357
453 357 1361
452 353 1344
464 359 1369
470 360 1370
468 356 1353
472 355 1349
488 364 1384
496 367 1392
497 364 1381
507 369 1397
508 366 1387
509 364 1376
514 364 1376
524 368 1390
525 366 1379
530 367 1381
531 364 1369
541 368 1384
543 366 1375
546 366 1372
559 371 1391
554 365 1366
568 372 1390
566 367 1372
564 363 1356
578 369 1378
581 368 1373
584 368 1368
587 367 1364
594 368 1367
600 369 1371
606 370 1373
607 368 1364
618 372 1376
624 373 1377
630 374 1379
642 379 1395
637 373 1373
648 376 1384
646 373 1368
651 373 1369
656 374 1369
662 375 1370
677 381 1390
676 377 1376
694 385 1402
702 387 1408
708 387 1408
704 383 1390
711 384 1391
713 382 1384
723 386 1394
717 380 1370
729 384 1383
732 383 1379
737 383 1377
741 383 1373
753 387 1387
745 381 1361
760 386 1378
757 382 1362
762 382 1359
766 382 1356
769 381 1351
766 377 1337
775 379 1342
781 380 1343
-817 409 1380
-785 395 1336
-764 387 1309
-738 376 1275
-716 367 1246
-698 360 1223
-696 361 1230
-685 357 1218
-671 352 1204
-657 347 1187
-648 344 1181
-646 345 1186
-638 343 1179
-626 339 1167
-631 343 1185
-629 344 1189
-630 347 1201
-634 351 1219
-671 374 1299
-726 407 1417
-743 419 1462
-718 407 1423
-656 375 1311
-561 323 1129
-544 315 1104
-536 313 1098
-538 316 1111
-537 317 1118
-535 318 1122
-525 315 1111
-518 312 1104
-516 313 1109
-521 319 1130
-516 318 1128
-512 317 1127
-514 321 1142
-511 321 1146
-506 320 1144
-510 325 1163
-517 331 1187
-531 343 1230
-544 354 1272
-539 353 1270
-543 359 1292
-528 351 1267
-527 353 1276
-524 354 1278
-516 351 1271
-517 354 1284
-506 350 1269
-507 353 1282
-503 353 1285
-494 349 1272
-494 353 1285
-496 356 1300
-496 359 1313
-485 355 1297
-487 358 1312
-473 352 1289
-471 353 1293
-467 353 1294
-463 353 1297
-457 351 1292
-446 346 1273
-446 349 1287
-448 353 1304
-442 352 1300
-440 354 1307
-438 355 1315
-429 351 1300
-426 352 1305
-426 355 1318
-424 357 1327
-424 360 1340
-422 362 1348
-419 363 1352
-402 352 1312
-399 353 1315
-392 350 1308
-393 354 1324
-391 356 1331
-386 355 1329
-378 351 1316
-374 352 1319
-370 351 1318
-371 356 1339
-362 351 1319
-358 351 1321
-354 352 1324
-351 352 1327
-350 355 1338
-343 352 1329
-345 359 1354
-335 352 1330
-334 355 1342
-330 355 1343
-329 358 1356
-320 353 1338
-316 353 1339
-308 349 1325
-298 342 1300
-292 339 1288
-290 342 1300
-288 344 1308
-283 343 1305
-280 343 1307
-277 345 1314
-274 346 1317
-267 342 1303
-266 346 1319
-262 346 1320
-259 347 1324
-252 343 1311
-249 344 1314
-247 347 1328
-241 344 1315
-238 345 1321
-233 343 1315
-231 346 1327
-225 344 1318
-220 341 1308
-218 345 1324
-212 342 1312
-207 339 1302
-203 339 1304
-202 343 1319
-196 341 1311
-192 339 1306
-189 341 1314
-187 344 1327
-180 340 1310
-178 343 1323
-175 345 1330
-171 345 1331
-168 347 1338
-164 347 1338
-158 342 1319
-154 341 1319
-152 345 1333
-147 344 1330
-143 344 1329
-139 343 1325
-135 343 1329
-131 342 1323
-127 342 1324
-124 345 1336
-120 345 1337
-111 331 1281
-103 317 1230
-94 302 1169
-88 292 1132
-82 285 1103
-77 279 1082
-74 277 1073
-69 272 1056
-66 271 1049
-62 268 1038
-59 270 1047
-56 269 1045
-53 267 1037
-50 267 1038
-47 270 1047
-44 271 1050
-41 272 1055
-38 271 1052
-35 272 1057
-33 278 1080
-29 279 1083
-27 284 1103
-24 292 1136
-23 312 1214
-20 322 1254
-17 333 1297
-13 342 1332
-10 345 1344
-6 345 1343
-2 344 1342
1 345 1343
5 344 1340
9 343 1336
13 345 1346
17 344 1339
21 347 1351
25 346 1348
29 345 1345
33 344 1340
37 344 1341
41 344 1341
45 346 1350
49 346 1351
53 349 1362
57 349 1362
61 349 1362
65 347 1352
69 347 1352
73 348 1355
77 346 1348
81 347 1353
85 347 1352
89 348 1355
93 345 1345
98 350 1365
101 347 1353
104 344 1341
110 352 1370
114 349 1361
117 348 1357
121 347 1352
125 346 1346
129 347 1350
133 346 1347
137 347 1351
141 347 1352
145 347 1351
149 346 1347
153 348 1353
157 347 1348
161 346 1347
164 345 1343
170 348 1352
175 350 1360
178 348 1353
183 351 1363
186 349 1356
188 345 1340
194 349 1356
199 350 1359
203 349 1355
206 348 1348
208 345 1336
214 348 1349
217 347 1343
220 345 1335
226 347 1345
230 348 1348
233 346 1339
238 348 1345
240 345 1336
247 349 1348
252 350 1354
255 349 1347
257 347 1339
261 346 1336
268 350 1351
269 346 1336
276 350 1348
278 347 1338
283 348 1342
285 346 1334
288 345 1328
294 348 1338
300 350 1345
306 351 1352
309 351 1349
313 351 1347
318 351 1349
320 349 1339
327 352 1350
330 352 1348
334 351 1345
340 353 1350
341 350 1340
346 351 1344
352 352 1348
356 353 1349
362 355 1355
365 353 1348
369 353 1348
373 354 1348
377 353 1345
381 353 1345
386 353 1345
392 355 1351
394 354 1345
401 356 1353
404 355 1349
409 356 1350
413 356 1349
416 355 1345
418 353 1336
425 355 1343
431 357 1348
436 357 1350
439 357 1347
443 357 1345
445 354 1335
449 354 1334
460 360 1355
458 355 1335
465 357 1342
476 363 1361
483 364 1366
494 369 1384
499 370 1387
502 369 1382
497 362 1354
506 366 1365
508 364 1358
509 362 1348
512 361 1344
520 363 1352
526 365 1356
528 363 1349
532 363 1346
541 366 1357
547 368 1362
555 370 1367
556 367 1357
564 370 1366
569 370 1366
575 371 1369
571 366 1348
577 367 1350
581 367 1348
586 368 1348
596 371 1359
602 372 1361
602 369 1350
611 372 1360
614 372 1355
624 375 1365
620 370 1345
634 375 1364
634 373 1353
642 375 1359
641 372 1346
645 372 1345
651 373 1346
657 373 1347
674 381 1372
674 378 1361
681 380 1364
686 380 1363
694 382 1368
702 383 1372
698 379 1353
706 381 1359
715 383 1367
722 385 1370
720 381 1355
724 381 1352
736 385 1363
734 382 1350
744 384 1358
743 382 1346
747 381 1342
753 382 1343
762 384 1348
763 383 1341
766 382 1335
772 382 1336
773 381 1327
-802 406 1354
-766 390 1301
-748 383 1281
-726 374 1253
-707 366 1229
-694 362 1216
-689 361 1216
-673 355 1197
-660 350 1183
-652 348 1178
-646 347 1174
-643 348 1180
-635 345 1172
-626 342 1166
-627 345 1177
-624 345 1179
-621 346 1183
-621 348 1192
-663 374 1284
-719 407 1402
-730 416 1434
-727 417 1440
-686 396 1371
-612 356 1232
-558 327 1132
-539 318 1104
-536 318 1105
-538 322 1119
-532 320 1114
-531 321 1121
-524 319 1115
-522 320 1121
-518 320 1122
-521 324 1138
-515 323 1134
-512 323 1136
-508 323 1137
-511 327 1153
-513 330 1168
-523 340 1202
-535 350 1239
-537 353 1253
-534 354 1258
-525 350 1246
-532 358 1274
-517 351 1251
-521 356 1271
-522 359 1284
-514 356 1275
-503 352 1260
-500 352 1264
-494 351 1261
-494 354 1273
-494 356 1283
-492 358 1290
-483 354 1278
-479 354 1279
-475 354 1281
-471 354 1280
-467 354 1282
-460 352 1276
-457 353 1280
-452 351 1277
-445 349 1271
-446 353 1286
-442 353 1288
-440 354 1292
-441 358 1309
-429 352 1286
-432 358 1309
-432 361 1321
-424 357 1311
-421 358 1315
-421 361 1328
-412 358 1316
-415 364 1339
-400 354 1303
-397 355 1309
-390 352 1300
-388 354 1306
-387 356 1317
-384 358 1323
-378 356 1316
-372 354 1312
-367 353 1309
-364 353 1311
-362 355 1320
-355 352 1308
-352 353 1313
-350 355 1323
-348 358 1333
-341 354 1321
-338 356 1327
-332 353 1317
-326 351 1309
-317 346 1293
-310 343 1282
-306 342 1281
-298 338 1265
-297 340 1274
-303 352 1321
-292 343 1287
-275 329 1233
-273 330 1239
-272 333 1252
-275 342 1286
-274 345 1299
-269 344 1293
-265 343 1293
-264 347 1308
-261 348 1313
-255 346 1305
-251 346 1305
-247 346 1306
-243 345 1302
-240 346 1309
-234 344 1301
-230 343 1299
-227 345 1307
-222 342 1298
-218 343 1300
-215 344 1306
-211 343 1301
-205 341 1293
-201 339 1288
-198 342 1299
-194 341 1298
-191 342 1301
-187 342 1300
-182 340 1293
-179 342 1302
-176 343 1307
-173 345 1314
-168 342 1304
-163 339 1294
-160 341 1302
-157 344 1311
-154 346 1319
-149 343 1310
-145 344 1313
-142 345 1320
-138 344 1314
-134 345 1321
-129 342 1309
-126 343 1312
-123 345 1320
-116 338 1295
-111 335 1283
-102 318 1219
-94 303 1161
-86 291 1113
-81 284 1087
-77 280 1072
-73 277 1062
-69 274 1047
-64 269 1031
-61 269 1031
-59 270 1035
-55 268 1027
-52 268 1028
-49 268 1027
-46 269 1033
-43 271 1039
-40 271 1041
-38 273 1049
-35 274 1053
-32 278 1067
-29 281 1079
-27 286 1098
-24 291 1119
-22 307 1181
-19 319 1226
-16 330 1268
-13 345 1329
-10 349 1342
-6 347 1335
-2 348 1339
1 347 1337
5 349 1343
9 348 1339
13 344 1325
17 345 1327
21 347 1336
25 344 1325
29 345 1330
33 347 1335
37 345 1329
41 348 1341
45 349 1343
49 348 1340
53 347 1336
57 348 1340
61 350 1347
65 348 1340
69 349 1343
73 351 1350
77 348 1342
81 350 1347
84 347 1334
88 348 1341
92 348 1340
97 349 1344
100 348 1338
104 346 1333
108 348 1340
113 351 1349
116 346 1333
120 346 1333
124 349 1341
128 348 1338
132 348 1339
136 348 1337
141 351 1348
143 347 1334
147 347 1333
153 351 1350
156 348 1337
161 350 1344
164 348 1337
169 350 1345
173 350 1344
175 347 1332
179 347 1333
184 349 1339
188 348 1336
194 352 1349
197 351 1345
200 349 1336
205 350 1341
207 347 1331
211 347 1331
216 348 1332
219 348 1332
223 348 1331
227 347 1327
233 351 1341
237 350 1337
238 347 1324
243 348 1329
249 351 1340
252 349 1333
255 348 1328
260 348 1329
264 348 1329
269 350 1333
273 350 1334
277 350 1333
278 346 1317
282 347 1320
289 351 1334
294 351 1334
297 350 1329
304 353 1342
305 349 1326
310 351 1333
315 352 1334
320 353 1340
324 353 1336
328 353 1337
329 349 1322
334 351 1327
336 349 1318
344 353 1333
348 353 1333
351 352 1327
354 351 1323
362 354 1336
367 355 1339
371 355 1337
370 351 1320
378 354 1331
378 350 1316
386 354 1331
392 356 1336
393 353 1326
398 354 1328
402 354 1327
408 355 1329
411 355 1328
417 356 1330
418 354 1322
423 355 1324
432 358 1338
437 359 1338
439 357 1331
449 362 1347
446 356 1325
455 360 1338
457 358 1331
461 359 1331
468 360 1337
477 364 1349
481 364 1348
493 370 1369
496 369 1362
497 367 1354
503 368 1356
501 363 1340
511 368 1353
511 364 1339
515 364 1339
519 364 1338
529 368 1351
534 369 1351
535 367 1342
543 369 1349
542 365 1334
553 370 1350
557 370 1349
556 366 1334
572 374 1361
571 371 1348
574 369 1341
576 368 1335
578 367 1328
588 370 1340
592 370 1339
594 369 1332
602 371 1338
608 372 1339
610 371 1333
619 373 1342
623 373 1340
637 379 1359
631 373 1335
634 372 1331
632 369 1316
649 376 1340
656 377 1343
659 376 1339
669 380 1350
670 378 1340
685 384 1360
675 376 1330
689 381 1347
703 386 1363
697 380 1341
702 381 1340
705 380 1335
714 382 1341
722 385 1347
727 385 1346
731 384 1342
740 387 1349
745 387 1347
751 387 1348
745 382 1327
750 382 1325
762 386 1337
761 383 1325
760 381 1314
767 382 1316
-767 393 1292
-750 386 1274
-730 378 1249
-721 376 1243
-695 364 1208
-687 362 1202
-675 358 1190
-667 356 1185
-648 348 1161
-646 349 1165
-635 345 1155
-633 346 1159
-626 344 1156
-623 344 1159
-617 343 1156
-619 347 1170
-611 344 1164
-623 353 1196
-655 373 1266
-685 393 1335
-706 407 1387
-707 410 1399
-701 409 1398
-643 378 1294
-585 346 1186
-552 329 1129
-536 322 1105
-540 326 1122
-536 326 1122
-532 326 1124
-530 327 1128
-522 324 1120
-519 325 1123
-521 328 1138
-519 329 1142
-516 329 1145
-515 331 1152
-516 334 1164
-528 344 1202
-543 356 1245
-537 355 1242
-537 358 1254
-533 357 1254
-527 356 1252
-519 353 1242
-522 358 1260
-515 356 1255
-512 356 1259
-506 355 1255
-496 351 1243
-495 353 1250
-491 353 1253
-489 354 1258
-484 353 1256
-481 354 1261
-481 357 1271
-477 356 1272
-473 357 1274
-466 354 1268
-460 353 1263
-458 354 1269
-454 354 1269
-451 354 1273
-443 351 1263
-440 352 1268
-435 351 1265
-437 356 1285
-435 357 1290
-434 360 1302
-422 354 1279
-423 358 1295
-422 360 1304
-420 361 1310
-415 360 1308
-413 362 1316
-413 366 1331
-405 363 1320
-398 360 1310
-387 353 1287
-388 357 1304
-382 356 1299
-376 354 1294
-376 357 1307
-366 352 1288
-369 358 1313
-361 355 1301
-358 355 1304
-349 351 1288
-345 350 1287
-347 356 1310
-342 356 1309
-338 355 1309
-333 355 1307
-320 345 1271
-308 336 1238
-307 338 1249
-303 338 1250
-299 338 1251
-286 327 1210
-292 339 1256
-293 344 1274
-281 334 1239
-280 338 1255
-269 329 1223
-274 340 1262
-269 337 1254
-271 345 1284
-270 349 1300
-265 347 1293
-263 350 1303
-257 347 1295
-251 344 1285
-248 346 1289
-243 343 1281
-242 348 1300
-237 345 1291
-234 347 1297
-228 344 1287
-226 346 1296
-221 344 1290
-217 344 1289
-212 342 1283
-208 342 1283
-203 340 1275
-199 341 1279
-196 342 1283
-192 342 1284
-190 344 1292
-185 343 1289
-183 345 1298
-179 346 1303
-175 344 1295
-170 343 1290
-168 346 1302
-164 346 1302
-159 343 1295
-155 344 1296
-152 346 1305
-148 345 1303
-144 344 1299
-140 343 1297
-135 342 1291
-133 345 1303
-131 350 1322
-127 350 1325
-121 346 1308
-116 342 1294
-109 333 1260
-101 317 1201
-92 301 1139
-86 293 1108
-81 286 1082
-76 281 1064
-72 276 1046
-68 274 1036
-64 271 1025
-62 273 1032
-58 271 1027
-55 269 1018
-51 268 1013
-49 269 1020
-46 269 1020
-43 271 1025
-40 270 1025
-37 274 1040
-34 274 1040
-32 277 1051
-29 280 1063
-26 285 1082
-23 290 1099
-22 308 1169
-19 319 1211
-16 331 1257
-13 344 1306
-9 349 1326
-5 346 1316
-2 346 1316
1 345 1313
5 347 1321
9 344 1310
13 350 1333
17 348 1324
21 348 1325
25 347 1320
29 347 1322
33 348 1325
36 347 1321
40 346 1316
44 349 1328
48 349 1327
52 350 1333
56 349 1329
60 349 1329
64 348 1323
68 348 1324
72 347 1321
76 351 1335
80 348 1324
83 345 1313
87 345 1314
91 345 1312
95 348 1324
98 345 1313
104 350 1329
107 349 1326
112 351 1334
115 347 1319
119 348 1322
123 348 1324
128 352 1337
131 349 1326
136 351 1335
138 347 1320
142 346 1316
147 349 1327
152 352 1335
155 350 1330
159 350 1330
162 348 1320
166 347 1317
170 349 1325
175 351 1330
180 352 1333
183 352 1333
187 351 1330
191 350 1326
194 349 1320
198 350 1325
203 351 1329
207 352 1332
209 347 1312
213 348 1316
220 353 1333
222 349 1320
226 349 1318
230 349 1320
233 348 1313
237 348 1312
243 352 1327
244 347 1311
250 350 1322
253 349 1315
256 347 1307
260 347 1306
269 354 1332
268 347 1306
276 352 1325
280 352 1325
281 349 1313
287 351 1319
291 351 1319
293 350 1313
297 350 1312
302 351 1316
308 352 1321
310 351 1315
312 348 1305
318 350 1312
322 351 1311
329 354 1322
334 355 1327
335 352 1314
338 350 1307
345 353 1318
349 354 1319
350 350 1306
357 353 1316
361 354 1318
366 354 1319
371 355 1321
374 354 1316
377 354 1314
384 356 1322
390 358 1327
394 358 1328
396 356 1319
398 355 1313
406 358 1323
408 356 1317
411 355 1312
415 355 1311
419 355 1310
422 354 1303
428 355 1309
431 355 1306
443 361 1327
443 358 1316
450 360 1321
452 359 1316
459 360 1321
467 364 1333
467 361 1321
484 370 1355
483 366 1338
486 366 1335
492 367 1337
492 364 1326
493 361 1315
501 364 1325
505 364 1324
509 364 1323
521 369 1340
522 367 1332
526 367 1330
528 366 1322
536 368 1330
533 364 1312
549 371 1338
555 373 1342
556 371 1333
558 369 1326
559 367 1318
565 368 1320
571 369 1322
580 372 1331
581 370 1324
587 371 1325
582 365 1303
600 374 1332
603 373 1328
602 370 1315
613 374 1327
616 373 1323
625 376 1332
635 380 1343
631 375 1324
633 373 1316
634 371 1307
645 375 1319
650 375 1319
656 376 1320
663 378 1324
673 381 1335
674 379 1326
677 379 1321
684 380 1325
687 379 1320
690 379 1316
692 377 1308
706 383 1326
704 379 1311
716 383 1324
724 385 1329
720 381 1312
734 385 1326
740 386 1327
735 382 1309
741 382 1308
748 384 1312
756 385 1315
753 382 1301
765 385 1311
-736 381 1240
-724 377 1228
-716 375 1224
-706 372 1217
-696 369 1208
-681 363 1190
-669 359 1179
-663 358 1178
-646 351 1156
-636 347 1146
-632 347 1147
-626 346 1146
-619 344 1143
-616 344 1145
-623 350 1167
-613 347 1157
-613 349 1166
-624 357 1197
-659 380 1273
-682 395 1328
-685 399 1345
-687 403 1360
-674 398 1344
-656 390 1319
-626 374 1267
-598 360 1221
-562 341 1158
-539 329 1118
-530 326 1109
-532 330 1123
-527 329 1121
-525 330 1126
-526 332 1137
-524 334 1143
-518 332 1139
-516 333 1144
-517 336 1157
-531 347 1196
-540 356 1227
-545 361 1249
-540 361 1248
-530 357 1235
-527 357 1239
-524 358 1243
-515 354 1232
-517 358 1248
-512 358 1247
-504 355 1238
-499 354 1236
-493 353 1234
-488 352 1231
-488 354 1242
-483 354 1242
-482 356 1250
-480 357 1256
-475 356 1254
-465 352 1240
-462 352 1244
-456 351 1239
-455 353 1248
-452 354 1253
-455 359 1272
-442 352 1249
-439 352 1251
-435 352 1252
-433 353 1258
-432 356 1267
-432 359 1281
-425 357 1274
-423 359 1281
-421 359 1286
-424 366 1310
-417 363 1302
-411 361 1295
-409 363 1304
-409 367 1318
-397 359 1293
-386 353 1272
-384 355 1278
-381 356 1283
-382 360 1298
-375 357 1290
-372 358 1293
-367 357 1292
-362 356 1288
-359 356 1291
-352 354 1283
-348 353 1283
-342 352 1278
-343 356 1294
-336 353 1285
-334 355 1292
-330 355 1293
-317 345 1257
-306 337 1229
-304 339 1238
-295 333 1217
-286 328 1197
-301 348 1273
-285 334 1222
-287 341 1247
-278 335 1228
-280 341 1251
-273 338 1239
-266 334 1225
-272 345 1268
-266 343 1259
-264 345 1268
-260 345 1271
-258 347 1276
-252 345 1270
-250 347 1278
-246 346 1277
-241 345 1272
-240 348 1286
-236 348 1284
-231 347 1283
-226 346 1277
-224 347 1283
-219 345 1278
-213 343 1270
-208 341 1262
-208 346 1281
-203 344 1276
-199 344 1275
-196 346 1283
-190 341 1267
-187 343 1274
-185 346 1286
-179 342 1270
-176 343 1276
-174 346 1288
-170 346 1287
-165 343 1278
-163 347 1294
-158 345 1286
-155 347 1293
-151 348 1297
-147 346 1292
-143 346 1291
-140 348 1299
-136 347 1295
-131 345 1287
-127 345 1287
-125 348 1301
-121 348 1300
-114 340 1273
-107 331 1238
-98 313 1171
-91 301 1123
-86 296 1106
-80 287 1072
-75 281 1050
-71 276 1032
-67 274 1023
-64 272 1016
-60 271 1015
-57 269 1005
-54 270 1009
-51 269 1007
-48 269 1007
-45 269 1008
-42 271 1013
-39 272 1018
-37 274 1026
-34 275 1030
-31 277 1039
-29 282 1055
-26 285 1070
-23 289 1084
-21 307 1152
-19 318 1193
-16 329 1234
-13 340 1276
-9 349 1313
-5 350 1315
-1 349 1312
1 348 1308
5 348 1308
9 348 1309
13 348 1309
17 347 1305
21 345 1296
25 347 1305
28 347 1304
32 345 1298
36 349 1313
40 347 1304
44 348 1310
48 350 1316
52 348 1307
56 350 1318
59 348 1308
64 353 1329
67 345 1297
71 350 1315
75 347 1304
79 348 1310
83 349 1311
87 349 1312
91 349 1313
94 347 1303
98 348 1307
102 349 1312
107 350 1317
109 347 1304
114 348 1309
118 351 1318
123 352 1322
127 352 1324
129 348 1307
134 350 1315
138 351 1316
141 349 1309
145 350 1313
150 351 1317
153 348 1306
157 350 1314
161 349 1310
166 351 1317
168 349 1307
173 351 1314
178 352 1320
183 354 1325
185 351 1316
189 351 1312
192 350 1310
198 353 1319
200 349 1306
203 348 1300
209 352 1315
210 347 1296
216 350 1308
220 350 1306
224 350 1307
228 350 1306
233 351 1311
236 350 1307
241 352 1311
245 352 1312
248 351 1308
250 348 1298
257 353 1314
258 349 1300
263 350 1302
265 348 1293
270 349 1296
274 350 1299
277 348 1294
284 352 1306
287 351 1301
290 350 1297
294 350 1298
297 349 1293
302 350 1296
309 354 1310
309 349 1290
316 352 1302
318 350 1294
328 357 1319
329 353 1305
331 351 1296
336 353 1301
342 354 1306
344 352 1298
350 355 1306
353 354 1301
359 356 1310
361 354 1301
366 354 1302
370 354 1301
378 358 1314
379 356 1304
384 357 1307
388 356 1306
391 355 1300
395 356 1301
401 358 1307
402 355 1296
410 358 1306
410 355 1293
419 359 1309
420 356 1297
427 359 1306
432 359 1306
433 357 1297
439 359 1303
444 359 1303
449 361 1307
451 358 1298
457 360 1304
467 365 1318
474 367 1326
477 366 1322
485 369 1331
487 367 1324
489 365 1315
499 370 1331
497 366 1314
499 364 1308
502 363 1302
512 368 1317
515 367 1312
518 366 1307
529 370 1323
530 368 1314
536 370 1319
544 372 1325
546 371 1319
550 370 1317
558 373 1324
552 366 1299
558 368 1303
561 367 1298
567 368 1301
575 371 1309
578 369 1303
582 370 1302
585 368 1296
593 371 1305
599 372 1307
602 372 1303
613 376 1315
619 377 1318
619 374 1306
622 373 1303
628 375 1305
639 378 1316
643 378 1314
650 380 1318
651 378 1310
658 379 1313
657 376 1300
671 382 1318
673 381 1313
677 381 1310
680 379 1305
687 381 1309
692 381 1308
701 384 1314
702 382 1306
701 379 1295
714 384 1308
715 382 1300
725 385 1308
723 382 1295
728 382 1294
738 385 1302
746 387 1306
742 382 1289
751 385 1295
763 389 1306
-714 374 1202
-700 369 1186
-692 367 1183
-693 369 1192
-679 364 1178
-662 357 1157
-656 356 1155
-645 352 1144
-644 353 1151
-632 349 1139
-624 347 1133
-615 343 1124
-615 346 1134
-618 350 1148
-613 349 1148
-614 351 1158
-614 353 1167
-636 368 1218
-663 386 1279
-682 400 1328
-683 402 1339
-678 402 1339
-671 401 1336
-662 398 1330
-643 389 1302
-623 380 1272
-600 368 1235
-572 353 1185
-547 340 1145
-529 331 1115
-529 333 1124
-525 333 1124
-527 336 1138
-522 336 1138
-520 337 1142
-510 333 1129
-514 338 1149
-523 346 1178
-537 358 1220
-539 362 1235
-530 358 1225
-523 356 1219
-512 351 1204
-509 352 1207
-506 352 1211
-504 353 1216
-499 353 1215
-505 359 1240
-496 356 1229
-487 352 1218
-482 351 1216
-480 353 1222
-474 351 1217
-474 354 1228
-469 353 1228
-466 353 1229
-466 356 1241
-455 351 1224
-456 354 1237
-455 357 1248
-448 354 1241
-438 349 1223
-437 351 1232
-437 354 1244
-428 351 1232
-430 355 1249
-430 358 1261
-428 360 1270
-418 355 1253
-418 358 1264
-418 361 1278
-419 365 1293
-417 367 1301
-410 364 1291
-403 362 1285
-403 365 1296
-393 360 1280
-387 358 1273
-382 357 1271
-379 358 1275
-374 356 1271
-374 361 1287
-365 355 1269
-363 357 1278
-359 357 1279
-355 357 1278
-348 354 1267
-344 354 1268
-340 353 1268
-338 355 1276
-331 352 1265
-331 356 1281
-326 355 1278
-319 351 1264
-312 348 1254
-307 347 1251
-304 347 1252
-298 345 1245
-294 345 1245
-288 342 1237
-281 337 1220
-277 337 1220
-275 340 1231
-267 334 1211
-277 350 1272
-267 343 1245
-266 347 1261
-263 347 1261
-260 348 1266
-256 348 1268
-251 347 1264
-248 348 1269
-245 349 1272
-242 349 1274
-237 348 1270
-234 349 1274
-229 348 1271
-225 347 1269
-221 347 1270
-216 346 1264
-213 346 1266
-208 345 1262
-205 346 1267
-200 344 1259
-197 345 1266
-193 344 1263
-189 343 1260
-185 343 1260
-183 347 1274
-178 344 1263
-176 346 1273
-173 348 1281
-168 347 1275
-164 346 1271
-161 347 1279
-158 348 1283
-152 345 1270
-150 348 1282
-145 347 1278
-142 348 1282
-138 347 1280
-135 348 1284
-131 348 1283
-128 349 1290
-124 350 1291
-121 352 1301
-113 341 1259
-105 327 1209
-96 311 1150
-90 302 1115
-84 294 1085
-78 284 1050
-74 280 1035
-70 277 1022
-66 273 1008
-62 269 994
-60 272 1006
-56 270 998
-54 270 999
-50 270 997
-47 269 996
-45 271 1004
-42 270 997
-39 274 1016
-36 274 1013
-34 275 1019
-31 278 1029
-28 280 1036
-25 283 1050
-23 292 1084
-21 304 1128
-19 320 1187
-16 329 1221
-12 341 1266
-9 348 1294
-5 347 1289
-1 347 1289
1 347 1289
5 349 1298
9 350 1301
13 347 1290
17 352 1307
21 349 1297
24 347 1290
28 350 1300
32 350 1303
36 349 1296
40 352 1307
44 351 1305
48 351 1304
51 351 1303
55 347 1291
59 347 1291
63 350 1302
66 346 1287
70 348 1294
75 351 1304
79 351 1304
83 352 1307
86 349 1295
89 347 1290
94 350 1299
97 347 1291
101 349 1297
105 349 1297
110 352 1307
114 352 1306
117 350 1301
121 350 1298
126 353 1311
129 353 1309
132 349 1294
137 351 1302
140 350 1298
143 348 1291
148 350 1297
152 352 1304
156 350 1297
159 350 1296
163 350 1298
167 349 1294
171 350 1296
176 353 1306
180 353 1305
184 352 1303
187 350 1296
192 352 1303
193 349 1289
198 349 1291
203 352 1300
208 353 1306
210 351 1296
213 350 1291
216 348 1286
221 349 1288
224 348 1283
229 350 1290
233 350 1291
239 353 1302
240 349 1284
248 355 1307
251 353 1299
252 349 1284
258 352 1295
262 353 1298
264 350 1288
270 353 1298
276 355 1304
278 353 1294
281 352 1291
286 353 1296
288 351 1288
295 355 1300
294 348 1276
300 351 1284
306 353 1292
309 352 1289
313 353 1289
319 355 1296
321 353 1290
325 353 1288
330 354 1290
332 352 1283
339 355 1295
343 355 1294
348 356 1295
353 357 1300
357 358 1300
359 356 1293
365 357 1297
365 353 1282
372 357 1293
374 354 1284
377 353 1280
381 354 1280
391 360 1301
391 356 1287
395 356 1284
401 357 1290
403 356 1283
411 359 1294
409 354 1274
420 360 1296
423 359 1292
429 361 1297
431 359 1290
434 359 1287
437 358 1282
442 358 1283
448 360 1289
453 361 1289
462 365 1304
468 366 1308
470 365 1301
478 368 1311
477 364 1294
482 365 1297
487 365 1299
494 367 1305
494 364 1291
499 365 1294
504 366 1295
507 365 1291
512 366 1292
521 369 1303
524 368 1298
527 367 1294
531 367 1292
540 371 1303
539 367 1290
548 371 1300
550 369 1293
563 375 1314
558 369 1289
562 369 1287
578 377 1314
571 370 1288
579 372 1294
578 368 1280
592 375 1302
594 373 1294
600 374 1297
603 374 1293
610 375 1298
614 375 1295
627 380 1311
628 378 1303
636 381 1310
635 377 1296
639 377 1294
648 380 1303
648 378 1293
660 382 1306
663 382 1302
658 376 1282
675 384 1305
677 382 1298
678 380 1290
679 378 1282
689 381 1290
693 382 1289
706 386 1302
704 383 1288
713 386 1296
716 385 1291
712 380 1274
721 383 1281
733 387 1293
740 388 1294
741 386 1287
751 389 1295
749 386 1281
-703 373 1183
-693 369 1174
-692 371 1182
-680 366 1169
-669 362 1159
-661 360 1153
-645 354 1135
-638 352 1131
-628 348 1121
-628 350 1130
-619 347 1122
-620 350 1133
-616 350 1135
-608 347 1128
-609 350 1138
-612 354 1153
-616 358 1170
-635 372 1216
-660 389 1273
-676 400 1314
-676 403 1324
-664 398 1312
-666 402 1325
-654 397 1312
-645 395 1305
-628 387 1281
-612 379 1257
-585 365 1213
-554 348 1157
-534 338 1126
-530 338 1126
-517 332 1107
-522 337 1126
-519 337 1129
-520 340 1141
-511 337 1132
-509 338 1137
-514 344 1156
-521 351 1182
-523 355 1198
-514 351 1186
-503 346 1172
-500 347 1176
-499 349 1183
-495 348 1182
-494 350 1192
-494 353 1202
-495 356 1214
-482 350 1194
-484 354 1208
-473 348 1191
-475 353 1209
-475 355 1218
-470 355 1219
-466 354 1218
-462 354 1219
-459 355 1223
-456 356 1226
-453 356 1229
-447 354 1224
-441 352 1218
-443 357 1238
-432 351 1218
-427 350 1216
-427 353 1228
-425 355 1233
-421 355 1235
-423 359 1252
-417 358 1248
-415 359 1253
-411 359 1256
-408 360 1260
-412 367 1284
-409 368 1288
-393 357 1253
-394 361 1267
-385 357 1254
-382 357 1255
-379 358 1260
-375 358 1260
-374 361 1272
-371 362 1276
-362 357 1259
-360 358 1264
-356 358 1265
-351 357 1263
-348 358 1267
-345 358 1269
-340 357 1267
-334 355 1261
-335 360 1280
-331 360 1279
-325 357 1271
-318 354 1261
-316 356 1267
-312 355 1267
-307 354 1264
-301 352 1257
-296 350 1251
-290 348 1245
-285 347 1240
-280 344 1233
-266 332 1188
-269 340 1217
-268 343 1230
-266 345 1239
-265 350 1256
-259 346 1245
-258 350 1258
-254 350 1259
-250 350 1259
-248 352 1266
-241 347 1252
-237 347 1251
-235 348 1257
-230 347 1253
-228 349 1262
-223 348 1257
-219 347 1253
-217 350 1267
-211 347 1255
-207 346 1252
-204 347 1256
-201 349 1264
-195 344 1248
-191 344 1248
-189 347 1257
-185 347 1259
-181 346 1255
-178 349 1266
-174 348 1263
-172 350 1272
-167 349 1267
-162 347 1260
-159 348 1267
-156 350 1273
-151 347 1262
-149 349 1272
-145 349 1272
-141 349 1273
-138 350 1276
-133 348 1269
-130 350 1277
-126 349 1273
-122 348 1270
-118 348 1270
-111 339 1237
-102 323 1181
-94 307 1120
-88 298 1088
-83 293 1069
-77 284 1038
-73 280 1023
-69 277 1013
-66 275 1005
-63 274 1000
-59 273 997
-56 272 993
-52 268 979
-50 269 983
-48 273 999
-44 272 994
-41 271 992
-39 273 998
-36 271 993
-33 275 1007
-31 280 1027
-28 284 1039
-25 288 1054
-23 293 1073
-21 306 1121
-18 319 1171
-15 329 1208
-12 340 1248
-9 351 1289
-5 348 1278
-1 349 1281
1 352 1294
5 347 1276
9 347 1276
13 350 1287
17 346 1271
20 349 1281
24 345 1267
28 349 1283
32 348 1277
36 350 1285
40 353 1296
43 351 1291
47 351 1291
51 352 1292
55 349 1281
58 350 1285
62 348 1278
66 350 1287
70 353 1295
74 352 1291
78 350 1287
81 350 1287
86 353 1297
90 355 1303
93 352 1293
97 351 1288
101 350 1286
105 354 1298
106 345 1265
113 352 1293
116 352 1291
119 348 1276
123 350 1283
127 351 1287
131 350 1284
135 350 1285
140 353 1293
143 352 1292
147 351 1286
150 350 1281
154 351 1285
158 351 1286
163 353 1294
166 352 1290
170 352 1288
174 352 1289
178 352 1289
181 350 1279
184 348 1273
189 351 1284
193 351 1283
195 349 1274
200 350 1279
204 351 1282
207 349 1274
211 350 1277
217 353 1287
218 349 1274
224 353 1286
228 352 1282
231 351 1279
235 351 1277
237 348 1269
242 350 1274
246 351 1276
253 355 1291
255 352 1281
256 349 1266
260 349 1267
266 352 1277
270 352 1277
276 355 1287
278 351 1274
284 354 1283
284 349 1266
291 353 1279
294 353 1276
300 355 1283
302 352 1275
307 355 1282
310 354 1277
314 354 1277
318 353 1274
324 356 1283
329 357 1286
331 355 1278
334 354 1275
341 357 1285
344 356 1281
348 356 1280
350 354 1273
354 355 1274
363 360 1292
364 356 1278
370 358 1284
372 357 1278
376 356 1275
381 357 1278
385 357 1277
388 357 1275
391 356 1272
397 358 1276
402 359 1279
405 358 1274
410 359 1276
414 359 1277
418 359 1275
424 361 1281
426 359 1273
432 361 1280
433 358 1269
439 360 1275
442 359 1271
453 365 1290
456 364 1285
461 365 1287
467 366 1291
470 365 1287
477 368 1295
481 368 1292
481 365 1281
492 370 1298
495 369 1294
490 362 1269
500 367 1284
504 367 1282
513 371 1294
516 370 1290
521 370 1290
523 369 1283
526 368 1280
530 368 1277
544 374 1300
540 369 1281
546 371 1283
550 370 1280
554 370 1279
562 373 1287
564 372 1281
564 369 1270
575 373 1284
576 371 1275
586 375 1286
585 372 1273
593 374 1282
607 380 1299
600 373 1274
610 377 1287
619 380 1294
623 380 1292
625 378 1286
631 379 1287
632 378 1280
643 382 1292
644 380 1283
641 375 1266
651 379 1276
654 378 1272
652 374 1258
659 376 1263
672 381 1277
675 380 1272
676 378 1265
693 386 1287
697 386 1285
701 386 1283
700 383 1271
