VERSION 0.7
FIELDS x y z
SIZE 4 4 4
TYPE I I I
COUNT 1 1 1
WIDTH 3896
HEIGHT 1
VIEWPOINT 0.0 0.0 0.0 1.0 0.0 0.0 0.0
POINTS 3896
DATA ascii
-247 369 957
-244 370 958
-240 368 954
-237 369 957
-235 369 960
-232 370 962
-230 371 965
-226 369 960
-222 367 958
-219 368 959
-216 367 959
-213 368 960
-209 366 956
-205 365 953
-204 366 959
-201 367 960
-199 369 966
-193 363 952
-191 364 956
-189 366 960
-184 363 952
-181 363 955
-178 363 955
-176 365 960
-174 366 964
-171 366 963
-168 366 964
-165 365 963
-163 367 967
-160 368 970
-155 363 959
-151 362 955
-150 365 963
-147 365 963
-144 366 968
-140 362 957
-138 365 967
-135 365 966
-132 363 962
-129 364 964
-126 364 966
-123 364 965
-120 363 963
-117 363 962
-114 363 962
-112 365 969
-110 368 978
-104 358 951
-99 350 931
-92 336 892
-84 319 847
-80 312 830
-73 296 786
-74 308 818
-70 301 801
-69 307 817
-61 283 751
-59 284 755
-57 289 770
-57 301 800
-53 291 775
-49 283 752
-49 293 781
-44 281 749
-44 292 777
-40 285 758
-38 285 758
-35 280 745
-34 287 764
-32 296 789
-28 278 742
-27 285 759
-25 288 767
-23 300 801
-20 294 784
-18 294 785
-15 285 759
-15 320 854
-12 318 849
-10 331 886
-8 345 924
-5 359 961
-2 364 975
0 363 971
2 362 970
5 361 967
8 365 976
11 364 976
14 363 972
17 362 969
20 365 978
23 365 977
26 364 975
29 365 977
32 365 978
35 364 973
38 363 971
41 366 980
44 367 982
47 364 975
50 366 980
53 364 974
56 364 975
59 365 976
62 365 976
65 365 976
68 364 975
71 365 975
73 364 973
76 364 973
80 365 976
83 367 980
86 366 978
89 367 980
92 366 978
95 366 979
97 365 974
100 364 972
103 364 973
106 364 972
110 366 978
112 365 974
115 363 969
119 367 979
122 368 980
126 371 989
128 367 979
131 366 976
133 366 975
136 366 975
139 366 975
142 366 974
146 369 981
148 365 972
152 369 981
155 367 976
157 365 969
160 366 971
165 369 980
166 366 970
170 367 973
172 365 967
175 366 970
179 367 973
183 370 979
185 369 976
188 367 972
192 369 977
193 366 968
197 367 969
200 368 972
204 369 975
205 366 966
210 369 973
212 367 968
216 369 974
219 369 971
221 367 967
224 367 966
229 371 975
230 368 967
234 369 969
237 368 967
241 370 971
242 368 965
245 367 962
248 368 963
253 371 971
255 369 964
259 370 967
261 369 965
266 371 970
268 370 966
270 368 960
274 370 965
277 370 963
280 369 961
285 373 969
286 370 961
290 372 965
293 371 962
296 372 963
299 372 962
302 371 959
306 373 963
310 374 965
311 371 958
315 372 958
318 372 959
322 373 961
327 376 966
329 374 961
332 374 960
335 374 960
340 376 963
341 373 956
345 375 959
349 376 961
347 370 945
353 374 953
357 375 955
360 374 953
365 376 956
369 378 960
374 379 963
374 376 953
377 375 951
381 377 954
384 377 953
388 378 954
393 380 957
393 376 948
400 380 956
404 381 958
408 382 959
408 379 950
413 381 953
414 379 948
420 381 953
425 383 956
429 383 956
434 385 959
435 383 953
437 382 949
437 379 941
445 384 950
446 382 945
453 385 951
456 385 950
462 387 954
465 387 954
463 383 942
471 387 949
474 387 949
474 384 940
479 385 942
483 387 944
488 388 945
490 387 942
493 387 940
498 388 942
499 386 935
504 388 938
508 388 937
508 386 931
515 389 936
519 389 936
519 387 929
526 390 934
530 390 934
538 394 941
538 392 934
543 393 935
549 395 938
549 393 932
553 393 931
558 394 932
561 394 930
567 396 933
-521 372 847
-521 375 853
-517 374 853
-518 376 860
-507 371 849
-501 369 846
-505 374 859
-503 374 862
-497 372 858
-496 373 863
-492 373 863
-485 370 858
-483 370 860
-477 368 856
-478 371 864
-471 368 859
-469 369 863
-465 367 861
-462 367 862
-461 369 868
-461 372 875
-459 372 878
-452 368 871
-453 372 880
-455 376 892
-454 377 896
-451 378 899
-449 378 902
-443 376 897
-439 375 897
-435 374 895
-432 375 898
-427 373 895
-424 372 895
-422 373 899
-420 374 901
-418 375 906
-420 379 917
-413 376 910
-411 377 914
-405 373 907
-400 372 903
-400 375 913
-397 375 914
-395 375 916
-392 375 917
-389 375 919
-388 378 926
-382 375 919
-381 377 926
-376 375 922
-372 373 920
-370 375 924
-367 374 925
-361 371 918
-355 368 911
-353 369 914
-349 368 913
-347 369 915
-343 368 915
-339 366 912
-338 369 920
-335 368 918
-331 367 916
-329 368 921
-326 369 923
-323 368 921
-321 369 926
-320 372 933
-315 370 929
-312 369 928
-310 370 932
-308 372 937
-305 371 936
-300 369 932
-298 369 934
-297 373 943
-295 373 946
-289 370 938
-286 370 939
-280 366 930
-281 371 943
-279 371 945
-276 372 947
-273 371 946
-268 369 942
-266 371 946
-263 370 945
-259 369 943
-256 369 943
-252 368 942
-251 370 948
-248 369 948
-243 367 942
-244 372 956
-239 369 949
-236 370 952
-234 371 955
-230 368 949
-227 369 953
-222 366 944
-220 368 950
-216 366 946
-214 367 949
-213 370 957
-209 368 952
-206 368 952
-201 365 947
-198 364 945
-197 368 954
-194 368 956
-190 367 953
-188 368 956
-184 365 949
-181 365 950
-179 367 955
-175 366 954
-171 364 948
-170 366 955
-166 364 951
-163 365 954
-161 366 956
-157 364 953
-155 366 956
-151 364 952
-148 364 953
-146 365 957
-142 363 951
-141 367 961
-136 362 950
-133 363 953
-130 363 953
-128 365 958
-125 365 959
-122 364 956
-119 363 955
-116 362 953
-113 363 954
-111 367 967
-109 368 969
-104 363 956
-98 351 925
-91 337 887
-86 329 868
-82 324 853
-78 319 839
-74 312 821
-71 308 811
-65 295 778
-65 303 798
-62 302 796
-58 294 775
-53 281 740
-53 291 767
-48 280 739
-48 292 770
-45 289 763
-43 292 771
-40 284 749
-38 289 763
-35 279 737
-33 282 745
-30 275 725
-29 285 753
-27 289 764
-24 282 745
-22 287 759
-22 316 835
-18 298 787
-16 296 782
-14 314 830
-12 320 847
-10 330 875
-8 346 918
-5 357 946
-2 366 971
0 364 967
2 364 966
5 364 966
8 366 970
11 363 962
14 363 962
17 364 965
20 368 975
23 363 964
26 363 963
29 365 969
32 366 971
35 367 973
38 364 965
41 364 966
43 364 965
46 364 965
50 366 970
52 364 965
55 364 966
58 366 970
61 365 968
64 366 971
67 367 972
70 367 972
73 367 972
76 365 967
79 366 969
82 367 973
85 365 967
88 366 969
91 367 973
93 364 965
97 367 970
100 365 966
103 366 968
106 366 969
109 367 970
112 366 967
115 367 970
118 367 971
120 366 967
123 365 964
127 367 968
131 370 976
132 366 967
135 366 966
139 367 968
141 366 964
145 368 969
147 366 966
151 368 970
153 367 967
155 364 959
160 368 969
162 366 963
165 367 966
168 367 965
171 367 963
175 369 968
177 367 965
180 367 962
183 366 961
187 368 964
190 368 965
193 368 964
197 370 970
199 369 967
202 370 967
205 369 966
209 370 967
212 370 967
213 367 958
218 370 966
220 369 962
223 368 960
226 369 960
229 369 962
231 368 958
235 368 958
238 368 957
239 366 950
245 370 960
249 372 965
251 370 959
254 370 959
256 369 956
258 367 951
263 371 959
267 372 961
270 372 961
272 371 958
277 373 962
281 374 964
283 374 962
284 370 953
289 374 961
292 372 957
292 370 949
296 370 949
299 370 949
302 370 948
308 374 956
310 372 952
314 373 954
316 373 952
319 373 950
319 369 941
327 374 954
329 373 950
333 375 953
337 376 954
340 375 952
342 374 949
346 376 952
351 377 954
353 376 950
356 376 949
357 374 943
362 377 949
364 375 945
368 376 946
374 378 951
375 377 946
378 377 946
381 376 943
385 378 945
392 381 953
392 378 945
396 379 945
403 383 954
400 377 939
404 378 938
407 378 939
412 380 942
415 379 939
419 381 941
424 382 944
427 382 942
429 381 938
434 383 943
441 386 948
443 385 946
439 379 929
449 385 943
451 384 938
459 388 947
464 390 950
463 386 939
470 389 946
474 390 947
469 383 930
476 386 935
482 389 940
482 386 933
487 388 935
493 390 938
494 388 933
493 385 924
501 388 930
502 387 926
505 387 924
513 390 930
518 392 933
520 391 930
523 391 928
525 390 923
529 390 923
534 392 926
534 390 919
540 391 921
544 392 921
550 394 924
549 391 916
553 392 916
565 398 929
-518 373 840
-512 371 837
-509 371 839
-501 367 832
-506 373 846
-501 371 844
-496 370 842
-497 373 851
-495 374 854
-490 372 851
-486 371 851
-481 370 850
-476 368 847
-472 367 847
-470 368 850
-468 368 852
-466 369 855
-461 367 853
-459 368 855
-458 370 861
-459 373 871
-459 375 877
-457 376 880
-456 377 885
-456 380 892
-451 378 890
-452 382 900
-448 381 900
-447 382 904
-443 381 903
-440 382 905
-435 380 903
-433 380 905
-426 377 897
-422 376 897
-418 376 897
-416 376 900
-411 374 897
-406 372 893
-404 374 898
-402 374 900
-400 375 903
-396 374 902
-398 378 914
-394 378 914
-392 379 917
-387 376 913
-385 377 916
-383 378 919
-381 379 924
-378 379 925
-374 379 925
-369 376 919
-361 371 909
-358 371 910
-351 367 901
-350 368 905
-345 367 902
-342 367 903
-338 366 901
-340 371 915
-334 367 907
-332 369 912
-328 367 908
-327 369 915
-323 368 913
-322 370 919
-319 370 921
-315 369 917
-314 371 924
-308 367 915
-306 369 920
-305 371 927
-301 369 924
-298 370 925
-297 372 932
-295 373 935
-293 374 938
-288 372 934
-286 372 936
-280 369 929
-278 369 930
-277 372 938
-272 370 933
-271 373 941
-269 373 943
-262 368 930
-260 368 933
-256 367 931
-252 365 926
-252 370 939
-250 371 942
-246 370 940
-243 370 942
-241 371 944
-237 369 941
-235 370 944
-232 371 946
-229 370 946
-224 367 938
-222 369 943
-218 368 941
-217 371 950
-213 369 945
-210 368 945
-207 367 942
-205 369 947
-201 369 947
-198 367 944
-195 367 944
-192 367 944
-190 369 949
-187 368 949
-183 367 947
-180 367 947
-176 364 940
-174 367 947
-172 367 949
-168 366 947
-166 367 950
-162 365 945
-160 366 949
-157 367 950
-153 365 947
-150 364 945
-148 366 950
-144 365 946
-142 366 949
-139 365 948
-136 365 949
-132 364 945
-130 365 949
-127 365 949
-122 359 936
-122 366 952
-118 363 946
-115 363 947
-113 366 953
-111 367 958
-108 368 961
-103 361 941
-96 348 907
-89 333 869
-87 333 870
-73 292 760
-75 308 803
-69 294 768
-68 299 779
-65 296 772
-62 295 769
-60 298 777
-57 290 757
-55 292 764
-51 285 744
-49 287 750
-45 276 721
-43 280 731
-43 290 758
-39 280 733
-36 278 728
-36 291 763
-34 290 760
-29 276 722
-29 290 758
-27 293 766
-24 284 744
-21 283 742
-20 289 757
-19 309 810
-15 291 764
-13 302 792
-12 322 845
-10 328 861
-7 342 898
-5 356 936
-2 364 956
0 362 952
2 364 956
5 365 959
8 364 956
11 363 954
14 364 956
17 364 956
20 363 955
23 366 961
26 363 953
29 363 954
32 366 961
35 365 960
37 364 956
40 363 954
43 365 961
46 362 951
49 362 952
52 366 961
55 364 958
58 365 958
61 367 963
64 366 962
67 368 966
69 363 954
72 364 957
75 365 958
79 367 963
81 366 961
84 364 956
87 366 959
90 366 960
93 366 959
96 365 956
99 365 958
102 365 956
105 366 959
108 368 963
111 368 965
114 368 963
118 370 969
120 367 960
123 366 958
126 367 960
129 369 966
132 367 961
134 366 958
138 368 961
140 367 958
143 367 959
147 369 963
149 365 954
152 367 957
156 368 960
158 366 955
162 369 961
165 368 960
168 369 961
170 367 957
172 365 950
176 368 958
180 370 962
182 367 954
185 368 956
189 369 959
191 368 955
194 369 956
197 369 956
201 370 958
204 370 958
207 369 956
210 369 956
213 370 957
216 369 955
220 371 959
221 368 951
222 365 942
227 368 950
231 371 956
233 369 951
237 371 956
239 369 951
243 370 953
247 372 956
248 369 948
254 373 959
257 373 958
258 370 949
261 370 949
264 370 949
266 369 943
271 372 952
272 369 943
276 370 946
282 374 955
282 371 947
285 370 944
289 372 948
291 371 943
297 374 951
299 373 948
302 373 947
305 373 946
306 371 940
312 375 949
315 374 946
319 376 950
320 373 942
324 374 945
326 373 941
329 373 940
334 375 943
338 377 947
340 376 943
342 374 937
347 376 943
351 377 945
353 376 941
358 378 944
360 377 941
365 380 947
369 381 948
367 375 933
375 380 944
376 378 939
379 378 938
385 381 945
386 379 938
392 381 942
391 377 932
395 378 933
401 381 940
404 381 937
407 381 936
407 379 930
413 381 935
417 382 936
423 384 940
425 383 937
427 382 933
428 380 928
436 385 936
437 383 931
442 385 935
444 384 931
449 385 933
455 387 937
455 385 930
460 387 933
463 386 931
470 390 937
473 389 935
477 390 936
478 388 930
480 388 927
483 388 926
485 387 923
494 391 931
493 388 922
497 389 923
498 387 917
504 389 921
505 387 915
511 390 919
517 392 922
516 388 913
520 389 913
525 390 915
527 390 913
530 390 910
534 390 910
547 397 925
544 393 912
543 390 905
551 393 910
556 395 913
-511 371 827
-508 371 829
-504 371 830
-499 369 827
-499 371 833
-496 370 834
-493 371 837
-494 373 843
-490 372 843
-489 374 848
-483 371 844
-475 368 837
-472 367 838
-470 369 842
-470 371 849
-463 367 842
-462 369 847
-459 369 849
-456 369 849
-456 371 856
-458 375 867
-455 375 868
-453 376 872
-448 374 869
-453 381 886
-451 382 890
-447 380 888
-446 382 894
-445 384 900
-440 382 896
-438 383 899
-436 384 903
-433 384 905
-427 381 900
-418 376 888
-416 376 891
-410 374 886
-404 371 880
-404 373 888
-400 372 886
-397 372 888
-396 374 894
-396 377 901
-395 379 907
-391 378 906
-387 377 904
-384 377 905
-382 377 908
-378 376 907
-378 379 915
-373 378 912
-370 378 914
-367 377 913
-361 375 908
-354 370 898
-350 369 897
-348 370 899
-346 371 903
-340 368 896
-335 366 892
-333 366 895
-335 371 909
-330 369 903
-328 370 907
-322 367 900
-322 370 910
-320 371 913
-316 369 910
-314 371 915
-310 369 911
-308 370 915
-304 369 912
-303 371 918
-300 371 920
-296 370 918
-296 374 928
-292 372 923
-292 375 933
-287 373 929
-283 371 924
-280 372 927
-279 374 933
-276 374 935
-273 374 934
-271 375 938
-266 372 931
-260 368 924
-258 369 926
-256 371 932
-253 370 931
-249 369 929
-249 373 939
-244 370 931
-239 367 925
-238 369 932
-237 372 939
-232 370 935
-229 369 932
-226 369 934
-225 372 942
-220 368 932
-217 369 935
-214 368 935
-211 367 933
-208 368 935
-206 369 939
-202 368 936
-199 367 935
-196 367 936
-194 368 939
-192 370 944
-188 367 937
-183 365 932
-182 369 942
-178 366 936
-172 360 920
-172 366 936
-169 365 935
-167 367 941
-165 367 942
-160 364 935
-159 369 946
-156 367 941
-152 366 941
-149 365 938
-147 366 941
-144 366 941
-139 362 932
-137 364 938
-134 364 937
-131 363 934
-130 367 947
-126 365 940
-122 363 936
-119 362 934
-117 364 939
-115 365 943
-111 364 941
-110 367 950
-106 365 943
-102 360 932
-95 347 897
-89 336 869
-83 321 829
-81 324 837
-73 302 782
-68 291 753
-68 301 778
-63 292 754
-62 297 769
-58 290 749
-57 296 767
-53 284 735
-50 281 727
-50 293 759
-45 281 727
-43 282 732
-42 291 753
-40 287 745
-37 288 747
-35 286 743
-32 285 738
-30 283 735
-28 285 739
-25 278 722
-24 293 761
-22 296 768
-19 283 734
-17 283 734
-15 294 763
-13 298 773
-12 325 846
-9 326 849
-7 338 879
-5 352 917
-2 365 950
0 366 952
3 364 949
5 363 945
8 366 953
11 364 949
14 365 952
17 367 955
20 365 951
23 363 946
26 364 949
28 361 940
31 364 949
34 367 955
37 366 954
40 365 952
43 364 949
46 366 953
49 365 951
52 365 950
55 366 953
58 366 954
60 365 952
63 365 950
66 365 951
69 365 950
72 366 953
75 365 951
78 366 953
81 366 953
84 365 950
86 365 950
89 365 949
93 368 958
96 367 955
98 366 950
101 366 952
104 366 951
108 369 959
111 369 958
113 367 953
117 369 958
118 364 945
122 368 955
125 367 952
128 369 957
131 368 955
134 368 954
137 368 954
140 367 952
143 368 953
146 368 953
148 367 949
151 368 951
155 369 954
157 368 952
159 365 944
163 367 948
166 368 949
170 370 955
171 367 946
176 369 953
178 369 952
182 371 957
185 370 953
188 370 952
191 371 954
193 368 947
197 372 955
199 369 949
203 371 952
206 371 952
207 368 945
211 369 945
213 368 944
217 369 946
220 369 944
223 370 946
226 369 944
230 371 948
233 371 949
235 370 944
239 371 947
242 372 949
243 369 941
247 371 944
250 370 942
254 371 944
256 371 942
258 369 937
263 372 944
267 373 946
269 372 942
271 371 939
275 372 940
277 371 938
280 371 939
284 373 941
287 372 938
289 371 936
293 373 939
298 375 945
298 371 934
303 374 940
306 374 938
309 374 938
311 372 932
316 375 939
319 374 937
321 373 933
326 376 938
330 377 941
332 376 937
337 378 942
336 374 930
345 380 946
346 378 939
343 372 922
351 377 936
353 376 931
353 372 921
361 378 934
364 378 933
368 379 935
371 379 934
370 375 923
379 381 936
378 376 924
383 379 929
386 379 928
392 382 934
391 377 923
395 378 923
400 380 928
399 376 916
406 381 926
408 379 922
413 381 926
416 381 924
424 386 934
423 382 923
427 382 923
432 384 926
439 388 934
438 384 924
444 386 929
447 387 928
450 386 926
452 386 923
454 385 919
460 387 923
463 387 922
468 389 925
472 389 925
473 387 919
477 388 919
481 389 920
482 387 914
486 388 916
488 387 912
495 390 918
497 389 913
501 390 914
509 394 922
509 391 915
512 391 913
517 392 913
518 391 909
522 392 910
527 393 911
532 394 912
533 393 907
535 392 903
539 392 903
543 393 904
549 395 906
554 396 908
-506 371 819
-504 371 821
-501 371 823
-495 368 819
-498 373 831
-498 375 837
-498 377 844
-493 376 842
-493 378 849
-486 375 842
-479 372 837
-475 370 836
-468 367 830
-471 372 842
-467 371 841
-464 371 844
-458 369 839
-456 369 841
-455 371 847
-454 372 851
-450 371 851
-450 373 857
-451 377 866
-447 376 865
-446 378 872
-446 380 878
-443 380 880
-445 385 892
-443 385 893
-441 386 898
-436 384 894
-439 389 908
-430 384 898
-425 382 895
-419 380 890
-413 377 884
-407 374 879
-402 372 875
-402 374 882
-398 373 880
-394 373 880
-392 373 883
-391 375 889
-389 376 893
-389 379 899
-385 378 898
-382 378 899
-380 379 904
-375 377 899
-374 378 905
-370 377 903
-369 379 910
-365 378 907
-357 373 895
-352 371 892
-349 371 893
-346 371 894
-343 370 894
-340 370 894
-337 370 894
-335 371 898
-328 367 889
-327 369 896
-323 368 894
-320 367 893
-319 370 900
-317 370 902
-315 372 907
-309 368 899
-307 369 902
-307 372 910
-301 368 902
-302 373 915
-298 371 912
-292 368 905
-291 370 911
-289 372 915
-289 375 923
-284 372 917
-281 372 919
-279 373 922
-276 372 921
-273 373 924
-267 369 915
-265 370 918
-263 371 920
-259 370 919
-257 371 922
-253 370 920
-251 370 922
-247 368 918
-247 373 932
-242 370 925
-240 371 927
-236 369 922
-233 370 925
-231 371 928
-227 369 925
-226 371 931
-220 367 922
-219 370 929
-216 370 931
-212 368 927
-210 369 928
-207 369 928
-204 369 929
-201 368 929
-198 367 927
-195 367 927
-193 370 935
-190 370 935
-186 367 927
-182 366 926
-180 366 927
-177 366 927
-172 362 918
-172 368 935
-169 367 932
-165 365 926
-163 367 933
-159 365 928
-156 365 927
-155 368 937
-152 368 938
-149 368 936
-146 368 938
-144 369 940
-139 365 930
-136 365 931
-134 365 932
-131 366 934
-128 366 935
-124 362 924
-123 368 941
-119 364 930
-116 364 931
-114 366 936
-112 367 940
-109 370 947
-105 365 935
-100 357 916
-94 344 883
-86 326 835
-81 319 817
-77 313 802
-74 308 790
-70 304 780
-69 307 788
-66 306 784
-60 289 740
-57 285 732
-53 279 715
-54 292 749
-52 293 751
-48 289 741
-47 296 759
-42 278 713
-42 290 744
-39 286 734
-38 294 755
-35 287 737
-33 290 747
-31 293 753
-28 284 730
-25 280 720
-24 293 754
-21 284 730
-19 293 754
-17 286 735
-15 302 777
-13 308 794
-11 315 812
-9 328 847
-7 338 873
-5 354 914
-2 365 943
0 364 940
3 363 938
5 363 936
8 364 939
11 366 946
14 369 954
17 366 946
20 365 942
23 367 948
25 362 935
28 364 941
31 367 948
34 365 943
37 365 943
40 365 942
43 363 938
45 364 939
49 367 947
51 365 942
54 366 946
57 367 947
60 368 951
63 366 944
66 367 946
69 368 950
72 367 947
75 368 950
78 367 947
80 366 943
83 366 943
86 367 946
89 366 944
92 367 945
95 367 945
98 366 942
101 368 947
104 367 944
106 366 942
109 367 945
112 365 940
115 368 946
117 365 938
122 369 948
124 367 943
127 369 947
130 367 944
132 365 937
136 369 947
139 369 947
142 368 945
145 369 946
146 366 937
151 369 945
154 370 947
156 367 940
158 367 938
161 367 938
164 366 937
169 370 947
171 370 945
174 369 942
176 368 939
181 371 948
184 371 947
184 366 935
189 369 940
193 372 947
195 369 940
197 368 937
202 371 945
204 371 942
207 370 940
208 368 935
211 367 932
215 369 937
220 372 944
221 370 938
222 367 929
228 371 941
230 370 936
235 372 942
236 370 936
236 365 923
241 369 931
246 372 939
250 373 941
252 372 938
253 369 929
258 373 938
261 372 936
264 372 934
265 370 928
271 373 937
274 374 937
276 372 933
278 371 929
282 372 931
285 372 931
288 373 931
291 372 929
294 373 930
298 374 931
299 371 925
304 374 930
307 375 932
310 374 929
312 373 925
316 374 927
318 373 925
322 375 928
326 375 928
329 375 928
331 375 925
337 378 931
337 375 923
343 378 930
345 376 926
346 375 920
350 375 921
353 375 920
360 380 930
362 379 927
365 378 924
369 380 927
370 378 922
375 380 926
380 381 928
381 380 923
382 377 916
387 380 921
393 383 927
390 376 911
395 379 916
401 382 921
405 382 921
408 382 921
411 382 919
411 380 912
417 382 917
422 384 921
424 383 918
427 383 915
429 382 912
438 387 922
441 388 923
441 384 913
452 392 930
454 390 925
455 389 920
458 388 918
460 388 915
464 388 915
467 389 915
471 389 915
470 386 906
478 389 912
480 389 911
487 392 915
489 391 912
492 391 910
494 390 907
500 392 911
500 389 903
507 393 909
507 390 902
511 391 903
514 391 901
516 390 897
521 391 899
526 393 900
531 394 902
534 394 900
531 390 888
538 393 894
543 394 895
545 393 891
-505 372 815
-501 371 815
-495 370 812
-494 371 817
-492 371 820
-494 375 830
-493 376 834
-488 375 833
-483 373 830
-482 375 835
-479 374 835
-468 368 822
-466 369 827
-467 372 834
-462 370 831
-459 370 832
-456 370 834
-450 367 829
-453 372 841
-449 371 841
-448 373 846
-446 373 848
-443 373 851
-445 377 861
-444 379 866
-444 381 873
-447 387 887
-439 382 878
-440 385 886
-436 384 886
-433 384 886
-436 390 901
-427 384 889
-421 382 885
-413 377 875
-406 373 868
-406 376 875
-403 376 876
-398 373 872
-393 372 870
-390 372 870
-392 376 882
-389 376 883
-388 378 888
-387 380 894
-381 377 888
-380 378 893
-378 380 897
-378 383 906
-370 378 895
-368 378 896
-364 378 897
-360 376 893
-353 372 885
-349 371 884
-346 370 883
-344 371 887
-342 372 889
-339 372 890
-333 369 885
-329 367 882
-328 369 887
-323 367 883
-323 370 890
-317 367 884
-318 371 896
-314 370 893
-312 371 897
-311 373 902
-305 369 894
-304 372 902
-300 370 900
-299 373 906
-295 371 902
-293 372 906
-290 372 907
-288 373 910
-286 374 913
-282 373 911
-279 372 911
-276 372 912
-273 372 911
-272 374 918
-266 370 909
-264 372 914
-262 372 916
-257 370 911
-254 369 911
-251 369 911
-249 370 913
-246 370 914
-242 369 912
-240 370 915
-237 369 915
-235 371 921
-231 369 915
-229 370 919
-225 368 915
-221 367 913
-220 369 918
-219 372 926
-214 369 918
-212 370 923
-209 370 922
-205 368 919
-201 366 914
-199 368 919
-196 367 919
-194 368 922
-191 369 923
-187 367 918
-185 368 923
-182 367 920
-178 365 915
-177 369 926
-174 368 925
-170 368 924
-168 367 924
-164 367 923
-162 368 927
-159 367 925
-156 368 927
-155 370 934
-151 369 932
-147 365 922
-144 365 921
-142 368 930
-139 366 925
-136 367 927
-132 363 919
-130 366 926
-127 366 927
-123 362 918
-121 365 924
-118 365 925
-116 366 927
-114 369 935
-111 367 931
-108 370 939
-104 364 923
-99 357 906
-92 342 869
-84 320 813
-79 314 797
-74 302 768
-72 303 769
-72 314 797
-68 307 781
-64 298 757
-60 290 737
-59 298 757
-53 281 716
-54 294 748
-51 291 741
-49 293 746
-44 280 713
-44 289 737
-39 276 703
-41 299 762
-36 285 727
-33 278 708
-33 296 755
-30 284 725
-27 283 722
-26 289 737
-24 291 741
-22 293 748
-18 283 722
-18 304 776
-15 306 780
-14 318 811
-11 310 792
-9 331 845
-7 339 868
-5 357 914
-2 368 941
0 366 937
3 366 936
5 363 928
8 366 937
11 368 942
14 364 932
17 367 939
20 364 933
23 367 939
25 366 936
28 362 925
31 364 932
34 366 938
37 365 934
40 365 933
42 364 931
45 365 935
48 367 939
51 366 935
54 366 935
57 366 936
59 365 933
63 368 940
66 368 941
69 369 944
71 367 938
74 368 940
77 367 937
80 366 935
82 365 932
85 365 932
89 368 939
91 368 939
95 369 942
97 366 935
100 367 937
103 368 940
106 369 942
109 368 939
111 367 936
115 368 939
117 368 937
121 369 940
124 370 943
127 369 940
129 369 939
132 368 937
134 367 933
137 367 935
141 368 936
143 367 932
146 368 936
149 369 936
152 367 932
155 369 936
158 369 937
160 367 932
164 369 935
166 368 932
170 369 935
173 369 935
176 370 935
179 369 935
182 371 938
184 368 931
188 370 935
190 369 933
194 371 937
197 371 935
200 371 935
203 372 937
206 371 934
208 370 931
211 371 933
213 369 928
216 369 928
220 371 931
223 371 931
225 369 927
229 372 932
232 370 929
234 370 927
238 372 931
241 372 929
244 371 927
247 372 931
251 373 932
254 373 931
257 373 931
259 372 928
262 373 928
264 370 922
266 369 918
272 375 931
275 374 928
277 373 926
280 373 926
285 375 930
285 372 920
289 373 922
293 375 927
294 372 919
299 374 924
301 374 922
305 374 922
309 376 925
310 373 918
311 371 912
317 375 921
320 375 921
321 373 914
326 375 918
330 377 922
333 376 919
335 376 917
341 378 922
345 379 924
346 378 919
348 376 915
355 381 924
354 377 914
358 378 916
362 378 916
367 381 922
370 380 919
372 380 917
375 380 916
381 383 922
382 381 916
384 380 913
388 380 913
390 379 909
395 382 915
399 383 916
403 383 915
404 381 910
409 384 914
410 381 907
416 384 913
417 382 907
423 385 913
424 383 906
430 386 913
431 384 907
436 386 911
440 387 911
445 388 914
447 387 909
450 387 908
454 388 910
456 387 905
462 389 910
465 389 908
466 388 903
469 388 902
470 386 897
477 389 903
472 383 886
483 389 899
488 391 902
487 388 893
496 392 903
498 391 898
500 390 894
504 391 896
507 391 894
511 392 894
516 393 896
513 388 883
520 392 889
525 393 890
527 392 888
534 395 892
537 395 890
541 396 891
545 396 890
-500 372 806
-493 369 802
-495 372 810
-491 372 811
-489 372 813
-489 374 820
-489 376 826
-485 376 826
-478 372 819
-475 372 821
-473 372 823
-467 370 820
-464 370 821
-460 369 820
-459 371 826
-454 369 823
-453 370 827
-450 370 829
-448 371 832
-441 367 825
-441 369 831
-444 374 844
-442 375 847
-442 378 854
-437 375 850
-439 380 863
-441 384 872
-439 385 875
-436 385 878
-434 386 881
-429 384 878
-423 381 872
-417 378 867
-413 378 867
-410 378 869
-404 374 862
-403 376 867
-398 374 864
-398 376 871
-393 375 868
-390 375 869
-390 377 876
-388 378 879
-380 373 868
-379 375 875
-377 376 877
-378 380 889
-376 381 892
-374 382 895
-368 378 888
-366 379 891
-365 382 898
-360 379 894
-353 375 884
-345 369 873
-345 373 881
-341 371 877
-338 371 878
-334 370 878
-332 370 880
-328 369 877
-327 371 884
-322 369 880
-319 369 881
-319 371 888
-315 370 886
-314 372 892
-311 372 893
-308 372 892
-305 372 892
-302 372 894
-297 369 888
-294 369 890
-295 374 901
-291 373 900
-289 373 902
-284 371 898
-284 375 907
-279 371 900
-277 372 902
-274 372 904
-272 374 908
-268 372 904
-266 373 909
-263 373 909
-260 372 908
-257 372 909
-252 370 903
-250 371 906
-247 370 906
-244 370 906
-241 369 905
-237 368 902
-236 371 911
-234 373 915
-229 368 906
-227 369 909
-225 371 914
-221 369 909
-218 369 909
-215 370 912
-213 370 913
-209 368 910
-209 373 922
-203 369 912
-202 370 917
-198 370 915
-194 366 908
-192 369 914
-189 367 911
-187 369 915
-183 368 913
-181 368 915
-178 369 919
-175 369 917
-173 370 921
-169 368 916
-166 367 914
-163 367 915
-161 369 921
-157 365 912
-154 365 913
-151 365 913
-148 366 914
-147 368 921
-144 367 919
-141 368 921
-138 367 918
-135 368 921
-132 366 919
-130 368 924
-126 365 917
-123 365 917
-120 365 917
-118 366 919
-113 360 905
-112 365 918
-110 367 923
-108 371 933
-102 360 907
-96 348 877
-90 337 848
-85 328 825
-76 302 760
-74 305 768
-71 302 761
-69 302 760
-67 306 772
-63 297 747
-58 287 722
-56 286 722
-56 296 746
-53 293 738
-49 284 717
-48 289 730
-46 292 737
-42 280 706
-39 276 697
-40 294 743
-35 278 701
-35 294 744
-31 284 717
-30 290 732
-28 295 747
-25 288 727
-23 288 728
-22 300 758
-20 301 761
-17 300 760
-15 303 768
-13 308 779
-11 316 799
-9 330 835
-7 345 874
-5 354 897
-2 365 927
0 366 927
3 364 923
5 366 929
8 366 929
11 364 923
14 364 924
17 366 929
19 362 920
22 367 930
25 364 925
28 364 924
31 364 923
34 365 926
37 370 938
39 367 930
42 365 926
45 365 926
48 367 930
51 367 931
54 368 934
56 364 923
60 369 935
62 366 929
64 364 921
68 368 933
71 367 929
74 368 933
76 365 925
80 370 938
82 366 927
85 366 928
88 369 934
91 367 930
94 369 933
96 366 926
100 370 935
102 368 931
105 368 931
109 370 935
111 368 930
114 367 928
117 368 929
120 369 932
122 368 929
125 369 930
128 369 932
131 367 926
134 368 927
137 369 930
140 370 932
144 372 938
145 368 927
149 370 931
152 371 934
153 366 921
156 365 919
159 368 924
163 369 927
166 370 929
169 369 927
172 370 929
176 373 936
177 369 926
180 369 925
183 369 924
186 369 924
189 370 925
193 371 928
195 371 928
197 369 922
200 369 923
205 372 928
207 371 926
210 370 924
213 370 924
215 371 923
218 371 923
222 371 924
223 369 918
227 370 921
231 373 927
233 371 922
237 372 924
239 371 921
242 371 921
247 374 926
246 369 912
249 369 912
255 373 922
257 373 921
261 374 923
264 374 922
267 374 921
270 374 922
274 375 923
277 375 922
275 369 907
281 373 915
284 373 916
288 374 917
290 374 915
294 374 916
297 375 917
298 373 911
303 375 916
305 374 912
311 377 920
313 376 916
316 377 917
317 374 909
322 376 914
322 374 907
330 379 918
332 378 915
333 376 909
335 375 905
343 381 919
344 378 912
348 380 915
350 379 912
353 379 910
357 380 912
359 378 908
363 380 910
363 376 901
369 379 907
373 381 909
375 379 905
380 381 909
382 380 905
388 384 913
389 381 906
392 382 905
394 380 901
398 382 904
400 381 900
400 378 893
408 382 902
410 382 899
413 382 898
418 384 902
425 387 909
430 389 911
429 386 902
432 385 900
437 387 903
443 390 909
444 388 902
447 387 901
452 390 904
457 391 907
461 392 906
457 386 893
465 390 899
465 388 893
469 389 894
474 390 896
474 388 889
479 389 890
485 391 895
490 393 897
490 390 889
494 391 891
498 392 890
503 393 892
502 390 883
510 394 891
510 392 884
515 393 885
515 390 878
522 394 885
525 394 883
532 397 888
533 395 883
530 390 870
541 396 882
-496 371 799
-493 372 801
-490 371 801
-485 370 800
-486 372 807
-484 373 811
-481 373 812
-476 372 810
-481 377 824
-472 373 815
-469 372 815
-464 371 813
-460 370 813
-458 370 815
-458 373 823
-457 374 826
-451 372 823
-450 373 828
-444 371 823
-444 373 830
-442 373 833
-441 375 837
-436 373 834
-436 376 842
-433 376 843
-435 380 854
-434 381 858
-431 381 858
-432 385 869
-427 382 865
-420 379 859
-418 380 862
-410 375 853
-409 376 857
-405 376 856
-400 374 853
-398 374 855
-395 374 856
-394 376 861
-388 373 855
-388 376 863
-384 375 863
-382 376 866
-382 378 874
-378 377 871
-376 378 875
-375 380 881
-371 379 879
-368 378 879
-368 381 886
-362 378 881
-360 379 885
-355 376 879
-352 377 881
-346 373 873
-342 372 872
-338 371 870
-336 372 873
-332 370 871
-330 371 873
-327 371 876
-323 369 872
-321 371 876
-318 370 876
-316 371 880
-312 370 878
-309 369 876
-308 372 884
-305 371 882
-303 372 885
-298 370 883
-298 373 891
-294 372 888
-293 374 894
-289 372 891
-285 371 889
-283 372 891
-283 375 901
-279 374 899
-276 374 898
-270 370 891
-270 373 899
-266 373 898
-265 374 903
-258 369 892
-257 372 898
-254 371 898
-251 370 897
-247 370 896
-243 368 892
-243 372 902
-240 371 902
-238 373 906
-233 369 897
-231 370 902
-229 371 904
-228 375 913
-222 370 902
-221 372 909
-218 372 909
-214 370 904
-210 368 900
-209 371 910
-207 372 913
-201 367 901
-201 373 915
-196 368 905
-194 370 910
-190 368 903
-187 366 900
-186 370 910
-183 369 909
-178 367 903
-178 371 914
-175 372 917
-171 368 908
-168 368 908
-166 370 915
-163 369 911
-160 369 912
-157 368 910
-153 367 908
-151 368 911
-148 367 911
-146 369 916
-143 368 914
-139 367 910
-137 368 913
-134 368 915
-131 367 911
-128 366 909
-126 368 915
-123 368 916
-121 369 920
-119 372 927
-114 366 913
-113 372 927
-110 370 922
-107 370 924
-101 359 897
-94 346 864
-91 344 859
-85 330 824
-81 324 807
-73 305 761
-71 305 762
-68 301 750
-66 301 752
-62 296 740
-61 300 749
-58 297 743
-56 300 750
-50 280 700
-49 285 711
-48 291 728
-46 294 736
-42 285 713
-39 280 700
-38 286 715
-38 298 746
-34 288 722
-33 295 738
-29 284 710
-27 283 708
-25 286 715
-23 291 729
-22 302 756
-19 293 736
-17 295 739
-15 306 766
-13 304 763
-11 316 794
-9 331 832
-7 343 862
-5 352 885
-2 362 911
0 366 921
3 366 920
5 367 923
8 366 919
11 365 918
14 365 918
17 368 926
19 364 915
22 366 921
25 365 918
28 366 920
31 364 915
34 366 921
36 366 921
39 367 924
42 368 926
45 366 920
48 367 923
50 366 921
54 370 930
56 367 921
59 368 924
62 367 921
65 370 929
67 367 921
71 369 927
73 366 919
76 368 924
79 367 922
81 366 920
84 367 920
87 368 924
90 366 918
94 371 931
96 368 922
99 368 923
102 371 930
105 369 924
108 370 927
111 369 925
113 368 922
116 368 922
119 369 923
122 369 924
125 370 926
127 368 919
130 367 917
133 369 924
136 369 922
139 370 923
142 369 921
144 368 919
148 370 922
150 368 919
153 370 922
155 368 917
158 367 915
162 369 919
164 369 918
168 371 924
171 371 923
173 369 918
177 372 924
180 371 921
182 369 917
186 372 923
189 372 923
191 370 917
194 370 918
197 371 920
199 370 916
202 369 913
206 372 921
207 369 913
211 371 917
212 368 909
217 371 915
220 371 916
222 369 910
224 369 909
228 370 912
232 372 915
234 371 913
238 373 916
241 372 914
243 372 913
246 371 911
248 371 908
251 371 908
256 374 915
258 372 910
263 375 916
264 373 911
267 373 910
269 371 905
274 374 912
276 374 910
278 372 906
284 376 914
284 372 904
287 372 903
291 374 908
292 372 901
296 373 902
299 374 904
302 373 902
309 378 912
310 376 907
313 376 907
317 377 908
321 378 910
321 376 903
323 374 899
326 374 898
331 377 903
334 376 901
339 379 906
342 379 906
343 377 899
346 377 899
347 375 894
355 380 905
358 380 903
358 377 895
362 378 898
365 378 897
368 379 897
374 382 903
374 378 893
377 379 893
381 380 894
383 378 891
390 382 899
394 384 901
398 384 901
397 380 891
403 383 897
407 384 898
411 385 899
409 381 887
416 385 896
420 386 897
417 380 883
424 384 890
433 389 902
434 387 896
439 389 899
441 388 895
444 388 895
447 388 892
451 389 893
451 386 885
456 388 888
459 388 887
465 390 891
466 389 886
472 391 890
475 391 890
475 389 882
477 387 878
484 391 885
486 390 881
491 392 884
490 389 875
495 390 876
499 391 877
502 391 875
511 395 884
506 389 868
516 394 879
514 391 869
522 395 877
526 395 876
526 393 870
530 394 870
541 399 881
-493 372 793
-490 372 794
-480 367 784
-482 370 793
-483 373 801
-481 374 804
-480 375 809
-479 377 814
-477 377 816
-469 373 810
-464 372 807
-458 369 802
-459 372 810
-457 372 813
-455 373 816
-452 373 816
-448 372 816
-445 372 817
-442 371 818
-437 370 816
-438 373 824
-434 372 822
-433 373 828
-434 377 836
-431 376 837
-436 383 853
-434 384 857
-432 385 860
-427 383 858
-420 379 851
-417 379 851
-415 379 853
-411 379 854
-404 375 846
-401 375 847
-397 374 845
-396 376 851
-392 375 850
-387 372 845
-389 377 857
-384 375 855
-383 376 859
-378 374 855
-378 377 863
-375 377 864
-376 381 874
-374 381 876
-370 381 876
-368 381 878
-364 380 876
-359 378 873
-356 378 874
-352 376 871
-345 372 863
-341 370 859
-339 372 864
-337 373 867
-332 370 861
-328 369 860
-329 372 869
-324 370 865
-321 370 865
-318 370 868
-317 372 873
-314 372 873
-311 371 873
-308 372 874
-306 372 876
-303 372 877
-301 373 880
-299 374 883
-294 371 876
-290 369 874
-290 373 883
-287 373 884
-285 374 888
-283 374 890
-278 372 885
-276 373 888
-274 374 891
-269 371 885
-269 375 896
-266 374 895
-261 372 890
-259 373 892
-256 373 893
-254 373 895
-250 373 894
-249 374 899
-242 368 885
-243 375 901
-239 373 898
-236 372 896
-233 372 898
-231 373 900
-227 371 896
-224 371 897
-220 369 892
-219 372 899
-215 370 896
-213 371 900
-211 372 903
-207 370 898
-204 370 899
-201 370 899
-197 368 895
-195 368 897
-192 369 899
-189 368 898
-186 368 897
-184 369 901
-180 367 895
-178 369 902
-176 371 906
-173 369 902
-170 370 904
-167 368 902
-165 371 908
-164 373 915
-159 369 904
-156 369 904
-153 368 903
-150 368 905
-148 371 910
-145 369 907
-143 371 912
-140 370 910
-137 369 909
-133 366 902
-131 369 910
-128 368 907
-124 366 903
-121 366 903
-119 366 904
-116 366 904
-116 375 926
-113 375 926
-108 366 905
-105 368 911
-100 359 888
-95 352 870
-94 356 881
-83 326 807
-77 312 773
-72 301 744
-69 301 744
-67 300 743
-65 303 749
-62 299 741
-60 301 746
-57 298 737
-53 286 709
-51 289 715
-49 291 721
-46 285 707
-45 293 726
-43 295 731
-40 287 712
-38 290 718
-35 285 706
-33 283 703
-31 288 716
-31 301 746
-27 290 721
-26 297 736
-23 287 713
-21 291 722
-19 294 731
-17 299 742
-14 287 712
-13 315 783
-11 324 805
-9 328 816
-7 346 862
-4 353 880
-2 360 898
0 364 908
3 367 916
5 366 911
8 365 910
11 365 910
14 366 911
17 369 919
19 366 912
22 368 917
25 365 910
28 366 913
30 365 911
33 367 914
36 367 914
39 367 915
42 368 916
45 369 921
48 369 920
50 366 913
53 368 918
56 368 917
59 368 917
61 366 913
64 368 916
67 366 912
70 367 913
72 367 913
76 369 917
78 366 912
81 367 913
84 369 919
87 369 917
90 369 918
93 371 922
95 368 914
98 366 911
101 369 918
104 368 913
106 366 910
109 368 913
112 369 916
115 367 910
117 367 909
121 369 915
124 369 915
127 369 916
129 369 914
132 368 913
134 366 906
138 370 915
142 372 920
145 373 923
147 370 914
149 370 915
153 371 916
155 370 915
158 370 914
161 371 917
163 369 912
166 368 909
169 370 912
172 369 909
175 371 913
178 370 910
182 373 919
184 372 915
187 371 911
187 367 901
193 372 914
196 372 914
197 369 906
201 372 912
204 372 911
207 372 912
209 369 904
213 371 909
214 370 904
220 375 916
221 371 906
223 370 903
227 372 907
232 375 914
234 374 912
236 372 907
239 373 908
242 372 905
243 370 900
248 373 907
251 374 907
254 373 904
257 373 905
259 373 904
261 371 898
266 375 907
268 373 901
270 371 897
276 376 908
276 372 897
281 374 902
283 374 900
286 373 898
288 373 897
293 376 904
298 378 907
297 373 895
301 375 897
303 374 895
308 376 899
314 379 907
315 378 903
320 380 905
319 375 894
322 376 894
327 378 900
327 375 891
333 378 898
334 376 891
339 379 897
340 376 891
346 380 898
348 379 895
351 379 893
355 380 894
355 377 888
359 378 889
361 377 885
366 379 889
370 380 891
373 380 890
375 380 888
378 380 887
386 384 897
385 381 888
389 382 888
391 381 885
396 383 889
400 383 889
404 384 890
409 386 894
410 384 888
412 383 885
415 384 884
417 383 881
425 387 890
429 388 892
432 389 891
434 388 887
437 387 885
441 388 886
440 385 877
448 389 886
448 387 880
450 386 875
451 384 869
459 389 879
461 388 875
465 388 876
467 388 874
469 387 870
475 389 873
478 389 872
485 393 879
487 392 875
489 391 871
490 389 866
496 392 871
499 392 870
503 392 869
506 392 867
511 394 870
513 393 867
516 393 864
522 395 868
521 392 860
529 396 867
532 396 865
-489 372 785
-487 373 789
-484 372 789
-479 371 788
-477 372 791
-477 374 797
-471 371 793
-474 376 804
-475 378 811
-462 371 796
-460 371 798
-457 370 799
-458 374 808
-452 371 803
-450 372 806
-449 373 811
-445 372 809
-442 372 811
-438 371 810
-436 372 812
-435 373 818
-431 372 816
-430 374 822
-434 379 835
-427 376 828
-429 380 840
-433 386 855
-426 382 847
-422 382 847
-418 380 844
-417 382 850
-411 379 846
-408 378 845
-403 377 844
-401 377 845
-396 376 843
-394 376 844
-389 374 841
-390 378 851
-385 375 847
-382 376 848
-380 376 850
-366 366 828
-375 377 855
-375 380 863
-373 381 867
-369 380 865
-367 380 866
-363 379 866
-359 378 863
-358 379 869
-354 379 868
-348 375 860
-344 374 859
-343 376 864
-336 371 855
-334 371 856
-332 373 861
-331 375 866
-325 371 859
-324 373 865
-319 371 860
-319 374 868
-316 373 868
-312 372 865
-308 370 863
-305 371 865
-304 372 869
-302 373 872
-299 374 874
-295 372 871
-293 372 873
-290 373 875
-286 371 872
-285 374 879
-282 373 878
-281 375 883
-276 373 878
-274 373 881
-271 373 880
-267 372 879
-266 374 884
-263 373 884
-259 372 881
-256 371 881
-255 374 887
-253 375 892
-249 373 888
-246 373 887
-243 372 887
-239 372 886
-237 373 890
-235 373 891
-230 370 885
-229 372 891
-225 371 888
-223 372 892
-220 372 892
-217 372 892
-215 372 894
-212 372 893
-210 373 898
-205 370 889
-202 369 889
-200 370 893
-197 370 891
-195 371 895
-191 369 892
-188 368 890
-186 371 898
-183 371 897
-180 371 897
-176 368 890
-174 369 894
-172 371 900
-169 369 895
-165 367 892
-164 370 899
-161 370 899
-158 370 898
-155 369 899
-152 370 900
-151 373 909
-147 369 899
-144 371 904
-141 369 900
-139 372 906
-136 370 903
-133 371 905
-130 370 903
-127 368 898
-124 369 902
-121 368 899
-118 368 900
-116 369 902
-109 355 870
-111 370 906
-109 375 918
-104 368 902
-98 356 872
-94 350 858
-88 339 830
-80 319 781
-78 317 778
-77 324 794
-71 308 756
-69 311 764
-64 299 733
-61 297 728
-60 302 740
-56 292 716
-51 279 685
-51 289 709
-50 298 732
-47 293 720
-45 292 717
-42 288 707
-40 292 718
-37 280 689
-35 282 694
-33 283 695
-32 299 735
-30 295 725
-28 301 740
-25 291 717
-23 297 730
-21 301 742
-18 285 701
-16 294 723
-15 309 761
-13 306 753
-11 312 769
-9 324 799
-7 346 854
-4 356 878
-2 362 894
0 367 908
3 369 912
5 366 904
8 369 911
11 366 904
14 370 913
16 365 901
19 368 910
22 367 908
25 367 908
27 364 900
30 367 907
33 368 909
36 367 906
39 367 906
41 365 901
44 369 911
47 367 907
50 368 908
52 366 903
56 368 909
58 368 908
61 369 910
64 367 907
67 370 913
69 366 905
73 370 913
75 367 906
78 369 910
81 368 908
84 369 910
86 368 908
90 371 914
92 370 912
94 367 904
98 371 914
100 369 909
104 371 913
106 368 907
109 369 908
112 370 910
114 369 908
118 371 912
120 368 905
123 371 912
125 368 905
129 370 908
131 369 907
135 371 911
137 370 909
140 370 907
142 368 904
146 370 907
148 368 903
151 370 907
154 370 906
156 369 904
159 369 903
163 371 907
165 370 906
168 370 904
172 372 909
174 371 905
178 373 910
180 371 906
182 370 903
185 370 901
188 371 903
192 372 905
194 371 904
197 372 906
199 370 900
203 373 906
206 372 905
208 371 900
210 370 897
215 373 905
217 372 902
219 370 896
222 371 898
224 369 894
228 371 897
232 373 902
234 371 897
237 373 900
239 371 896
245 375 904
245 371 895
248 372 894
251 371 893
257 376 903
259 375 900
261 374 896
262 371 890
265 371 889
270 374 896
270 371 888
274 372 889
278 374 894
279 371 886
285 376 896
288 376 895
290 375 892
294 376 895
293 371 882
297 373 886
302 375 889
306 377 893
307 375 887
310 374 886
316 378 894
319 378 893
321 378 891
323 377 888
328 378 891
332 380 894
334 379 892
334 376 883
339 378 886
343 379 888
348 382 894
350 381 890
353 380 888
355 380 886
356 378 881
362 381 888
363 379 882
368 381 886
369 380 880
374 381 884
376 380 879
378 380 878
381 380 876
390 385 888
388 381 878
392 381 878
396 382 879
399 383 879
404 385 883
405 383 878
407 382 872
412 384 876
413 382 871
419 385 878
423 386 879
426 386 876
434 390 886
433 387 876
435 386 873
442 390 881
441 386 870
446 388 874
450 389 875
451 387 869
454 387 868
459 389 870
464 390 873
463 387 865
464 386 859
475 392 873
476 390 867
480 391 867
486 393 871
488 393 868
489 391 863
495 394 868
493 390 857
500 393 863
505 394 864
506 393 859
507 392 855
514 394 859
517 394 858
519 394 855
526 396 860
525 394 852
-482 370 774
-482 372 779
-482 374 785
-477 372 784
-478 375 791
-473 373 788
-472 375 793
-471 376 797
-469 377 801
-464 374 797
-461 375 799
-458 374 800
-449 370 791
-451 373 800
-446 371 798
-445 373 803
-439 370 798
-438 371 802
-435 372 804
-433 372 807
-431 373 810
-426 371 806
-424 371 808
-428 377 822
-426 377 825
-430 384 840
-424 381 836
-427 386 848
-421 383 843
-416 382 840
-412 381 839
-411 382 844
-404 378 837
-399 376 833
-396 375 833
-395 377 838
-391 377 839
-388 376 838
-384 375 837
-382 376 841
-380 376 842
-389 388 871
-393 395 886
-372 377 847
-373 380 856
-367 377 850
-365 378 853
-363 379 856
-361 380 860
-365 387 877
-356 380 863
-351 379 860
-350 380 865
-344 376 856
-339 374 854
-336 374 853
-332 372 851
-330 374 855
-326 373 853
-324 373 855
-322 374 859
-318 372 855
-314 371 854
-313 373 860
-311 373 861
-308 373 862
-304 372 859
-301 371 859
-297 370 858
-298 374 868
-296 375 871
-291 373 867
-294 380 885
-286 373 869
-282 373 868
-280 373 870
-278 375 875
-274 373 872
-273 375 877
-269 374 875
-268 375 879
-265 375 880
-263 376 883
-259 374 880
-255 373 877
-254 375 884
-249 372 878
-247 374 881
-245 374 884
-241 373 881
-239 374 885
-236 374 885
-231 371 878
-231 375 887
-225 369 876
-224 372 883
-222 374 889
-219 373 887
-217 375 891
-214 373 888
-211 374 890
-208 372 888
-206 375 894
-202 372 889
-198 370 884
-195 370 884
-193 371 887
-190 370 886
-188 372 890
-184 370 887
-182 371 889
-180 373 894
-176 371 890
-173 369 887
-171 371 891
-168 371 891
-165 370 890
-163 371 894
-160 371 895
-157 371 894
-155 373 899
-150 368 888
-149 372 897
-145 368 888
-143 371 896
-140 370 894
-137 370 894
-134 369 893
-132 370 896
-129 369 893
-126 369 894
-124 370 896
-121 371 899
-118 370 897
-114 365 887
-114 373 906
-110 370 897
-109 376 913
-102 364 884
-98 357 868
-98 367 892
-85 331 804
-81 323 786
-80 329 801
-71 301 733
-68 300 728
-63 286 695
-66 309 752
-61 298 726
-58 296 719
-53 282 686
-55 299 729
-51 293 714
-50 296 721
-45 285 694
-45 293 715
-42 292 711
-40 291 710
-37 282 688
-36 292 713
-32 283 691
-31 287 700
-28 279 680
-27 288 702
-26 308 753
-23 301 734
-21 299 731
-20 310 756
-16 292 714
-14 289 705
-13 315 770
-11 326 796
-9 329 804
-7 340 833
-4 354 866
-2 357 873
0 369 904
3 366 897
5 366 896
8 368 901
11 370 907
14 370 906
16 365 895
19 367 898
22 364 892
25 366 897
27 367 900
30 368 902
33 367 899
36 370 906
39 369 904
41 368 900
44 367 899
47 368 902
50 369 903
52 369 903
55 369 904
58 368 901
60 367 897
64 370 905
66 366 896
69 366 897
72 369 902
75 369 904
77 368 899
80 368 900
83 369 901
85 368 899
88 367 898
91 369 901
94 370 904
97 368 898
100 369 901
103 371 907
106 370 904
108 368 899
111 370 903
114 371 904
117 370 903
119 368 897
123 371 905
125 371 903
127 369 898
129 367 893
132 367 893
136 368 897
139 371 902
142 371 902
145 371 902
146 368 893
151 372 904
154 372 902
156 371 901
159 370 899
162 372 902
164 371 899
167 371 898
170 371 899
174 372 902
175 369 894
179 371 897
181 371 897
184 371 897
187 371 896
189 369 891
193 373 899
196 372 898
198 371 894
201 371 894
203 370 890
207 371 893
210 372 894
213 372 894
215 371 891
217 370 889
220 370 887
223 371 890
228 374 895
229 371 888
231 369 883
235 372 889
237 371 886
242 374 893
242 370 882
243 367 875
248 369 880
253 374 891
257 375 893
260 375 891
263 375 891
266 375 891
264 369 876
273 378 896
272 373 883
274 372 880
280 375 887
282 374 884
286 375 887
286 373 879
291 375 883
293 374 882
297 376 885
302 378 888
303 375 882
306 376 883
310 377 883
313 377 884
314 376 880
317 375 877
320 376 877
325 378 882
326 376 877
332 379 883
330 374 871
338 380 883
338 376 873
344 380 883
351 385 892
348 378 875
352 379 877
354 379 875
359 381 879
360 379 873
366 382 878
367 380 874
369 379 871
373 380 873
378 382 876
382 383 876
384 382 874
389 385 878
391 384 875
397 386 880
395 382 869
399 383 870
402 383 869
410 388 879
411 386 873
413 385 871
418 387 872
422 388 874
421 385 866
429 389 873
429 387 868
434 388 869
437 388 868
439 388 866
443 388 866
448 390 869
448 387 862
452 388 863
459 392 870
460 390 864
463 390 862
466 390 861
466 388 855
472 390 859
477 392 862
481 393 862
484 392 860
485 391 855
481 385 841
495 395 860
495 392 853
496 390 848
504 394 855
506 393 851
510 395 853
517 397 857
516 395 850
517 393 844
520 392 842
-480 371 769
-478 371 771
-474 371 771
-473 372 776
-473 374 782
-470 374 783
-473 378 793
-470 378 794
-466 377 793
-458 373 787
-454 372 786
-452 372 788
-453 375 796
-449 374 795
-449 377 802
-442 373 796
-437 371 793
-435 372 796
-434 373 800
-429 372 798
-427 372 800
-424 371 800
-426 376 811
-425 377 816
-421 377 816
-425 382 829
-424 383 833
-420 383 833
-417 383 834
-415 384 837
-409 380 831
-405 379 830
-401 378 829
-398 378 830
-395 378 831
-390 376 828
-391 379 836
-387 378 835
-381 375 830
-380 377 835
-369 368 816
-375 377 838
-356 361 802
-385 393 876
-364 374 835
-371 384 859
-368 385 860
-353 372 832
-369 391 877
-356 381 855
-352 379 851
-348 378 851
-362 395 892
-342 377 851
-333 370 837
-335 375 849
-330 373 845
-328 374 848
-325 374 848
-322 374 849
-320 374 852
-317 374 851
-315 375 855
-319 383 875
-306 371 848
-305 373 854
-303 374 857
-302 376 862
-298 374 859
-294 373 857
-294 376 866
-291 376 866
-276 360 830
-287 378 872
-281 373 862
-279 375 867
-276 375 867
-271 372 861
-272 377 874
-267 374 868
-267 377 877
-258 369 858
-261 377 877
-257 374 872
-254 374 873
-259 385 899
-250 377 880
-247 376 878
-243 374 875
-240 375 878
-234 369 864
-249 396 930
-233 376 882
-229 374 878
-227 375 882
-224 374 881
-221 375 884
-221 379 893
-216 375 885
-213 374 883
-211 376 887
-207 375 886
-203 372 880
-201 374 884
-199 374 886
-200 382 906
-193 373 885
-193 379 900
-188 374 889
-184 372 884
-181 373 886
-179 373 888
-173 366 870
-173 372 886
-168 367 875
-167 372 886
-169 381 910
