VERSION 0.7
FIELDS x y z
SIZE 4 4 4
TYPE I I I
COUNT 1 1 1
WIDTH 3631
HEIGHT 1
VIEWPOINT 0.0 0.0 0.0 1.0 0.0 0.0 0.0
POINTS 3631
DATA ascii
-687 726 2757
-676 724 2748
-671 726 2760
-657 720 2739
-650 722 2747
-640 719 2739
-632 720 2741
-623 719 2739
-613 717 2735
-605 717 2737
-595 715 2731
-588 717 2738
-578 714 2731
-569 713 2728
-560 711 2722
-551 710 2721
-538 704 2697
-462 614 2353
-438 591 2267
0 0 0
0 0 0
0 0 0
0 0 0
0 0 0
0 0 0
0 0 0
0 0 0
0 0 0
0 0 0
0 0 0
0 0 0
0 0 0
-355 610 2356
0 0 0
0 0 0
0 0 0
0 0 0
-292 557 2153
-292 570 2207
-294 587 2270
-276 564 2183
-282 590 2284
-280 599 2323
-263 577 2238
-249 561 2175
-248 574 2224
-245 582 2258
-223 545 2115
-227 570 2212
-218 565 2192
-207 551 2140
-201 551 2142
-201 570 2214
-196 575 2234
-187 567 2205
-180 564 2195
-172 561 2181
-167 565 2199
-162 572 2227
-160 587 2287
-147 564 2197
-137 548 2132
-129 544 2121
-124 548 2134
-119 555 2161
-113 554 2159
-108 561 2186
-101 561 2188
-97 573 2235
-87 553 2157
-82 559 2183
-74 551 2148
-70 570 2223
-62 553 2160
-55 553 2157
-48 542 2116
-44 563 2197
-39 583 2276
-34 611 2387
-27 621 2429
-21 635 2481
-13 643 2512
-6 645 2520
0 641 2505
8 642 2509
15 640 2502
22 640 2501
30 639 2499
37 639 2499
44 636 2486
50 622 2431
55 593 2319
60 578 2260
67 576 2252
74 580 2268
82 590 2307
92 613 2397
102 631 2469
110 635 2483
117 633 2475
124 632 2470
131 633 2475
139 633 2477
146 633 2475
153 633 2473
160 631 2468
168 632 2472
175 631 2466
182 629 2460
189 629 2458
196 628 2453
203 629 2456
210 628 2454
217 626 2444
225 627 2451
232 627 2450
239 629 2455
246 626 2446
252 625 2439
260 625 2440
267 625 2441
274 625 2440
281 624 2435
287 622 2427
294 622 2424
302 622 2424
309 623 2429
316 622 2426
323 622 2424
330 621 2417
336 620 2413
344 620 2415
350 619 2408
357 618 2405
364 618 2404
371 618 2402
379 618 2404
385 617 2398
391 616 2393
397 614 2385
404 614 2384
413 615 2389
420 615 2389
426 614 2381
431 612 2372
440 613 2379
447 613 2377
453 612 2373
462 615 2380
464 608 2353
475 612 2370
480 610 2359
488 611 2362
495 611 2360
500 608 2349
507 608 2348
515 609 2352
521 608 2347
528 608 2344
536 609 2348
541 607 2339
550 609 2344
554 606 2332
561 606 2331
569 606 2332
574 604 2323
580 603 2316
588 604 2320
595 604 2318
601 603 2313
608 603 2313
614 602 2307
623 604 2312
629 603 2307
635 602 2303
643 603 2306
650 603 2302
655 601 2293
664 603 2299
668 600 2289
674 599 2283
682 600 2283
690 601 2287
695 600 2280
701 598 2273
710 600 2279
717 600 2276
724 600 2275
731 600 2271
736 598 2265
744 600 2268
750 599 2263
756 598 2258
764 598 2258
770 598 2254
776 597 2249
783 597 2246
790 597 2246
797 597 2243
806 598 2247
811 597 2238
819 598 2241
824 596 2232
833 598 2237
840 598 2234
844 595 2223
852 596 2225
858 595 2218
863 594 2213
870 594 2209
875 593 2204
884 594 2206
892 595 2207
898 594 2202
905 594 2199
912 594 2197
923 597 2205
926 594 2194
933 594 2189
939 594 2186
948 595 2188
954 594 2183
963 595 2184
968 594 2177
973 593 2171
974 589 2155
987 593 2167
992 592 2159
1017 602 2195
1043 614 2234
1039 607 2206
1044 606 2200
1041 600 2176
1034 592 2144
1035 588 2127
1023 578 2087
974 547 1970
1008 562 2024
881 488 1753
739 407 1457
713 390 1395
705 383 1367
700 378 1348
737 395 1408
770 410 1460
890 471 1677
930 490 1740
941 492 1747
947 492 1744
953 492 1741
960 493 1741
970 495 1745
971 493 1735
988 498 1751
995 499 1752
998 497 1742
998 494 1729
1000 492 1720
-1373 693 2317
-1348 684 2291
-1333 681 2284
-1317 676 2272
-1318 680 2290
-1297 674 2271
-1302 680 2298
-1284 675 2283
-1256 664 2251
-1244 661 2246
-1245 666 2265
-1230 662 2255
-1219 660 2252
-1211 659 2253
-1200 658 2252
-1188 655 2245
-1178 653 2244
-1165 650 2236
-1153 647 2231
-1140 644 2222
-1138 647 2236
-1124 643 2226
-1112 640 2220
-1098 637 2210
-1073 626 2178
-1012 594 2070
-969 573 1998
-961 572 1997
-966 579 2024
-966 583 2040
-962 584 2049
-959 586 2059
-956 588 2068
-959 594 2093
-965 602 2123
-978 614 2170
-973 615 2177
-972 619 2194
-976 626 2220
-974 629 2235
-969 631 2242
-967 634 2256
-962 635 2265
-960 638 2278
-958 642 2294
-951 642 2297
-953 648 2321
-945 648 2323
-943 651 2339
-942 656 2357
-933 654 2355
-932 659 2375
-930 663 2391
-926 665 2403
-921 666 2410
-918 670 2427
-916 674 2442
-910 675 2448
-905 677 2458
-904 682 2480
-899 684 2489
-893 685 2496
-889 688 2509
-887 692 2529
-887 698 2552
-880 699 2558
-878 703 2577
-875 707 2594
-869 709 2600
-860 708 2602
-858 713 2623
-853 715 2632
-843 714 2630
-845 722 2663
-834 720 2657
-832 725 2678
-825 726 2684
-819 728 2694
-812 729 2700
-809 733 2717
-803 735 2727
-797 737 2738
-787 735 2733
-782 739 2748
-775 740 2756
-768 742 2762
-763 745 2776
-753 743 2771
-748 746 2784
-738 744 2781
-728 742 2775
-717 740 2769
-704 735 2751
-698 737 2763
-689 736 2761
-678 734 2755
-670 734 2755
-660 732 2751
-650 730 2744
-642 731 2749
-632 728 2741
-625 730 2748
-614 727 2738
-607 728 2744
-596 724 2733
-588 724 2734
-577 721 2725
-568 720 2721
-560 720 2723
-552 719 2723
-537 711 2691
-465 625 2368
-439 600 2272
0 0 0
0 0 0
0 0 0
0 0 0
0 0 0
0 0 0
0 0 0
0 0 0
0 0 0
0 0 0
0 0 0
0 0 0
0 0 0
0 0 0
-322 572 2182
0 0 0
-306 566 2161
0 0 0
0 0 0
-279 552 2108
0 0 0
0 0 0
-267 566 2164
-260 563 2156
-260 579 2216
-260 593 2273
-247 577 2211
-242 582 2231
-226 559 2142
-231 586 2248
-214 560 2148
-218 586 2250
-203 565 2169
-201 577 2217
-197 584 2242
-186 572 2199
-178 567 2177
-176 582 2237
-167 571 2194
-161 573 2204
-157 582 2241
-141 549 2112
-138 561 2159
-133 567 2184
-123 549 2114
-123 579 2229
-115 572 2202
-110 577 2221
-100 560 2157
-96 575 2217
-87 555 2140
-83 575 2218
-75 560 2160
-68 561 2163
-63 573 2212
-55 559 2155
-50 569 2194
-44 574 2216
-38 578 2231
-33 606 2338
-27 620 2395
-20 640 2472
-13 642 2480
-6 651 2514
0 647 2501
8 651 2514
15 648 2505
23 650 2512
30 647 2499
37 646 2495
44 645 2493
51 640 2472
58 628 2426
62 596 2304
67 587 2267
76 601 2321
86 623 2407
94 634 2448
103 642 2482
110 642 2482
117 642 2480
124 640 2474
132 641 2478
139 640 2474
146 640 2474
153 640 2472
161 640 2473
168 640 2471
175 639 2467
182 637 2459
190 640 2472
196 636 2456
203 636 2455
210 635 2451
217 634 2446
224 633 2442
232 635 2452
239 634 2447
246 634 2446
252 632 2437
260 633 2440
267 632 2437
274 632 2435
281 630 2430
288 631 2430
295 630 2427
302 630 2428
309 630 2425
315 627 2416
323 628 2418
330 629 2421
336 626 2410
344 627 2410
351 627 2410
357 624 2401
364 626 2405
371 624 2398
379 627 2407
386 625 2400
392 624 2396
399 623 2392
405 621 2382
412 622 2386
421 624 2391
426 622 2383
433 621 2379
440 620 2375
448 622 2382
456 623 2385
463 623 2384
464 615 2351
475 620 2370
479 616 2352
487 617 2358
494 617 2354
500 615 2349
509 617 2356
515 616 2350
521 615 2346
529 616 2346
534 614 2337
542 615 2343
545 611 2324
555 614 2334
561 613 2330
569 613 2330
574 612 2323
582 612 2323
589 612 2322
596 612 2321
603 612 2318
608 610 2310
616 611 2311
622 610 2306
632 613 2316
635 609 2302
642 609 2300
649 609 2297
655 608 2293
662 608 2292
668 607 2287
677 609 2292
683 608 2287
690 608 2286
695 607 2278
703 607 2279
712 609 2283
717 607 2274
722 605 2266
730 606 2267
738 607 2269
746 607 2269
752 607 2266
758 606 2261
763 604 2253
771 605 2255
777 605 2250
784 605 2249
792 605 2249
799 605 2245
807 606 2246
811 604 2237
817 603 2231
827 605 2238
831 603 2230
837 602 2224
844 602 2222
851 602 2219
859 603 2220
864 602 2213
869 600 2206
879 602 2211
885 602 2206
892 602 2205
900 602 2204
906 602 2201
914 603 2201
921 602 2198
928 602 2195
934 602 2190
941 602 2188
948 602 2186
956 603 2186
962 602 2181
964 598 2166
975 601 2174
975 597 2156
984 598 2157
1017 614 2212
1033 619 2228
1040 619 2225
1039 614 2205
1049 616 2208
1039 606 2170
1034 599 2141
1039 597 2134
1018 582 2075
974 553 1969
1006 567 2017
849 475 1687
709 394 1396
689 381 1346
717 394 1391
702 383 1350
724 393 1383
792 427 1500
906 485 1706
933 497 1743
946 501 1755
946 497 1740
953 498 1740
956 496 1731
968 500 1741
966 496 1723
980 500 1735
980 497 1723
996 502 1738
997 500 1727
1004 500 1725
-1356 692 2285
-1351 694 2295
-1332 688 2280
-1313 682 2263
-1306 682 2269
-1294 680 2264
-1284 678 2263
-1265 673 2248
-1269 678 2271
-1248 671 2252
-1249 675 2270
-1232 670 2257
-1221 669 2254
-1206 664 2242
-1195 662 2239
-1186 661 2240
-1182 663 2251
-1170 660 2245
-1155 656 2234
-1141 652 2222
-1127 648 2212
-1124 650 2225
-1119 651 2231
-1101 645 2213
-1086 641 2201
-1019 605 2081
-977 584 2012
-960 578 1994
-965 585 2020
-968 590 2042
-964 592 2051
-961 594 2062
-959 597 2074
-960 602 2093
-966 609 2123
-972 618 2155
-968 619 2165
-977 629 2202
-979 635 2226
-976 637 2236
-971 639 2245
-966 640 2253
-964 644 2267
-963 648 2285
-959 650 2294
-958 654 2312
-951 654 2316
-953 660 2340
-949 663 2353
-943 664 2358
-939 666 2370
-930 665 2367
-930 670 2390
-929 674 2408
-922 675 2412
-917 677 2422
-914 680 2436
-910 683 2449
-905 685 2459
-904 690 2478
-897 690 2482
-898 697 2509
-893 699 2519
-886 699 2523
-883 703 2540
-882 708 2561
-875 709 2566
-867 709 2568
-866 715 2591
-859 715 2597
-862 725 2633
-852 722 2627
-846 724 2636
-838 724 2638
-833 727 2653
-828 730 2664
-823 732 2675
-819 736 2693
-812 737 2699
-807 740 2709
-804 744 2729
-796 745 2734
-789 746 2739
-783 748 2750
-774 748 2751
-774 756 2782
-761 751 2766
-755 753 2778
-746 753 2778
-740 755 2788
-725 748 2764
-715 746 2758
-705 744 2753
-695 743 2752
-687 743 2754
-676 740 2743
-668 740 2746
-660 741 2749
-650 738 2742
-641 737 2740
-632 736 2739
-625 738 2747
-614 734 2735
-603 731 2723
-596 732 2730
-587 732 2731
-579 731 2729
-571 732 2733
-561 729 2725
-552 728 2723
-535 717 2682
-483 656 2456
-449 621 2323
-430 604 2261
0 0 0
-413 598 2242
-404 596 2234
0 0 0
0 0 0
0 0 0
0 0 0
0 0 0
0 0 0
0 0 0
-341 578 2177
-344 595 2239
0 0 0
-337 606 2285
0 0 0
0 0 0
-302 577 2178
0 0 0
0 0 0
0 0 0
-281 587 2219
-293 626 2368
-278 610 2307
0 0 0
-264 609 2304
-245 580 2196
-249 605 2293
-231 577 2188
-234 602 2280
-217 575 2180
-212 577 2188
-215 605 2296
-199 577 2188
-200 601 2281
-185 575 2182
-184 590 2242
-171 570 2166
-172 596 2264
-157 568 2159
-156 588 2233
-149 585 2226
-141 577 2196
-138 591 2250
-126 571 2172
-122 579 2203
-115 577 2196
-108 574 2184
-101 573 2183
-93 564 2147
-89 578 2199
-83 579 2206
-74 563 2143
-70 584 2227
-64 587 2237
-56 567 2163
-51 583 2223
-44 585 2232
-38 592 2259
-33 618 2357
-27 629 2400
-20 636 2427
-13 636 2426
-6 654 2498
0 658 2510
8 656 2505
15 657 2510
23 656 2505
30 657 2508
37 656 2505
45 654 2498
52 652 2488
59 649 2477
65 632 2414
69 611 2333
79 631 2409
88 649 2477
96 651 2485
103 650 2484
110 651 2485
118 651 2484
124 648 2473
132 647 2470
139 647 2472
147 649 2478
153 645 2461
161 648 2472
168 646 2468
175 647 2469
182 645 2460
189 644 2456
197 645 2462
204 645 2460
210 642 2450
218 643 2453
224 641 2444
231 640 2441
239 641 2444
245 639 2437
253 641 2443
260 641 2441
267 640 2438
274 639 2433
280 637 2424
288 639 2432
295 638 2429
303 639 2433
310 637 2426
317 637 2424
323 636 2419
329 634 2411
337 635 2415
343 633 2407
350 632 2403
359 635 2414
364 632 2399
372 633 2405
379 633 2402
385 631 2395
391 630 2389
399 630 2390
406 631 2392
413 630 2387
418 627 2377
425 627 2374
434 629 2383
439 627 2372
447 627 2373
455 629 2380
464 631 2387
464 622 2349
477 629 2377
483 628 2370
488 625 2360
495 625 2358
501 624 2354
509 625 2356
516 625 2355
519 620 2333
529 623 2346
536 623 2343
542 622 2339
548 621 2336
556 621 2335
561 620 2328
568 619 2324
574 619 2320
583 621 2327
587 617 2314
594 618 2313
603 619 2316
609 618 2314
616 618 2312
624 619 2315
628 616 2300
636 617 2303
641 615 2294
650 616 2298
656 616 2293
662 615 2290
671 616 2293
676 615 2288
683 615 2285
690 614 2281
697 615 2281
704 614 2278
711 615 2278
718 615 2276
724 614 2270
729 612 2263
738 614 2268
746 614 2268
753 615 2268
759 614 2262
764 612 2254
773 614 2258
777 612 2249
786 613 2251
790 611 2241
800 613 2248
805 611 2240
814 613 2243
818 610 2233
825 610 2231
832 611 2230
840 611 2230
845 610 2224
851 609 2218
859 610 2217
864 609 2212
871 609 2209
877 608 2206
885 609 2206
895 611 2210
902 610 2207
906 608 2198
914 610 2199
920 609 2193
930 610 2198
936 610 2193
943 610 2191
945 607 2178
954 608 2178
959 607 2173
966 607 2169
968 603 2155
974 603 2151
989 608 2168
1012 618 2198
1041 631 2243
1043 628 2229
1040 622 2204
1047 621 2201
1044 616 2178
1038 608 2147
1039 604 2132
1009 583 2054
982 564 1983
1006 574 2015
832 472 1653
727 409 1431
718 402 1402
699 388 1353
725 400 1393
747 410 1425
803 438 1520
916 496 1722
932 502 1740
941 503 1742
945 503 1738
955 505 1742
962 505 1741
969 506 1741
966 502 1723
974 503 1724
989 507 1738
1001 510 1744
998 506 1728
1010 509 1734
-1357 700 2285
-1347 699 2286
-1334 696 2280
-1316 691 2266
-1289 681 2237
-1286 683 2249
-1289 689 2271
-1276 686 2266
-1261 681 2255
-1241 675 2236
-1232 674 2237
-1229 676 2249
-1220 675 2250
-1204 670 2237
-1204 675 2255
-1191 671 2247
-1178 668 2240
-1166 666 2236
-1151 661 2223
-1148 663 2235
-1134 659 2225
-1124 657 2222
-1113 656 2219
-1106 656 2223
-1094 652 2216
-1034 621 2111
-984 595 2024
-962 586 1997
-961 589 2010
-966 596 2037
-962 597 2045
-963 602 2065
-955 601 2063
-957 607 2086
-961 613 2110
-971 624 2151
-967 626 2160
-979 638 2206
-983 645 2233
-975 644 2234
-971 646 2243
-971 651 2262
-969 654 2278
-966 657 2289
-960 658 2296
-955 659 2303
-954 664 2322
-950 666 2333
-944 666 2337
-939 669 2347
-938 672 2364
-932 674 2371
-931 679 2391
-925 679 2396
-922 682 2410
-916 683 2416
-917 690 2441
-911 691 2449
-909 695 2467
-906 699 2481
-903 702 2496
-895 702 2500
-893 706 2516
-887 708 2523
-883 711 2538
-882 716 2560
-875 717 2564
-872 721 2581
-869 725 2598
-865 728 2612
-853 725 2603
-854 733 2634
-847 733 2639
-840 735 2645
-835 737 2656
-832 741 2673
-826 743 2683
-820 745 2692
-813 746 2700
-807 748 2707
-800 750 2716
-794 752 2726
-791 756 2744
-783 757 2749
-778 760 2761
-769 759 2762
-767 765 2785
-753 759 2767
-746 761 2774
-739 762 2781
-727 759 2770
-715 755 2759
-706 754 2756
-695 751 2748
-686 750 2747
-677 750 2747
-670 751 2754
-660 749 2747
-651 748 2745
-643 748 2746
-634 747 2746
-624 745 2740
-617 746 2746
-606 743 2735
-597 742 2735
-589 742 2738
-577 738 2723
-570 739 2729
-562 739 2731
-549 732 2707
-536 726 2683
-489 673 2490
-452 631 2336
-475 673 2493
0 0 0
0 0 0
0 0 0
-406 614 2278
0 0 0
0 0 0
0 0 0
0 0 0
-365 604 2244
0 0 0
0 0 0
-331 579 2156
-322 573 2134
0 0 0
0 0 0
-304 576 2146
0 0 0
-307 607 2266
0 0 0
-289 597 2230
-270 571 2134
0 0 0
0 0 0
-254 577 2157
-254 592 2216
-237 567 2120
-225 553 2068
-232 587 2199
-222 576 2158
-226 603 2261
-205 565 2116
-205 583 2185
-201 590 2212
-199 603 2262
-194 610 2288
-180 587 2202
-177 597 2240
-166 581 2183
-160 585 2196
-154 587 2205
-147 584 2192
-142 589 2215
-136 591 2222
-126 576 2166
-121 585 2199
-115 584 2198
-107 579 2180
-104 596 2243
-97 593 2233
-89 583 2196
-80 569 2141
-77 591 2226
-69 578 2176
-63 587 2212
-57 587 2212
-50 579 2180
-44 583 2196
-38 596 2248
-33 630 2376
-26 627 2365
-20 634 2391
-12 634 2389
-6 656 2476
1 665 2509
8 666 2511
15 664 2506
23 663 2500
30 665 2510
37 663 2504
45 663 2500
52 661 2495
59 661 2494
66 657 2478
73 650 2454
81 656 2477
88 658 2483
96 657 2481
103 658 2483
111 659 2488
118 659 2488
125 657 2478
132 658 2483
139 656 2474
147 656 2475
153 653 2463
160 653 2464
168 654 2469
175 653 2461
182 653 2462
190 653 2462
196 652 2457
203 650 2452
211 651 2454
217 649 2447
224 647 2438
232 650 2450
239 649 2444
246 648 2440
253 649 2443
260 647 2438
268 648 2441
274 647 2434
281 645 2428
288 644 2423
295 644 2423
303 645 2427
309 643 2417
315 642 2413
324 644 2421
330 643 2417
337 643 2415
344 641 2408
351 641 2409
358 640 2404
364 638 2395
371 639 2397
379 639 2398
385 638 2393
392 638 2394
398 637 2386
405 636 2384
413 637 2386
419 636 2381
426 635 2377
434 636 2381
440 635 2374
447 635 2374
457 639 2388
459 632 2361
462 626 2337
477 636 2376
481 633 2361
487 631 2354
495 633 2359
503 634 2362
508 631 2349
515 631 2349
523 631 2349
528 630 2342
536 630 2342
542 629 2337
549 629 2335
555 628 2332
562 628 2330
567 626 2321
577 628 2329
584 628 2328
589 626 2319
597 627 2322
603 626 2314
609 625 2309
617 626 2311
622 624 2304
630 624 2304
636 623 2299
643 624 2301
651 624 2300
657 624 2295
665 625 2299
671 623 2292
677 622 2286
683 622 2284
694 625 2293
698 623 2283
704 622 2279
709 620 2270
717 621 2271
725 622 2272
730 620 2265
738 621 2267
746 622 2267
751 620 2258
758 620 2257
766 621 2258
771 619 2252
777 618 2245
787 620 2251
791 618 2242
799 619 2242
806 619 2241
813 619 2239
819 618 2234
826 618 2232
832 617 2227
838 617 2224
848 619 2228
855 619 2228
859 617 2217
861 613 2202
871 616 2208
883 619 2217
887 617 2207
892 615 2200
903 618 2207
909 617 2203
915 617 2198
921 616 2195
930 618 2197
935 616 2189
943 617 2188
950 617 2187
957 617 2183
963 616 2179
968 615 2172
963 607 2143
979 613 2161
992 617 2171
1016 627 2205
1018 624 2191
1031 628 2202
1041 630 2206
1046 628 2199
1040 620 2168
1038 615 2146
1039 612 2132
1009 590 2053
986 573 1990
1001 577 2004
768 440 1523
712 405 1401
694 393 1354
697 391 1348
733 409 1408
736 408 1403
825 455 1560
925 507 1738
938 511 1750
940 509 1739
947 509 1739
958 512 1746
955 507 1726
974 514 1748
975 512 1736
973 508 1720
984 511 1727
998 515 1738
992 508 1714
1005 512 1724
-1370 715 2305
-1350 709 2289
-1339 707 2288
-1335 709 2297
-1302 695 2258
-1298 697 2267
-1296 700 2282
-1273 692 2258
-1271 695 2271
-1237 680 2228
-1243 687 2255
-1241 690 2270
-1223 685 2254
-1212 682 2250
-1198 678 2241
-1187 676 2238
-1174 673 2232
-1163 671 2228
-1151 668 2221
-1141 666 2219
-1137 668 2228
-1129 668 2232
-1115 664 2221
-1107 663 2222
-1093 659 2212
-1049 637 2140
-990 605 2037
-960 591 1991
-960 595 2007
-964 601 2032
-963 605 2046
-960 607 2056
-959 610 2070
-953 611 2076
-960 619 2107
-973 632 2154
-972 636 2169
-975 642 2194
-978 649 2219
-980 654 2243
-971 653 2242
-970 657 2259
-965 659 2267
-963 662 2280
-959 664 2291
-956 668 2305
-945 665 2299
-949 672 2327
-945 675 2338
-942 678 2353
-939 681 2365
-931 681 2368
-927 683 2379
-926 688 2397
-923 691 2410
-914 689 2409
-915 696 2434
-911 698 2446
-905 700 2454
-904 705 2474
-899 707 2485
-897 712 2502
-891 713 2511
-894 721 2542
-882 718 2534
-880 723 2552
-874 724 2561
-876 733 2593
-868 733 2595
-863 735 2604
-855 735 2607
-850 738 2620
-846 741 2633
-843 745 2652
-834 744 2652
-830 747 2665
-829 754 2692
-818 752 2685
-813 755 2698
-807 757 2707
-798 756 2706
-798 763 2735
-791 764 2741
-781 763 2739
-777 767 2757
-769 768 2761
-761 768 2763
-753 768 2767
-746 770 2773
-743 776 2797
-727 767 2768
-716 764 2759
-706 762 2754
-696 760 2750
-688 761 2752
-681 762 2761
-670 759 2751
-660 757 2744
-651 756 2745
-641 754 2738
-633 754 2739
-624 754 2740
-612 749 2726
-605 751 2732
-597 750 2732
-587 748 2726
-578 747 2723
-568 744 2716
-561 745 2721
-552 745 2721
-537 735 2688
-497 691 2526
-439 620 2267
0 0 0
0 0 0
0 0 0
-410 618 2263
0 0 0
-394 613 2249
0 0 0
0 0 0
-371 608 2235
0 0 0
-342 582 2140
-334 579 2129
-338 597 2196
-343 619 2277
0 0 0
-332 623 2295
-320 613 2259
-327 639 2358
-282 563 2077
0 0 0
0 0 0
0 0 0
-281 614 2268
-270 605 2237
-269 618 2285
-257 605 2236
-238 576 2131
-240 596 2204
-230 587 2172
-221 581 2151
-223 603 2235
-223 621 2300
-203 585 2167
-191 567 2102
-189 581 2152
-189 600 2226
-184 607 2252
-173 590 2190
-165 586 2175
-164 604 2241
-161 617 2292
-154 619 2300
-138 579 2150
-134 590 2193
-129 596 2213
-118 577 2144
-113 584 2170
-109 595 2213
-104 602 2240
-93 578 2150
-92 608 2263
-82 585 2178
-75 582 2166
-68 579 2153
-61 573 2132
-58 603 2247
-49 583 2170
-43 585 2179
-39 617 2299
-33 625 2328
-26 630 2349
-19 632 2353
-12 642 2392
-6 663 2470
1 674 2513
8 671 2503
15 673 2509
23 670 2498
30 673 2509
37 669 2496
45 672 2506
52 669 2495
60 671 2502
67 666 2486
74 669 2494
81 668 2491
89 669 2496
96 667 2489
103 666 2485
110 665 2482
118 665 2479
125 663 2472
132 665 2479
139 662 2469
147 664 2474
154 662 2468
161 663 2471
168 661 2464
176 664 2475
182 658 2452
190 661 2463
197 659 2457
204 660 2459
211 659 2456
218 657 2449
225 656 2442
233 660 2457
240 658 2451
246 656 2442
253 655 2437
261 656 2441
267 654 2434
275 655 2437
281 653 2430
288 653 2428
296 653 2428
303 654 2430
310 653 2428
315 649 2412
324 651 2420
331 651 2416
338 650 2414
344 649 2410
351 648 2405
357 646 2398
364 646 2397
372 648 2401
380 648 2403
386 646 2395
393 646 2392
399 645 2388
406 644 2383
414 646 2390
419 642 2377
426 643 2377
434 643 2378
440 641 2370
447 641 2369
458 648 2392
461 641 2367
465 637 2350
476 642 2369
481 639 2356
488 639 2356
494 637 2349
503 641 2360
509 640 2354
515 638 2348
522 638 2346
530 639 2348
535 636 2337
543 637 2340
549 635 2333
557 636 2335
562 635 2327
571 636 2333
576 635 2325
582 634 2320
590 634 2321
596 633 2314
604 634 2316
611 634 2317
619 635 2317
623 632 2305
630 632 2304
637 632 2304
643 631 2299
650 631 2297
657 631 2294
663 630 2289
673 632 2296
677 630 2286
685 630 2286
691 630 2283
696 628 2275
704 629 2277
712 630 2277
719 630 2276
727 630 2276
731 628 2266
739 628 2266
746 629 2266
753 629 2265
760 628 2260
766 628 2258
773 628 2255
781 629 2257
786 627 2248
793 626 2245
799 626 2241
809 628 2247
814 627 2241
822 627 2240
827 626 2234
834 626 2230
838 624 2222
846 624 2221
855 626 2226
858 623 2213
861 620 2200
871 622 2205
879 623 2206
889 625 2212
895 625 2207
900 623 2200
908 623 2198
914 623 2196
922 623 2193
929 624 2192
939 626 2198
942 623 2186
950 624 2185
957 624 2183
961 622 2173
969 622 2172
987 629 2195
982 622 2166
989 622 2164
1018 636 2209
1014 628 2181
1029 634 2196
1043 638 2208
1044 634 2192
1044 630 2174
1038 622 2145
1042 620 2135
999 590 2029
987 580 1990
985 575 1971
814 471 1613
720 415 1415
719 411 1401
725 412 1402
728 411 1397
738 414 1405
837 467 1582
925 513 1737
942 519 1755
940 514 1737
950 517 1743
962 520 1751
967 520 1748
967 516 1733
975 518 1735
983 519 1736
977 512 1712
988 515 1719
1000 518 1726
1000 515 1713
-1367 722 2299
-1355 719 2296
-1356 724 2315
-1325 711 2278
-1331 718 2305
-1301 706 2270
-1302 711 2289
-1268 696 2247
-1267 700 2262
-1240 689 2230
-1231 688 2231
-1242 698 2269
-1218 689 2243
-1203 685 2232
-1186 679 2217
-1188 685 2239
-1169 678 2220
-1162 677 2223
-1160 681 2238
-1149 678 2233
-1134 674 2222
-1123 672 2217
-1115 671 2218
-1102 668 2211
-1089 664 2201
-1059 650 2158
-998 617 2050
-964 600 1996
-959 601 2003
-964 608 2029
-963 611 2045
-957 611 2047
-958 616 2067
-956 619 2080
-955 623 2095
-961 631 2125
-976 645 2176
-971 647 2184
-980 657 2224
-977 660 2236
-971 661 2240
-966 662 2249
-969 669 2273
-961 668 2274
-958 671 2288
-954 673 2298
-953 677 2315
-947 678 2320
-946 683 2339
-943 686 2353
-935 686 2354
-938 693 2382
-930 693 2384
-923 693 2387
-920 696 2401
-919 701 2423
-914 703 2432
-910 705 2442
-906 709 2456
-902 711 2467
-901 716 2488
-895 718 2496
-890 720 2505
-892 728 2535
-886 729 2542
-879 730 2547
-875 733 2560
-872 737 2579
-869 741 2595
-866 745 2611
-859 746 2618
-853 748 2626
-846 748 2631
-842 752 2646
-838 756 2662
-832 758 2671
-824 758 2673
-822 764 2696
-816 766 2706
-808 766 2709
-800 766 2712
-794 768 2720
-786 769 2724
-785 776 2752
-772 771 2739
-768 775 2753
-766 782 2780
-753 777 2764
-749 782 2784
-737 777 2770
-729 777 2773
-717 774 2761
-707 772 2760
-695 768 2746
-688 770 2753
-678 768 2748
-673 771 2762
-660 766 2744
-651 765 2744
-644 766 2748
-633 763 2740
-624 761 2736
-616 762 2741
-606 760 2735
-598 760 2736
-587 757 2727
-577 754 2717
-570 755 2722
-559 752 2714
-551 752 2714
-537 744 2686
-507 713 2576
-469 670 2421
0 0 0
0 0 0
0 0 0
0 0 0
0 0 0
-418 658 2387
0 0 0
0 0 0
0 0 0
0 0 0
-375 644 2341
-341 598 2175
-334 598 2173
0 0 0
0 0 0
-316 599 2179
0 0 0
-320 633 2307
-312 631 2300
-296 612 2233
-285 602 2195
-272 589 2148
0 0 0
-258 586 2141
-264 614 2245
0 0 0
-247 604 2208
-246 618 2259
-235 607 2220
-227 603 2206
-210 576 2108
-212 598 2190
-214 621 2274
-201 604 2212
-190 591 2164
-188 603 2211
-175 583 2139
-183 631 2316
-169 606 2224
-161 600 2201
-158 612 2248
-148 599 2200
-143 607 2228
-135 601 2208
-130 610 2240
-118 584 2145
-114 595 2185
-109 601 2208
-103 606 2230
-95 594 2186
-89 598 2199
-83 603 2217
-79 623 2292
-70 603 2220
-64 606 2230
-57 605 2227
-50 598 2201
-44 602 2215
-38 615 2263
-34 649 2390
-26 639 2355
-19 641 2360
-12 647 2384
-6 673 2480
1 681 2511
8 681 2508
15 679 2505
23 681 2509
30 679 2503
38 680 2505
45 676 2494
52 678 2499
60 678 2499
67 677 2494
74 677 2494
82 676 2494
89 678 2499
96 677 2497
103 674 2484
111 673 2482
118 671 2474
125 673 2480
132 672 2478
140 672 2476
147 671 2472
153 668 2462
161 671 2474
168 669 2465
176 670 2470
182 667 2459
190 667 2458
197 668 2461
204 666 2453
212 668 2459
218 666 2451
225 663 2441
233 665 2449
239 664 2444
246 663 2442
254 664 2442
260 661 2432
268 663 2438
275 663 2437
282 662 2435
289 661 2431
296 660 2426
303 660 2424
310 659 2421
317 659 2420
324 658 2417
330 657 2413
338 659 2417
344 656 2408
352 657 2408
357 654 2398
365 655 2403
373 655 2402
379 654 2395
386 654 2397
392 653 2390
400 653 2392
407 653 2392
414 653 2388
421 653 2387
426 650 2375
433 649 2372
441 650 2375
448 650 2374
458 654 2389
460 647 2360
466 646 2356
474 647 2359
482 648 2360
489 647 2359
495 646 2351
502 646 2351
509 646 2350
516 645 2347
521 644 2340
530 646 2346
535 643 2335
542 643 2334
548 641 2327
557 644 2334
563 642 2328
570 643 2329
576 641 2320
584 642 2323
590 641 2318
597 641 2318
603 640 2314
611 641 2315
617 640 2308
625 641 2311
632 641 2309
640 641 2310
644 639 2299
651 639 2299
659 640 2301
665 638 2293
670 636 2285
677 636 2283
685 638 2287
693 638 2286
697 635 2274
706 637 2280
711 635 2272
719 637 2274
725 636 2270
734 637 2272
738 635 2264
747 636 2266
756 638 2269
759 635 2258
766 634 2254
772 634 2251
781 635 2254
787 634 2248
794 635 2248
800 634 2243
808 634 2243
811 631 2229
823 635 2243
827 633 2232
833 632 2228
840 632 2225
847 632 2222
854 632 2221
858 630 2210
866 631 2211
872 630 2207
882 632 2211
889 632 2208
893 630 2201
902 632 2203
909 632 2201
914 630 2193
921 630 2191
927 629 2185
934 630 2184
944 631 2187
952 632 2189
958 631 2183
963 630 2176
968 629 2169
981 633 2179
983 629 2165
992 631 2168
1003 633 2173
1033 647 2220
1036 645 2209
1045 646 2211
1049 644 2201
1043 636 2171
1038 629 2143
1035 623 2118
997 596 2024
994 590 2002
957 564 1912
752 440 1488
706 411 1384
707 409 1376
735 422 1421
727 415 1394
748 424 1423
853 481 1612
941 527 1765
939 523 1748
941 521 1739
944 519 1731
957 523 1742
959 521 1731
969 523 1736
981 526 1743
983 524 1734
982 521 1720
986 520 1715
1004 526 1733
1008 525 1726
-1373 732 2306
-1365 732 2310
-1355 731 2310
-1343 728 2307
-1326 724 2296
-1305 716 2275
-1300 717 2284
-1279 710 2265
-1271 710 2267
-1257 706 2260
-1246 704 2256
-1216 691 2220
-1212 693 2230
-1193 686 2211
-1192 690 2226
-1179 687 2219
-1163 681 2206
-1162 685 2222
-1150 682 2216
-1148 685 2229
-1139 685 2230
-1120 677 2210
-1115 678 2217
-1105 677 2216
-1093 674 2209
-1069 663 2176
-1008 630 2071
-966 607 2000
-957 606 1997
-960 612 2020
-963 618 2043
-964 623 2062
-959 623 2067
-955 625 2077
-956 630 2095
-959 637 2119
-973 651 2170
-974 656 2189
-982 665 2225
-978 668 2235
-974 670 2245
-970 672 2256
-970 677 2275
-963 677 2278
-963 682 2297
-953 680 2294
-951 683 2308
-945 684 2315
-946 690 2337
-936 689 2335
-937 695 2359
-933 697 2369
-928 699 2378
-924 701 2388
-925 707 2413
-919 709 2420
-916 712 2433
-913 716 2449
-906 716 2454
-905 721 2474
-902 725 2488
-897 727 2498
-889 727 2502
-891 735 2531
-884 736 2536
-876 735 2536
-874 740 2555
-870 744 2571
-865 746 2582
-862 750 2599
-856 751 2606
-851 754 2618
-847 758 2633
-843 761 2647
-835 761 2649
-831 765 2666
-829 770 2686
-820 771 2689
-815 773 2700
-807 773 2704
-805 779 2726
-796 779 2727
-790 781 2736
-782 781 2738
-774 782 2744
-765 780 2742
-759 783 2754
-755 787 2769
-745 786 2766
-739 788 2777
-729 787 2774
-715 780 2754
-706 780 2753
-696 778 2748
-689 779 2756
-679 777 2750
-671 777 2750
-661 775 2746
-653 775 2749
-643 773 2743
-633 771 2739
-624 771 2738
-614 767 2728
-607 769 2735
-597 767 2730
-589 767 2733
-579 765 2726
-571 765 2726
-561 762 2720
-552 761 2717
-540 756 2700
-504 717 2560
-454 656 2343
-429 630 2253
0 0 0
0 0 0
0 0 0
0 0 0
0 0 0
0 0 0
0 0 0
-374 627 2252
0 0 0
-363 631 2267
0 0 0
-343 620 2230
-328 604 2172
0 0 0
0 0 0
0 0 0
0 0 0
-294 601 2167
-303 632 2278
0 0 0
0 0 0
-281 629 2270
0 0 0
0 0 0
-269 649 2344
-246 608 2197
-234 595 2150
-229 599 2166
-221 596 2154
-202 560 2026
-217 619 2239
-217 638 2312
-205 623 2257
-193 605 2192
-194 630 2282
-173 582 2109
-180 627 2274
-171 618 2243
-160 603 2187
-155 611 2215
-146 600 2178
-138 594 2156
-135 608 2207
-129 609 2211
-121 604 2194
-115 603 2191
-113 630 2289
-105 623 2263
-96 607 2207
-91 615 2235
-79 583 2120
-77 610 2218
-69 599 2180
-63 602 2189
-57 614 2235
-50 599 2181
-43 603 2196
-38 620 2256
-33 656 2388
-26 655 2385
-19 647 2358
-12 653 2380
-6 679 2475
1 689 2511
8 690 2513
16 690 2513
23 690 2516
30 689 2509
37 684 2491
45 686 2500
52 684 2493
59 683 2488
67 682 2486
74 683 2488
81 682 2484
89 684 2493
97 685 2497
103 681 2482
111 682 2485
118 682 2485
125 679 2476
132 679 2476
140 679 2473
147 679 2474
154 677 2466
161 676 2464
169 678 2470
176 678 2469
183 677 2465
190 674 2455
197 676 2461
205 677 2464
212 675 2458
218 674 2452
226 674 2454
232 670 2440
239 670 2439
248 676 2459
254 671 2442
261 670 2438
268 670 2437
275 669 2434
281 667 2423
290 669 2433
296 667 2423
304 669 2430
310 667 2422
316 664 2411
323 664 2410
331 666 2417
339 668 2422
346 667 2418
352 665 2410
358 663 2403
366 663 2402
373 663 2403
379 660 2392
385 660 2389
394 662 2396
401 662 2394
406 659 2383
414 660 2387
421 660 2387
427 658 2378
435 659 2381
441 658 2375
451 662 2389
459 662 2389
458 650 2346
470 658 2374
477 658 2371
483 656 2362
488 654 2354
494 652 2349
504 656 2359
508 652 2346
516 652 2345
525 655 2355
529 652 2341
537 653 2344
543 651 2338
550 651 2336
556 650 2330
564 651 2332
570 650 2326
578 651 2330
582 647 2316
592 650 2325
600 651 2326
605 649 2319
611 648 2313
617 647 2308
625 648 2309
632 648 2307
637 646 2300
645 647 2301
649 644 2289
659 646 2297
665 645 2291
672 645 2289
678 645 2286
685 644 2283
692 644 2281
700 645 2283
708 646 2284
712 644 2274
718 643 2269
725 643 2268
734 644 2271
738 642 2262
746 642 2261
753 642 2260
760 643 2259
767 642 2256
772 641 2249
782 643 2256
785 640 2242
794 642 2247
801 642 2244
808 642 2242
813 640 2233
822 642 2238
829 642 2236
834 640 2228
841 640 2225
846 638 2218
856 641 2225
860 638 2214
864 636 2203
873 638 2208
881 639 2208
888 638 2205
895 638 2202
900 637 2196
907 637 2193
917 639 2197
923 638 2194
932 640 2195
939 640 2194
944 638 2185
954 640 2190
956 637 2175
961 636 2170
967 635 2164
974 635 2161
983 636 2164
1000 643 2184
1016 649 2201
1040 659 2233
1038 653 2210
1046 654 2211
1044 648 2187
1041 642 2164
1040 637 2144
1034 629 2115
994 601 2016
1000 600 2013
925 551 1846
762 451 1506
701 412 1374
711 416 1384
710 412 1370
725 418 1388
758 435 1441
879 501 1659
931 527 1744
944 531 1756
948 530 1750
955 531 1749
964 532 1751
968 532 1746
974 532 1743
972 527 1726
977 527 1723
987 529 1727
994 530 1726
1002 531 1727
1004 529 1717
-1376 742 2310
-1365 740 2309
-1358 740 2313
-1334 731 2289
-1323 729 2287
-1316 730 2294
-1306 729 2294
-1288 723 2278
-1270 717 2264
-1253 712 2251
-1250 714 2263
-1235 710 2253
-1223 707 2247
-1215 706 2250
-1190 696 2221
-1185 697 2229
-1172 694 2222
-1164 694 2224
-1141 684 2197
-1145 691 2221
-1133 688 2216
-1120 685 2209
-1101 677 2188
-1093 677 2190
-1091 680 2202
-1073 673 2183
-1011 638 2073
-972 617 2009
-959 614 2000
-958 617 2013
-965 626 2045
-961 627 2054
-958 630 2064
-956 633 2077
-954 635 2089
-958 643 2115
-972 657 2164
-974 662 2187
-979 671 2217
-977 674 2232
-975 678 2246
-972 680 2258
-962 678 2254
-968 687 2287
-958 685 2284
-955 688 2296
-952 692 2310
-951 696 2327
-946 698 2337
-942 700 2348
-940 704 2362
-931 703 2361
-929 707 2378
-928 712 2397
-920 711 2398
-922 719 2425
-913 717 2424
-916 726 2455
-904 722 2446
-901 726 2461
-902 733 2487
-895 733 2491
-893 738 2509
-887 739 2517
-884 743 2533
-881 747 2550
-874 749 2556
-872 753 2575
-864 753 2577
-862 758 2596
-858 762 2612
-853 764 2623
-844 763 2622
-843 770 2647
-835 770 2650
-831 773 2663
-826 776 2675
-818 777 2680
-813 780 2692
-805 780 2696
-803 786 2719
-796 787 2725
-786 785 2721
-782 790 2739
-772 788 2733
-772 796 2764
-756 788 2741
-752 792 2756
-747 796 2773
-741 799 2783
-728 794 2768
-716 789 2754
-706 787 2749
-694 784 2739
-689 787 2751
-680 786 2751
-670 784 2745
-661 784 2747
-652 783 2743
-643 782 2742
-633 779 2734
-623 778 2732
-613 775 2724
-608 778 2738
-597 776 2731
-589 776 2731
-581 775 2731
-569 771 2719
-562 772 2724
-552 769 2715
-537 760 2684
-512 735 2597
-446 651 2301
-443 657 2322
0 0 0
-401 614 2172
0 0 0
0 0 0
0 0 0
0 0 0
-399 664 2356
-360 611 2169
-356 614 2179
-344 605 2149
0 0 0
-329 601 2137
-340 633 2250
-306 582 2071
0 0 0
-309 611 2176
0 0 0
-301 622 2217
0 0 0
-283 611 2180
0 0 0
-275 622 2220
-267 619 2210
-255 605 2161
-241 588 2099
-253 633 2263
-231 593 2121
-237 627 2242
-222 604 2161
-217 608 2175
-215 619 2214
-210 624 2234
-208 638 2284
-195 620 2220
-190 623 2234
-185 628 2252
-179 633 2268
-174 637 2284
-164 625 2242
-159 633 2273
-149 617 2214
-141 614 2203
-138 629 2260
-130 622 2233
-120 604 2170
-117 620 2228
-108 607 2179
-109 650 2336
-93 598 2149
-89 610 2193
-82 608 2188
-76 612 2199
-69 609 2190
-61 596 2143
-56 611 2199
-49 604 2174
-44 613 2205
-38 622 2237
-33 658 2367
-26 663 2386
-19 651 2345
-12 665 2395
-6 688 2478
1 697 2511
8 698 2514
16 697 2512
23 695 2505
30 693 2498
38 693 2497
45 693 2499
52 692 2493
60 691 2489
67 693 2497
74 691 2489
82 690 2487
89 691 2489
97 693 2498
104 690 2486
110 687 2475
118 687 2476
125 687 2477
133 687 2476
140 687 2477
147 686 2472
154 687 2474
161 685 2466
169 685 2466
176 684 2464
182 680 2449
190 684 2462
198 685 2465
205 683 2460
212 682 2455
219 682 2455
225 679 2444
233 681 2449
240 681 2449
247 678 2439
254 678 2437
261 679 2441
268 676 2430
275 677 2433
282 676 2429
289 675 2426
296 676 2428
303 675 2425
311 675 2424
317 673 2418
325 674 2420
331 672 2413
337 670 2405
345 672 2408
352 672 2409
359 671 2404
366 670 2402
373 670 2401
380 671 2402
386 668 2391
395 671 2401
401 669 2394
408 668 2390
416 670 2394
422 668 2387
428 667 2383
434 664 2372
442 666 2377
450 667 2382
458 669 2385
455 653 2330
470 665 2371
478 666 2374
482 662 2358
491 664 2365
495 661 2352
503 661 2351
509 660 2345
518 662 2352
523 660 2346
531 660 2345
536 659 2338
544 659 2338
551 659 2336
557 658 2331
564 658 2329
571 657 2327
578 658 2329
587 659 2331
591 656 2318
597 655 2314
606 657 2321
612 656 2314
618 655 2310
625 655 2308
631 654 2304
639 654 2303
646 655 2303
652 654 2298
659 654 2296
667 654 2296
673 653 2291
678 651 2283
685 651 2281
691 651 2278
699 651 2278
707 652 2279
711 650 2269
720 651 2272
728 652 2273
733 651 2268
742 652 2270
748 651 2265
753 649 2257
760 650 2257
766 648 2251
773 649 2251
781 650 2251
788 649 2247
793 648 2242
803 650 2248
807 648 2236
814 647 2234
823 649 2237
830 649 2235
833 646 2224
841 647 2225
847 646 2220
856 647 2221
862 647 2217
867 645 2210
874 645 2208
882 646 2208
888 645 2203
896 646 2203
905 647 2204
910 646 2198
915 645 2192
923 645 2192
930 645 2189
938 646 2190
942 644 2179
948 643 2174
958 645 2180
961 642 2167
969 643 2167
978 644 2168
986 645 2168
992 645 2164
1022 659 2211
1027 658 2204
1039 661 2212
1043 659 2201
1047 657 2193
1036 645 2151
1038 643 2139
1028 632 2100
987 603 2001
1006 610 2022
894 539 1782
753 451 1487
714 425 1399
696 411 1352
721 423 1390
708 413 1355
773 448 1469
891 513 1681
931 533 1744
939 534 1745
939 531 1731
944 531 1727
961 537 1745
953 529 1718
977 539 1748
975 535 1731
988 539 1740
983 533 1719
998 538 1732
1002 537 1725
1010 538 1726
-1384 754 2320
-1367 749 2309
-1359 749 2314
-1344 745 2305
-1321 736 2283
-1311 735 2283
-1307 737 2293
-1293 733 2286
-1279 729 2277
-1266 726 2272
-1256 725 2272
-1244 722 2267
-1222 714 2244
-1209 711 2238
-1197 707 2231
-1194 710 2244
-1176 704 2227
-1166 702 2226
-1149 696 2210
-1144 698 2218
-1131 694 2210
-1118 690 2202
-1106 687 2195
-1090 682 2182
-1090 686 2198
-1077 682 2189
-1013 646 2076
-974 626 2013
-957 619 1993
-959 624 2014
-962 631 2037
-962 635 2054
-960 638 2067
-955 638 2072
-952 641 2084
-957 649 2111
-967 660 2151
-974 669 2185
-979 678 2215
-977 681 2230
-978 687 2250
-968 685 2248
-966 689 2262
-962 691 2272
-959 693 2284
-958 698 2302
-948 696 2299
-949 702 2322
-946 705 2335
-940 706 2341
-941 713 2364
-935 714 2371
-929 714 2376
-925 717 2388
-924 722 2408
-917 722 2410
-914 726 2425
-912 730 2442
-903 729 2442
-903 735 2464
-900 739 2481
-896 742 2493
-892 745 2506
-887 747 2515
-885 753 2536
-880 754 2544
-873 755 2551
-871 760 2570
-868 765 2587
-863 767 2597
-856 768 2605
-849 769 2609
-846 773 2626
-842 777 2640
-835 778 2646
-830 781 2659
-824 783 2669
-818 785 2679
-811 786 2683
-803 786 2686
-798 789 2700
-794 794 2717
-789 797 2729
-778 794 2723
-775 799 2743
-770 802 2755
-760 800 2751
-752 801 2756
-749 806 2776
-743 810 2790
-729 803 2769
-716 799 2755
-707 797 2752
-697 795 2746
-688 794 2746
-678 793 2743
-669 792 2743
-661 792 2743
-653 792 2745
-643 790 2740
-632 787 2731
-624 787 2733
-616 787 2734
-608 787 2737
-597 783 2726
-589 784 2728
-579 781 2721
-570 780 2719
-561 779 2717
-551 776 2709
-540 772 2696
-510 741 2587
-446 658 2300
-451 675 2361
0 0 0
0 0 0
0 0 0
0 0 0
0 0 0
0 0 0
0 0 0
0 0 0
0 0 0
0 0 0
-347 629 2209
-352 649 2280
-335 631 2220
-340 652 2295
-319 626 2202
0 0 0
0 0 0
-293 612 2156
0 0 0
-288 630 2220
-286 639 2254
-277 634 2237
-272 637 2248
-269 645 2279
-247 610 2154
-245 620 2191
-263 683 2415
-241 643 2273
-233 641 2268
-219 620 2195
-221 644 2279
-212 637 2255
-201 623 2206
-193 620 2195
-193 641 2270
-182 626 2218
-174 621 2203
-166 617 2188
-168 648 2297
-161 648 2299
-150 629 2232
-142 624 2213
-132 609 2162
-132 640 2272
-124 633 2249
-121 649 2306
-111 631 2244
-99 598 2126
-97 629 2234
-88 615 2184
-89 662 2353
-77 623 2216
-68 606 2154
-61 603 2145
-57 621 2207
-50 613 2182
-44 619 2201
-39 648 2305
-33 659 2345
-26 664 2364
-19 660 2348
-12 668 2378
-5 694 2473
1 705 2511
8 705 2510
16 703 2504
23 702 2500
30 702 2501
38 700 2496
45 701 2498
52 700 2495
60 700 2496
67 700 2496
75 701 2497
82 699 2490
89 696 2480
96 698 2487
104 700 2495
111 696 2481
118 695 2477
126 696 2480
133 694 2473
140 696 2478
147 695 2476
154 692 2464
162 693 2469
169 692 2465
176 694 2470
183 691 2460
190 690 2455
197 690 2455
205 690 2456
212 690 2454
219 689 2453
226 688 2447
234 689 2453
240 688 2448
248 688 2447
254 686 2439
261 686 2439
269 686 2439
275 684 2430
283 684 2432
289 683 2425
297 685 2433
304 683 2426
311 683 2424
318 682 2422
324 680 2414
331 681 2414
339 681 2414
345 680 2410
352 679 2406
359 678 2404
366 678 2404
374 679 2404
381 679 2405
387 676 2393
394 676 2393
401 675 2389
408 676 2390
415 675 2387
422 675 2386
428 674 2381
435 674 2380
442 673 2376
453 678 2393
455 670 2364
457 664 2340
472 674 2377
476 670 2362
482 669 2356
489 669 2354
496 669 2353
503 669 2352
511 669 2352
516 667 2343
523 667 2343
529 666 2338
537 666 2337
545 668 2343
550 665 2329
557 665 2330
565 666 2333
571 665 2328
580 667 2333
584 663 2319
592 664 2320
598 663 2315
605 663 2315
612 663 2311
619 663 2312
625 662 2306
632 662 2305
640 663 2307
646 662 2302
654 663 2303
659 660 2293
666 661 2293
673 661 2291
682 662 2294
688 661 2289
693 659 2281
702 661 2287
706 658 2276
714 659 2277
720 658 2272
727 658 2271
735 659 2271
742 659 2269
747 657 2260
755 658 2263
760 656 2253
769 658 2259
775 657 2255
783 658 2254
787 655 2244
794 655 2241
802 656 2241
808 656 2238
813 654 2231
823 656 2237
829 655 2230
834 654 2224
843 655 2226
847 653 2217
854 653 2215
862 653 2214
867 652 2209
876 654 2212
881 652 2204
890 653 2206
899 655 2209
904 653 2201
911 653 2198
917 653 2194
925 654 2194
932 654 2192
939 654 2190
944 652 2181
952 653 2182
959 653 2180
965 652 2174
972 652 2171
977 651 2164
984 650 2161
1001 657 2182
1021 666 2207
1040 673 2229
1036 666 2202
1045 668 2205
1047 664 2190
1040 655 2158
1037 649 2134
1029 639 2100
996 615 2016
1009 618 2026
862 525 1716
733 444 1447
697 419 1364
731 437 1420
703 417 1354
720 424 1376
786 461 1491
899 524 1695
929 537 1737
943 543 1751
941 538 1733
952 541 1740
957 540 1735
969 544 1745
975 544 1741
981 544 1739
984 542 1731
986 540 1721
994 542 1723
1005 544 1729
1004 541 1715
-1387 764 2324
-1368 757 2309
-1360 757 2313
-1353 758 2319
-1330 749 2296
-1321 748 2297
-1306 744 2289
-1298 744 2292
-1287 742 2290
-1277 740 2289
-1257 733 2271
-1250 733 2275
-1238 731 2272
-1223 726 2260
-1210 723 2255
-1202 722 2257
-1188 718 2248
-1159 705 2211
-1157 708 2223
-1149 708 2226
-1134 703 2214
-1135 708 2234
-1108 696 2197
-1095 692 2188
-1085 690 2187
-1072 686 2178
-1019 657 2086
-980 636 2024
-957 625 1993
-958 630 2010
-961 636 2033
-959 639 2046
-956 642 2056
-957 647 2076
-952 648 2082
-956 655 2108
-965 665 2145
-974 676 2183
-977 684 2210
-985 694 2246
-975 692 2242
-968 692 2246
-969 698 2266
-965 700 2277
-961 703 2288
-956 704 2296
-954 708 2311
-953 713 2330
-949 715 2341
-945 717 2351
-937 717 2352
-936 722 2372
-929 722 2375
-925 725 2386
-922 728 2399
-919 732 2414
-912 732 2419
-911 737 2438
-911 743 2461
-905 745 2468
-895 742 2464
-895 749 2489
-891 752 2500
-884 752 2504
-883 758 2527
-883 765 2553
-873 764 2550
-868 766 2559
-866 771 2578
-860 773 2587
-854 775 2596
-849 777 2607
-843 779 2616
-839 783 2632
-832 783 2636
-830 790 2659
-826 793 2673
-820 796 2684
-816 799 2697
-808 799 2701
-800 799 2704
-791 799 2704
-786 802 2716
-778 803 2721
-772 804 2730
-768 809 2749
-759 808 2746
-752 810 2756
-745 811 2762
-738 813 2769
-729 812 2768
-717 808 2755
-707 806 2751
-697 804 2748
-689 804 2749
-682 805 2755
-672 804 2751
-660 799 2739
-652 800 2741
-642 797 2733
-631 794 2725
-625 797 2737
-617 796 2737
-607 794 2732
-597 792 2724
-589 792 2728
-582 794 2736
-571 789 2721
-562 789 2721
-551 784 2706
-540 780 2694
-512 751 2593
-456 680 2348
0 0 0
0 0 0
0 0 0
0 0 0
0 0 0
0 0 0
0 0 0
-378 644 2233
0 0 0
-350 618 2146
-331 595 2066
-345 631 2194
-338 630 2190
-344 654 2274
-343 665 2314
0 0 0
-326 659 2294
0 0 0
-301 636 2215
0 0 0
-318 700 2441
0 0 0
-279 645 2251
0 0 0
-257 624 2179
-258 641 2241
-239 612 2137
-242 635 2222
-229 617 2158
-225 625 2185
-213 608 2128
-211 621 2175
-197 601 2103
-201 631 2211
-196 634 2223
-186 623 2183
-190 662 2319
-177 638 2236
-166 622 2183
-159 622 2182
-162 657 2305
-147 623 2187
-139 619 2173
-131 610 2140
-133 648 2274
-121 622 2185
-119 649 2278
-112 646 2269
-102 626 2199
-96 628 2207
-88 622 2186
-83 626 2201
-77 630 2216
-70 634 2229
-62 616 2166
-57 634 2231
-51 639 2248
-43 624 2194
-39 655 2306
-33 673 2370
-26 675 2377
-19 668 2351
-12 673 2371
-5 700 2467
1 711 2506
8 714 2516
16 715 2519
23 718 2528
31 714 2516
38 708 2495
45 709 2499
53 709 2498
60 709 2498
67 708 2497
74 706 2488
82 709 2497
89 708 2495
97 708 2496
104 706 2488
111 704 2479
118 704 2482
126 705 2484
133 703 2477
141 705 2483
147 702 2474
154 701 2468
162 700 2466
169 700 2467
176 697 2456
183 700 2465
191 699 2462
198 699 2462
204 696 2451
211 695 2447
219 697 2452
226 696 2450
233 694 2442
240 695 2446
248 695 2445
254 692 2434
261 693 2437
269 693 2436
276 692 2432
283 691 2429
290 692 2430
297 691 2427
304 690 2423
311 690 2421
317 689 2417
326 691 2423
332 688 2413
339 688 2411
346 689 2415
353 687 2407
360 686 2406
367 686 2405
373 685 2399
381 685 2400
387 684 2396
394 683 2391
402 684 2394
409 684 2393
415 683 2387
422 683 2387
428 680 2375
436 682 2381
442 681 2376
451 682 2381
455 678 2363
459 674 2350
471 681 2373
477 679 2364
482 676 2353
491 679 2364
497 677 2354
505 678 2358
511 677 2354
518 676 2348
522 673 2337
531 675 2342
538 674 2340
545 674 2338
551 673 2334
557 672 2329
565 673 2330
572 672 2327
580 674 2332
585 671 2320
593 672 2322
600 673 2323
604 669 2308
611 669 2308
618 669 2305
626 670 2306
634 670 2308
638 668 2298
646 669 2299
653 669 2298
659 668 2293
668 669 2296
673 668 2289
680 667 2286
688 668 2288
694 667 2283
701 667 2280
709 668 2281
713 665 2272
721 666 2273
727 665 2267
733 664 2263
744 668 2274
749 666 2265
755 665 2259
761 664 2256
769 665 2256
776 665 2254
783 665 2251
788 663 2244
797 665 2247
801 662 2238
809 663 2238
815 662 2232
822 662 2232
830 663 2233
837 663 2230
843 662 2224
849 661 2220
856 661 2218
865 663 2221
870 662 2214
876 660 2208
885 662 2211
891 661 2206
900 663 2209
905 661 2202
911 660 2196
917 660 2193
925 661 2192
933 661 2193
941 662 2191
947 661 2186
951 659 2177
957 658 2173
964 658 2170
974 660 2174
976 657 2162
986 659 2164
1017 675 2215
1019 672 2201
1034 676 2214
1041 677 2212
1045 674 2201
1044 669 2183
1035 659 2146
1039 657 2137
1024 643 2087
992 619 2006
1007 624 2021
835 514 1661
725 443 1428
717 436 1402
707 427 1372
713 428 1373
730 435 1394
803 475 1522
915 539 1723
931 544 1739
943 548 1748
952 550 1752
955 548 1743
963 550 1745
971 550 1745
977 551 1743
979 549 1734
986 549 1733
988 547 1724
997 549 1726
1008 552 1732
1006 547 1715
-1390 773 2327
-1373 768 2316
-1358 764 2308
-1355 766 2319
-1339 762 2310
-1325 758 2302
-1307 752 2288
-1294 749 2283
-1292 753 2298
-1271 744 2276
-1268 747 2289
-1248 740 2270
-1237 737 2267
-1226 736 2265
-1206 728 2245
-1199 728 2250
-1191 728 2251
-1179 725 2246
-1165 721 2238
-1158 721 2241
-1140 714 2224
-1124 709 2210
-1108 703 2195
-1104 705 2205
-1090 701 2195
-1081 699 2195
-1037 676 2123
-985 646 2031
-960 634 1996
-953 634 1999
-957 640 2023
-960 646 2045
-958 650 2059
-953 651 2064
-954 656 2085
-956 661 2105
-961 670 2135
-972 682 2177
-975 689 2203
-982 699 2236
-977 700 2245
-970 700 2247
-967 704 2262
-964 707 2273
-963 711 2290
-958 713 2298
-953 714 2307
-952 719 2324
-948 722 2336
-939 721 2335
-938 725 2352
-934 727 2363
-928 729 2370
-921 729 2374
-923 737 2401
-918 739 2411
-915 742 2424
-907 742 2426
-903 744 2437
-901 749 2456
-899 754 2474
-892 754 2477
-892 761 2502
-885 762 2507
-881 765 2521
-880 771 2542
-875 773 2552
-867 773 2555
-864 777 2570
-862 782 2591
-853 782 2592
-848 785 2603
-849 792 2632
-840 791 2630
-837 796 2649
-827 795 2647
-825 800 2667
-818 802 2675
-812 804 2685
-807 806 2695
-801 809 2707
-792 808 2704
-788 813 2723
-783 815 2734
-770 811 2720
-769 819 2751
-759 816 2744
-754 820 2758
-745 819 2758
-738 821 2767
-731 822 2772
-714 813 2742
-705 812 2742
-697 812 2745
-687 810 2738
-677 809 2736
-668 807 2733
-661 809 2740
-651 806 2734
-641 804 2727
-634 806 2737
-626 806 2739
-616 804 2732
-606 801 2726
-597 800 2723
-591 803 2734
-581 801 2731
-569 796 2712
-562 797 2718
-554 798 2723
-541 790 2699
-513 761 2599
-445 671 2294
-441 675 2308
0 0 0
0 0 0
0 0 0
-385 629 2153
0 0 0
0 0 0
0 0 0
-382 668 2293
-367 655 2249
-362 657 2257
-349 645 2218
-338 637 2190
-331 637 2192
-331 648 2231
-318 636 2188
0 0 0
-302 630 2172
-316 673 2321
0 0 0
-309 688 2375
0 0 0
-281 657 2269
-262 627 2165
-263 646 2233
0 0 0
-243 629 2173
-238 633 2188
-231 631 2183
-226 633 2191
-214 620 2145
-216 643 2227
-208 638 2211
-203 643 2228
-190 623 2157
-194 658 2282
-182 641 2221
-186 676 2346
-173 656 2276
-167 657 2280
-154 634 2201
-157 671 2329
-149 666 2313
-136 639 2219
-126 624 2166
-119 620 2154
-115 632 2194
-112 652 2265
-99 612 2128
-101 671 2332
-89 631 2193
-80 611 2123
-79 655 2278
-70 637 2215
-60 606 2107
-56 627 2182
-49 623 2168
-42 618 2152
-38 650 2261
-33 680 2369
-26 684 2383
-19 676 2355
-12 676 2354
-5 697 2429
1 718 2502
8 722 2515
16 726 2529
23 728 2538
31 728 2537
38 723 2521
45 718 2502
53 715 2493
60 718 2502
67 714 2487
75 715 2494
82 712 2483
89 714 2490
97 715 2491
104 714 2490
111 713 2484
118 711 2478
126 711 2478
133 710 2475
140 709 2471
147 709 2471
154 706 2459
162 708 2466
169 707 2461
176 707 2462
183 707 2462
191 706 2459
198 706 2458
