VERSION 0.7
FIELDS x y z
SIZE 4 4 4
TYPE I I I
COUNT 1 1 1
WIDTH 3617
HEIGHT 1
VIEWPOINT 0.0 0.0 0.0 1.0 0.0 0.0 0.0
POINTS 3617
DATA ascii
-849 590 2641
-841 591 2646
-836 593 2657
-835 598 2681
-833 602 2702
-825 602 2704
-818 602 2710
-811 604 2718
-807 607 2734
-800 608 2741
-792 608 2743
-787 610 2756
-778 610 2756
-774 613 2772
-768 615 2783
-758 613 2779
-754 616 2794
-743 615 2789
-734 614 2788
-721 610 2773
-709 606 2758
-700 606 2759
-693 607 2763
-684 606 2762
-675 605 2761
-664 603 2752
-656 603 2753
-645 601 2744
-636 599 2741
-629 601 2748
-619 599 2740
-611 599 2743
-601 597 2737
-594 598 2744
-584 596 2734
-576 596 2735
-565 593 2725
-557 593 2724
-547 591 2717
-520 570 2623
-438 488 2245
-433 490 2253
0 0 0
-407 476 2192
0 0 0
0 0 0
-402 492 2271
0 0 0
0 0 0
0 0 0
-384 504 2330
0 0 0
-360 491 2270
-354 491 2271
0 0 0
0 0 0
-347 510 2362
-326 489 2270
-303 465 2156
-304 476 2209
-286 457 2123
-296 483 2242
-287 479 2224
-273 466 2166
-268 469 2180
-277 496 2307
-262 482 2242
-252 475 2210
-240 465 2164
-238 473 2205
-236 483 2249
-229 480 2237
-226 487 2272
-207 461 2149
-206 473 2206
-197 468 2183
-196 479 2236
-190 482 2250
-182 477 2225
-175 477 2229
-167 474 2212
-163 481 2247
-149 456 2131
-149 478 2235
-140 469 2193
-129 454 2124
-124 457 2139
-122 472 2208
-116 474 2218
-108 466 2182
-101 467 2187
-96 472 2213
-89 468 2193
-83 471 2207
-75 460 2155
-67 454 2125
-61 456 2138
-57 469 2199
-49 460 2154
-43 460 2158
-39 486 2278
-34 502 2356
-27 502 2353
-20 501 2353
-13 505 2371
-7 523 2454
0 536 2518
7 536 2516
14 537 2521
22 537 2523
29 535 2511
36 534 2509
43 532 2500
51 532 2497
58 533 2503
65 533 2502
73 532 2498
80 530 2491
87 529 2487
94 531 2495
102 531 2493
108 529 2485
116 529 2484
123 530 2489
130 527 2477
137 528 2480
145 528 2483
151 526 2470
158 526 2470
166 526 2473
173 526 2469
180 527 2474
187 525 2467
194 525 2464
202 526 2468
208 523 2456
216 524 2459
222 522 2451
230 523 2456
237 522 2452
243 521 2443
251 523 2453
259 523 2455
264 520 2438
271 520 2439
278 519 2434
286 519 2436
293 520 2437
300 519 2433
306 517 2424
313 517 2421
319 516 2416
328 518 2426
335 518 2426
342 518 2424
347 515 2409
354 515 2411
362 516 2412
369 515 2410
375 514 2405
383 515 2409
389 514 2401
396 513 2398
402 512 2389
408 511 2387
416 512 2391
423 512 2387
429 511 2384
436 511 2382
443 511 2381
452 512 2386
452 505 2351
448 492 2293
471 510 2376
476 508 2365
481 505 2351
489 507 2357
496 507 2356
503 507 2354
510 506 2351
517 506 2349
525 507 2353
533 508 2357
541 509 2362
546 507 2352
553 507 2347
560 507 2348
566 506 2343
573 506 2342
580 506 2341
586 505 2335
592 504 2329
597 503 2321
609 507 2339
611 502 2316
616 501 2310
622 500 2304
631 501 2309
637 501 2304
645 502 2307
651 501 2302
657 500 2296
664 500 2296
670 499 2290
677 500 2291
683 499 2285
690 498 2282
696 498 2280
703 498 2278
711 499 2279
718 499 2278
724 498 2274
730 497 2268
737 497 2267
743 497 2262
749 496 2258
758 498 2263
764 497 2256
770 496 2253
778 497 2255
783 496 2247
791 496 2247
797 496 2245
804 496 2243
812 496 2242
819 496 2241
824 495 2234
832 496 2234
837 494 2226
845 495 2229
842 490 2201
884 510 2290
866 495 2222
865 491 2201
877 494 2212
888 496 2220
892 494 2209
899 494 2207
904 493 2201
913 494 2202
920 494 2201
927 494 2198
935 495 2199
940 494 2191
947 494 2190
957 495 2194
958 493 2179
966 493 2178
982 497 2195
985 496 2185
984 492 2164
992 492 2165
1018 501 2202
1044 510 2240
1037 504 2209
1045 504 2208
1042 499 2183
1037 494 2156
1045 494 2155
1034 486 2115
970 453 1968
970 450 1952
1016 468 2030
810 371 1604
713 324 1399
707 319 1376
692 311 1337
702 313 1346
712 316 1355
807 356 1525
913 400 1714
936 407 1742
939 406 1734
952 409 1746
958 409 1743
963 409 1741
966 408 1732
974 409 1734
975 407 1723
983 408 1724
994 409 1729
-1352 575 2305
-1339 573 2301
-1326 570 2295
-1316 569 2294
-1309 569 2300
-1279 559 2263
-1265 556 2255
-1245 551 2237
-1230 547 2227
-1231 551 2246
-1211 545 2225
-1216 551 2252
-1188 541 2217
-1192 546 2241
-1174 541 2224
-1157 537 2209
-1152 538 2217
-1145 538 2221
-1127 533 2203
-1121 533 2208
-1107 530 2198
-1096 528 2193
-1015 492 2046
-973 475 1978
-964 473 1974
-964 476 1990
-973 484 2024
-969 485 2033
-967 488 2046
-964 489 2055
-964 492 2072
-973 500 2109
-989 512 2161
-981 511 2160
-976 512 2167
-972 514 2177
-979 521 2209
-982 526 2236
-978 528 2245
-974 530 2256
-970 531 2264
-967 533 2277
-963 535 2288
-959 537 2297
-957 540 2312
-952 541 2320
-949 543 2334
-948 547 2352
-942 547 2357
-935 548 2361
-940 555 2394
-929 552 2387
-927 556 2404
-929 561 2432
-924 563 2440
-919 564 2448
-910 563 2447
-911 569 2474
-906 570 2482
-902 572 2496
-901 576 2514
-894 576 2519
-888 578 2528
-886 581 2545
-885 586 2567
-880 588 2579
-874 589 2587
-870 591 2600
-865 593 2611
-859 595 2620
-852 595 2623
-851 600 2647
-845 601 2655
-840 603 2667
-832 603 2669
-826 605 2677
-825 610 2703
-819 611 2712
-815 615 2729
-808 616 2735
-800 616 2738
-793 616 2744
-792 622 2772
-779 618 2757
-775 622 2774
-765 621 2771
-755 619 2766
-751 623 2785
-745 624 2793
-734 622 2786
-719 616 2762
-710 616 2760
-701 615 2759
-693 615 2761
-685 616 2767
-672 611 2749
-666 613 2759
-654 610 2745
-645 609 2742
-638 610 2748
-628 608 2742
-620 608 2743
-612 608 2745
-602 607 2742
-593 606 2738
-584 604 2733
-575 604 2733
-565 601 2724
-558 602 2729
-547 599 2716
-522 581 2635
-439 497 2253
-432 496 2250
0 0 0
0 0 0
0 0 0
0 0 0
0 0 0
0 0 0
0 0 0
0 0 0
0 0 0
-364 493 2248
0 0 0
0 0 0
-332 476 2174
-355 518 2367
-330 492 2247
-313 476 2175
-328 510 2332
-298 473 2165
-284 461 2110
-297 491 2251
-285 483 2213
-280 485 2222
-270 479 2195
-276 501 2299
-252 469 2151
-261 499 2289
-238 467 2142
-237 478 2193
-231 479 2201
-227 484 2222
-216 474 2180
-208 471 2166
-201 469 2159
-189 455 2094
-186 463 2131
-179 461 2121
-177 473 2176
-167 461 2122
-165 473 2177
-159 475 2190
-149 463 2135
-145 469 2164
-135 460 2119
-133 474 2187
-125 466 2148
-120 472 2177
-112 464 2142
-109 481 2221
-102 477 2204
-95 475 2191
-88 471 2176
-79 459 2118
-74 464 2141
-70 477 2203
-63 477 2204
-54 456 2107
-51 477 2206
-43 470 2171
-39 489 2260
-34 507 2347
-27 515 2383
-20 520 2404
-13 524 2427
-7 532 2464
0 542 2508
7 542 2508
14 542 2511
22 542 2509
29 541 2507
36 541 2504
43 541 2504
51 541 2504
58 540 2502
65 540 2503
73 539 2496
80 539 2498
87 538 2492
95 540 2500
102 538 2491
109 537 2487
115 534 2476
123 537 2486
131 537 2489
137 535 2478
144 534 2475
152 535 2476
159 536 2482
166 533 2466
173 534 2474
180 532 2465
187 532 2462
194 532 2461
201 531 2460
208 530 2455
215 530 2455
222 530 2453
230 531 2457
237 531 2456
244 529 2447
251 530 2450
259 530 2453
264 527 2438
271 527 2437
279 527 2438
286 527 2435
293 527 2436
300 528 2438
307 526 2429
314 526 2429
320 524 2421
328 526 2427
335 525 2423
342 525 2423
349 525 2424
355 523 2412
361 521 2402
369 522 2409
376 523 2411
383 522 2406
389 521 2399
397 522 2403
403 520 2395
410 520 2396
415 517 2381
423 519 2389
430 518 2384
436 518 2381
443 517 2377
453 520 2391
452 512 2350
448 499 2289
469 515 2365
478 517 2372
483 514 2358
489 514 2355
497 514 2358
503 514 2353
511 514 2354
517 513 2349
526 515 2356
531 513 2348
541 516 2360
546 514 2350
553 514 2349
559 513 2343
565 512 2338
572 512 2336
580 512 2336
587 513 2337
594 513 2334
603 514 2340
605 510 2322
611 509 2315
618 509 2313
623 508 2307
631 508 2307
638 508 2307
643 507 2297
651 507 2299
658 508 2299
663 506 2290
669 506 2287
676 505 2285
686 508 2294
689 504 2277
695 504 2273
704 505 2278
711 506 2278
720 507 2281
723 504 2269
731 505 2271
736 504 2262
745 505 2268
751 504 2262
757 504 2258
763 503 2253
772 504 2257
777 503 2249
784 503 2249
792 504 2250
797 502 2242
803 502 2239
811 503 2240
818 503 2238
826 503 2238
832 503 2233
840 503 2233
847 503 2232
851 502 2223
856 501 2216
868 503 2226
867 499 2203
878 501 2212
885 501 2209
889 499 2200
897 500 2200
905 501 2201
913 501 2202
923 503 2207
925 500 2191
935 502 2198
940 501 2190
950 502 2194
954 501 2185
976 509 2218
962 498 2168
974 500 2176
988 504 2191
963 487 2116
1006 506 2193
1039 519 2247
1033 513 2217
1041 513 2214
1047 512 2210
1044 507 2185
1037 500 2153
1041 499 2145
1031 491 2107
966 457 1957
980 460 1970
1010 471 2015
784 364 1551
703 324 1379
710 325 1382
701 319 1353
707 320 1354
711 319 1351
819 366 1546
930 413 1745
942 415 1753
955 419 1765
949 414 1740
957 414 1740
962 414 1737
978 418 1752
973 414 1731
978 413 1726
989 416 1732
994 415 1729
-1347 580 2295
-1340 581 2301
-1322 576 2286
-1316 577 2293
-1306 575 2292
-1302 577 2303
-1278 570 2278
-1267 568 2275
-1251 564 2263
-1244 564 2267
-1222 558 2244
-1214 557 2246
-1198 553 2235
-1183 550 2224
-1180 552 2235
-1154 543 2202
-1147 543 2205
-1139 542 2207
-1125 539 2197
-1112 536 2188
-1105 536 2192
-1084 529 2166
-1022 502 2060
-982 486 1995
-961 479 1968
-963 483 1987
-971 490 2019
-969 492 2032
-971 496 2053
-963 496 2053
-964 499 2070
-965 503 2090
-980 514 2139
-987 521 2172
-968 515 2149
-969 519 2168
-976 526 2202
-979 532 2227
-979 535 2246
-974 537 2254
-970 538 2264
-966 540 2273
-962 542 2284
-963 546 2307
-958 547 2313
-951 548 2318
-950 551 2334
-947 553 2348
-944 556 2360
-940 557 2370
-935 559 2381
-930 561 2389
-930 565 2410
-927 567 2424
-921 568 2430
-917 570 2441
-914 573 2456
-907 573 2460
-905 577 2479
-901 579 2491
-896 581 2501
-895 585 2522
-890 587 2532
-888 590 2549
-882 592 2559
-880 596 2577
-878 600 2597
-873 601 2606
-865 602 2610
-863 605 2629
-857 607 2638
-848 606 2635
-848 611 2663
-842 613 2673
-838 616 2689
-828 615 2685
-823 617 2697
-819 620 2713
-813 622 2723
-805 621 2723
-799 624 2734
-794 626 2747
-789 628 2761
-781 628 2763
-775 630 2774
-765 629 2770
-761 632 2785
-748 629 2772
-744 632 2790
-737 634 2798
-720 626 2766
-711 625 2764
-701 624 2760
-693 623 2761
-683 622 2757
-676 623 2761
-664 620 2749
-657 620 2755
-647 618 2748
-638 618 2746
-628 616 2742
-619 616 2740
-611 615 2740
-602 614 2739
-594 614 2739
-584 613 2734
-574 611 2727
-567 612 2733
-557 609 2722
-549 609 2724
-524 591 2644
-451 517 2313
-431 501 2243
0 0 0
0 0 0
0 0 0
0 0 0
-399 503 2258
0 0 0
0 0 0
0 0 0
0 0 0
0 0 0
0 0 0
0 0 0
-337 490 2206
-334 495 2231
-308 466 2099
-327 504 2274
-317 498 2248
0 0 0
-299 491 2216
-293 491 2218
-287 493 2228
-274 482 2178
-274 492 2225
-256 473 2138
-255 482 2182
-258 499 2258
-243 483 2185
-242 493 2235
-232 488 2209
-223 482 2186
-218 485 2199
-206 471 2137
-199 471 2134
-201 491 2226
-186 468 2123
-188 489 2220
-176 475 2157
-170 476 2160
-168 488 2216
-158 479 2176
-159 501 2276
-148 487 2214
-137 470 2138
-135 487 2215
-125 474 2155
-121 481 2189
-111 470 2137
-108 481 2191
-102 485 2206
-95 482 2194
-88 476 2167
-81 475 2165
-75 473 2156
-69 475 2163
-63 484 2204
-55 471 2146
-50 475 2163
-44 482 2198
-39 499 2277
-33 512 2336
-27 516 2353
-20 521 2378
-13 526 2400
-7 541 2470
0 549 2508
7 549 2507
14 549 2507
22 549 2507
29 548 2502
36 550 2514
44 549 2507
51 548 2504
58 546 2496
65 547 2500
73 546 2496
80 547 2499
87 545 2491
94 546 2495
102 545 2492
109 545 2490
116 544 2483
123 543 2482
130 544 2483
137 542 2477
145 543 2479
152 542 2474
159 542 2477
166 542 2473
173 541 2469
180 539 2459
188 541 2470
195 541 2468
201 538 2458
208 538 2456
216 538 2455
222 537 2451
230 538 2453
237 538 2453
244 536 2445
251 537 2451
259 539 2459
265 536 2445
272 535 2441
280 536 2446
286 534 2435
294 535 2440
300 534 2436
308 535 2437
314 533 2429
321 532 2424
327 531 2418
334 531 2417
342 532 2422
349 532 2419
356 532 2419
361 529 2405
370 531 2416
376 530 2408
382 528 2399
390 529 2405
397 529 2401
402 527 2392
409 526 2388
416 525 2384
422 525 2381
429 524 2376
437 526 2384
443 524 2375
452 527 2386
454 521 2357
450 508 2298
470 523 2367
477 523 2365
483 521 2358
490 521 2355
497 522 2358
503 521 2352
509 520 2347
517 520 2348
523 520 2344
531 520 2345
540 522 2355
548 523 2358
554 522 2351
560 521 2345
567 521 2343
575 522 2346
579 519 2333
587 520 2335
593 519 2330
598 517 2321
603 515 2311
610 516 2312
618 516 2312
625 516 2311
631 516 2308
637 515 2302
644 515 2302
651 515 2300
657 514 2295
665 514 2295
671 514 2292
678 514 2289
684 513 2287
690 512 2279
698 513 2282
703 512 2275
709 511 2270
717 512 2271
723 511 2265
731 512 2270
735 510 2258
743 511 2261
751 511 2259
758 511 2260
765 511 2257
771 511 2254
779 511 2254
786 511 2252
791 510 2246
798 510 2244
804 510 2240
813 511 2242
819 510 2237
824 509 2231
832 510 2233
838 509 2228
846 509 2227
846 506 2209
863 511 2231
863 507 2212
887 517 2252
878 508 2211
887 509 2212
892 508 2207
900 509 2207
906 508 2201
908 505 2189
919 508 2196
929 509 2199
934 508 2194
941 508 2191
950 509 2193
953 507 2183
967 511 2196
972 510 2189
964 502 2153
989 512 2191
999 513 2195
1014 517 2210
1028 520 2222
1046 526 2241
1040 519 2211
1047 519 2208
1039 512 2175
1038 508 2155
1041 506 2145
1030 497 2103
965 463 1955
985 469 1981
1000 473 1994
759 357 1499
715 334 1401
711 330 1382
711 328 1371
725 332 1388
729 332 1384
836 378 1577
925 416 1732
943 421 1753
943 419 1740
947 418 1735
953 418 1732
967 422 1744
969 420 1735
972 419 1727
986 423 1739
988 421 1730
1000 424 1737
-1346 587 2292
-1346 591 2309
-1330 587 2299
-1317 585 2293
-1303 582 2286
-1290 579 2279
-1283 579 2284
-1275 579 2287
-1249 571 2259
-1244 572 2265
-1228 568 2254
-1214 565 2245
-1205 564 2246
-1190 560 2234
-1177 557 2227
-1158 552 2208
-1143 548 2196
-1136 548 2199
-1126 546 2197
-1112 543 2188
-1107 544 2194
-1100 544 2199
-1039 517 2091
-988 495 2006
-965 487 1973
-962 488 1984
-968 495 2013
-970 499 2032
-971 502 2050
-967 504 2059
-961 504 2062
-966 510 2090
-971 516 2118
-986 528 2169
-971 523 2154
-970 526 2169
-976 533 2201
-981 540 2230
-979 542 2244
-971 542 2245
-969 545 2259
-963 545 2265
-966 551 2291
-959 551 2294
-957 554 2310
-955 557 2326
-952 559 2337
-950 563 2354
-947 565 2367
-939 564 2367
-930 564 2366
-930 568 2386
-928 571 2404
-924 573 2416
-924 578 2437
-920 580 2450
-911 579 2446
-911 584 2470
-906 585 2478
-905 590 2501
-901 592 2513
-895 593 2521
-891 595 2532
-888 599 2549
-881 599 2553
-880 604 2576
-876 606 2588
-870 607 2597
-866 610 2612
-861 612 2623
-855 613 2629
-848 614 2634
-847 619 2661
-841 620 2667
-833 620 2670
-829 624 2687
-820 623 2686
-817 627 2704
-811 629 2714
-805 630 2724
-798 631 2729
-793 634 2744
-787 635 2751
-783 639 2770
-771 636 2758
-768 640 2779
-759 639 2778
-754 642 2793
-745 641 2790
-735 640 2789
-722 635 2770
-708 631 2753
-702 633 2763
-694 633 2764
-685 632 2763
-675 630 2756
-665 629 2751
-656 628 2750
-650 630 2761
-638 626 2745
-629 626 2746
-622 626 2749
-611 624 2741
-602 623 2739
-593 622 2735
-584 621 2731
-576 621 2733
-568 620 2734
-558 618 2726
-547 616 2716
-526 601 2651
-433 502 2216
-445 525 2317
0 0 0
-406 494 2184
0 0 0
0 0 0
0 0 0
0 0 0
0 0 0
0 0 0
-387 529 2348
0 0 0
-362 514 2280
-349 504 2240
0 0 0
-326 490 2176
-320 491 2182
-324 506 2250
-303 484 2154
-303 493 2196
-301 501 2232
-283 482 2149
-278 483 2153
-268 478 2130
-288 524 2337
-247 461 2056
-257 493 2199
-247 485 2166
-246 495 2209
-238 492 2199
-224 477 2132
-219 480 2145
-219 494 2209
-213 494 2207
-206 493 2206
-202 499 2233
-191 488 2184
-187 495 2216
-180 492 2204
-173 490 2195
-166 489 2189
-155 477 2136
-148 474 2126
-146 487 2185
-138 481 2156
-134 489 2192
-129 494 2218
-122 494 2218
-114 486 2180
-107 485 2177
-101 486 2182
-94 481 2160
-88 483 2170
-81 479 2154
-75 485 2180
-70 492 2210
-60 465 2092
-56 479 2155
-49 473 2126
-43 484 2176
-39 505 2273
-33 520 2342
-27 520 2342
-20 522 2348
-13 531 2391
-6 549 2472
0 558 2512
7 558 2512
14 558 2512
22 556 2505
29 557 2508
36 556 2504
44 555 2499
51 556 2504
58 555 2500
66 555 2500
73 554 2497
80 554 2494
87 552 2486
94 551 2484
102 554 2494
109 553 2491
116 552 2486
123 551 2481
131 551 2482
138 550 2479
145 549 2473
152 550 2479
159 549 2473
166 549 2473
174 550 2478
180 548 2468
188 548 2469
195 547 2465
202 546 2460
208 545 2454
215 544 2451
222 544 2447
230 544 2450
237 544 2446
244 543 2444
252 545 2450
259 545 2451
266 544 2448
272 542 2438
278 541 2432
286 542 2438
294 544 2445
301 543 2441
308 542 2434
314 540 2424
320 538 2417
328 539 2421
336 541 2429
342 538 2417
349 539 2421
356 539 2417
362 537 2407
370 538 2413
377 537 2409
383 536 2404
391 537 2406
397 536 2400
403 535 2395
410 535 2395
417 534 2389
423 533 2383
431 534 2388
437 533 2381
444 533 2381
452 534 2386
453 526 2351
449 514 2294
472 532 2374
476 528 2358
484 529 2360
490 529 2357
496 527 2351
504 528 2354
511 528 2352
517 527 2346
524 528 2347
530 526 2341
539 528 2346
546 528 2344
554 529 2349
562 529 2350
568 528 2344
574 528 2342
582 529 2344
586 526 2330
593 526 2329
598 524 2320
603 523 2312
610 522 2309
620 524 2317
624 523 2308
632 523 2310
638 522 2303
644 522 2299
652 522 2300
657 521 2294
661 519 2282
670 520 2286
678 521 2290
684 520 2283
692 520 2284
697 519 2277
705 520 2278
711 519 2274
719 520 2278
726 520 2276
731 519 2268
739 519 2268
745 518 2263
750 517 2257
758 518 2257
766 519 2260
770 517 2249
781 519 2257
786 518 2250
791 517 2244
798 517 2241
804 516 2238
811 516 2234
819 517 2238
825 517 2233
834 518 2236
840 517 2231
845 516 2223
849 514 2213
854 513 2206
860 512 2203
870 514 2209
879 515 2212
887 516 2212
895 517 2213
901 516 2208
908 516 2206
917 517 2207
920 515 2196
929 516 2198
935 515 2194
941 515 2190
948 515 2188
955 515 2184
960 514 2178
986 524 2219
974 514 2173
996 522 2204
1004 522 2204
1002 517 2181
1036 532 2238
1051 535 2251
1041 527 2211
1049 527 2211
1041 520 2176
1037 514 2152
1046 515 2151
1027 503 2097
954 464 1931
988 477 1984
978 469 1948
756 361 1493
692 328 1354
691 325 1342
728 340 1403
706 328 1351
734 339 1394
851 390 1605
930 424 1741
948 430 1761
949 427 1749
949 425 1737
956 425 1736
961 425 1733
970 426 1735
980 428 1740
991 430 1746
994 429 1738
989 425 1718
-1349 597 2296
-1339 596 2296
-1325 592 2288
-1317 592 2292
-1303 590 2285
-1288 586 2276
-1288 589 2291
-1270 585 2278
-1261 584 2279
-1243 579 2263
-1235 578 2265
-1217 574 2250
-1209 573 2251
-1196 570 2245
-1191 571 2252
-1174 567 2237
-1163 565 2233
-1150 562 2226
-1133 557 2210
-1122 555 2206
-1117 556 2213
-1102 552 2201
-1049 529 2111
-992 504 2012
-970 496 1984
-963 496 1986
-968 501 2010
-972 507 2036
-966 507 2040
-965 510 2054
-965 513 2070
-964 516 2086
-967 521 2109
-976 529 2146
-975 532 2162
-971 534 2170
-976 540 2199
-981 547 2228
-977 549 2239
-975 551 2254
-969 552 2258
-969 556 2277
-967 559 2292
-956 557 2287
-955 560 2304
-953 563 2319
-950 566 2333
-949 569 2349
-943 570 2356
-935 569 2355
-935 574 2376
-932 577 2392
-931 580 2409
-921 579 2405
-921 584 2429
-919 587 2446
-913 588 2451
-914 593 2478
-906 593 2478
-905 597 2498
-896 596 2498
-892 599 2511
-889 602 2525
-888 607 2548
-880 606 2548
-882 613 2579
-876 614 2587
-868 614 2591
-868 619 2615
-861 620 2621
-856 622 2632
-851 624 2642
-847 627 2659
-841 628 2665
-836 631 2679
-827 630 2678
-823 633 2692
-820 637 2711
-808 635 2703
-805 639 2722
-799 640 2730
-792 641 2738
-786 643 2746
-776 641 2743
-772 645 2761
-768 648 2778
-760 649 2780
-748 645 2768
-747 651 2797
-737 651 2795
-722 645 2771
-711 641 2760
-702 641 2759
-693 641 2760
-683 638 2752
-678 642 2769
-666 638 2754
-658 638 2756
-649 638 2757
-637 633 2740
-630 634 2745
-620 633 2741
-611 632 2738
-602 631 2736
-593 630 2735
-582 627 2722
-575 628 2730
-566 627 2724
-556 625 2719
-549 626 2723
-522 604 2630
-447 526 2290
-432 515 2245
0 0 0
0 0 0
0 0 0
0 0 0
0 0 0
0 0 0
0 0 0
-359 489 2137
0 0 0
0 0 0
0 0 0
-355 519 2274
0 0 0
-329 501 2196
-325 504 2212
-315 499 2190
-310 501 2198
-270 446 1957
-287 485 2129
-290 500 2196
-268 473 2078
-271 490 2153
-268 496 2182
-265 502 2211
-266 516 2274
-251 500 2201
-248 506 2230
-242 507 2232
-230 496 2188
-222 492 2169
-223 510 2250
-206 485 2141
-205 497 2195
-194 486 2147
-191 495 2186
-179 481 2122
-185 512 2265
-174 501 2212
-159 475 2098
-162 504 2229
-152 493 2180
-145 489 2165
-138 489 2164
-130 481 2131
-129 501 2217
-120 491 2176
-117 505 2236
-106 485 2148
-98 480 2127
-94 488 2160
-91 506 2244
-84 503 2229
-76 497 2205
-69 492 2181
-63 497 2203
-55 481 2132
-51 499 2212
-45 503 2234
-39 509 2259
-33 528 2345
-26 527 2339
-20 527 2338
-13 533 2365
-6 554 2460
0 566 2513
7 565 2512
15 567 2521
22 565 2511
29 565 2509
36 563 2503
44 565 2509
51 561 2494
58 562 2497
66 563 2502
73 562 2499
80 560 2490
87 561 2496
94 558 2482
102 560 2488
109 559 2484
116 559 2484
124 561 2493
131 559 2486
138 558 2482
145 557 2477
152 557 2476
159 556 2472
166 556 2470
173 555 2468
180 554 2462
188 555 2466
194 551 2449
202 553 2458
209 554 2459
216 553 2455
223 552 2452
230 552 2450
237 551 2444
244 551 2447
250 549 2436
257 549 2435
266 551 2446
271 548 2431
279 549 2435
286 548 2429
292 547 2424
299 547 2423
307 548 2430
314 548 2427
320 545 2416
328 547 2421
335 546 2418
342 547 2421
348 544 2410
355 544 2409
362 544 2409
370 545 2409
377 544 2408
382 542 2396
390 543 2401
395 541 2390
402 541 2388
409 540 2383
416 540 2383
424 541 2386
429 539 2376
436 538 2374
442 537 2367
451 539 2375
455 536 2361
447 518 2281
472 539 2371
478 538 2369
484 537 2361
490 536 2355
497 536 2355
506 537 2359
509 533 2341
516 534 2342
524 534 2343
532 535 2345
538 534 2342
545 534 2340
552 534 2337
559 534 2338
565 533 2332
573 534 2335
579 532 2328
585 532 2324
591 531 2320
598 531 2317
605 531 2317
612 531 2316
619 531 2312
625 530 2309
631 529 2303
638 529 2301
646 530 2303
651 529 2297
660 530 2300
664 528 2291
673 529 2296
680 529 2294
685 527 2285
689 526 2276
700 528 2284
703 526 2272
712 527 2277
719 527 2276
722 524 2262
732 527 2270
737 525 2262
745 526 2263
752 525 2260
759 526 2261
767 526 2260
769 523 2244
779 525 2252
787 526 2253
792 524 2244
801 526 2249
806 524 2240
813 524 2239
819 524 2236
825 523 2231
833 524 2232
840 524 2230
847 524 2227
840 516 2190
865 526 2233
863 521 2209
872 522 2212
879 522 2210
886 522 2207
893 523 2207
902 523 2208
909 524 2207
914 523 2200
918 521 2191
930 523 2199
936 523 2195
942 522 2190
946 521 2182
953 521 2180
958 520 2173
983 530 2211
976 522 2177
988 525 2185
982 518 2155
1009 528 2196
1026 534 2215
1025 529 2194
1044 535 2216
1046 533 2204
1043 528 2179
1040 523 2155
1040 519 2139
1019 505 2078
948 467 1917
996 487 1999
953 463 1898
750 362 1479
695 333 1359
715 341 1389
705 334 1358
707 333 1351
746 349 1416
871 405 1641
929 429 1739
938 431 1742
949 433 1749
953 432 1743
964 435 1750
959 430 1728
971 433 1736
978 433 1736
986 434 1737
997 436 1743
996 434 1729
-1358 608 2308
-1352 609 2316
-1333 604 2301
-1325 604 2305
-1309 600 2293
-1301 599 2296
-1287 596 2289
-1274 594 2283
-1259 590 2273
-1248 588 2269
-1228 583 2251
-1228 586 2268
-1212 582 2256
-1208 583 2265
-1191 579 2251
-1180 577 2247
-1173 577 2250
-1155 572 2234
-1138 567 2218
-1134 568 2228
-1119 564 2214
-1104 560 2203
-1075 549 2162
-1003 516 2033
-971 502 1983
-961 501 1979
-966 506 2005
-970 512 2029
-968 514 2041
-968 517 2058
-964 519 2068
-961 521 2077
-962 525 2096
-975 535 2142
-977 540 2164
-970 540 2166
-975 547 2195
-980 553 2226
-980 557 2245
-974 558 2249
-968 559 2256
-965 561 2267
-960 562 2275
-961 567 2296
-956 568 2303
-953 570 2316
-950 573 2331
-951 578 2353
-945 578 2358
-940 580 2367
-937 583 2382
-931 583 2387
-929 587 2404
-926 589 2417
-922 592 2430
-916 593 2437
-917 598 2460
-909 598 2462
-905 600 2474
-900 602 2483
-900 607 2507
-890 605 2504
-891 611 2531
-888 614 2546
-881 615 2550
-881 620 2574
-874 621 2581
-873 625 2602
-871 630 2623
-861 628 2620
-858 632 2638
-850 632 2638
-845 634 2649
-844 639 2676
-835 638 2674
-829 640 2684
-823 642 2693
-818 644 2704
-810 644 2707
-807 648 2725
-800 649 2733
-792 649 2734
-789 653 2755
-783 656 2767
-774 655 2766
-764 653 2762
-761 658 2782
-753 658 2785
-746 659 2793
-737 658 2791
-721 651 2764
-711 650 2761
-703 650 2762
-694 650 2761
-683 647 2753
-677 649 2763
-667 647 2758
-659 647 2760
-649 646 2754
-641 646 2756
-630 642 2744
-622 643 2748
-609 638 2730
-602 639 2736
-594 639 2736
-586 639 2738
-577 638 2735
-568 638 2735
-559 636 2730
-549 634 2721
-527 618 2655
-455 542 2327
-451 545 2344
0 0 0
0 0 0
0 0 0
0 0 0
0 0 0
0 0 0
0 0 0
0 0 0
0 0 0
-381 545 2353
0 0 0
0 0 0
0 0 0
0 0 0
-322 507 2193
-312 501 2168
-304 499 2160
-309 517 2242
-309 527 2286
-301 526 2280
-280 500 2168
-261 477 2071
-279 523 2270
-264 506 2195
-247 486 2112
-256 516 2243
-246 510 2215
-235 499 2168
-226 493 2144
-219 492 2138
-226 521 2270
-214 511 2225
-207 510 2219
-195 495 2155
-198 520 2266
-185 503 2193
-174 488 2128
-174 508 2213
-165 499 2178
-156 491 2143
-153 503 2195
-142 487 2127
-141 504 2200
-141 529 2312
-124 488 2133
-119 495 2161
-116 507 2215
-109 508 2221
-101 497 2172
-93 491 2145
-87 492 2153
-83 508 2220
-77 506 2214
-70 503 2199
-63 503 2199
-56 499 2182
-50 497 2176
-43 496 2170
-39 516 2259
-33 534 2339
-27 536 2349
-20 535 2345
-13 542 2375
-6 564 2473
0 574 2515
7 573 2512
15 574 2516
22 574 2516
29 573 2512
37 572 2508
44 573 2512
51 570 2500
58 568 2493
66 569 2493
73 571 2504
80 568 2490
87 568 2493
94 567 2487
102 569 2494
109 568 2489
116 567 2485
123 566 2482
131 567 2486
138 565 2480
145 564 2473
152 565 2476
159 563 2469
166 563 2469
173 562 2465
181 562 2464
188 562 2465
195 562 2462
202 562 2462
209 561 2460
216 561 2458
223 560 2455
230 560 2454
237 559 2447
244 559 2447
251 558 2445
258 556 2435
265 557 2438
272 557 2437
279 556 2435
285 554 2426
293 555 2429
299 554 2422
306 554 2421
314 554 2423
320 552 2412
328 553 2418
335 553 2416
341 552 2410
348 551 2406
355 551 2404
362 552 2408
368 549 2397
375 549 2395
382 549 2395
390 550 2399
397 549 2395
402 548 2387
409 547 2385
418 550 2396
423 547 2383
430 547 2380
437 547 2380
443 545 2372
451 546 2374
455 543 2359
448 526 2284
471 545 2368
478 545 2365
484 544 2360
491 544 2359
499 544 2360
503 541 2346
509 540 2340
518 542 2348
523 540 2340
531 541 2343
538 541 2339
545 541 2339
550 539 2331
557 539 2330
565 539 2329
572 540 2331
579 540 2328
584 538 2320
592 539 2323
599 539 2320
606 539 2318
612 538 2315
619 538 2311
626 538 2310
632 537 2305
639 537 2303
646 537 2304
652 536 2297
657 535 2291
666 536 2294
672 535 2291
679 535 2289
685 534 2284
692 535 2284
699 534 2280
704 533 2272
714 535 2281
720 534 2276
727 534 2274
730 532 2262
741 534 2271
746 533 2265
753 533 2261
757 531 2252
765 532 2253
771 531 2250
780 532 2251
784 531 2242
791 530 2240
800 532 2244
807 532 2243
814 532 2242
820 531 2236
828 532 2237
832 530 2227
839 530 2225
846 530 2223
854 531 2223
853 526 2202
877 536 2243
872 529 2209
879 529 2207
890 531 2216
896 531 2211
901 530 2205
908 530 2202
913 529 2196
921 529 2195
930 530 2198
935 530 2192
942 529 2189
950 530 2188
956 530 2185
963 529 2182
974 532 2188
977 530 2178
985 530 2176
1002 535 2196
1022 542 2223
1029 542 2219
1030 539 2203
1043 542 2214
1048 541 2205
1039 533 2170
1038 528 2149
1043 528 2144
1015 510 2069
953 476 1927
1000 496 2006
924 455 1837
735 359 1448
707 343 1381
696 336 1350
715 343 1376
725 346 1385
759 360 1439
867 409 1633
935 438 1748
943 439 1750
954 441 1756
956 439 1747
961 439 1744
970 441 1747
974 439 1739
979 439 1735
985 439 1733
990 439 1729
1001 441 1735
-1356 615 2304
-1344 613 2300
-1329 609 2291
-1324 611 2301
-1296 601 2269
-1295 604 2284
-1290 605 2292
-1263 596 2262
-1258 597 2269
-1243 594 2260
-1232 592 2257
-1222 591 2256
-1200 583 2232
-1201 587 2251
-1190 586 2248
-1182 585 2249
-1174 585 2252
-1156 580 2235
-1141 575 2222
-1140 579 2238
-1129 577 2234
-1118 575 2229
-1095 567 2202
-1025 534 2076
-976 512 1994
-962 507 1980
-963 511 1997
-972 520 2033
-968 521 2042
-967 524 2055
-965 526 2067
-958 526 2070
-958 529 2087
-974 542 2139
-972 545 2153
-970 547 2164
-973 553 2190
-977 559 2217
-977 563 2236
-974 565 2248
-968 566 2254
-968 570 2273
-963 571 2281
-965 576 2304
-959 577 2309
-957 580 2325
-950 580 2329
-949 584 2347
-944 585 2355
-944 590 2375
-936 589 2376
-932 592 2389
-930 595 2404
-927 598 2418
-924 601 2434
-917 601 2436
-913 603 2448
-909 606 2462
-904 607 2470
-902 610 2487
-897 613 2498
-896 617 2519
-891 619 2528
-886 621 2538
-882 623 2552
-878 626 2566
-872 627 2573
-872 633 2599
-866 634 2606
-864 638 2626
-855 638 2625
-852 641 2644
-851 647 2668
-839 643 2657
-834 646 2670
-834 652 2699
-823 650 2690
-818 652 2703
-814 656 2720
-808 657 2728
-800 657 2731
-792 657 2733
-790 663 2759
-783 663 2763
-775 664 2768
-767 664 2772
-762 668 2787
-757 671 2801
-745 667 2787
-736 666 2786
-722 661 2768
-711 658 2757
-701 657 2753
-693 657 2757
-684 657 2757
-675 656 2755
-667 656 2758
-658 655 2756
-648 653 2751
-639 652 2747
-631 653 2750
-621 650 2741
-610 647 2731
-601 647 2731
-594 647 2735
-587 649 2742
-575 644 2726
-566 643 2723
-558 643 2724
-550 643 2726
-528 627 2657
-435 526 2228
-437 535 2270
0 0 0
0 0 0
0 0 0
0 0 0
0 0 0
0 0 0
0 0 0
0 0 0
0 0 0
0 0 0
0 0 0
-344 517 2203
-331 506 2160
0 0 0
-331 527 2252
-320 520 2223
-301 500 2135
0 0 0
-314 543 2325
-300 531 2271
-270 488 2090
-282 523 2238
-263 498 2134
-261 507 2173
-256 510 2187
-251 513 2201
-247 518 2221
-242 522 2240
-223 494 2120
-224 511 2193
-223 523 2246
-212 512 2201
-209 521 2241
-200 515 2214
-187 498 2139
-178 489 2105
-176 501 2156
-167 494 2126
-167 513 2207
-157 503 2164
-153 510 2197
-149 516 2224
-140 509 2194
-134 510 2196
-125 500 2157
-121 508 2191
-118 524 2258
-106 499 2152
-101 504 2174
-94 500 2156
-89 510 2199
-83 510 2203
-74 494 2133
-66 486 2096
-62 502 2167
-55 497 2146
-50 510 2202
-43 503 2171
-38 511 2209
-33 540 2335
-26 540 2336
-19 541 2338
-13 547 2364
-6 571 2468
0 581 2514
7 581 2515
15 578 2502
22 580 2507
29 580 2511
36 577 2498
44 579 2504
51 577 2499
59 579 2503
66 577 2497
73 578 2500
80 576 2495
87 574 2484
95 576 2494
102 575 2489
109 574 2483
117 575 2488
124 574 2482
131 574 2482
138 573 2480
145 574 2482
152 573 2477
159 570 2468
167 571 2470
173 570 2464
180 569 2461
188 571 2468
195 570 2466
202 569 2459
209 569 2458
217 569 2460
224 569 2461
230 566 2448
237 565 2441
245 567 2450
251 565 2442
258 565 2441
265 564 2438
272 564 2437
280 564 2436
286 562 2428
293 563 2431
300 561 2422
307 562 2426
315 564 2431
320 560 2414
327 559 2410
334 559 2411
341 558 2405
349 560 2413
356 559 2409
362 558 2406
368 557 2398
375 556 2393
383 557 2396
390 557 2396
397 557 2394
403 556 2391
409 554 2380
417 555 2387
424 556 2387
431 555 2382
437 553 2375
445 555 2380
450 553 2371
455 550 2358
449 534 2288
471 552 2364
479 553 2370
485 552 2362
492 551 2360
498 550 2355
503 549 2346
511 549 2347
518 549 2348
525 549 2346
532 549 2346
539 549 2343
545 548 2338
553 548 2338
558 547 2330
565 547 2329
573 547 2330
580 547 2329
586 547 2325
592 545 2318
598 545 2315
606 546 2318
612 545 2313
618 544 2308
626 545 2311
633 545 2309
640 545 2308
647 545 2305
652 543 2296
658 542 2293
665 542 2289
673 543 2291
678 542 2284
686 542 2287
693 542 2283
701 543 2285
706 542 2279
714 542 2279
717 540 2267
726 541 2271
732 540 2266
742 542 2272
747 541 2266
753 540 2262
759 539 2256
767 540 2259
774 540 2255
779 539 2247
785 538 2243
793 539 2245
800 539 2244
806 538 2239
815 539 2241
819 538 2232
827 539 2234
835 539 2232
841 538 2229
848 539 2228
853 537 2221
858 536 2213
866 537 2213
873 537 2212
882 538 2213
889 538 2212
894 537 2205
900 536 2201
909 537 2202
916 537 2200
923 537 2198
931 538 2199
936 537 2192
943 537 2189
949 536 2185
955 536 2181
963 536 2181
968 535 2173
956 524 2128
983 536 2171
985 533 2158
1024 550 2224
1031 550 2221
1038 550 2218
1043 549 2210
1045 546 2198
1038 539 2166
1038 535 2148
1045 535 2145
1008 513 2053
958 484 1936
1005 505 2014
890 444 1769
723 359 1424
710 350 1387
707 346 1370
718 349 1381
737 356 1407
767 368 1453
889 424 1672
936 444 1748
945 445 1752
946 443 1741
958 446 1749
963 446 1746
968 445 1742
970 443 1731
973 442 1724
984 445 1730
998 448 1742
997 445 1728
-1361 625 2312
-1350 623 2309
-1336 620 2302
-1319 616 2290
-1310 615 2291
-1294 611 2280
-1288 612 2287
-1270 607 2272
-1265 608 2280
-1247 603 2265
-1235 601 2261
-1221 598 2252
-1215 598 2258
-1199 594 2246
-1190 593 2245
-1179 591 2241
-1170 590 2242
-1154 586 2229
-1151 588 2241
-1137 584 2231
-1125 582 2224
-1118 582 2227
-1101 576 2210
-1042 549 2108
-985 523 2010
-962 514 1978
-962 517 1995
-970 525 2027
-970 529 2044
-966 530 2051
-961 530 2057
-956 532 2064
-958 536 2085
-982 553 2155
-973 552 2152
-972 555 2167
-972 559 2187
-979 567 2221
-977 570 2234
-974 572 2247
-970 574 2256
-969 578 2274
-968 581 2290
-962 582 2297
-956 582 2301
-947 582 2301
-954 590 2337
-946 590 2339
-945 593 2355
-936 592 2355
-935 596 2373
-934 600 2391
-928 601 2398
-926 605 2415
-926 609 2437
-923 612 2451
-917 613 2457
-910 614 2462
-906 616 2473
-900 617 2480
-897 620 2496
-894 624 2513
-891 627 2528
-889 631 2547
-888 635 2568
-883 637 2578
-876 638 2582
-870 639 2591
-866 642 2606
-862 645 2620
-858 648 2635
-850 648 2635
-845 650 2648
-844 656 2673
-834 654 2668
-827 655 2674
-824 659 2692
-819 661 2704
-814 664 2717
-805 663 2718
-800 666 2730
-795 668 2743
-790 671 2755
-779 668 2748
-773 671 2761
-769 674 2776
-758 672 2769
-752 674 2780
-745 675 2785
-738 677 2794
-723 670 2770
-714 670 2769
-702 666 2758
-694 666 2759
-685 666 2759
-675 664 2753
-668 665 2758
-658 663 2754
-650 663 2754
-640 661 2748
-630 660 2743
-621 658 2740
-610 655 2730
-605 659 2747
-594 656 2735
-586 656 2736
-577 655 2735
-569 655 2734
-557 650 2718
-548 649 2713
-535 643 2692
-437 535 2237
-426 528 2211
0 0 0
0 0 0
0 0 0
0 0 0
0 0 0
-384 525 2203
0 0 0
0 0 0
0 0 0
0 0 0
0 0 0
0 0 0
0 0 0
-338 535 2255
0 0 0
-326 536 2262
0 0 0
-297 510 2150
-310 543 2292
-292 524 2213
-281 515 2177
-282 530 2239
-272 523 2210
-281 553 2339
-250 505 2137
-248 514 2175
-244 519 2196
-240 523 2213
-238 533 2258
-231 533 2258
-221 524 2221
-213 521 2210
-207 521 2212
-202 525 2229
-190 512 2175
-181 504 2139
-175 504 2142
-171 512 2173
-164 511 2169
-157 507 2153
-155 523 2221
-148 520 2209
-140 513 2183
-133 511 2172
-126 512 2176
-123 524 2229
-114 515 2192
-107 510 2172
-98 498 2118
-94 509 2167
-89 517 2203
-80 504 2146
-76 518 2208
-69 510 2175
-63 517 2203
-57 520 2216
-50 517 2202
-44 522 2226
-39 533 2272
-33 544 2320
-26 548 2339
-19 547 2335
-13 559 2386
-6 578 2467
0 589 2516
7 590 2518
15 588 2509
22 587 2508
29 587 2505
37 586 2502
44 586 2501
51 585 2497
59 586 2502
66 584 2496
73 582 2485
80 584 2493
87 583 2488
95 584 2492
102 584 2495
109 581 2482
116 581 2480
124 581 2482
131 581 2481
138 580 2478
145 580 2477
152 579 2473
159 578 2468
166 577 2463
174 577 2465
181 578 2465
188 578 2465
195 577 2463
203 577 2464
209 576 2457
216 575 2456
223 574 2451
231 575 2453
237 572 2441
244 573 2445
252 573 2444
259 574 2446
265 570 2430
273 572 2437
280 572 2437
286 571 2431
294 571 2433
300 569 2423
308 570 2428
314 568 2419
320 567 2414
328 567 2414
335 568 2415
343 569 2422
348 565 2405
355 565 2403
363 566 2405
370 566 2404
376 564 2396
382 563 2393
390 565 2398
397 564 2396
403 563 2388
411 564 2393
417 562 2384
423 561 2379
430 561 2378
437 561 2376
444 560 2374
451 560 2372
457 559 2364
448 539 2281
471 558 2362
478 559 2364
485 559 2361
491 558 2357
498 558 2354
505 557 2350
512 557 2351
517 555 2340
525 556 2345
533 557 2348
539 556 2341
545 555 2335
553 555 2336
562 557 2344
565 553 2326
572 554 2328
579 554 2326
586 553 2322
593 553 2321
598 552 2314
605 552 2314
614 554 2320
620 553 2313
626 552 2310
633 552 2308
639 551 2302
646 551 2301
653 551 2300
659 550 2292
665 549 2290
675 551 2296
678 548 2283
686 549 2285
694 550 2286
701 550 2283
705 548 2273
714 549 2277
720 549 2275
726 548 2269
735 549 2273
740 548 2265
748 548 2267
753 547 2258
760 547 2258
768 547 2258
774 547 2253
781 547 2252
786 546 2246
793 546 2244
800 546 2242
808 546 2241
813 545 2236
819 544 2229
825 544 2225
836 546 2233
841 545 2229
849 546 2228
854 545 2222
860 544 2217
866 543 2212
874 544 2212
883 545 2216
888 544 2209
896 545 2209
900 543 2200
910 545 2204
916 544 2198
924 545 2200
932 545 2200
936 544 2191
943 543 2187
948 542 2180
960 545 2189
962 543 2177
968 542 2171
974 542 2168
975 538 2152
1002 549 2192
1007 548 2187
1025 554 2207
1034 555 2208
1043 556 2209
1047 554 2200
1040 547 2168
1042 544 2154
1042 541 2137
1008 519 2051
953 488 1923
1009 513 2021
855 432 1698
721 362 1418
698 348 1363
705 349 1365
712 351 1368
727 356 1386
782 380 1480
908 439 1707
934 449 1744
940 449 1740
947 449 1741
951 448 1735
961 450 1740
966 450 1737
972 450 1733
979 451 1733
984 451 1730
987 449 1721
996 450 1724
-1355 630 2299
-1349 631 2306
-1330 626 2291
-1315 622 2281
-1312 624 2294
-1300 622 2289
-1288 620 2286
-1269 614 2270
-1256 612 2263
-1244 609 2258
-1246 613 2278
-1228 609 2264
-1210 603 2247
-1204 603 2252
-1191 601 2245
-1183 600 2248
-1165 595 2230
-1156 594 2231
-1147 593 2231
-1137 591 2228
-1127 590 2227
-1117 588 2224
-1101 584 2210
-1054 562 2131
-997 536 2033
-963 521 1980
-964 525 1997
-968 530 2021
-967 534 2037
-966 536 2050
-964 539 2062
-962 541 2074
-958 543 2084
-969 553 2126
-977 561 2160
-972 562 2167
-973 567 2188
-976 572 2212
-978 578 2236
-971 578 2239
-975 584 2266
-972 586 2278
-962 585 2276
-958 587 2285
-959 592 2307
-958 595 2324
-950 595 2326
-944 595 2331
-942 599 2348
-944 604 2372
-940 607 2383
-933 607 2387
-927 608 2393
-928 614 2419
-924 616 2430
-920 618 2441
-917 621 2455
-913 623 2468
-905 623 2469
-904 628 2491
-898 629 2498
-897 634 2520
-893 636 2531
-890 640 2549
-880 638 2544
-881 644 2570
-875 646 2580
-873 649 2598
-866 650 2604
-859 651 2608
-854 653 2621
-851 657 2637
-846 659 2648
-838 659 2652
-833 661 2663
-831 666 2684
-823 666 2687
-820 671 2708
-816 674 2722
-808 674 2725
-801 675 2732
-796 678 2746
-791 680 2758
-781 679 2756
-775 681 2766
-770 684 2780
-762 684 2782
-748 679 2765
-746 685 2790
-742 688 2806
-723 679 2769
-713 677 2765
-704 676 2762
-694 675 2758
-685 674 2755
-679 676 2769
-667 673 2755
-657 671 2748
-648 670 2748
-639 669 2746
-631 669 2748
-623 669 2750
-614 668 2745
-604 667 2742
-592 662 2725
-586 664 2737
-577 663 2734
-569 663 2734
-559 662 2729
-550 660 2726
-532 648 2675
-454 562 2322
-459 577 2385
0 0 0
-408 529 2189
0 0 0
0 0 0
0 0 0
0 0 0
-411 578 2398
0 0 0
0 0 0
0 0 0
0 0 0
0 0 0
0 0 0
0 0 0
-351 573 2384
0 0 0
-324 552 2298
-292 508 2117
-294 522 2174
-283 515 2145
-284 527 2196
-282 535 2231
-262 509 2125
-255 508 2119
-276 563 2353
-255 535 2236
-248 533 2228
-214 474 1980
-223 506 2116
-215 502 2099
-212 510 2132
-215 533 2232
-210 535 2241
-206 544 2277
-191 520 2179
-185 522 2187
-179 522 2188
-173 523 2193
-162 511 2143
-157 513 2151
-152 517 2169
-147 524 2199
-143 531 2231
-135 525 2204
-124 507 2127
-121 521 2188
-115 526 2211
-103 496 2084
-102 525 2205
-95 522 2193
-88 517 2171
-81 512 2151
-74 511 2148
-68 515 2164
-63 518 2179
-56 519 2183
-50 522 2194
-43 511 2152
-36 510 2146
-33 550 2315
-26 545 2295
-19 538 2265
-13 558 2350
-6 575 2421
0 589 2484
7 598 2521
15 597 2514
22 597 2514
29 596 2512
37 594 2505
44 592 2495
51 594 2506
59 594 2504
66 591 2492
73 592 2495
80 590 2489
88 590 2487
95 590 2489
102 588 2478
109 590 2485
117 590 2489
124 589 2481
131 587 2476
138 587 2476
145 588 2476
153 587 2474
159 585 2466
167 587 2472
174 585 2467
180 583 2456
189 586 2471
195 583 2457
203 585 2463
210 583 2458
216 583 2454
224 584 2459
231 583 2453
238 583 2453
245 582 2451
251 580 2440
258 578 2433
265 579 2436
273 579 2435
280 578 2433
287 579 2436
295 581 2442
301 578 2431
308 578 2428
315 577 2424
321 575 2415
328 574 2412
336 577 2422
342 574 2409
349 574 2410
356 574 2411
362 573 2403
370 574 2406
377 573 2401
382 571 2392
389 569 2385
398 572 2397
404 571 2391
411 571 2390
417 570 2385
425 570 2384
433 571 2389
438 569 2380
445 568 2375
453 570 2381
459 568 2373
452 551 2300
471 566 2361
480 568 2371
486 566 2363
493 566 2361
499 566 2358
505 565 2352
513 565 2353
519 564 2347
526 564 2347
533 564 2345
540 563 2342
546 563 2338
552 562 2334
559 562 2332
566 561 2328
569 558 2314
581 563 2332
585 560 2320
590 558 2309
599 560 2316
605 559 2312
613 560 2314
619 558 2306
626 559 2308
635 561 2313
640 559 2305
646 557 2297
654 559 2302
659 557 2292
667 557 2293
673 557 2291
680 557 2288
688 558 2289
694 557 2285
700 556 2280
708 557 2281
714 556 2277
722 557 2278
727 555 2270
735 556 2271
741 555 2267
747 554 2262
754 554 2260
759 553 2252
766 553 2252
774 554 2252
779 553 2245
787 553 2246
797 555 2252
801 553 2242
807 553 2239
813 552 2234
821 553 2234
828 553 2233
837 554 2236
841 552 2227
847 552 2222
855 552 2222
863 552 2221
866 550 2210
875 552 2213
880 550 2206
888 551 2207
896 552 2207
901 550 2200
907 550 2195
919 553 2204
922 550 2193
928 550 2189
938 551 2193
944 551 2189
950 550 2184
960 553 2190
963 550 2178
968 549 2169
977 550 2171
992 555 2188
993 551 2172
1003 553 2175
1034 566 2225
1036 563 2212
1042 563 2207
1043 559 2191
1042 555 2170
1040 550 2149
1040 546 2132
992 518 2017
971 503 1957
1008 519 2018
833 426 1652
729 371 1434
699 353 1364
714 358 1382
708 353 1360
732 363 1395
797 392 1508
910 445 1710
931 453 1737
940 455 1740
945 454 1736
953 455 1737
958 455 1733
978 461 1756
985 462 1755
979 457 1732
991 459 1740
991 457 1727
999 458 1728
-1358 639 2302
-1351 639 2307
-1333 634 2294
-1320 632 2289
-1309 630 2287
-1301 630 2290
-1293 630 2293
-1271 623 2271
-1261 621 2270
-1252 621 2271
-1232 614 2251
-1231 617 2267
-1214 613 2254
-1201 610 2246
-1192 609 2246
-1183 608 2247
-1166 603 2231
-1164 605 2245
-1153 603 2240
-1136 598 2225
-1130 599 2230
-1116 595 2221
-1100 590 2206
-1069 578 2161
-1006 547 2049
-966 529 1985
-961 530 1990
-967 537 2019
-967 540 2034
-960 540 2037
-962 544 2057
-961 548 2073
-959 550 2084
-974 562 2134
-981 570 2167
-976 571 2175
-971 572 2181
-982 583 2225
-977 584 2232
-976 587 2247
-973 590 2259
-969 592 2271
-964 593 2279
-963 597 2295
-954 595 2293
-957 602 2320
-948 601 2320
-948 605 2339
-941 605 2342
-940 609 2361
-939 614 2380
-937 617 2396
-926 615 2390
-933 624 2429
-924 623 2429
-916 623 2429
-914 627 2447
-907 627 2451
-906 631 2470
-903 635 2487
-898 636 2496
-895 640 2512
-889 641 2519
-888 646 2541
-884 648 2554
-878 650 2560
-879 656 2589
-874 658 2599
-864 657 2597
-864 663 2623
-856 663 2625
-851 665 2638
-848 669 2653
-840 669 2657
-836 672 2671
-830 674 2681
-826 677 2695
-818 677 2698
-813 680 2712
-804 679 2712
-802 684 2735
-795 686 2742
-791 689 2756
-782 688 2756
-778 692 2774
-767 690 2766
-761 692 2777
-752 691 2776
-749 696 2797
-735 691 2780
-724 688 2769
-712 685 2759
-702 683 2756
-694 683 2757
-682 680 2745
-677 682 2757
-666 680 2750
-658 680 2751
-650 680 2754
-639 677 2743
-631 678 2747
-622 677 2745
-613 675 2740
-605 675 2743
-595 673 2737
-586 673 2736
-578 672 2735
-568 671 2730
-559 669 2726
-550 668 2723
-530 654 2667
-445 557 2271
-443 563 2298
0 0 0
0 0 0
0 0 0
0 0 0
0 0 0
-383 537 2195
-385 549 2249
-371 538 2204
0 0 0
0 0 0
0 0 0
-349 545 2236
0 0 0
-317 514 2110
0 0 0
0 0 0
0 0 0
-306 538 2213
-309 555 2284
-290 534 2196
-276 520 2139
-278 534 2201
-272 536 2209
-268 540 2226
-271 561 2312
-245 520 2145
-235 513 2116
-235 527 2173
-230 529 2183
-220 519 2144
-220 536 2216
-211 529 2187
-204 528 2184
-193 515 2129
-190 524 2166
-185 529 2187
-187 552 2283
-173 531 2198
-162 517 2139
-154 511 2116
-149 516 2138
-148 532 2204
-139 523 2168
-132 522 2165
-126 524 2173
-123 536 2222
-115 531 2202
-105 515 2137
-103 533 2212
-96 535 2219
-86 514 2131
-80 513 2130
-76 531 2204
-69 526 2185
-63 525 2180
-55 516 2142
-50 523 2171
-44 527 2188
-38 539 2238
-32 553 2300
-26 561 2334
-19 564 2344
-13 586 2438
-6 588 2446
0 589 2451
7 596 2478
15 595 2476
22 605 2517
30 605 2517
37 600 2499
44 601 2499
51 591 2457
57 582 2420
64 584 2431
73 596 2481
81 600 2496
88 598 2489
95 597 2486
102 597 2486
109 597 2484
117 597 2485
124 597 2485
131 594 2471
138 596 2479
146 596 2480
153 594 2473
160 593 2468
166 591 2461
174 593 2467
181 591 2457
189 593 2466
195 591 2460
203 591 2459
210 591 2456
217 591 2457
223 588 2446
230 588 2444
238 590 2453
245 588 2444
252 588 2444
259 589 2446
267 589 2447
273 588 2440
279 585 2429
288 587 2438
294 585 2428
301 585 2427
308 585 2426
314 582 2416
321 583 2418
329 583 2417
335 582 2412
342 582 2413
349 581 2408
356 580 2405
362 578 2396
369 580 2400
377 579 2399
384 580 2400
391 580 2398
397 578 2392
405 579 2394
411 577 2386
418 577 2385
424 576 2381
431 576 2379
437 574 2370
445 576 2377
452 575 2373
459 576 2375
451 557 2297
470 572 2355
480 576 2370
486 574 2364
492 573 2357
500 573 2358
506 572 2354
514 573 2356
518 570 2343
527 572 2351
532 570 2339
539 570 2338
546 570 2338
552 569 2331
560 570 2334
566 569 2330
572 567 2321
581 569 2328
586 567 2319
594 568 2323
600 567 2317
606 566 2312
613 567 2311
621 567 2312
625 565 2301
633 566 2305
639 564 2297
648 566 2303
653 565 2295
660 564 2292
668 565 2296
674 564 2289
680 564 2287
688 565 2288
694 564 2284
701 564 2282
705 562 2271
714 563 2277
722 564 2278
728 563 2272
733 562 2265
744 564 2274
745 560 2255
754 562 2259
759 560 2250
766 560 2251
775 562 2254
782 562 2253
791 563 2255
794 560 2242
802 561 2242
810 562 2245
817 561 2241
823 561 2238
826 558 2226
835 560 2230
840 558 2221
849 560 2226
855 559 2219
860 558 2214
866 557 2207
874 558 2209
883 559 2213
890 559 2210
896 559 2206
903 558 2203
909 558 2199
916 558 2197
925 559 2199
932 559 2196
938 559 2192
948 560 2197
951 558 2184
958 558 2182
965 558 2179
969 556 2171
976 556 2169
973 551 2143
989 556 2162
997 557 2162
1029 570 2213
1039 572 2215
1047 573 2216
1047 568 2197
1039 560 2162
1039 557 2146
1034 550 2117
981 519 1994
971 510 1957
1008 526 2016
810 419 1604
714 368 1403
716 366 1394
704 358 1361
718 363 1378
765 384 1457
818 408 1547
916 454 1720
933 460 1739
948 464 1754
952 463 1747
959 464 1746
962 462 1739
966 461 1733
974 462 1734
983 464 1738
987 463 1732
992 463 1727
1004 465 1734
-1362 649 2308
-1353 648 2310
-1340 645 2304
-1323 641 2292
-1315 641 2296
-1297 636 2281
-1287 634 2280
-1281 635 2288
-1257 627 2262
-1253 628 2270
-1244 628 2271
-1231 625 2266
-1217 621 2257
-1210 621 2260
-1193 616 2246
-1187 617 2253
-1167 610 2231
-1162 612 2240
-1150 609 2233
-1138 607 2228
-1126 604 2221
-1118 604 2224
-1107 601 2218
-1086 594 2193
-1012 557 2061
-969 537 1988
-960 536 1987
-965 542 2012
-973 550 2045
-965 549 2045
-960 550 2052
-961 554 2071
-961 558 2088
-970 567 2124
-982 578 2168
-971 575 2161
-975 582 2189
-977 587 2212
-979 592 2235
-976 595 2248
-969 595 2251
-969 599 2269
-964 601 2277
-966 606 2302
-964 609 2316
-952 606 2307
-949 609 2320
-947 612 2336
-945 616 2352
-940 617 2361
-939 621 2378
-933 622 2386
-931 625 2400
-929 629 2417
-923 631 2426
-921 634 2442
-912 633 2440
-914 639 2468
-901 636 2457
-903 643 2486
-897 644 2492
-897 649 2517
-894 652 2531
-888 654 2539
-885 657 2554
-880 659 2564
-876 662 2579
-877 669 2608
-868 668 2607
-863 670 2617
-857 672 2627
-851 673 2633
-846 676 2647
-841 677 2657
-836 680 2669
-827 680 2670
-822 682 2682
-821 688 2707
-815 690 2717
-804 687 2708
-800 691 2727
-798 696 2748
-790 696 2751
-781 696 2751
-776 699 2766
-768 699 2767
-761 700 2776
-750 698 2769
-748 704 2793
-736 700 2783
-726 699 2778
-713 694 2760
-705 694 2762
-693 690 2751
-684 689 2748
-676 690 2752
-667 689 2752
-658 688 2748
-650 688 2750
-641 688 2751
-631 685 2744
-621 684 2739
-612 682 2735
-602 680 2727
-596 683 2741
-583 678 2721
-577 680 2732
-569 680 2733
-560 679 2731
-550 676 2721
-536 668 2691
-461 585 2356
-421 543 2187
0 0 0
0 0 0
0 0 0
0 0 0
0 0 0
0 0 0
-374 541 2185
-367 539 2181
-371 555 2245
0 0 0
0 0 0
0 0 0
-342 551 2232
0 0 0
0 0 0
0 0 0
0 0 0
0 0 0
-294 535 2172
-307 572 2324
-282 537 2184
-276 538 2188
-271 540 2196
-273 558 2272
-254 532 2165
-246 529 2156
-243 535 2179
-244 552 2249
-240 558 2275
-220 527 2151
-225 555 2265
-204 518 2113
-209 547 2232
-197 534 2180
-197 550 2244
-181 523 2138
-175 525 2146
-171 530 2165
-166 537 2194
-165 553 2261
-153 536 2193
-147 536 2192
-140 535 2189
-135 539 2206
-129 542 2219
-119 526 2155
-114 532 2177
-110 544 2230
-103 542 2219
-96 541 2217
-88 530 2174
-79 512 2099
-75 529 2168
-68 526 2155
-62 524 2147
