VERSION 0.7
FIELDS x y z
SIZE 4 4 4
TYPE I I I
COUNT 1 1 1
WIDTH 3607
HEIGHT 1
VIEWPOINT 0.0 0.0 0.0 1.0 0.0 0.0 0.0
POINTS 3607
DATA ascii
-688 -712 4041
-721 -759 4309
-778 -835 4736
-771 -842 4780
-757 -842 4781
-747 -847 4807
-733 -847 4811
-713 -839 4768
-700 -840 4775
-675 -828 4706
-655 -819 4658
-624 -797 4533
-620 -810 4604
-620 -827 4705
-601 -820 4665
-566 -792 4503
-505 -722 4111
-454 -667 3795
-434 -653 3715
-445 -687 3909
0 0 0
-449 -730 4158
-406 -678 3863
-383 -658 3750
-369 -652 3715
-335 -611 3481
-339 -638 3637
-331 -643 3663
-310 -623 3548
-303 -629 3586
-303 -651 3711
-287 -639 3644
-288 -667 3802
-277 -667 3803
-287 -720 4100
-311 -812 4627
-3 -14 86
-13 -43 253
-7 -29 172
0 -10 62
-6 -27 161
-23 -89 510
0 0 0
0 0 0
0 0 0
0 0 0
-33 -179 1022
-36 -205 1174
-34 -214 1224
-31 -221 1263
-26 -212 1211
-26 -236 1346
-20 -220 1256
-17 -232 1323
-12 -205 1171
-10 -243 1387
-5 -217 1237
-2 -221 1260
1 -215 1228
5 -224 1276
8 -208 1187
12 -215 1225
15 -211 1206
20 -229 1305
23 -216 1231
26 -213 1216
30 -214 1223
33 -216 1234
37 -219 1248
43 -232 1321
44 -214 1222
50 -228 1299
52 -219 1245
56 -219 1248
58 -214 1220
62 -216 1232
69 -227 1294
69 -215 1223
77 -230 1309
85 -240 1366
83 -226 1283
86 -222 1262
94 -233 1324
98 -235 1334
105 -241 1368
100 -222 1261
109 -234 1327
113 -234 1326
0 0 0
0 0 0
0 0 0
364 -674 3807
365 -655 3702
362 -630 3558
362 -614 3464
374 -617 3480
370 -594 3350
365 -570 3212
379 -577 3252
380 -565 3186
377 -547 3082
388 -550 3098
390 -540 3038
0 0 0
0 0 0
359 -465 2615
405 -514 2889
396 -492 2767
397 -483 2713
0 0 0
0 0 0
0 0 0
0 0 0
0 0 0
0 0 0
0 0 0
0 0 0
0 0 0
233 -234 1313
0 0 0
212 -205 1150
268 -258 1441
261 -246 1375
337 -315 1758
336 -309 1722
301 -272 1519
278 -247 1377
282 -247 1376
378 -328 1825
385 -329 1832
372 -314 1745
321 -266 1482
257 -210 1166
235 -188 1048
220 -174 968
195 -152 843
98 -74 412
73 -53 299
56 -39 223
70 -49 278
136 -98 547
133 -95 526
0 0 0
0 0 0
127 -87 485
0 0 0
53 -33 187
20 -10 60
30 -17 99
3 1 -4
43 -25 142
0 0 0
0 0 0
0 0 0
0 0 0
0 0 0
1043 -652 3551
1040 -644 3503
1052 -644 3504
1047 -635 3451
0 0 0
0 0 0
0 0 0
0 0 0
0 0 0
0 0 0
0 0 0
0 0 0
0 0 0
0 0 0
1041 -570 3067
1064 -577 3103
1079 -580 3116
1056 -563 3020
0 0 0
0 0 0
0 0 0
0 0 0
1017 -520 2775
1059 -537 2863
1060 -533 2838
1069 -533 2835
1072 -530 2818
1079 -530 2812
1073 -523 2771
1036 -500 2651
1094 -525 2776
1103 -525 2773
1059 -500 2639
1076 -504 2658
1103 -513 2702
1070 -494 2598
1061 -486 2553
1115 -507 2660
1088 -491 2575
1095 -491 2570
1093 -486 2542
1111 -491 2564
1108 -486 2534
1105 -481 2507
1100 -476 2475
1110 -477 2477
1107 -472 2451
1112 -471 2440
1106 -466 2408
1114 -466 2406
1121 -465 2401
1118 -461 2376
1111 -455 2342
1117 -454 2335
1124 -455 2332
1114 -448 2293
1102 -440 2250
1119 -444 2267
1116 -440 2243
1104 -432 2202
1106 -430 2189
1104 -427 2168
1109 -426 2160
1118 -427 2161
1124 -427 2155
1130 -427 2152
1121 -420 2117
1122 -419 2104
1117 -414 2079
1119 -412 2066
1118 -409 2048
1117 -407 2032
1122 -406 2025
1123 -404 2012
1121 -401 1994
1129 -402 1993
-492 -160 842
-490 -161 846
-483 -159 839
-485 -161 849
-465 -155 820
-466 -157 828
-470 -159 841
-470 -160 847
-454 -155 825
-471 -162 863
-477 -165 880
-481 -168 894
-466 -163 873
-535 -189 1009
-943 -335 1791
-1079 -386 2065
-1080 -389 2083
-1070 -388 2080
-1063 -388 2081
-1056 -388 2085
-1050 -388 2089
-1038 -386 2081
-1033 -387 2087
-1026 -387 2089
-1016 -386 2085
-1005 -384 2078
-1001 -385 2087
-989 -383 2078
-982 -383 2081
-968 -380 2067
-964 -381 2074
-962 -382 2086
-950 -381 2079
-949 -383 2093
-943 -383 2097
-921 -377 2064
-910 -375 2056
-895 -371 2039
-891 -372 2047
-881 -371 2041
-875 -371 2044
-871 -372 2052
-860 -370 2043
-850 -369 2038
-840 -367 2030
-848 -374 2068
-826 -367 2031
-821 -367 2037
-817 -368 2045
-792 -360 2000
-796 -364 2027
-787 -363 2022
-781 -363 2025
-752 -353 1968
-761 -360 2008
-751 -358 2000
-760 -365 2043
-760 -369 2063
-744 -364 2036
-734 -362 2027
-727 -361 2027
-730 -366 2055
-717 -363 2039
-719 -367 2064
-713 -367 2067
-704 -366 2059
-702 -368 2074
-696 -368 2075
-693 -370 2088
-681 -367 2074
-665 -362 2044
-664 -365 2061
-664 -368 2082
-655 -367 2076
-642 -363 2055
-632 -360 2044
-632 -364 2066
-624 -363 2062
-625 -367 2087
-614 -365 2073
-604 -363 2064
-600 -364 2070
-594 -364 2074
-591 -366 2084
-577 -361 2060
-573 -362 2067
-571 -366 2086
-571 -369 2109
-560 -366 2092
-554 -366 2094
-545 -365 2086
-541 -367 2097
-539 -369 2113
-531 -368 2108
-522 -366 2098
-516 -366 2100
-509 -366 2099
-502 -365 2094
-496 -365 2097
-490 -366 2099
-481 -363 2087
-479 -367 2109
-522 -405 2328
-548 -431 2479
-573 -457 2627
-546 -441 2537
0 0 0
-608 -505 2907
0 0 0
0 0 0
-650 -564 3248
0 0 0
0 0 0
0 0 0
0 0 0
-723 -678 3906
0 0 0
-646 -626 3609
-681 -670 3865
-691 -692 3993
-691 -703 4060
-730 -756 4366
-785 -828 4779
-782 -839 4847
-766 -838 4840
-752 -838 4839
-739 -840 4851
-723 -837 4840
-711 -840 4858
-686 -827 4779
-672 -827 4784
-653 -821 4748
-638 -820 4744
-626 -822 4757
-614 -825 4773
-597 -820 4748
-541 -761 4407
-516 -744 4310
-493 -729 4221
0 0 0
-518 -805 4662
0 0 0
-452 -742 4298
-426 -720 4169
-399 -695 4025
-356 -639 3701
-347 -642 3722
0 0 0
-359 -709 4107
-339 -691 4005
-327 -692 4010
-302 -662 3840
0 0 0
-319 -755 4379
-329 -811 4702
-331 -850 4925
-3 -15 90
-9 -32 191
-3 -15 95
0 -7 48
-8 -36 213
-25 -97 567
0 0 0
0 0 0
0 0 0
0 0 0
-27 -145 847
-34 -194 1128
-33 -205 1195
-31 -220 1279
-27 -212 1233
-23 -212 1232
-19 -211 1224
-15 -206 1200
-12 -214 1243
-8 -205 1191
-6 -225 1306
-2 -217 1260
1 -221 1286
5 -211 1226
9 -225 1305
12 -218 1268
16 -218 1267
20 -222 1286
22 -208 1209
27 -216 1254
30 -210 1221
34 -215 1247
38 -217 1257
42 -218 1265
44 -214 1240
52 -235 1362
52 -214 1239
59 -230 1331
58 -210 1216
65 -222 1283
68 -219 1268
78 -240 1387
79 -230 1331
81 -227 1312
83 -222 1286
85 -215 1246
95 -232 1340
106 -250 1446
105 -238 1372
107 -233 1348
98 -205 1185
0 0 0
0 0 0
372 -721 4146
366 -687 3952
381 -693 3982
0 0 0
0 0 0
363 -604 3468
361 -585 3358
367 -579 3323
362 -556 3193
369 -552 3166
369 -539 3090
373 -531 3045
392 -545 3124
392 -534 3056
0 0 0
0 0 0
394 -501 2868
405 -505 2888
375 -457 2614
0 0 0
0 0 0
0 0 0
0 0 0
0 0 0
0 0 0
0 0 0
0 0 0
0 0 0
0 0 0
0 0 0
211 -205 1168
221 -211 1204
0 0 0
353 -330 1872
362 -332 1886
320 -289 1638
319 -284 1609
287 -252 1427
273 -236 1336
380 -324 1834
377 -317 1795
358 -297 1680
288 -234 1326
239 -192 1085
231 -182 1031
0 0 0
0 0 0
170 -128 726
62 -44 250
63 -44 250
119 -85 483
108 -76 433
126 -88 500
134 -93 526
0 0 0
0 0 0
89 -58 330
0 0 0
38 -22 128
28 -15 90
11 -3 25
9 -2 18
0 0 0
0 0 0
0 0 0
0 0 0
0 0 0
1044 -642 3557
1030 -627 3470
1061 -640 3538
1056 -630 3481
0 0 0
0 0 0
0 0 0
0 0 0
0 0 0
0 0 0
0 0 0
0 0 0
0 0 0
0 0 0
1060 -571 3123
1071 -571 3124
1077 -570 3111
1055 -553 3018
1058 -550 2998
0 0 0
0 0 0
0 0 0
1054 -530 2877
1056 -526 2855
1063 -526 2849
1073 -526 2849
1079 -525 2838
1082 -522 2820
1070 -512 2764
1040 -494 2662
1088 -513 2760
1074 -502 2701
1087 -505 2709
1091 -503 2695
1053 -482 2580
1092 -496 2654
1080 -486 2600
1098 -491 2623
1100 -489 2605
1095 -483 2571
1106 -484 2574
1106 -480 2552
1088 -469 2490
1105 -473 2508
1099 -468 2474
1106 -467 2469
1107 -465 2452
1108 -462 2433
1113 -461 2424
1108 -456 2395
1100 -449 2357
1105 -448 2349
1115 -450 2352
1111 -445 2324
1113 -443 2311
1098 -434 2261
1105 -434 2257
1114 -435 2258
1118 -434 2249
1109 -427 2212
1109 -425 2196
1117 -425 2195
1105 -418 2153
1110 -417 2147
1119 -418 2147
1123 -417 2139
1119 -413 2115
1122 -411 2104
1111 -405 2068
1116 -405 2062
1121 -404 2054
1114 -399 2027
1116 -397 2015
1114 -394 1996
1120 -394 1993
1122 -393 1982
-492 -158 842
-492 -158 848
-480 -156 834
-480 -157 841
-476 -156 839
-467 -154 829
-466 -155 834
-465 -155 839
-466 -156 846
-480 -162 878
-475 -162 877
-449 -154 835
-474 -163 888
-548 -190 1034
-978 -342 1859
-1085 -382 2078
-1076 -381 2077
-1072 -382 2085
-1062 -381 2081
-1055 -381 2084
-1046 -380 2082
-1037 -379 2080
-1035 -381 2093
-1025 -380 2088
-1016 -379 2085
-1010 -379 2090
-1001 -378 2087
-991 -377 2083
-979 -375 2075
-964 -372 2060
-965 -375 2078
-965 -377 2095
-953 -375 2086
-947 -375 2088
-943 -376 2098
-915 -368 2053
-904 -366 2045
-893 -364 2037
-890 -366 2046
-883 -365 2047
-875 -365 2046
-871 -366 2053
-854 -361 2031
-846 -361 2028
-846 -363 2045
-840 -363 2048
-837 -365 2059
-836 -368 2075
-802 -355 2007
-807 -360 2039
-793 -357 2021
-783 -355 2014
-781 -357 2025
-759 -350 1986
-773 -359 2042
-749 -351 1996
-749 -354 2015
-754 -359 2047
-739 -355 2026
-729 -353 2015
-732 -358 2044
-717 -354 2021
-725 -360 2061
-714 -358 2052
-713 -361 2067
-706 -360 2066
-705 -363 2083
-694 -361 2071
-688 -361 2075
-680 -360 2070
-661 -353 2034
-657 -354 2041
-663 -361 2080
-655 -360 2076
-647 -360 2074
-637 -358 2063
-632 -358 2068
-633 -362 2094
-623 -360 2083
-615 -359 2078
-602 -355 2057
-597 -356 2062
-595 -359 2078
-585 -356 2066
-582 -358 2077
-574 -357 2072
-575 -362 2102
-567 -361 2095
-557 -358 2083
-555 -361 2099
-549 -361 2102
-537 -357 2080
-535 -360 2098
-529 -360 2100
-521 -360 2096
-514 -359 2094
-509 -360 2101
-507 -362 2116
-494 -358 2092
-491 -360 2106
-481 -358 2091
-494 -372 2176
-517 -395 2307
-555 -429 2510
-545 -427 2499
0 0 0
0 0 0
0 0 0
0 0 0
0 0 0
-706 -602 3528
-687 -595 3484
0 0 0
-743 -663 3888
-726 -659 3863
-732 -674 3954
-723 -676 3970
-703 -669 3929
-688 -665 3907
-693 -681 4002
-691 -692 4062
-720 -734 4310
-769 -797 4685
-764 -807 4742
-757 -814 4783
-740 -811 4766
-727 -812 4775
-713 -812 4777
-697 -809 4761
-678 -804 4729
-655 -793 4667
-636 -787 4630
-629 -794 4677
-621 -801 4719
-610 -805 4742
-588 -795 4683
-533 -738 4347
-513 -728 4288
-490 -712 4198
-496 -739 4353
-481 -736 4337
-475 -746 4399
-433 -699 4121
-427 -710 4187
-415 -710 4187
-384 -676 3987
-380 -690 4070
-373 -700 4130
-354 -687 4054
0 0 0
0 0 0
-323 -697 4111
0 0 0
-353 -819 4832
-342 -829 4889
-329 -832 4906
0 -6 41
-1 -11 71
1 -2 15
2 0 7
-3 -19 117
-24 -90 537
0 0 0
0 0 0
0 0 0
-32 -153 909
-33 -171 1015
-36 -201 1189
-36 -220 1299
-31 -213 1263
-28 -217 1282
-24 -213 1258
-20 -210 1240
-16 -208 1230
-13 -221 1304
-9 -209 1235
-5 -202 1196
-2 -214 1266
1 -197 1167
5 -225 1330
9 -221 1305
12 -209 1234
15 -198 1172
19 -208 1231
23 -216 1277
25 -202 1195
29 -204 1204
33 -207 1224
38 -216 1274
38 -197 1165
45 -215 1270
51 -224 1321
53 -218 1285
58 -221 1303
57 -202 1191
62 -208 1226
65 -207 1217
72 -217 1277
78 -224 1321
83 -227 1333
81 -211 1244
89 -224 1316
95 -228 1344
98 -227 1337
94 -209 1231
104 -223 1310
105 -217 1273
101 -200 1176
0 0 0
0 0 0
0 0 0
0 0 0
0 0 0
362 -610 3562
354 -579 3381
361 -575 3358
367 -570 3326
370 -559 3261
365 -538 3137
359 -515 3004
372 -522 3042
377 -516 3008
402 -538 3132
0 0 0
0 0 0
387 -485 2823
397 -487 2832
380 -456 2651
0 0 0
0 0 0
0 0 0
0 0 0
0 0 0
0 0 0
0 0 0
0 0 0
0 0 0
0 0 0
230 -224 1299
230 -220 1273
0 0 0
0 0 0
483 -444 2566
523 -474 2735
470 -419 2416
306 -267 1544
287 -247 1427
262 -222 1282
383 -321 1850
389 -322 1852
358 -292 1679
291 -233 1340
296 -234 1348
203 -157 903
229 -175 1008
0 0 0
190 -141 811
98 -70 404
97 -69 397
76 -52 302
117 -81 468
123 -84 485
105 -71 409
107 -71 411
0 0 0
116 -76 436
64 -40 232
30 -17 100
10 -3 24
1293 -842 4772
0 0 0
0 0 0
0 0 0
0 0 0
0 0 0
0 0 0
0 0 0
0 0 0
1062 -629 3541
0 0 0
0 0 0
0 0 0
0 0 0
0 0 0
0 0 0
0 0 0
0 0 0
0 0 0
0 0 0
0 0 0
1064 -563 3135
1071 -562 3125
1084 -564 3133
1057 -545 3026
1069 -546 3031
0 0 0
0 0 0
0 0 0
1012 -500 2764
1057 -518 2860
1063 -517 2850
1073 -518 2850
1078 -516 2837
1066 -506 2781
1071 -504 2768
1058 -494 2709
1065 -494 2705
1091 -502 2745
1080 -493 2695
1105 -501 2732
1098 -494 2691
1093 -488 2656
1100 -488 2651
1087 -478 2596
1096 -479 2595
1094 -474 2569
1093 -471 2546
1103 -471 2546
1102 -467 2522
1112 -469 2525
1108 -464 2496
1097 -456 2449
1109 -457 2456
1098 -450 2412
1110 -452 2419
1109 -449 2398
1111 -446 2383
1098 -438 2334
1100 -436 2321
1099 -433 2301
1086 -425 2254
1107 -430 2281
1114 -430 2277
1105 -424 2241
1097 -418 2208
1100 -417 2196
1099 -414 2177
1108 -414 2177
1107 -412 2159
1115 -412 2158
1113 -409 2136
1110 -405 2115
1110 -403 2099
1120 -404 2101
1111 -398 2070
1113 -397 2058
1114 -395 2043
1120 -394 2038
1122 -393 2028
1122 -391 2013
1131 -391 2013
1131 -389 1999
-502 -158 859
-489 -155 843
-478 -152 830
-477 -153 835
-481 -155 849
-474 -154 842
-465 -152 832
-468 -153 844
-474 -156 861
-467 -155 856
-486 -162 897
-482 -162 897
-492 -167 922
-556 -189 1050
-1007 -346 1916
-1083 -374 2076
-1074 -374 2074
-1068 -374 2078
-1062 -374 2083
-1051 -373 2078
-1048 -374 2087
-1034 -371 2075
-1034 -374 2091
-1021 -372 2081
-1014 -371 2083
-1007 -371 2085
-998 -371 2083
-987 -369 2076
-980 -369 2078
-964 -365 2061
-961 -367 2071
-962 -370 2089
-951 -368 2083
-944 -368 2084
-939 -368 2089
-913 -360 2048
-901 -358 2038
-892 -357 2034
-884 -357 2034
-878 -357 2037
-880 -360 2058
-868 -358 2048
-848 -352 2017
-849 -355 2036
-840 -354 2031
-837 -356 2042
-843 -361 2075
-823 -355 2043
-794 -346 1989
-795 -349 2009
-801 -354 2042
-789 -352 2030
-785 -353 2036
-760 -344 1990
-764 -349 2018
-742 -342 1979
-757 -351 2037
-754 -353 2047
-742 -351 2035
-743 -354 2055
-737 -354 2059
-723 -350 2039
-730 -357 2078
-718 -354 2062
-714 -355 2072
-708 -356 2075
-698 -354 2065
-692 -354 2068
-689 -355 2078
-674 -351 2053
-666 -350 2050
-666 -353 2070
-660 -353 2073
-651 -352 2065
-646 -352 2070
-639 -352 2069
-638 -355 2089
-627 -353 2074
-621 -353 2078
-610 -350 2064
-606 -351 2070
-600 -352 2073
-591 -350 2066
-585 -350 2068
-580 -351 2072
-571 -349 2065
-569 -352 2080
-561 -351 2075
-558 -352 2086
-553 -353 2092
-550 -355 2105
-541 -354 2096
-535 -354 2101
-527 -353 2095
-523 -354 2104
-514 -353 2095
-513 -356 2117
-504 -354 2105
-494 -352 2090
-491 -354 2104
-483 -353 2101
-496 -367 2183
-509 -382 2272
0 0 0
-525 -404 2408
-593 -463 2760
0 0 0
0 0 0
-762 -620 3696
-766 -633 3772
-767 -643 3837
-736 -626 3734
-739 -638 3809
-749 -657 3924
-739 -659 3933
-731 -661 3950
-719 -662 3953
-707 -662 3953
-688 -654 3911
-692 -669 4002
-686 -675 4035
-687 -688 4113
-694 -708 4232
-696 -722 4321
-687 -726 4346
-672 -723 4330
-668 -734 4392
-650 -727 4355
-634 -724 4339
-614 -715 4286
-587 -698 4185
-580 -704 4220
-569 -706 4234
-557 -707 4238
-552 -717 4297
-537 -713 4277
-509 -692 4150
-487 -679 4074
-475 -678 4068
-460 -674 4045
-450 -677 4059
-439 -679 4074
-422 -669 4017
-414 -676 4055
-400 -673 4040
-385 -668 4008
-375 -670 4020
-363 -670 4020
-353 -673 4038
-350 -691 4147
-341 -697 4185
-323 -684 4106
-327 -719 4316
-346 -791 4746
-341 -812 4876
-329 -817 4902
-319 -829 4977
0 -5 34
0 -4 28
1 -3 24
0 -8 57
-16 -62 380
-43 -162 976
-33 -134 812
-17 -79 479
-12 -65 396
-22 -117 710
-34 -188 1133
-32 -197 1187
-31 -210 1267
-28 -211 1274
-22 -200 1206
-21 -216 1303
-15 -194 1169
-13 -213 1283
-9 -207 1247
-5 -202 1218
-1 -197 1186
1 -204 1230
5 -196 1177
8 -203 1219
12 -201 1210
15 -197 1186
18 -197 1186
24 -217 1305
28 -219 1317
31 -211 1267
34 -210 1264
37 -206 1239
43 -216 1298
45 -211 1265
49 -213 1279
53 -213 1278
59 -220 1319
60 -210 1262
65 -217 1302
67 -210 1258
72 -215 1288
75 -212 1271
84 -226 1355
83 -213 1275
85 -209 1253
87 -205 1227
96 -218 1303
102 -222 1329
97 -204 1219
105 -213 1271
0 0 0
0 0 0
0 0 0
368 -667 3971
0 0 0
0 0 0
358 -592 3520
0 0 0
0 0 0
355 -540 3210
373 -554 3288
346 -501 2973
367 -518 3074
379 -522 3100
381 -512 3037
388 -510 3026
0 0 0
0 0 0
380 -468 2771
404 -486 2880
421 -497 2939
0 0 0
0 0 0
0 0 0
0 0 0
0 0 0
0 0 0
200 -204 1207
0 0 0
0 0 0
0 0 0
255 -244 1440
225 -211 1245
0 0 0
424 -389 2287
501 -454 2666
527 -470 2760
505 -443 2599
334 -287 1689
295 -249 1465
300 -250 1469
386 -318 1865
369 -299 1755
365 -293 1714
288 -227 1328
245 -190 1111
0 0 0
0 0 0
243 -181 1058
0 0 0
163 -117 686
150 -106 620
141 -98 573
146 -100 588
149 -101 591
0 0 0
0 0 0
84 -54 316
85 -53 314
76 -47 278
9 -3 21
19 -9 57
1297 -831 4791
40 -22 132
0 0 0
0 0 0
0 0 0
0 0 0
0 0 0
0 0 0
0 0 0
0 0 0
0 0 0
0 0 0
0 0 0
0 0 0
0 0 0
0 0 0
0 0 0
0 0 0
0 0 0
0 0 0
0 0 0
1058 -551 3120
1075 -554 3138
1058 -541 3060
1066 -540 3052
1037 -521 2941
0 0 0
0 0 0
0 0 0
1030 -501 2814
1059 -510 2865
1068 -510 2864
1062 -504 2823
1088 -512 2865
1091 -509 2846
1093 -506 2827
1085 -499 2781
1094 -499 2779
1076 -487 2710
1105 -496 2758
1084 -483 2682
1093 -483 2680
1084 -476 2635
1097 -478 2644
1092 -472 2609
1097 -471 2599
1091 -465 2562
1086 -459 2529
1101 -463 2544
1095 -457 2508
1100 -456 2499
1096 -451 2468
1103 -450 2464
1096 -445 2429
1106 -446 2432
1104 -442 2406
1084 -431 2345
1086 -429 2330
1101 -432 2343
1091 -425 2303
1083 -419 2268
1081 -416 2245
1097 -419 2261
1098 -417 2244
1110 -419 2252
1097 -411 2207
1101 -410 2199
1096 -406 2173
1108 -407 2178
1112 -406 2169
1110 -403 2149
1117 -403 2145
1113 -399 2121
1109 -396 2098
1119 -397 2100
1114 -393 2075
1124 -394 2078
1118 -390 2053
1127 -390 2053
1133 -390 2048
1130 -387 2028
1122 -382 1999
1135 -384 2007
-483 -149 827
-482 -150 832
-480 -150 835
-475 -150 833
-474 -150 838
-477 -152 848
-467 -150 838
-471 -152 851
-467 -151 849
-477 -156 875
-468 -153 864
-476 -157 885
-504 -168 946
-570 -191 1078
-1026 -346 1952
-1087 -369 2084
-1078 -368 2082
-1072 -369 2087
-1061 -367 2081
-1054 -367 2083
-1047 -367 2086
-1037 -366 2082
-1030 -366 2083
-1023 -366 2087
-1016 -366 2088
-1005 -364 2083
-999 -364 2086
-986 -362 2076
-977 -361 2073
-963 -358 2059
-967 -362 2085
-958 -361 2082
-953 -362 2087
-947 -362 2092
-935 -360 2082
-912 -354 2047
-907 -355 2054
-894 -352 2042
-890 -353 2048
-880 -351 2042
-870 -350 2035
-867 -351 2045
-859 -351 2043
-843 -347 2024
-854 -354 2067
-846 -353 2065
-832 -350 2050
-830 -352 2063
-799 -342 2002
-782 -337 1976
-805 -349 2052
-794 -348 2043
-780 -344 2024
-762 -339 1997
-762 -342 2014
-762 -345 2033
-749 -341 2016
-749 -345 2036
-753 -349 2065
-743 -347 2056
-729 -344 2035
-720 -342 2029
-722 -346 2055
-712 -345 2047
-717 -350 2080
-705 -347 2065
-702 -349 2077
-699 -351 2088
-683 -346 2060
-676 -346 2062
-661 -341 2035
-667 -347 2073
-661 -347 2076
-649 -345 2060
-642 -344 2059
-641 -347 2079
-639 -350 2094
-632 -349 2091
-619 -345 2070
-614 -346 2077
-605 -344 2067
-595 -342 2056
-592 -344 2067
-592 -348 2092
-580 -345 2073
-573 -344 2071
-570 -346 2084
-567 -348 2096
-560 -348 2097
-551 -346 2085
-544 -346 2086
-538 -346 2088
-533 -346 2091
-524 -345 2084
-521 -347 2099
-514 -347 2096
-509 -347 2099
-504 -348 2107
-495 -346 2097
-490 -347 2104
-487 -349 2118
-526 -383 2319
-479 -353 2139
0 0 0
0 0 0
0 0 0
-703 -547 3318
-731 -577 3500
-778 -623 3778
-781 -634 3848
-770 -634 3853
-752 -629 3820
-756 -642 3900
-754 -650 3951
-737 -645 3922
-727 -647 3933
-712 -644 3918
-705 -647 3939
-688 -643 3912
-690 -655 3990
-681 -658 4007
-669 -659 4011
-660 -661 4025
-648 -661 4025
-638 -663 4040
-629 -666 4060
-618 -667 4064
-601 -662 4034
-589 -661 4033
-578 -661 4035
-562 -657 4007
-548 -655 3995
-539 -658 4015
-526 -656 4007
-517 -660 4030
-506 -661 4033
-490 -655 3998
-480 -658 4017
-468 -656 4009
-454 -654 3992
-442 -654 3996
-432 -656 4009
-420 -655 4004
-408 -655 4005
-395 -653 3993
-383 -653 3991
-372 -654 3995
-361 -654 3998
-349 -653 3993
-342 -662 4046
-338 -678 4146
-316 -658 4024
-305 -661 4038
-311 -699 4273
-329 -770 4706
-322 -787 4807
-315 -803 4910
2 0 -1
-291 -817 4992
2 0 -1
0 -9 60
-18 -67 417
-44 -163 999
-30 -121 748
-8 -45 278
-6 -39 245
-21 -108 666
-34 -183 1121
-34 -200 1227
-31 -204 1250
-28 -208 1277
-24 -206 1265
-21 -217 1331
-17 -218 1339
-12 -201 1232
-8 -196 1204
-6 -214 1309
-1 -200 1227
1 -214 1313
5 -204 1249
8 -203 1241
12 -208 1274
16 -206 1264
19 -205 1257
23 -204 1250
27 -206 1261
32 -215 1312
33 -197 1207
37 -201 1229
41 -202 1233
44 -201 1227
47 -197 1205
51 -202 1232
58 -214 1306
62 -214 1310
62 -201 1225
67 -205 1250
72 -210 1281
82 -229 1395
78 -207 1264
85 -214 1303
94 -228 1390
89 -206 1254
99 -220 1340
99 -211 1286
101 -209 1272
117 -234 1422
101 -193 1175
0 0 0
0 0 0
0 0 0
372 -643 3895
349 -584 3539
386 -628 3800
357 -564 3413
344 -528 3197
0 0 0
357 -521 3149
369 -524 3168
347 -481 2905
372 -504 3045
380 -503 3037
391 -505 3049
0 0 0
0 0 0
386 -467 2816
410 -486 2926
385 -447 2692
0 0 0
0 0 0
0 0 0
0 0 0
0 0 0
250 -257 1547
239 -240 1447
233 -230 1384
216 -209 1260
0 0 0
215 -201 1211
249 -230 1383
349 -319 1914
475 -429 2568
504 -448 2682
536 -469 2804
513 -442 2641
348 -294 1757
323 -269 1609
308 -252 1506
365 -295 1763
381 -305 1817
365 -287 1713
265 -204 1220
237 -180 1076
0 0 0
0 0 0
211 -154 917
211 -151 903
202 -143 854
147 -102 607
0 0 0
115 -77 458
0 0 0
0 0 0
124 -81 481
131 -84 502
71 -43 261
85 -52 312
39 -22 133
7 -1 11
20 -9 59
65 -37 224
0 0 0
0 0 0
0 0 0
0 0 0
0 0 0
0 0 0
0 0 0
0 0 0
0 0 0
0 0 0
0 0 0
0 0 0
0 0 0
0 0 0
0 0 0
0 0 0
0 0 0
0 0 0
0 0 0
0 0 0
1075 -545 3141
1074 -539 3106
1056 -526 3026
0 0 0
0 0 0
0 0 0
0 0 0
1036 -495 2831
1059 -501 2866
1071 -503 2873
1080 -503 2872
1086 -502 2860
1091 -500 2847
1089 -495 2816
1084 -490 2780
1094 -490 2779
1085 -482 2733
1098 -484 2740
1092 -478 2701
1081 -470 2652
1100 -474 2674
1089 -466 2625
1092 -464 2610
1088 -459 2579
1088 -456 2557
1086 -451 2530
1091 -450 2521
1079 -442 2473
1097 -446 2493
1105 -447 2491
1101 -442 2461
1104 -440 2447
1094 -433 2406
1065 -419 2322
1100 -430 2380
1083 -420 2324
1092 -421 2324
1099 -421 2320
1063 -404 2227
1015 -383 2108
1065 -400 2196
1098 -409 2245
1104 -409 2241
1095 -403 2206
1086 -398 2170
1103 -401 2186
1109 -401 2181
1113 -400 2172
1119 -400 2168
1116 -396 2146
1113 -393 2123
1125 -395 2130
1123 -392 2110
1123 -389 2093
1115 -384 2063
1125 -385 2065
1131 -385 2061
1138 -385 2058
1143 -384 2052
1138 -381 2028
1143 -380 2022
-487 -148 835
-481 -147 831
-481 -148 838
-479 -148 840
-470 -146 831
-478 -149 851
-470 -148 843
-468 -148 846
-464 -148 845
-471 -151 865
-474 -153 877
-493 -160 919
-494 -161 927
-591 -194 1118
-1046 -347 1992
-1087 -362 2085
-1074 -360 2076
-1069 -361 2083
-1061 -361 2083
-1055 -361 2087
-1046 -360 2084
-1039 -360 2088
-1029 -359 2084
-1022 -359 2086
-1018 -360 2094
-1005 -358 2084
-999 -358 2086
-991 -357 2087
-972 -353 2063
-957 -350 2049
-967 -356 2086
-964 -357 2096
-950 -354 2082
-944 -355 2086
-937 -355 2088
-908 -346 2039
-901 -346 2041
-902 -349 2061
-889 -346 2048
-891 -349 2069
-878 -347 2056
-875 -348 2065
-851 -341 2027
-853 -345 2048
-851 -346 2062
-837 -344 2046
-834 -345 2055
-834 -347 2073
-798 -335 2001
-797 -337 2016
-803 -343 2050
-788 -339 2028
-768 -333 1996
-760 -332 1992
-765 -337 2024
-755 -335 2014
-757 -339 2039
-754 -340 2049
-761 -347 2088
-745 -342 2063
-722 -334 2017
-714 -334 2016
-726 -342 2068
-722 -343 2076
-716 -344 2080
-708 -343 2075
-702 -343 2079
-694 -342 2076
-684 -340 2064
-676 -339 2060
-657 -333 2025
-664 -340 2067
-663 -342 2083
-652 -340 2071
-641 -338 2058
-644 -343 2089
-638 -343 2092
-633 -343 2096
-613 -336 2052
-613 -339 2074
-606 -339 2071
-603 -341 2084
-597 -341 2087
-594 -343 2098
-582 -339 2080
-577 -340 2086
-573 -342 2095
-569 -343 2105
-566 -345 2118
-549 -339 2082
-550 -343 2111
-537 -339 2083
-531 -339 2085
-526 -340 2092
-519 -339 2091
-516 -341 2103
-509 -341 2100
-508 -345 2126
-491 -337 2082
-487 -339 2092
-489 -345 2128
-545 -389 2401
-480 -347 2144
-512 -375 2319
0 0 0
0 0 0
-742 -567 3503
-768 -595 3679
-787 -618 3823
-788 -628 3884
-780 -631 3902
-764 -627 3882
-762 -636 3934
-757 -641 3966
-743 -639 3958
-732 -640 3963
-718 -637 3949
-708 -639 3959
-691 -634 3930
-690 -644 3993
-684 -649 4026
-675 -653 4048
-664 -653 4054
-655 -656 4068
-639 -652 4047
-628 -653 4051
-620 -658 4083
-605 -653 4058
-595 -656 4076
-576 -648 4027
-566 -650 4038
-552 -648 4024
-543 -651 4045
-530 -649 4038
-516 -647 4020
-506 -649 4034
-494 -649 4034
-481 -647 4023
-468 -645 4015
-457 -646 4018
-445 -646 4017
-432 -644 4005
-420 -644 4009
-409 -645 4016
-397 -644 4008
-384 -642 3997
-374 -645 4013
-360 -642 3997
-350 -644 4009
-341 -648 4037
-337 -665 4140
-322 -658 4097
-303 -645 4013
-296 -654 4075
-306 -704 4385
-311 -745 4637
-307 -771 4798
-305 -801 4983
-291 -802 4989
-276 -802 4989
1 -2 20
-21 -76 478
-39 -144 900
-30 -117 736
-18 -81 511
-17 -84 528
-9 -53 334
-30 -164 1024
-34 -200 1253
-32 -210 1312
-27 -197 1233
-23 -196 1222
-19 -197 1228
-15 -191 1190
-12 -201 1254
-9 -212 1323
-5 -190 1186
-2 -206 1283
1 -205 1278
5 -204 1271
8 -199 1241
12 -199 1244
16 -207 1289
19 -199 1239
24 -207 1293
27 -200 1249
30 -201 1254
36 -212 1323
37 -199 1237
42 -205 1276
46 -209 1300
51 -211 1315
52 -200 1243
56 -203 1262
60 -205 1273
64 -205 1276
69 -208 1293
73 -208 1293
77 -210 1307
77 -200 1242
82 -202 1257
92 -219 1362
90 -206 1276
92 -201 1249
101 -213 1319
106 -215 1335
103 -202 1252
100 -189 1173
0 0 0
0 0 0
0 0 0
365 -618 3812
0 0 0
0 0 0
0 0 0
0 0 0
366 -539 3318
373 -534 3291
333 -465 2863
377 -513 3160
368 -489 3009
391 -508 3126
393 -498 3062
0 0 0
0 0 0
394 -468 2874
403 -468 2876
364 -414 2542
0 0 0
0 0 0
0 0 0
0 0 0
193 -197 1209
265 -267 1638
285 -283 1734
271 -264 1616
276 -264 1619
254 -238 1459
261 -241 1474
261 -237 1450
346 -310 1895
484 -429 2616
502 -439 2672
532 -457 2783
512 -434 2638
341 -283 1723
296 -242 1473
293 -236 1436
323 -256 1559
364 -286 1735
349 -269 1636
276 -209 1271
254 -190 1155
212 -156 948
227 -165 1000
240 -172 1045
202 -143 866
133 -92 558
151 -103 624
155 -104 633
0 0 0
0 0 0
83 -52 318
0 0 0
58 -35 215
95 -58 356
81 -48 296
40 -22 138
26 -13 82
16 -7 46
0 0 0
31 -15 97
0 0 0
0 0 0
0 0 0
0 0 0
0 0 0
0 0 0
0 0 0
0 0 0
0 0 0
0 0 0
0 0 0
0 0 0
0 0 0
0 0 0
0 0 0
0 0 0
0 0 0
0 0 0
0 0 0
0 0 0
0 0 0
0 0 0
0 0 0
0 0 0
0 0 0
0 0 0
1042 -489 2848
1058 -492 2865
1068 -493 2866
1078 -493 2866
1085 -493 2858
1091 -492 2849
1110 -496 2872
1085 -481 2782
1091 -480 2774
1092 -477 2752
1093 -474 2729
1092 -470 2703
1091 -466 2678
1092 -463 2657
1088 -458 2625
1095 -457 2619
1077 -446 2554
1096 -451 2577
1082 -442 2523
1083 -439 2503
1090 -439 2500
1086 -434 2469
1080 -429 2435
1082 -427 2420
1069 -419 2370
1066 -415 2345
1054 -407 2298
1052 -404 2276
1125 -429 2415
1059 -401 2256
1081 -407 2284
1046 -391 2191
1105 -410 2297
1107 -408 2283
1102 -404 2256
1105 -403 2244
1115 -404 2246
1091 -392 2180
1107 -396 2195
1106 -393 2177
1110 -392 2167
1118 -392 2167
1123 -391 2159
1136 -394 2168
1131 -390 2142
1125 -385 2114
1128 -384 2104
1138 -385 2106
1131 -381 2078
1135 -379 2069
1142 -380 2066
1135 -375 2039
1139 -374 2030
1141 -373 2019
-482 -144 827
-479 -144 829
-479 -144 835
-480 -146 843
-475 -145 841
-480 -147 855
-472 -146 847
-465 -144 841
-469 -147 855
-456 -143 837
-460 -145 851
-486 -155 905
-471 -151 884
-601 -194 1136
-1059 -344 2018
-1081 -354 2075
-1073 -353 2076
-1069 -354 2083
-1060 -353 2082
-1053 -353 2084
-1047 -354 2089
-1036 -352 2083
-1031 -353 2088
-1020 -351 2082
-1015 -352 2089
-1004 -351 2082
-998 -351 2085
-987 -349 2080
-975 -347 2070
-963 -345 2062
-966 -349 2084
-961 -350 2092
-954 -349 2093
-949 -350 2098
-936 -348 2087
-907 -339 2037
-906 -341 2054
-894 -339 2042
-895 -342 2061
-875 -337 2033
-876 -340 2053
-860 -336 2033
-856 -337 2040
-845 -335 2030
-847 -338 2053
-838 -337 2048
-837 -339 2063
-833 -341 2073
-819 -338 2055
-788 -327 1993
-801 -335 2044
-801 -338 2062
-767 -326 1993
-739 -317 1938
-756 -327 2000
-757 -330 2021
-762 -335 2053
-746 -331 2030
-737 -329 2023
-750 -338 2079
-735 -334 2055
-727 -334 2053
-726 -336 2069
-718 -335 2066
-710 -334 2063
-710 -337 2081
-704 -338 2086
-698 -338 2086
-692 -338 2089
-684 -337 2088
-667 -332 2054
-665 -334 2071
-662 -335 2080
-650 -333 2067
-641 -331 2058
-644 -336 2089
-634 -334 2079
-624 -332 2066
-620 -334 2077
-609 -331 2061
-603 -331 2065
-599 -332 2071
-596 -334 2086
-593 -336 2096
-576 -330 2061
-576 -333 2084
-569 -333 2083
-563 -333 2083
-561 -336 2101
-550 -333 2084
-547 -335 2097
-537 -333 2086
-535 -335 2102
-522 -331 2076
-519 -333 2090
-511 -332 2086
-508 -334 2098
-505 -336 2113
-493 -333 2092
-489 -334 2099
-496 -343 2158
-513 -359 2261
-489 -347 2186
0 0 0
-519 -378 2384
0 0 0
-720 -540 3400
-775 -589 3711
-804 -620 3905
-797 -624 3930
-795 -631 3979
-774 -624 3937
-770 -631 3977
-760 -631 3983
-755 -637 4022
-744 -638 4026
-734 -640 4042
-719 -637 4024
-704 -635 4009
-697 -639 4034
-690 -643 4064
-697 -662 4181
-694 -671 4239
-686 -674 4263
-673 -674 4261
-665 -678 4290
-650 -676 4277
-634 -672 4253
-618 -669 4236
-604 -667 4223
-583 -657 4160
-572 -659 4173
-557 -656 4154
-546 -657 4160
-533 -656 4154
-522 -657 4163
-504 -650 4116
-488 -645 4088
-477 -646 4095
-465 -646 4092
-450 -642 4071
-440 -645 4088
-425 -641 4061
-413 -640 4059
-402 -641 4065
-391 -642 4071
-378 -640 4059
-366 -640 4058
-355 -641 4068
-345 -644 4086
-336 -651 4128
-321 -645 4091
-307 -641 4066
-298 -646 4098
-302 -682 4324
-309 -727 4614
-306 -753 4776
-306 -789 5001
-290 -785 4976
-276 -787 4992
0 -6 46
-29 -100 642
-43 -152 968
-30 -116 738
-32 -134 858
-21 -98 629
-8 -48 309
-28 -147 936
-33 -192 1221
-31 -200 1274
-27 -194 1237
-25 -210 1334
-20 -199 1264
-16 -197 1252
-13 -204 1299
-9 -195 1244
-5 -193 1227
-2 -201 1278
1 -196 1249
5 -194 1235
8 -195 1242
13 -206 1308
16 -206 1307
20 -205 1305
23 -198 1256
26 -196 1244
31 -203 1287
35 -202 1281
39 -205 1300
40 -191 1212
45 -200 1269
49 -198 1258
52 -196 1244
56 -198 1254
59 -197 1249
63 -196 1240
70 -207 1312
70 -195 1238
74 -197 1248
81 -205 1299
87 -211 1334
90 -209 1325
90 -202 1277
98 -210 1329
103 -214 1353
108 -216 1362
109 -210 1327
108 -201 1267
0 0 0
0 0 0
0 0 0
0 0 0
0 0 0
0 0 0
0 0 0
0 0 0
0 0 0
352 -495 3104
367 -503 3152
370 -494 3099
368 -480 3006
378 -482 3019
381 -474 2971
0 0 0
0 0 0
367 -427 2674
398 -454 2842
0 0 0
0 0 0
0 0 0
206 -215 1344
198 -202 1264
220 -221 1382
277 -274 1711
280 -272 1699
276 -264 1648
291 -274 1706
282 -261 1626
267 -242 1508
290 -259 1614
350 -308 1916
477 -415 2576
504 -432 2681
537 -453 2811
528 -439 2720
339 -276 1714
298 -239 1481
280 -221 1372
340 -265 1643
362 -279 1725
329 -249 1542
254 -189 1169
245 -179 1111
227 -164 1013
239 -170 1053
229 -161 997
0 0 0
0 0 0
155 -104 643
143 -94 583
120 -77 479
0 0 0
108 -68 420
0 0 0
128 -79 487
110 -67 414
57 -33 205
12 -4 31
1279 -785 4785
1308 -794 4837
34 -17 112
0 0 0
0 0 0
0 0 0
0 0 0
0 0 0
0 0 0
0 0 0
0 0 0
0 0 0
0 0 0
0 0 0
0 0 0
0 0 0
0 0 0
0 0 0
0 0 0
0 0 0
0 0 0
0 0 0
0 0 0
0 0 0
0 0 0
0 0 0
0 0 0
0 0 0
0 0 0
0 0 0
1036 -477 2831
1053 -481 2852
1068 -484 2866
1072 -482 2851
1080 -482 2848
1087 -481 2839
1092 -480 2828
1098 -478 2818
1094 -473 2782
1090 -467 2747
1058 -450 2644
1065 -450 2637
1058 -443 2596
1083 -451 2636
1092 -451 2636
1080 -443 2583
1092 -444 2589
1062 -429 2498
1090 -437 2543
1059 -422 2448
1066 -422 2445
1038 -407 2360
1046 -408 2358
1074 -416 2401
1059 -407 2349
1054 -403 2320
1068 -405 2332
1075 -405 2328
1109 -415 2381
1100 -409 2344
1083 -400 2289
1097 -403 2300
1108 -404 2305
1109 -402 2289
1107 -399 2267
1118 -400 2271
1104 -392 2225
1102 -389 2204
1100 -386 2183
1109 -387 2183
1112 -386 2173
1114 -384 2160
1123 -384 2160
1136 -387 2169
1138 -385 2156
1125 -378 2115
1132 -378 2112
1140 -379 2111
1128 -373 2074
1133 -372 2067
1134 -370 2053
1146 -372 2059
1143 -369 2039
1143 -367 2023
-487 -142 836
-491 -144 849
-477 -141 831
-479 -143 842
-475 -142 840
-474 -143 846
-462 -140 830
-463 -141 838
-465 -142 847
-462 -142 848
-477 -148 883
-462 -144 862
-491 -154 922
-615 -195 1164
-1066 -340 2033
-1081 -347 2076
-1077 -348 2085
-1069 -348 2085
-1061 -347 2085
-1053 -347 2086
-1043 -346 2082
-1039 -347 2090
-1029 -346 2086
-1023 -346 2090
-1012 -344 2084
-1001 -343 2077
-995 -343 2082
-986 -342 2079
-970 -339 2062
-966 -340 2068
-969 -344 2093
-962 -343 2095
-953 -342 2091
-948 -343 2097
-937 -342 2091
-910 -334 2047
-898 -332 2037
-905 -337 2068
-892 -334 2056
-883 -334 2052
-868 -330 2034
-867 -332 2050
-844 -326 2012
-852 -332 2048
-848 -332 2056
-840 -332 2053
-825 -328 2034
-825 -331 2052
-810 -327 2032
-811 -330 2053
-804 -330 2054
-787 -326 2029
-756 -315 1965
-749 -315 1966
-754 -320 1997
-771 -330 2060
-750 -323 2022
-742 -323 2019
-746 -327 2049
-739 -327 2049
-726 -324 2032
-730 -328 2061
-716 -325 2041
-725 -332 2088
-712 -329 2068
-702 -327 2060
-700 -329 2073
-690 -328 2065
-687 -329 2077
-677 -328 2067
-670 -327 2064
-663 -327 2065
-658 -327 2071
-642 -323 2041
-639 -324 2054
-641 -328 2081
-636 -329 2086
-629 -329 2084
-618 -326 2070
-611 -326 2068
-605 -326 2072
-600 -327 2077
-597 -328 2089
-590 -328 2088
-582 -327 2083
-579 -329 2098
-567 -326 2078
-565 -328 2092
-557 -327 2087
-549 -326 2081
-550 -330 2110
-542 -330 2106
-533 -328 2095
-527 -328 2099
-520 -328 2096
-520 -332 2122
-509 -329 2103
-505 -330 2113
-490 -324 2079
-489 -328 2101
-487 -331 2120
-488 -336 2154
-415 -289 1858
-448 -316 2031
-432 -309 1986
0 0 0
0 0 0
0 0 0
-791 -599 3846
-799 -614 3942
-788 -615 3948
-781 -618 3972
-770 -618 3975
-787 -642 4128
-783 -649 4171
-758 -638 4104
-739 -632 4069
-732 -637 4098
-706 -624 4017
-695 -625 4025
-692 -633 4078
-724 -674 4344
-765 -725 4670
-756 -730 4700
-745 -733 4722
-734 -735 4736
-720 -735 4740
-701 -730 4705
-686 -729 4700
-662 -717 4628
-633 -701 4522
-615 -695 4487
-606 -700 4518
-596 -704 4545
-584 -706 4555
-566 -700 4518
-530 -670 4328
-511 -662 4276
-499 -663 4280
-480 -655 4229
-470 -657 4247
-459 -660 4263
-438 -647 4178
-427 -649 4192
-412 -645 4170
-395 -638 4122
-383 -636 4114
-373 -640 4139
-364 -646 4178
-356 -654 4225
-343 -652 4215
-331 -653 4218
-317 -648 4192
-308 -656 4240
-312 -693 4477
-315 -729 4712
-309 -747 4829
-5 -19 129
2 0 -1
-277 -774 5004
-3 -16 109
-37 -121 791
-29 -103 675
-39 -147 957
-41 -166 1075
-28 -124 806
-23 -113 734
-37 -191 1238
-31 -179 1161
-32 -203 1314
-26 -190 1231
-24 -195 1266
-20 -198 1287
-16 -194 1258
-12 -195 1262
-9 -193 1251
-5 -190 1230
-1 -190 1234
1 -193 1249
5 -189 1224
8 -190 1230
13 -204 1322
16 -191 1235
19 -188 1220
22 -187 1213
28 -207 1342
31 -196 1270
35 -200 1294
37 -191 1236
41 -192 1241
46 -199 1284
50 -200 1296
53 -198 1281
56 -195 1260
59 -194 1252
65 -199 1288
68 -199 1285
71 -196 1267
75 -195 1261
80 -201 1298
89 -214 1379
89 -203 1306
92 -201 1293
102 -216 1390
105 -213 1373
106 -207 1331
113 -214 1375
108 -196 1262
0 0 0
0 0 0
0 0 0
364 -594 3802
0 0 0
0 0 0
0 0 0
0 0 0
376 -532 3404
0 0 0
363 -489 3123
357 -469 2995
365 -467 2985
381 -477 3043
370 -452 2883
0 0 0
0 0 0
354 -404 2578
398 -446 2845
385 -422 2690
0 0 0
0 0 0
194 -199 1267
204 -205 1305
203 -200 1274
234 -227 1446
263 -251 1595
283 -266 1691
306 -282 1794
295 -267 1698
305 -272 1724
298 -262 1661
374 -324 2050
479 -409 2587
507 -427 2700
535 -443 2802
527 -430 2719
353 -283 1787
299 -235 1485
259 -200 1265
344 -263 1663
367 -277 1748
357 -266 1677
307 -225 1419
254 -183 1152
223 -158 997
260 -183 1151
248 -171 1079
222 -151 952
203 -136 858
186 -123 773
131 -84 533
150 -96 604
0 0 0
100 -61 388
100 -60 383
0 0 0
0 0 0
40 -21 138
30 -15 98
1293 -779 4836
13 -4 32
15 -6 42
0 0 0
0 0 0
0 0 0
0 0 0
0 0 0
0 0 0
1030 -564 3479
1043 -565 3484
1033 -555 3415
0 0 0
0 0 0
0 0 0
0 0 0
0 0 0
0 0 0
0 0 0
0 0 0
0 0 0
0 0 0
0 0 0
0 0 0
0 0 0
0 0 0
0 0 0
0 0 0
0 0 0
0 0 0
1039 -470 2843
1054 -473 2858
1068 -475 2867
1077 -475 2865
1082 -474 2854
1091 -474 2850
1115 -481 2888
1072 -459 2752
1093 -464 2779
1085 -457 2736
1077 -450 2693
1034 -429 2562
1074 -442 2637
1075 -439 2617
1081 -439 2610
1075 -433 2573
1058 -423 2509
1064 -422 2502
1083 -427 2527
1084 -424 2507
1085 -421 2490
1039 -401 2365
1047 -401 2361
1089 -414 2438
1089 -411 2417
1093 -410 2406
1095 -408 2391
1082 -400 2343
1107 -407 2378
1092 -399 2327
1106 -401 2339
1092 -393 2290
1111 -398 2312
1123 -400 2319
1116 -395 2287
1118 -393 2273
1113 -389 2245
1106 -384 2213
1106 -381 2195
1114 -381 2194
1112 -379 2173
1115 -377 2163
1123 -378 2162
1130 -378 2159
1127 -374 2135
1141 -377 2147
1132 -372 2113
1128 -368 2090
1133 -368 2084
1135 -366 2071
1129 -362 2046
1138 -363 2046
1140 -361 2034
1144 -360 2026
-479 -137 823
-485 -140 839
-473 -137 825
-474 -138 832
-479 -140 848
-472 -139 842
-472 -140 848
-470 -141 852
-471 -142 859
-492 -149 903
-486 -148 900
-472 -145 881
-511 -157 960
-639 -198 1211
-1071 -335 2043
-1087 -342 2088
-1075 -341 2082
-1071 -342 2090
-1061 -340 2086
-1055 -341 2091
-1044 -340 2085
-1037 -340 2088
-1029 -339 2087
-1021 -338 2086
-1014 -338 2088
-1002 -337 2081
-999 -338 2091
-986 -336 2081
-970 -333 2062
-974 -336 2086
-968 -336 2090
-960 -336 2092
-953 -336 2091
-945 -335 2091
-933 -333 2081
-919 -331 2068
-903 -327 2048
-897 -328 2052
-885 -325 2041
-887 -329 2063
-878 -328 2059
-860 -323 2034
-854 -324 2038
-851 -325 2047
-850 -327 2063
-835 -324 2043
-826 -323 2039
-823 -324 2049
-818 -325 2055
-810 -324 2053
-801 -323 2046
-796 -323 2052
-774 -317 2013
-713 -294 1871
-758 -316 2009
-753 -316 2012
-762 -322 2055
-755 -322 2056
-750 -323 2060
-749 -325 2076
-738 -323 2065
-727 -321 2054
-727 -324 2073
-722 -324 2079
-710 -322 2066
-713 -326 2094
-705 -325 2089
-690 -322 2067
-692 -326 2094
-671 -318 2048
-665 -318 2050
-661 -320 2060
-661 -323 2082
-647 -319 2058
-645 -321 2073
-639 -321 2074
-634 -322 2079
-629 -322 2085
-618 -320 2071
-610 -319 2066
-602 -318 2063
-600 -320 2077
-595 -321 2083
-589 -321 2085
-577 -318 2065
-573 -320 2076
-570 -321 2087
-563 -321 2088
-553 -319 2073
-549 -320 2084
-545 -322 2094
-537 -320 2088
-533 -322 2099
-526 -321 2094
-518 -320 2089
-515 -322 2102
-509 -322 2105
-498 -319 2086
-495 -321 2100
-489 -321 2101
-480 -320 2093
-458 -309 2024
-423 -289 1894
-416 -289 1890
-435 -306 2001
-428 -305 1999
-433 -313 2052
0 0 0
0 0 0
0 0 0
0 0 0
0 0 0
0 0 0
-878 -703 4608
-873 -710 4654
-848 -700 4593
-836 -702 4603
-768 -656 4302
-713 -619 4064
-701 -619 4061
-697 -626 4108
-758 -693 4549
-802 -746 4901
-788 -746 4902
-776 -749 4921
-759 -746 4900
-747 -749 4920
-734 -749 4927
-716 -746 4906
-700 -745 4898
-686 -745 4897
-678 -752 4948
-664 -752 4948
-652 -756 4972
-633 -750 4934
-619 -751 4943
-600 -745 4903
-590 -751 4941
-581 -757 4984
-562 -752 4952
1 0 11
-537 -757 4986
-504 -730 4809
-480 -716 4717
-467 -716 4719
-423 -668 4404
-409 -667 4393
-430 -724 4768
-416 -723 4767
-405 -729 4800
-388 -723 4766
-374 -723 4763
-355 -713 4695
-344 -718 4731
-337 -733 4827
-334 -757 4991
-14 -40 271
-23 -64 429
1 0 11
1 -2 23
-15 -52 348
-32 -106 705
-39 -135 894
-48 -175 1160
-47 -183 1209
-39 -163 1082
-38 -176 1163
-36 -181 1197
-34 -188 1245
-30 -187 1239
-26 -183 1209
-23 -186 1232
-20 -193 1275
-15 -177 1170
-13 -200 1321
-9 -193 1276
-5 -187 1238
-1 -192 1270
1 -183 1212
5 -187 1234
9 -196 1296
12 -190 1258
16 -191 1261
20 -192 1269
24 -195 1284
27 -196 1292
31 -193 1272
35 -195 1283
39 -200 1317
43 -199 1310
46 -195 1286
51 -202 1330
52 -190 1253
55 -188 1238
61 -195 1283
67 -202 1330
68 -194 1280
75 -202 1329
78 -202 1328
81 -199 1311
85 -199 1308
93 -208 1369
94 -202 1324
100 -208 1365
100 -200 1311
104 -199 1310
113 -210 1378
106 -189 1241
0 0 0
357 -609 3978
372 -615 4016
0 0 0
0 0 0
0 0 0
365 -536 3499
0 0 0
0 0 0
349 -472 3074
366 -483 3144
377 -485 3159
357 -448 2916
379 -465 3028
369 -442 2877
0 0 0
0 0 0
362 -406 2639
401 -441 2866
375 -403 2620
0 0 0
0 0 0
188 -189 1227
205 -202 1313
215 -208 1354
253 -241 1563
273 -256 1657
289 -266 1725
295 -267 1727
296 -263 1704
267 -233 1508
309 -267 1723
368 -313 2020
464 -389 2509
500 -413 2661
531 -432 2784
541 -434 2792
447 -352 2265
307 -237 1528
257 -195 1259
314 -235 1515
379 -281 1805
342 -250 1604
284 -204 1313
259 -183 1180
240 -167 1076
241 -166 1064
252 -171 1099
254 -170 1091
0 0 0
115 -73 474
144 -92 590
145 -91 586
0 0 0
0 0 0
117 -70 450
94 -55 354
68 -38 251
96 -55 354
21 -9 64
21 -9 64
3 0 -1
63 -33 215
45 -23 149
0 0 0
0 0 0
0 0 0
0 0 0
0 0 0
1045 -561 3529
1017 -541 3399
1049 -552 3467
1049 -547 3433
0 0 0
0 0 0
0 0 0
0 0 0
0 0 0
0 0 0
0 0 0
0 0 0
0 0 0
0 0 0
0 0 0
0 0 0
0 0 0
0 0 0
0 0 0
0 0 0
0 0 0
1018 -452 2786
1056 -465 2862
1069 -467 2872
1075 -466 2862
1077 -463 2840
1071 -456 2799
1079 -456 2794
1060 -445 2720
1090 -454 2774
1089 -450 2747
1086 -445 2716
1100 -448 2727
1012 -408 2485
1101 -441 2682
1073 -427 2591
1101 -435 2637
1065 -418 2529
1101 -429 2592
1059 -410 2473
1065 -409 2466
1085 -414 2491
1078 -408 2453
1085 -408 2450
1087 -406 2433
1099 -407 2441
1103 -406 2429
1109 -406 2423
1101 -400 2386
1119 -404 2406
1110 -398 2366
1105 -393 2338
1103 -390 2314
1117 -393 2326
1116 -390 2305
1123 -390 2301
1119 -386 2276
1121 -384 2261
1110 -378 2222
1116 -378 2217
1108 -372 2183
1112 -371 2174
1110 -369 2155
1123 -371 2162
1132 -371 2163
1132 -369 2148
1140 -370 2146
1134 -365 2118
1139 -365 2112
1136 -362 2090
1137 -360 2076
1132 -356 2052
1144 -358 2057
1137 -354 2030
1141 -353 2022
-491 -138 845
-489 -138 847
-478 -136 834
-484 -138 851
-469 -135 831
-466 -135 831
-463 -135 832
-463 -136 839
-470 -139 858
-471 -140 866
-485 -145 897
-483 -145 901
-497 -150 935
-676 -206 1280
-1076 -330 2054
-1085 -335 2085
-1073 -333 2079
-1066 -333 2081
-1062 -334 2090
-1052 -333 2085
-1045 -333 2087
-1038 -333 2089
-1030 -333 2090
-1020 -332 2086
-1012 -331 2086
-1002 -330 2082
-995 -330 2083
-986 -329 2081
-967 -325 2057
-968 -328 2076
-969 -330 2094
-962 -330 2097
-954 -330 2095
-948 -330 2100
-935 -328 2089
-912 -322 2052
-906 -322 2057
-900 -322 2060
-896 -323 2067
-883 -321 2056
-872 -319 2045
-866 -319 2048
-860 -320 2053
-846 -317 2035
-845 -319 2050
-835 -317 2045
-832 -319 2055
-828 -319 2062
-816 -317 2050
-802 -314 2032
-803 -317 2053
-793 -316 2046
-764 -307 1989
-701 -284 1842
-745 -304 1975
-771 -317 2063
-749 -311 2021
-754 -315 2053
-753 -318 2069
-741 -315 2055
-731 -314 2048
-718 -311 2029
-725 -317 2070
-717 -316 2066
-717 -319 2085
-708 -317 2078
-698 -316 2071
-692 -316 2073
-684 -315 2069
-672 -313 2052
-664 -312 2049
-661 -314 2061
-658 -315 2073
-645 -312 2051
-640 -312 2058
-638 -315 2073
-635 -316 2084
-627 -315 2080
-616 -313 2065
-609 -312 2064
-606 -314 2077
-600 -314 2080
-600 -317 2100
-586 -313 2075
-575 -311 2061
-572 -313 2074
-568 -314 2083
-566 -316 2100
-556 -314 2087
-549 -314 2083
-548 -317 2103
-540 -316 2100
-533 -316 2099
-525 -314 2091
-525 -318 2119
-511 -314 2088
-508 -316 2102
-497 -313 2083
-496 -316 2107
-487 -314 2094
-479 -313 2087
-448 -297 1981
-427 -287 1914
-421 -286 1913
-395 -273 1822
-427 -298 1994
-398 -282 1888
-385 -277 1851
0 0 0
0 0 0
0 0 0
0 0 0
-4 -4 34
-920 -722 4828
-918 -732 4893
-888 -719 4811
-877 -722 4828
-815 -682 4563
-722 -615 4115
-703 -609 4076
-705 -621 4159
-773 -693 4639
-801 -731 4897
-790 -733 4913
-779 -737 4941
-763 -735 4929
-750 -737 4938
-733 -734 4923
-719 -735 4926
-709 -740 4964
-695 -740 4963
-677 -737 4942
1 0 4
-646 -735 4930
-635 -738 4952
-621 -739 4962
-605 -737 4949
-590 -736 4939
-579 -740 4972
-1 -4 36
-4 -8 64
-9 -14 105
0 -1 18
-508 -743 4990
0 -3 26
-470 -729 4897
-456 -729 4899
-448 -741 4975
-433 -739 4967
-418 -737 4954
-400 -732 4919
-388 -735 4939
0 -4 32
-6 -17 120
-10 -27 187
-17 -43 297
-50 -122 829
-44 -114 771
-10 -32 221
-1 -10 74
-15 -50 345
-34 -110 746
-49 -165 1111
-54 -190 1280
-49 -187 1260
-44 -182 1231
-42 -187 1264
-38 -185 1249
-36 -193 1304
-32 -194 1311
-26 -183 1236
-23 -182 1226
-19 -182 1231
-16 -185 1245
-13 -188 1269
-8 -179 1208
-5 -193 1299
-1 -183 1235
1 -192 1293
5 -191 1284
8 -184 1238
12 -185 1247
17 -197 1326
20 -192 1295
23 -189 1273
26 -181 1217
31 -193 1300
33 -180 1213
36 -178 1198
45 -205 1377
47 -195 1309
49 -186 1252
52 -185 1245
56 -187 1257
60 -187 1259
64 -190 1279
71 -200 1340
73 -195 1309
75 -190 1273
79 -190 1278
82 -189 1265
86 -190 1274
93 -196 1314
101 -204 1367
99 -194 1297
104 -195 1308
107 -194 1298
112 -196 1312
0 0 0
348 -582 3877
0 0 0
367 -576 3834
0 0 0
0 0 0
0 0 0
0 0 0
0 0 0
0 0 0
0 0 0
329 -415 2758
354 -436 2894
369 -444 2949
365 -429 2848
0 0 0
0 0 0
360 -396 2626
399 -430 2849
356 -375 2486
0 0 0
198 -199 1320
189 -185 1230
207 -200 1327
219 -208 1379
243 -227 1504
275 -253 1671
288 -260 1719
291 -258 1704
295 -257 1699
298 -255 1686
328 -277 1827
360 -300 1973
458 -377 2479
517 -418 2750
540 -431 2833
562 -442 2902
469 -362 2379
322 -244 1602
225 -167 1101
311 -228 1500
371 -270 1768
361 -259 1698
260 -183 1198
243 -168 1103
275 -188 1233
250 -169 1107
225 -150 981
216 -142 928
178 -115 753
0 0 0
0 0 0
98 -59 390
0 0 0
140 -84 548
123 -72 475
0 0 0
0 0 0
69 -38 252
5 0 4
1289 -748 4824
19 -7 55
14 -4 36
0 0 0
0 0 0
0 0 0
0 0 0
0 0 0
0 0 0
0 0 0
1054 -550 3522
1045 -540 3456
0 0 0
0 0 0
0 0 0
0 0 0
0 0 0
0 0 0
0 0 0
0 0 0
0 0 0
0 0 0
0 0 0
0 0 0
0 0 0
0 0 0
0 0 0
0 0 0
0 0 0
0 0 0
1030 -448 2818
1062 -459 2880
1074 -460 2885
1086 -462 2892
1065 -449 2809
1079 -451 2822
1096 -455 2840
1058 -436 2718
1101 -450 2804
1012 -410 2553
1060 -427 2651
1107 -442 2745
1071 -425 2633
1059 -416 2579
1061 -414 2562
1122 -435 2689
1098 -422 2607
1087 -415 2559
1085 -412 2534
1103 -415 2554
1085 -406 2492
1101 -409 2508
1102 -406 2488
1113 -408 2494
1106 -402 2457
1105 -399 2435
1115 -400 2438
1116 -398 2420
1119 -396 2406
1106 -389 2359
1125 -393 2380
1120 -389 2352
1126 -388 2345
1125 -386 2326
1124 -382 2303
1119 -378 2276
1124 -378 2268
1108 -370 2220
1112 -369 2209
1117 -369 2203
1113 -365 2177
1107 -361 2149
1121 -363 2159
1134 -365 2168
1131 -362 2145
1132 -360 2132
1132 -358 2115
1130 -355 2095
1125 -352 2071
1132 -352 2069
1136 -351 2060
1138 -349 2047
1137 -347 2031
1142 -347 2025
-493 -136 847
-489 -135 848
-476 -133 832
-472 -132 831
-480 -135 850
-462 -131 825
-476 -136 855
-460 -132 834
-468 -135 855
-477 -138 877
-480 -140 889
-491 -144 916
-498 -147 936
-698 -208 1324
-1083 -326 2067
-1083 -328 2084
-1076 -328 2086
-1068 -327 2087
-1060 -327 2086
-1054 -327 2091
-1042 -326 2083
-1035 -326 2085
-1029 -326 2088
-1018 -324 2083
-1012 -325 2088
-1003 -324 2084
-990 -322 2075
-985 -322 2080
-969 -319 2062
-964 -320 2067
-968 -323 2092
-961 -323 2096
-953 -323 2095
-948 -323 2101
-938 -322 2095
-915 -316 2060
-901 -314 2046
-890 -312 2037
-886 -313 2045
-886 -316 2063
-867 -311 2034
-862 -311 2040
-857 -312 2045
-851 -312 2049
-847 -313 2057
-848 -316 2076
-842 -316 2079
-825 -312 2055
-819 -312 2059
-805 -309 2042
-806 -312 2062
-796 -311 2053
-781 -307 2032
-746 -296 1961
-722 -289 1914
-737 -297 1972
-754 -306 2035
-738 -303 2012
-734 -304 2020
-738 -308 2048
-730 -307 2046
-723 -307 2045
-720 -308 2055
-720 -311 2074
-715 -311 2079
-709 -312 2084
-701 -311 2079
-699 -313 2096
-681 -308 2062
-664 -303 2030
-668 -308 2063
-662 -307 2063
-657 -308 2069
-643 -305 2047
-638 -305 2053
-637 -308 2071
-636 -310 2089
-628 -310 2085
-624 -310 2092
-612 -308 2077
-607 -308 2080
-602 -309 2087
-599 -311 2098
-591 -310 2096
-580 -307 2079
-573 -307 2078
-568 -308 2083
-564 -309 2094
-558 -309 2093
-555 -311 2108
-546 -309 2097
-538 -308 2092
-534 -310 2103
-526 -309 2098
-519 -309 2096
-513 -309 2098
-509 -310 2106
-500 -309 2098
-492 -307 2090
-486 -307 2092
-480 -307 2091
-448 -290 1979
-436 -286 1952
-412 -275 1875
-410 -277 1890
-411 -282 1923
-411 -285 1948
-410 -289 1970
0 0 0
0 0 0
0 0 0
0 0 0
-25 -19 138
-930 -716 4881
-904 -707 4822
-893 -709 4840
-872 -704 4808
-827 -679 4634
-732 -611 4176
-706 -599 4094
-714 -616 4211
-780 -685 4684
-799 -714 4882
-788 -718 4909
-772 -716 4896
-757 -716 4895
-744 -717 4904
-733 -720 4926
-714 -716 4900
-699 -715 4893
-687 -717 4910
-671 -715 4896
-654 -713 4883
-643 -716 4903
-626 -713 4884
-611 -713 4881
-597 -713 4886
-583 -713 4887
-571 -716 4903
-557 -717 4912
-542 -715 4902
-526 -714 4890
-513 -716 4904
-499 -715 4900
-485 -716 4906
-468 -711 4877
-453 -711 4875
-439 -710 4870
-425 -711 4874
-412 -714 4892
-397 -712 4880
-384 -715 4901
-373 -719 4932
-3 -10 80
1 0 8
-2 -9 68
-33 -80 558
-45 -113 781
-22 -61 429
-2 -12 93
-21 -66 462
-49 -150 1038
-54 -176 1212
-49 -170 1171
-47 -175 1204
-42 -171 1179
-40 -177 1219
-37 -177 1218
-32 -173 1192
-32 -190 1309
-24 -167 1151
-22 -176 1214
-20 -187 1285
-16 -179 1232
-12 -177 1219
-9 -182 1252
-5 -192 1320
-1 -177 1218
1 -184 1268
5 -181 1244
8 -171 1178
13 -192 1317
16 -182 1254
20 -183 1259
23 -184 1264
27 -186 1280
31 -184 1266
34 -185 1267
38 -183 1259
42 -185 1267
46 -189 1296
51 -192 1315
53 -186 1274
56 -184 1264
59 -181 1241
62 -178 1221
67 -184 1262
72 -186 1273
75 -185 1267
79 -185 1269
82 -184 1258
88 -190 1300
89 -184 1262
94 -187 1278
98 -187 1279
107 -198 1351
111 -197 1349
