VERSION 0.7
FIELDS x y z
SIZE 4 4 4
TYPE I I I
COUNT 1 1 1
WIDTH 3533
HEIGHT 1
VIEWPOINT 0.0 0.0 0.0 1.0 0.0 0.0 0.0
POINTS 3533
DATA ascii
-913 633 1502
-1328 923 2200
-1406 983 2348
-1398 983 2352
-1387 981 2352
-1370 974 2340
-1333 954 2295
-1316 948 2284
-1297 939 2267
-1283 935 2261
-1281 939 2274
-1249 921 2235
-1246 924 2246
-1233 920 2240
-1220 916 2234
-1209 913 2231
-1195 909 2224
-1181 904 2216
-1178 907 2226
-1164 902 2218
-1151 897 2210
-1141 896 2210
-1132 894 2210
-1123 893 2210
-1108 886 2198
-1099 885 2198
-1094 887 2207
-1080 881 2195
-1074 883 2202
-1066 882 2203
-1049 873 2185
-995 834 2090
-966 816 2046
-951 809 2032
-948 812 2042
-948 818 2061
-945 821 2071
-946 828 2091
-943 831 2103
-948 841 2131
-961 859 2179
-971 874 2222
-957 868 2209
-951 869 2214
-961 884 2256
-953 884 2259
-953 891 2278
-941 887 2271
-941 893 2291
-933 893 2293
-929 896 2304
-917 891 2293
-900 882 2273
-895 884 2279
-871 867 2240
-855 859 2220
-847 858 2220
-843 861 2231
-830 855 2217
-825 857 2225
-818 857 2228
-769 813 2115
-713 760 1979
-696 749 1953
-694 753 1965
-671 735 1920
-680 752 1966
-673 751 1966
-651 733 1920
-663 753 1976
-657 753 1978
-667 772 2030
-634 741 1951
-612 722 1902
-627 748 1971
-627 754 1990
-617 750 1981
-606 744 1966
-614 762 2015
-593 743 1967
-587 743 1970
-593 759 2013
-595 769 2042
-576 753 2000
-575 760 2021
-561 749 1994
-565 763 2032
-560 764 2038
-542 748 1997
-545 761 2031
-531 750 2005
-531 759 2029
-519 751 2010
-513 752 2013
-511 758 2032
-502 754 2022
-508 771 2070
-499 767 2060
-489 762 2048
-489 772 2077
-488 781 2101
-484 784 2111
-472 776 2092
-462 769 2075
-460 776 2095
-462 791 2135
-459 797 2155
-450 793 2144
-444 794 2148
-440 798 2160
-433 797 2159
-426 797 2161
-417 792 2148
-416 804 2181
-412 808 2195
-410 816 2218
-403 816 2219
-397 818 2226
-391 819 2228
-387 825 2246
-378 822 2238
-371 821 2237
-361 814 2219
-355 814 2220
-345 806 2201
-343 818 2232
-326 794 2167
-311 773 2111
-290 736 2010
-283 734 2006
-282 747 2044
-272 738 2019
-275 761 2083
-266 755 2067
-252 732 2004
-245 730 2001
-246 750 2055
-231 724 1985
-225 724 1985
-234 772 2118
-236 801 2200
-215 750 2060
-205 736 2022
-198 735 2020
-193 737 2026
-184 728 2000
-177 724 1989
-174 738 2028
-164 721 1983
-163 742 2041
-158 745 2050
-146 718 1978
-144 738 2032
-138 738 2032
-134 751 2069
-131 772 2128
-127 781 2154
-120 783 2159
-114 782 2158
-105 764 2109
-97 755 2082
-92 762 2102
-87 777 2145
-78 756 2088
-70 739 2040
-65 751 2074
-60 760 2097
-54 766 2115
-48 769 2124
-42 778 2149
-35 776 2144
-29 789 2180
-23 798 2205
-17 806 2226
-11 848 2344
-4 928 2566
2 941 2602
10 926 2561
17 881 2436
23 808 2235
28 762 2105
34 761 2102
41 767 2120
47 769 2127
54 768 2122
60 766 2118
67 772 2133
73 770 2129
79 770 2129
86 771 2132
92 772 2133
100 778 2149
109 802 2216
118 815 2254
129 841 2326
136 842 2328
143 846 2338
147 828 2287
147 791 2186
146 748 2066
153 754 2082
160 758 2093
169 768 2119
177 778 2147
185 783 2161
188 769 2123
195 768 2120
202 773 2133
209 775 2137
214 769 2121
221 769 2121
229 775 2137
241 794 2188
256 821 2262
260 814 2243
265 807 2224
268 796 2192
270 782 2154
286 808 2225
304 840 2311
322 869 2392
330 873 2401
339 876 2409
343 869 2390
351 869 2389
357 866 2380
366 870 2391
373 870 2388
379 868 2384
387 869 2385
393 866 2376
400 865 2372
404 858 2352
404 844 2312
407 835 2287
412 832 2278
419 831 2274
426 831 2272
441 846 2314
453 855 2337
464 863 2357
473 865 2363
478 863 2355
474 842 2297
480 841 2293
499 860 2345
507 862 2349
514 861 2346
520 859 2338
526 857 2332
534 860 2338
540 857 2328
549 860 2337
558 863 2342
564 861 2337
570 859 2329
578 860 2329
586 861 2330
592 859 2324
601 862 2330
603 855 2311
600 840 2270
595 824 2224
591 809 2182
570 771 2079
556 744 2002
562 743 2000
565 739 1987
572 740 1988
580 742 1992
583 737 1978
595 745 1997
602 747 2000
616 755 2021
601 729 1951
586 704 1880
573 681 1819
577 679 1812
581 677 1805
590 681 1814
594 680 1809
601 681 1810
607 681 1808
615 684 1815
618 681 1806
625 682 1806
634 686 1816
640 685 1812
648 688 1817
653 687 1815
660 688 1815
684 707 1864
722 740 1948
753 766 2014
763 769 2022
775 774 2034
788 780 2047
799 785 2058
815 794 2078
822 795 2079
829 795 2077
835 794 2072
842 794 2070
861 806 2099
896 832 2165
916 844 2194
921 842 2187
933 846 2194
942 848 2197
948 847 2191
950 843 2177
959 845 2179
969 847 2183
971 842 2168
980 844 2169
987 843 2166
996 846 2169
1013 854 2187
1021 854 2185
1037 862 2201
1033 852 2175
1036 848 2162
1035 842 2142
1025 828 2105
999 802 2035
964 768 1946
794 628 1587
742 584 1472
707 552 1389
730 566 1424
731 564 1415
728 557 1397
801 609 1527
908 686 1718
936 703 1757
942 703 1755
948 703 1752
951 701 1743
960 703 1746
967 704 1746
979 708 1753
987 710 1754
982 702 1733
987 701 1727
990 699 1719
996 699 1717
1000 698 1711
1009 700 1713
1008 695 1699
1018 698 1702
1024 698 1699
-850 591 1386
-953 665 1565
-1275 894 2110
-1407 992 2347
-1409 999 2368
-1413 1007 2392
-1382 991 2357
-1365 985 2347
-1342 974 2325
-1311 957 2289
-1297 953 2282
-1276 943 2264
-1263 939 2257
-1247 933 2247
-1242 935 2255
-1216 921 2226
-1209 921 2229
-1197 918 2225
-1196 922 2240
-1174 911 2217
-1167 912 2222
-1159 911 2224
-1144 905 2212
-1133 902 2209
-1124 901 2209
-1112 897 2203
-1102 895 2201
-1089 890 2193
-1082 890 2196
-1073 889 2197
-1059 883 2185
-1047 879 2180
-998 844 2095
-965 822 2043
-948 813 2023
-943 814 2029
-946 823 2054
-946 829 2072
-946 834 2088
-951 845 2119
-949 849 2131
-962 867 2179
-961 873 2196
-962 880 2218
-961 886 2236
-950 882 2229
-950 889 2249
-954 899 2278
-941 894 2268
-939 899 2283
-937 904 2300
-930 904 2302
-928 910 2320
-924 912 2329
-912 909 2322
-896 900 2303
-873 883 2263
-852 870 2230
-835 859 2206
-828 860 2210
-806 844 2172
-794 839 2160
-762 812 2093
-714 768 1982
-703 762 1968
-673 737 1906
-695 767 1985
-666 742 1923
-671 754 1956
-682 774 2009
-653 748 1945
-661 764 1987
-648 756 1968
-633 746 1945
-644 766 1998
-639 768 2006
-625 759 1984
-620 760 1988
-621 769 2014
-598 748 1961
-605 765 2006
-590 753 1977
-587 757 1989
-588 766 2016
-577 760 2002
-567 755 1989
-572 770 2030
-566 770 2033
-556 765 2022
-557 776 2052
-552 777 2056
-543 773 2048
-539 777 2060
-532 776 2058
-538 795 2109
-525 785 2085
-522 790 2100
-511 782 2080
-513 795 2116
-509 799 2129
-496 790 2105
-498 803 2141
-491 803 2142
-476 788 2104
-475 797 2130
-473 804 2151
-464 801 2144
-469 822 2200
-460 817 2189
-448 808 2167
-442 809 2169
-437 812 2181
-430 811 2178
-425 814 2188
-419 816 2195
-414 820 2205
-411 825 2221
-402 821 2212
-395 821 2212
-391 827 2228
-384 825 2226
-379 831 2241
-372 830 2242
-366 832 2248
-358 828 2237
-351 828 2240
-343 825 2231
-336 824 2231
-329 825 2233
-309 791 2142
-297 777 2104
-278 744 2015
-269 734 1991
-271 756 2051
-270 773 2096
-261 766 2078
-246 738 2002
-241 743 2018
-236 745 2023
-225 730 1984
-224 746 2028
-241 823 2238
-217 765 2081
-204 741 2016
-200 749 2038
-190 734 1998
-182 727 1980
-180 742 2023
-176 750 2045
-166 733 1999
-162 741 2022
-155 738 2014
-151 747 2039
-144 748 2040
-139 753 2055
-135 766 2091
-132 782 2135
-128 797 2177
-120 790 2160
-115 796 2176
-108 793 2166
-99 779 2129
-93 782 2137
-87 787 2151
-80 776 2121
-71 747 2043
-65 756 2068
-60 774 2118
-55 791 2165
-49 796 2179
-43 804 2200
-36 804 2200
-31 825 2259
-24 826 2263
-17 818 2239
-10 806 2208
-4 854 2340
2 920 2522
10 949 2602
18 936 2564
24 885 2426
29 818 2240
34 768 2104
40 758 2075
47 776 2125
54 774 2120
60 772 2114
66 772 2115
73 773 2117
79 773 2117
86 777 2127
92 776 2124
99 778 2130
108 795 2178
116 807 2211
124 817 2238
127 792 2170
134 794 2174
137 773 2115
139 751 2056
145 748 2047
153 759 2077
161 768 2102
170 779 2132
178 788 2154
181 770 2105
185 761 2081
192 762 2084
200 770 2106
208 775 2118
213 773 2111
220 775 2116
229 783 2137
243 808 2206
258 836 2283
269 847 2313
278 854 2332
273 816 2228
269 787 2147
285 813 2218
309 861 2347
320 871 2375
328 874 2383
338 882 2405
345 880 2396
353 882 2401
357 873 2378
366 877 2387
370 870 2368
379 874 2378
384 870 2366
391 868 2360
398 868 2357
400 857 2326
399 841 2282
405 838 2272
412 838 2273
418 835 2264
428 843 2284
440 852 2308
453 863 2337
461 864 2338
469 866 2343
476 867 2343
478 856 2315
474 837 2261
494 859 2321
504 864 2332
510 862 2324
517 862 2325
526 865 2331
532 863 2325
540 864 2325
548 865 2328
553 862 2318
561 863 2320
568 863 2317
574 862 2313
582 863 2314
591 865 2319
595 861 2307
602 860 2302
599 846 2264
580 810 2165
572 789 2109
568 775 2069
564 761 2029
567 755 2013
572 754 2009
578 753 2006
583 753 2002
597 761 2024
600 758 2012
609 761 2019
612 757 2007
599 733 1942
586 710 1879
583 700 1851
587 697 1841
595 700 1847
600 698 1842
611 704 1857
616 704 1854
626 709 1865
631 707 1859
634 704 1851
646 710 1865
654 713 1869
664 717 1879
673 721 1886
675 716 1872
683 718 1877
703 733 1914
735 760 1982
750 769 2004
760 772 2011
773 779 2026
789 789 2049
811 803 2085
819 805 2087
825 804 2082
829 801 2073
835 801 2070
838 797 2058
864 816 2104
894 837 2157
916 851 2191
922 850 2186
930 851 2185
940 853 2189
947 853 2186
948 847 2169
956 849 2170
963 849 2167
973 851 2170
978 849 2161
982 847 2154
996 852 2165
1008 857 2173
1023 863 2187
1037 869 2199
1032 858 2169
1037 856 2161
1024 840 2118
1019 830 2089
998 807 2029
946 760 1907
773 617 1543
721 571 1427
707 557 1388
714 558 1391
724 563 1399
740 571 1419
822 630 1565
918 699 1734
939 711 1761
935 704 1739
942 704 1738
958 712 1755
949 701 1723
963 707 1737
973 710 1741
975 707 1730
982 708 1730
985 706 1722
994 708 1724
999 707 1720
1013 713 1730
1017 711 1723
1014 705 1706
1022 706 1706
1030 708 1707
-859 602 1399
-1054 742 1729
-1359 961 2247
-1389 987 2313
-1395 997 2341
-1382 994 2338
-1378 996 2348
-1363 991 2340
-1371 1003 2373
-1356 998 2365
-1334 988 2345
-1293 964 2291
-1273 954 2273
-1260 950 2267
-1242 942 2252
-1227 936 2242
-1213 932 2234
-1200 928 2228
-1192 927 2231
-1176 920 2218
-1167 919 2218
-1154 915 2211
-1140 910 2203
-1136 912 2213
-1124 908 2207
-1114 906 2205
-1102 902 2198
-1083 893 2179
-1080 896 2190
-1068 892 2184
-1060 891 2186
-1048 888 2179
-1014 864 2125
-973 835 2057
-951 822 2028
-943 821 2028
-938 823 2034
-939 830 2054
-945 841 2085
-942 844 2096
-944 851 2117
-940 854 2127
-957 876 2184
-958 883 2206
-961 892 2232
-955 894 2238
-947 893 2239
-941 895 2246
-945 905 2275
-934 902 2270
-930 905 2280
-931 912 2302
-925 914 2308
-932 928 2347
-911 915 2316
-912 923 2341
-904 923 2342
-878 904 2297
-840 872 2218
-821 860 2189
-790 835 2127
-757 807 2058
-742 797 2037
-712 772 1974
-706 772 1975
-674 744 1904
-667 743 1905
-686 771 1979
-659 747 1921
-670 766 1971
-657 759 1954
-657 766 1974
-650 766 1975
-650 772 1995
-636 763 1972
-632 766 1983
-630 771 1998
-621 767 1988
-619 772 2004
-612 772 2004
-608 774 2013
-601 774 2014
-598 778 2027
-597 785 2046
-579 769 2005
-586 787 2055
-576 783 2045
-579 795 2078
-563 782 2046
-565 794 2079
-559 793 2080
-554 795 2086
-548 797 2093
-544 800 2102
-531 790 2078
-529 797 2098
-521 795 2092
-526 812 2141
-513 803 2118
-518 821 2166
-509 816 2155
-498 810 2141
-492 811 2144
-484 808 2138
-481 814 2156
-474 814 2156
-467 812 2153
-462 816 2165
-456 817 2168
-450 817 2171
-445 820 2180
-438 821 2184
-433 823 2191
-427 825 2197
-422 829 2208
-415 828 2208
-411 833 2222
-402 828 2210
-396 829 2214
-391 833 2226
-383 832 2223
-378 836 2234
-372 837 2239
-367 841 2250
-358 836 2238
-352 838 2245
-345 838 2246
-338 836 2241
-331 837 2245
-323 834 2239
-310 817 2194
-289 778 2089
-269 742 1993
-267 753 2023
-275 793 2131
-269 795 2137
-249 753 2025
-238 740 1990
-232 740 1993
-223 730 1966
-220 739 1991
-222 768 2071
-222 787 2122
-204 748 2017
-192 726 1958
-193 753 2031
-188 757 2044
-177 737 1991
-171 736 1987
-168 748 2020
-162 751 2030
-156 752 2033
-151 757 2047
-147 765 2068
-143 777 2101
-141 803 2172
-134 800 2166
-131 821 2222
-123 816 2210
-113 794 2150
-110 813 2202
-102 809 2191
-96 811 2197
-88 801 2170
-81 791 2143
-72 774 2097
-67 788 2136
-62 797 2162
-56 803 2179
-48 789 2140
-42 802 2177
-36 801 2173
-31 837 2270
-24 843 2287
-17 839 2276
-10 820 2226
-3 812 2204
2 863 2343
10 934 2536
18 943 2562
26 942 2558
32 898 2439
36 824 2238
40 771 2092
46 763 2071
54 780 2117
60 778 2112
66 779 2114
73 779 2115
79 779 2114
86 780 2116
92 779 2114
98 778 2110
106 788 2137
116 812 2203
122 813 2207
126 796 2158
128 769 2085
137 780 2114
141 771 2090
148 771 2091
155 774 2098
166 799 2167
175 809 2192
180 800 2170
179 769 2084
186 774 2096
197 791 2143
202 787 2131
207 779 2111
212 773 2094
219 777 2105
228 786 2126
244 817 2210
263 858 2321
279 886 2396
290 897 2427
289 872 2359
282 829 2242
293 843 2278
308 866 2341
318 874 2362
326 876 2367
333 875 2362
340 874 2360
351 883 2383
357 880 2373
363 877 2366
371 879 2370
377 876 2361
384 876 2360
388 868 2338
396 871 2345
400 864 2326
405 860 2312
409 854 2295
415 850 2284
422 850 2284
433 858 2305
442 863 2316
453 869 2333
459 868 2327
469 872 2339
474 869 2328
480 867 2321
473 841 2251
489 858 2295
502 868 2321
509 868 2321
513 863 2305
521 863 2305
527 862 2300
538 868 2316
548 872 2326
554 871 2320
558 866 2307
566 867 2307
573 867 2305
580 867 2304
586 864 2296
595 867 2301
598 861 2285
593 844 2238
567 798 2113
554 771 2040
556 764 2021
557 758 2002
564 758 2002
568 755 1992
574 755 1991
584 759 2000
587 756 1990
599 763 2007
607 765 2011
608 758 1991
602 743 1950
598 731 1917
604 730 1914
607 727 1905
616 730 1911
623 731 1912
624 726 1896
643 740 1933
656 748 1951
662 748 1950
660 739 1924
674 748 1946
683 750 1950
695 757 1966
696 751 1948
702 751 1947
714 757 1960
731 769 1988
740 771 1993
750 774 1999
758 776 2003
766 778 2004
784 790 2034
814 813 2090
829 821 2110
831 816 2095
829 808 2071
833 805 2062
835 801 2049
862 820 2097
888 838 2139
906 849 2165
918 853 2172
925 853 2170
932 853 2169
939 853 2165
945 852 2161
956 856 2167
963 855 2163
969 855 2159
976 854 2156
981 852 2148
993 857 2155
1005 861 2163
1018 866 2173
1034 874 2190
1034 868 2172
1029 857 2143
1026 849 2118
1009 829 2067
985 804 2001
925 749 1862
762 613 1520
710 568 1405
721 572 1414
713 563 1388
710 556 1371
747 582 1431
849 657 1614
929 714 1754
934 713 1749
946 718 1758
942 711 1737
951 712 1739
956 712 1735
968 716 1742
978 719 1747
972 710 1723
984 715 1732
988 713 1724
995 714 1723
1002 715 1723
1001 710 1708
1013 714 1715
1022 716 1717
1019 711 1700
1021 708 1690
-855 604 1390
-1021 724 1672
-1355 966 2237
-1391 997 2315
-1372 989 2300
-1384 1003 2338
-1371 1000 2333
-1364 1001 2340
-1349 995 2332
-1345 998 2343
-1352 1010 2374
-1344 1009 2377
-1319 997 2351
-1296 985 2329
-1272 973 2304
-1238 953 2260
-1229 952 2262
-1211 944 2246
-1190 933 2225
-1174 927 2212
-1162 923 2207
-1152 920 2204
-1145 921 2209
-1133 917 2204
-1120 912 2196
-1113 912 2200
-1099 907 2189
-1093 908 2197
-1078 902 2184
-1067 899 2180
-1059 897 2180
-1043 890 2165
-1022 879 2141
-982 850 2074
-954 832 2033
-943 828 2024
-938 830 2032
-935 833 2043
-948 850 2088
-936 845 2079
-942 857 2111
-924 847 2089
-934 862 2129
-940 874 2162
-946 887 2196
-935 883 2189
-937 891 2214
-948 908 2258
-947 914 2277
-936 911 2272
-932 914 2282
-927 917 2292
-921 917 2295
-921 925 2317
-916 928 2328
-912 931 2338
-903 930 2338
-892 926 2331
-860 900 2267
-823 869 2192
-778 828 2091
-750 806 2037
-732 793 2007
-710 777 1967
-694 765 1940
-689 766 1945
-683 767 1949
-678 768 1952
-674 770 1961
-668 771 1964
-673 784 1999
-656 771 1969
-655 778 1988
-640 767 1961
-648 784 2009
-644 787 2018
-638 787 2019
-627 782 2008
-633 797 2049
-623 792 2039
-609 782 2014
-609 790 2038
-593 778 2007
-593 786 2030
-602 806 2084
-595 806 2085
-588 805 2083
-578 800 2073
-584 818 2120
-576 815 2115
-563 807 2095
-556 806 2094
-553 810 2107
-548 813 2116
-541 812 2115
-534 811 2114
-528 812 2118
-522 814 2124
-517 815 2130
-510 815 2132
-506 819 2143
-500 820 2147
-494 821 2151
-489 823 2157
-483 824 2162
-476 824 2164
-471 826 2171
-465 828 2178
-459 829 2180
-451 826 2174
-445 827 2178
-439 830 2186
-433 831 2190
-425 828 2186
-421 833 2199
-414 833 2199
-408 834 2204
-400 831 2198
-396 837 2213
-389 836 2213
-384 840 2225
-377 841 2227
-372 843 2235
-363 840 2227
-358 843 2237
-352 845 2244
-345 844 2240
-337 841 2236
-330 841 2234
-321 836 2223
-314 835 2222
-299 812 2160
-277 769 2046
-262 745 1985
-261 759 2022
-270 803 2141
-256 782 2086
-238 746 1989
-228 732 1952
-225 744 1985
-217 737 1966
-214 745 1988
-219 783 2093
-206 762 2035
-198 753 2013
-197 772 2065
-184 748 2001
-182 762 2039
-174 756 2024
-170 763 2042
-166 775 2075
-162 785 2102
-158 798 2137
-154 808 2166
-149 819 2194
-142 814 2183
-134 809 2170
-129 815 2185
-121 809 2171
-116 816 2191
-108 807 2166
-103 819 2199
-96 815 2187
-88 809 2173
-82 807 2167
-75 805 2162
-69 814 2186
-62 810 2175
-54 793 2130
-49 807 2168
-43 815 2191
-37 842 2264
-31 848 2280
-24 843 2266
-17 847 2277
-10 839 2257
-3 814 2189
3 820 2206
10 865 2328
18 939 2528
26 956 2572
33 944 2540
39 904 2433
43 832 2239
47 774 2082
52 768 2064
62 807 2170
68 801 2153
73 786 2115
79 782 2103
85 782 2102
92 784 2108
98 783 2104
105 785 2112
111 786 2113
120 806 2166
126 800 2150
128 773 2078
133 767 2061
144 789 2122
154 807 2170
163 823 2212
173 840 2258
180 841 2258
180 810 2176
178 771 2070
182 763 2048
191 774 2078
201 788 2116
206 780 2093
212 780 2092
219 782 2098
226 785 2106
245 826 2215
266 876 2350
282 905 2427
286 892 2392
281 855 2291
281 833 2231
296 858 2298
301 853 2285
313 866 2318
323 874 2340
333 882 2360
338 877 2345
347 880 2353
353 879 2350
358 874 2335
367 877 2341
373 874 2334
381 876 2337
385 869 2319
394 874 2330
400 871 2321
407 871 2320
411 864 2301
416 861 2292
425 865 2301
435 869 2313
442 869 2312
452 876 2328
458 872 2318
467 876 2326
473 875 2323
478 871 2310
481 864 2290
485 857 2273
502 876 2320
507 871 2307
513 869 2299
518 865 2289
523 863 2281
532 866 2288
539 866 2286
547 866 2287
553 865 2283
562 867 2287
568 866 2283
573 863 2274
585 870 2289
590 868 2282
592 860 2260
580 832 2184
523 742 1945
520 729 1911
527 730 1912
541 741 1940
549 744 1947
560 750 1960
568 753 1966
572 750 1958
578 750 1958
586 753 1962
599 761 1982
597 750 1953
599 746 1940
597 735 1911
610 744 1931
620 748 1941
630 752 1951
638 755 1955
646 758 1961
661 768 1985
672 773 1997
671 764 1973
669 755 1948
683 763 1968
692 767 1975
698 766 1971
704 766 1968
710 766 1968
721 771 1979
727 771 1975
741 779 1993
744 775 1981
757 782 1998
763 782 1995
783 796 2029
812 818 2085
822 821 2090
825 817 2078
820 806 2046
828 807 2048
831 804 2037
858 824 2085
888 846 2138
903 853 2154
909 852 2150
917 853 2150
921 850 2141
932 853 2146
936 851 2137
948 856 2146
958 858 2149
965 858 2146
970 856 2140
980 859 2144
986 858 2138
996 861 2142
1013 869 2161
1030 877 2177
1034 874 2168
1032 866 2145
1021 851 2105
1008 835 2061
992 816 2012
905 739 1820
755 613 1505
715 576 1413
718 575 1407
736 585 1431
717 567 1383
760 596 1453
872 680 1656
925 717 1744
934 720 1748
947 724 1756
953 725 1755
956 722 1746
965 725 1749
967 721 1738
974 722 1738
979 722 1733
981 719 1723
994 724 1732
991 717 1714
993 714 1704
1006 719 1714
1015 722 1717
1014 717 1701
1023 719 1703
1031 721 1704
-854 608 1387
-997 714 1632
-1356 974 2236
-1391 1005 2312
-1357 986 2272
-1363 996 2300
-1367 1005 2325
-1341 992 2298
-1344 999 2320
-1339 1002 2329
-1324 997 2321
-1336 1012 2361
-1311 998 2334
-1324 1014 2375
-1285 991 2324
-1269 985 2314
-1244 971 2286
-1228 965 2274
-1199 948 2238
-1190 946 2239
-1172 938 2223
-1162 936 2221
-1148 931 2213
-1129 921 2194
-1126 925 2206
-1115 922 2202
-1100 916 2191
-1095 917 2197
-1082 912 2189
-1070 909 2184
-1060 906 2180
-1051 904 2180
-1036 897 2166
-989 863 2087
-960 844 2042
-942 833 2020
-943 841 2040
-936 840 2041
-934 845 2056
-934 851 2074
-937 859 2096
-931 860 2102
-916 853 2087
-918 861 2109
-925 874 2145
-923 879 2159
-922 884 2176
-919 888 2188
-920 895 2209
-921 904 2233
-926 916 2265
-922 919 2277
-933 937 2323
-915 927 2301
-923 942 2342
-912 938 2334
-905 939 2339
-898 939 2343
-872 920 2298
-836 889 2223
-780 838 2096
-743 805 2015
-724 791 1983
-715 787 1976
-704 782 1966
-699 784 1972
-695 787 1982
-675 771 1944
-690 796 2008
-676 787 1986
-679 797 2016
-672 796 2014
-667 799 2023
-654 790 2003
-650 793 2012
-636 783 1989
-639 795 2021
-630 792 2016
-619 785 2001
-637 816 2080
-629 814 2078
-615 805 2055
-611 808 2066
-606 810 2073
-599 809 2072
-593 810 2075
-586 809 2076
-582 812 2085
-578 815 2096
-571 814 2094
-566 817 2103
-560 818 2106
-554 819 2111
-547 817 2108
-542 821 2119
-536 821 2121
-531 824 2130
-525 825 2134
-519 825 2136
-513 826 2141
-506 825 2140
-501 829 2150
-495 828 2151
-490 831 2159
-483 830 2159
-475 829 2156
-469 830 2161
-463 832 2167
-456 831 2166
-450 832 2170
-444 834 2175
-437 832 2174
-432 834 2180
-426 836 2186
-418 834 2182
-412 835 2186
-407 839 2197
-398 835 2188
-393 837 2195
-385 835 2190
-381 840 2204
-373 839 2202
-367 838 2202
-362 843 2216
-355 843 2217
-346 837 2203
-341 842 2217
-335 843 2220
-327 840 2213
-321 843 2220
-314 842 2221
-303 830 2190
-283 792 2089
-260 745 1965
-252 739 1950
-248 746 1969
-251 774 2045
-238 752 1987
-227 736 1946
-222 740 1956
-217 741 1961
-212 744 1969
-213 769 2035
-207 772 2045
-198 760 2013
-191 758 2008
-187 764 2024
-183 772 2046
-178 780 2068
-176 798 2117
-173 814 2159
-169 826 2192
-164 833 2213
-157 831 2206
-149 826 2195
-143 829 2203
-136 829 2203
-128 820 2179
-122 823 2188
-116 825 2195
-110 827 2200
-102 818 2176
-95 819 2179
-89 819 2180
-82 821 2184
-75 815 2169
-69 819 2180
-62 814 2168
-55 811 2160
-49 815 2171
-43 832 2217
-37 837 2229
-31 861 2294
-24 851 2268
-17 845 2252
-10 838 2233
-3 828 2207
3 826 2203
9 823 2194
17 869 2318
25 938 2502
34 960 2560
41 957 2552
47 912 2431
50 836 2229
53 782 2083
60 785 2093
69 818 2180
73 794 2117
78 784 2089
85 788 2100
92 791 2108
98 791 2109
105 798 2126
112 795 2118
118 798 2127
126 805 2146
132 805 2144
134 779 2074
145 804 2142
154 816 2173
166 843 2246
177 867 2309
182 857 2283
182 826 2199
180 784 2086
181 761 2023
190 773 2056
200 791 2104
206 786 2091
210 780 2074
217 783 2080
225 788 2095
243 828 2201
264 875 2325
268 864 2295
264 829 2202
267 817 2170
277 829 2201
291 850 2255
303 865 2294
309 863 2290
319 870 2308
327 874 2317
336 878 2328
341 872 2309
349 874 2315
351 863 2284
361 871 2305
372 880 2327
380 882 2333
387 880 2326
392 876 2315
395 867 2291
404 871 2300
408 865 2284
415 864 2280
426 872 2301
432 871 2298
442 876 2308
451 880 2318
457 878 2313
463 876 2306
471 877 2306
479 880 2313
483 874 2297
481 857 2251
498 875 2298
508 880 2310
513 876 2297
517 871 2282
523 869 2277
528 866 2267
535 866 2267
540 863 2256
548 865 2260
557 867 2266
562 864 2255
570 865 2256
574 861 2245
578 856 2232
581 851 2216
551 797 2073
506 724 1881
512 724 1880
517 722 1874
524 724 1879
531 725 1880
539 728 1886
547 731 1892
557 736 1903
569 743 1921
584 755 1951
604 773 1995
585 742 1913
576 722 1860
583 723 1863
587 721 1854
596 726 1865
601 724 1859
610 728 1867
617 729 1870
626 733 1877
628 727 1862
636 730 1868
640 729 1862
646 728 1859
654 731 1863
658 728 1856
660 724 1844
669 727 1850
685 739 1877
704 752 1909
743 787 1996
760 798 2022
760 792 2004
767 791 2002
791 810 2046
806 818 2065
814 819 2066
817 816 2055
816 808 2034
817 803 2018
823 803 2015
861 833 2089
887 851 2133
902 859 2150
907 857 2143
911 854 2133
918 854 2129
930 858 2138
935 856 2131
938 853 2120
950 858 2128
958 859 2129
966 860 2129
974 860 2126
980 859 2122
995 866 2136
1003 867 2136
1019 875 2153
1026 875 2149
1019 863 2116
1013 851 2085
997 832 2036
983 815 1992
864 712 1735
740 605 1471
718 583 1417
721 582 1410
728 583 1413
757 603 1458
770 609 1471
886 696 1680
934 730 1758
931 723 1738
951 734 1762
956 733 1757
954 727 1740
971 735 1757
971 731 1744
976 729 1738
985 732 1741
984 727 1727
994 729 1730
1001 730 1729
999 724 1712
1005 725 1710
1016 728 1715
1013 722 1697
1030 730 1713
1037 730 1711
-849 610 1377
-987 712 1614
-1338 969 2203
-1354 987 2247
-1382 1012 2310
-1345 991 2266
-1335 990 2268
-1355 1010 2319
-1330 997 2293
-1334 1007 2319
-1326 1006 2321
-1325 1012 2339
-1302 1000 2316
-1295 1001 2322
-1294 1006 2337
-1275 997 2322
-1265 995 2321
-1255 994 2321
-1241 988 2313
-1204 965 2263
-1193 963 2261
-1166 947 2226
-1153 942 2220
-1141 939 2215
-1125 932 2201
-1117 931 2204
-1110 931 2206
-1092 922 2189
-1078 916 2178
-1070 915 2180
-1061 915 2181
-1053 914 2182
-1039 907 2170
-1002 882 2111
-969 858 2059
-951 849 2038
-943 847 2037
-937 848 2042
-938 855 2061
-934 857 2070
-933 863 2086
-929 865 2094
-923 866 2100
-912 862 2094
-908 865 2103
-891 855 2082
-892 863 2103
-892 869 2120
-895 878 2147
-899 889 2176
-904 901 2208
-902 906 2223
-904 916 2250
-908 927 2280
-905 932 2294
-913 948 2337
-908 950 2345
-903 952 2353
-898 954 2362
-859 922 2283
-786 850 2108
-743 811 2013
-726 800 1987
-726 807 2006
-713 799 1988
-705 797 1986
-705 804 2006
-697 802 2004
-689 801 2002
-684 802 2006
-679 804 2015
-671 802 2011
-666 803 2016
-664 809 2032
-657 808 2032
-650 807 2032
-646 810 2041
-639 809 2042
-633 809 2043
-629 812 2053
-623 813 2056
-618 815 2063
-613 816 2069
-607 818 2074
-603 820 2082
-596 820 2083
-590 821 2088
-585 823 2094
-578 823 2096
-572 823 2098
-566 824 2101
-561 826 2110
-555 826 2111
-548 826 2111
-541 825 2110
-536 828 2120
-530 829 2125
-525 831 2131
-518 830 2130
-512 832 2137
-504 829 2131
-500 833 2141
-494 834 2147
-489 837 2155
-482 836 2154
-476 837 2158
-469 837 2161
-462 837 2160
-456 838 2164
-450 839 2169
-444 840 2172
-437 839 2171
-430 839 2172
-425 841 2178
-419 842 2184
-410 838 2174
-405 841 2182
-397 839 2178
-391 839 2180
-384 839 2180
-378 840 2185
-370 839 2182
-365 842 2193
-355 834 2173
-351 841 2191
-347 846 2205
-338 840 2192
-331 841 2195
-327 846 2208
-318 842 2198
-311 841 2196
-302 834 2179
-275 778 2035
-262 758 1983
-250 740 1934
-244 739 1935
-242 751 1965
-251 798 2091
-229 749 1962
-225 754 1976
-217 747 1957
-210 746 1955
-208 757 1986
-212 796 2090
-201 779 2046
-195 779 2046
-193 795 2090
-190 811 2132
-188 828 2178
-182 833 2190
-176 834 2193
-170 835 2198
-163 838 2204
-157 837 2204
-149 833 2193
-143 835 2199
-136 831 2189
-129 830 2188
-122 830 2188
-116 831 2191
-108 826 2176
-102 831 2191
-96 829 2185
-89 829 2185
-82 828 2185
-76 829 2186
-69 829 2188
-62 826 2179
-56 834 2202
-50 841 2221
-43 830 2190
-37 838 2212
-30 840 2218
-23 840 2217
-17 841 2221
-10 848 2239
-3 849 2244
3 845 2232
9 830 2193
16 826 2182
24 874 2309
33 952 2515
41 967 2557
49 963 2545
54 917 2425
56 842 2224
59 789 2083
66 792 2092
73 797 2104
79 794 2096
86 802 2118
95 826 2183
104 843 2227
111 846 2233
116 837 2211
122 829 2188
126 809 2136
133 817 2157
138 804 2123
147 818 2159
156 833 2197
165 846 2232
176 865 2283
186 883 2330
185 845 2229
182 800 2109
185 787 2075
193 791 2086
199 792 2087
204 787 2073
208 777 2047
215 782 2060
225 793 2087
244 836 2201
258 861 2268
251 818 2152
254 806 2120
261 807 2123
269 810 2130
281 828 2176
292 839 2205
302 848 2229
315 865 2273
328 882 2317
338 890 2337
345 890 2337
345 873 2290
352 871 2285
355 862 2262
368 878 2301
379 885 2321
387 887 2325
392 883 2314
397 877 2297
400 870 2276
404 863 2259
414 869 2272
424 876 2289
431 876 2290
440 879 2296
447 879 2294
454 880 2296
462 882 2300
469 881 2297
476 880 2294
476 868 2261
472 847 2206
492 870 2264
504 880 2289
510 877 2280
518 879 2284
524 877 2277
531 877 2276
536 874 2266
546 879 2279
549 873 2261
558 875 2266
562 872 2255
566 867 2241
570 861 2225
574 857 2213
578 853 2201
534 779 2009
504 726 1870
510 727 1870
526 741 1906
519 723 1858
529 728 1871
533 726 1863
542 730 1872
548 731 1872
559 737 1886
573 748 1913
580 748 1914
571 729 1863
568 718 1832
580 726 1851
571 707 1802
585 717 1826
583 708 1802
621 746 1898
608 724 1839
614 725 1840
618 722 1832
620 718 1819
632 724 1834
634 721 1823
641 722 1825
646 721 1821
652 721 1819
660 723 1823
670 727 1831
705 759 1910
752 803 2018
766 811 2035
767 805 2020
776 808 2025
792 817 2046
804 823 2058
807 819 2047
812 818 2041
810 809 2017
816 809 2014
827 812 2021
867 846 2102
887 858 2131
897 861 2134
903 860 2130
911 861 2131
916 860 2124
922 858 2117
930 859 2119
938 860 2118
946 861 2118
950 858 2108
960 861 2111
969 863 2115
979 865 2117
989 868 2121
1000 872 2127
1011 875 2132
1011 869 2115
998 851 2069
999 846 2054
981 826 2001
974 814 1971
834 692 1671
722 595 1434
718 588 1414
732 596 1431
720 582 1395
756 607 1455
789 630 1506
909 721 1723
928 731 1745
936 732 1745
948 737 1754
949 733 1743
951 731 1733
957 730 1729
972 737 1744
979 738 1741
979 733 1728
992 738 1737
985 729 1712
985 725 1699
1008 737 1726
1015 738 1725
1022 739 1723
1020 733 1708
1030 736 1711
1042 740 1717
-847 613 1372
-948 689 1548
-1305 953 2146
-1354 994 2244
-1374 1015 2294
-1359 1009 2287
-1345 1005 2281
-1330 1000 2273
-1328 1004 2287
-1318 1002 2287
-1312 1004 2295
-1301 1001 2293
-1292 1000 2294
-1280 996 2291
-1269 994 2290
-1253 987 2278
-1237 981 2267
-1236 986 2283
-1243 998 2314
-1244 1005 2335
-1220 992 2307
-1206 987 2299
-1169 963 2248
-1154 957 2236
-1145 955 2237
-1125 945 2217
-1110 939 2205
-1091 929 2185
-1082 927 2184
-1072 925 2181
-1063 923 2182
-1049 917 2171
-1049 923 2189
-1010 896 2125
-974 870 2067
-947 852 2027
-944 855 2037
-939 857 2045
-939 862 2061
-935 865 2070
-927 864 2070
-925 869 2085
-922 872 2095
-918 875 2105
-911 875 2108
-904 874 2109
-897 874 2111
-887 871 2106
-867 858 2078
-864 862 2090
-861 865 2100
-872 883 2147
-870 888 2162
-881 906 2209
-882 915 2234
-886 926 2263
-889 937 2293
-894 950 2328
-897 962 2359
-881 952 2338
-805 878 2158
-745 820 2016
-727 807 1986
-719 805 1985
-712 805 1985
-710 809 1999
-703 809 2000
-696 808 1999
-692 811 2009
-686 811 2011
-681 813 2018
-675 813 2020
-667 811 2018
-663 814 2027
-661 819 2041
-651 815 2034
-649 820 2049
-643 821 2053
-638 823 2059
-629 819 2050
-626 824 2065
-620 825 2069
-615 826 2073
-607 825 2073
-602 826 2077
-597 828 2085
-589 826 2082
-585 830 2093
-578 829 2092
-573 831 2098
-565 829 2096
-561 833 2106
-554 832 2108
-546 830 2104
-543 834 2116
-534 832 2110
-529 833 2116
-524 836 2125
-516 834 2121
-511 837 2130
-506 838 2135
-499 839 2138
-491 836 2133
-486 839 2141
-480 839 2144
-473 839 2143
-468 841 2150
-461 842 2153
-453 839 2148
-447 840 2152
-441 841 2156
-436 843 2163
-429 843 2162
-424 846 2172
-416 843 2166
-408 841 2162
-401 839 2159
-396 844 2172
-389 843 2170
-381 841 2166
-374 840 2164
-368 841 2167
-362 842 2173
-354 838 2163
-348 840 2170
-343 843 2178
-335 839 2170
-329 841 2175
-322 840 2173
-316 844 2184
-308 838 2170
-292 814 2109
-271 772 2001
-263 767 1988
-256 764 1980
-245 750 1944
-243 762 1976
-251 806 2091
-239 788 2046
-224 756 1964
-219 760 1974
-210 751 1953
-208 763 1985
-212 801 2083
-210 817 2125
-206 827 2153
-201 835 2173
-196 841 2190
-189 838 2184
-182 839 2188
-175 837 2183
-169 839 2187
-162 837 2184
-155 837 2184
-149 837 2185
-142 835 2180
-136 838 2188
-128 833 2175
-122 837 2187
-115 834 2178
-108 833 2177
-102 835 2182
-96 838 2189
-89 834 2181
-82 835 2182
-76 835 2183
-69 836 2187
-63 843 2204
-56 834 2180
-49 836 2186
-43 841 2200
-36 837 2189
-30 847 2216
-23 849 2223
-17 852 2229
-10 856 2241
-3 857 2244
3 855 2240
9 851 2228
16 839 2198
22 831 2176
30 872 2283
40 946 2479
49 969 2539
56 966 2532
61 914 2393
63 845 2213
65 788 2062
71 785 2055
80 816 2135
89 839 2198
99 865 2265
106 869 2274
113 867 2270
119 859 2248
122 837 2191
129 839 2194
132 816 2135
140 821 2148
147 825 2158
156 840 2197
164 847 2215
172 852 2228
181 862 2253
187 860 2250
189 840 2196
191 819 2140
194 805 2102
198 791 2067
202 786 2053
207 778 2032
213 779 2033
222 788 2057
245 848 2214
256 860 2245
252 824 2151
251 801 2087
255 794 2069
262 797 2077
275 817 2128
290 839 2187
302 855 2228
313 868 2260
324 878 2285
332 881 2294
342 890 2316
350 891 2318
348 869 2260
361 884 2299
376 902 2345
385 908 2359
389 900 2336
394 894 2320
396 883 2292
407 892 2315
411 884 2293
417 883 2289
425 885 2293
430 880 2280
438 883 2285
443 877 2270
452 881 2279
454 873 2257
461 872 2253
468 873 2254
472 868 2239
472 855 2206
471 840 2165
494 869 2238
506 878 2262
512 876 2256
518 875 2251
526 877 2255
532 874 2247
537 871 2237
543 870 2232
549 868 2226
554 866 2220
560 864 2213
568 866 2218
574 864 2212
582 866 2214
546 803 2050
515 748 1909
507 728 1857
509 723 1842
533 748 1904
527 731 1861
532 730 1856
539 731 1859
545 731 1857
556 739 1876
565 742 1882
565 736 1864
564 726 1838
582 741 1875
576 727 1838
580 724 1829
586 724 1827
601 736 1857
590 715 1802
611 733 1845
613 729 1833
625 736 1849
628 732 1839
650 751 1884
635 727 1823
643 730 1828
655 737 1844
645 719 1797
667 737 1840
674 738 1841
712 773 1926
752 810 2017
762 813 2023
769 813 2022
777 815 2024
791 823 2042
803 828 2052
804 822 2036
807 819 2024
809 814 2011
817 816 2014
836 828 2041
864 849 2091
882 860 2116
892 863 2119
900 864 2120
909 866 2123
913 864 2114
919 863 2110
928 864 2110
933 863 2104
941 863 2104
947 862 2098
956 865 2101
964 865 2100
967 862 2089
978 865 2095
983 863 2088
998 871 2103
992 859 2071
999 859 2069
990 846 2033
976 828 1989
958 807 1935
804 672 1608
730 607 1448
720 595 1418
719 590 1404
737 600 1426
751 608 1442
818 658 1559
910 728 1723
931 739 1749
943 744 1757
949 744 1754
954 743 1750
963 745 1752
965 742 1741
971 742 1739
982 746 1746
983 743 1734
981 736 1716
992 740 1723
998 740 1720
1006 742 1721
1003 735 1702
1018 742 1715
1017 737 1700
1033 744 1713
1034 740 1702
-839 612 1358
-922 676 1503
-1285 946 2112
-1350 999 2235
-1352 1006 2255
-1334 999 2242
-1331 1002 2254
-1325 1004 2262
-1321 1007 2272
-1310 1004 2270
-1308 1008 2284
-1293 1003 2276
-1265 987 2245
-1273 999 2276
-1276 1008 2299
-1243 988 2258
-1218 974 2230
-1206 970 2226
-1186 961 2207
-1194 973 2238
-1212 994 2291
-1190 982 2267
-1200 996 2304
-1190 994 2303
-1156 972 2256
-1137 962 2236
-1122 957 2226
-1104 947 2208
-1090 941 2197
-1075 935 2186
-1065 932 2183
-1049 925 2169
-1045 927 2177
-1026 917 2156
-982 884 2082
-957 867 2045
-945 862 2037
-939 864 2042
-938 868 2056
-933 870 2062
-928 872 2070
-925 875 2081
-922 879 2094
-916 880 2098
-908 879 2098
-904 881 2106
-898 882 2111
-895 885 2122
-880 878 2107
-874 879 2112
-862 873 2101
-849 867 2089
-839 863 2082
-832 863 2085
-828 866 2094
-836 881 2134
-858 912 2211
-857 918 2228
-875 945 2297
-855 932 2268
-828 911 2218
-762 846 2061
-735 822 2006
-721 814 1988
-717 816 1996
-713 819 2004
-705 818 2004
-701 820 2011
-693 818 2007
-686 817 2009
-681 819 2014
-674 819 2016
-673 824 2032
-666 824 2034
-660 825 2038
-652 823 2034
-647 825 2041
-645 829 2055
-639 830 2058
-631 829 2057
-629 834 2072
-619 830 2063
-614 832 2071
-610 835 2080
-603 834 2079
-595 832 2077
-589 832 2078
-582 832 2080
-576 833 2084
-572 837 2095
-565 836 2094
-558 835 2095
-552 836 2098
-546 837 2101
-540 837 2104
-534 839 2109
-528 839 2112
-522 840 2116
-516 841 2119
-508 839 2116
-502 838 2116
-497 841 2125
-489 840 2123
-482 838 2119
-479 844 2136
-472 843 2135
-464 842 2133
-459 844 2141
-451 842 2137
-444 841 2136
-440 846 2148
-434 848 2154
-426 844 2146
-420 844 2148
-415 848 2159
-405 842 2146
-400 844 2151
-393 844 2152
-386 842 2149
-378 840 2144
-372 842 2151
-365 840 2147
-360 844 2157
-351 838 2144
-345 840 2150
-340 843 2158
-335 847 2170
-326 840 2154
-321 846 2170
-314 844 2166
-307 843 2164
-296 832 2135
-281 807 2071
-272 800 2054
-268 806 2072
-251 775 1991
-244 769 1977
-243 787 2026
-246 816 2101
-227 775 1994
-218 764 1969
-213 767 1977
-206 764 1969
-208 792 2042
-213 837 2159
-208 843 2175
-201 841 2171
-194 840 2168
-188 842 2175
-181 841 2173
-174 841 2172
-168 841 2173
-161 842 2176
-154 839 2170
-147 837 2165
-141 841 2175
-135 839 2170
-128 839 2172
-122 839 2173
-115 841 2178
-108 837 2169
-102 838 2171
-95 840 2175
-88 838 2172
-82 838 2171
-76 841 2179
-69 839 2176
-62 839 2176
-55 833 2159
-49 837 2171
-43 844 2189
-36 847 2196
-30 851 2208
-23 855 2218
-16 855 2218
-10 857 2224
-3 858 2228
3 858 2226
10 860 2231
16 853 2214
23 839 2176
29 830 2153
37 870 2258
47 937 2431
57 981 2548
64 978 2540
68 925 2401
70 853 2212
72 798 2071
79 806 2091
90 853 2214
99 873 2265
106 872 2263
113 876 2272
118 860 2231
122 845 2192
124 811 2102
129 804 2084
139 823 2133
149 843 2185
157 853 2211
165 856 2220
172 860 2228
179 862 2234
187 866 2244
193 863 2236
196 844 2186
194 810 2097
195 788 2040
200 784 2029
205 778 2013
211 778 2014
222 793 2052
246 857 2217
259 880 2277
259 855 2210
251 808 2089
255 801 2071
268 820 2118
283 846 2186
297 867 2239
309 882 2277
318 889 2296
329 900 2322
338 904 2332
344 901 2323
346 888 2288
352 886 2284
362 894 2304
377 913 2352
387 919 2365
394 917 2361
402 919 2365
410 922 2372
416 919 2363
424 921 2367
429 915 2350
433 908 2331
439 907 2326
442 898 2303
445 888 2278
450 885 2269
455 881 2255
461 880 2252
468 880 2251
473 875 2239
473 863 2207
451 810 2070
489 868 2215
499 873 2229
507 874 2230
512 871 2221
521 874 2227
526 872 2221
533 872 2219
540 872 2218
549 875 2225
553 870 2211
560 871 2212
569 874 2217
575 872 2212
583 873 2213
556 824 2087
521 762 1927
506 732 1849
512 732 1849
512 724 1827
524 733 1850
531 735 1852
538 736 1854
545 737 1855
547 732 1841
560 742 1865
558 731 1836
576 747 1874
550 706 1769
562 714 1788
593 746 1867
596 743 1858
583 720 1798
600 733 1830
622 753 1877
627 751 1873
623 740 1843
620 729 1814
633 737 1832
641 740 1838
626 717 1778
650 737 1826
652 732 1813
652 726 1796
679 749 1852
713 780 1926
744 807 1992
757 815 2008
769 820 2021
778 823 2026
789 828 2035
798 830 2037
800 825 2023
804 822 2015
811 823 2013
812 817 1998
833 832 2031
861 853 2081
876 861 2098
886 864 2104
896 867 2109
902 866 2103
911 869 2107
918 868 2104
924 867 2098
931 868 2097
940 869 2098
945 867 2091
950 866 2084
963 871 2095
964 866 2080
967 862 2068
976 864 2070
975 857 2051
986 861 2058
981 851 2030
974 839 1999
960 821 1952
940 799 1897
785 662 1568
721 604 1428
715 595 1405
716 591 1394
749 615 1448
749 611 1437
834 676 1587
924 744 1747
933 747 1750
944 751 1757
950 750 1753
962 755 1761
958 747 1740
973 755 1755
969 746 1732
972 744 1724
979 745 1725
992 750 1733
987 742 1712
993 742 1709
1005 747 1717
1000 739 1695
1014 744 1705
1028 750 1715
1033 750 1711
1036 747 1702
-838 616 1354
-892 659 1452
-1229 912 2016
-1345 1003 2223
-1337 1003 2227
-1342 1013 2252
-1328 1008 2246
-1311 1001 2234
-1308 1004 2246
-1291 997 2234
-1275 990 2223
-1297 1014 2281
-1252 985 2218
-1228 972 2193
-1205 959 2168
-1118 896 2028
-1127 909 2061
-1121 910 2067
-1033 844 1919
-1092 897 2045
-1135 938 2142
-1153 959 2193
-1199 1003 2299
-1178 992 2277
-1171 993 2282
-1176 1003 2310
-1154 991 2287
-1135 981 2267
-1103 960 2222
-1096 961 2226
-1072 946 2194
-1063 944 2194
-1046 935 2177
-1032 929 2166
-990 898 2095
-959 876 2047
-947 872 2040
-940 871 2041
-936 874 2050
-932 876 2059
-931 881 2074
-923 880 2074
-921 885 2089
-914 885 2091
-912 889 2105
-903 887 2101
-900 891 2114
-892 889 2113
-884 889 2114
-874 885 2108
-864 882 2103
-856 881 2104
-848 880 2103
-836 874 2092
-821 865 2073
-809 860 2062
-804 861 2069
-800 864 2079
-804 877 2110
-810 890 2145
-811 898 2168
-759 848 2049
-735 829 2005
-725 825 1997
-717 822 1993
-711 823 1998
-706 825 2003
-702 828 2013
-694 826 2009
-687 825 2011
-682 826 2015
-677 828 2021
-672 830 2029
-666 830 2030
-666 838 2052
-653 830 2035
-651 836 2049
-646 837 2055
-639 837 2058
-634 840 2065
-631 844 2078
-622 841 2071
-617 843 2078
-612 845 2085
-605 844 2086
-596 840 2078
-591 842 2084
-584 841 2083
-577 840 2083
-571 841 2087
-563 839 2083
-556 838 2084
-550 840 2089
-542 837 2083
-539 843 2099
-532 841 2097
-525 841 2098
-518 840 2097
-513 842 2103
-506 842 2104
-501 844 2112
-494 843 2110
-486 841 2106
-482 845 2118
-476 846 2121
-467 842 2115
-460 842 2114
-457 847 2129
-451 848 2131
-444 847 2131
-437 846 2131
-430 846 2131
-423 844 2128
-417 847 2136
-410 846 2135
-405 848 2141
-398 847 2139
-391 847 2141
-383 843 2131
-377 844 2136
-370 842 2133
-362 841 2130
-358 845 2143
-351 845 2142
-345 845 2144
-338 844 2143
-331 844 2144
-323 840 2135
-318 844 2145
-311 842 2140
-305 845 2150
-297 839 2136
-289 836 2128
-283 838 2135
-276 837 2133
-264 818 2084
-246 782 1992
-241 787 2007
-239 801 2043
-232 799 2038
-216 762 1944
-212 771 1969
-206 769 1964
-205 787 2010
-210 834 2131
-206 840 2149
-200 845 2163
-192 840 2148
-186 842 2154
-180 841 2153
-173 841 2155
-166 839 2150
-160 841 2154
-153 840 2152
-147 839 2151
-140 840 2155
-134 843 2162
-127 837 2146
-121 842 2160
-114 840 2155
-108 843 2163
-101 839 2154
-94 838 2151
-88 841 2159
-81 839 2156
-75 844 2167
-68 838 2153
-62 839 2155
-55 842 2164
-49 849 2181
-43 854 2195
-36 853 2194
-30 856 2201
-23 855 2199
-16 858 2207
-10 859 2210
-3 859 2208
3 859 2209
10 860 2212
16 859 2210
23 853 2193
29 836 2151
35 828 2130
44 871 2242
55 950 2445
65 996 2565
72 985 2535
75 926 2383
76 855 2200
78 801 2060
86 816 2098
96 850 2185
104 867 2229
111 867 2231
113 833 2143
118 820 2109
123 813 2090
131 818 2103
139 831 2135
150 856 2200
158 866 2225
167 873 2244
174 875 2248
180 874 2246
187 874 2245
192 862 2214
198 862 2213
194 816 2093
194 790 2028
199 784 2011
205 783 2008
212 786 2015
222 801 2054
248 870 2230
263 900 2308
269 895 2294
268 870 2229
268 847 2169
277 854 2186
291 876 2244
304 895 2291
317 912 2334
325 916 2344
335 922 2359
342 923 2361
348 920 2352
352 910 2324
357 904 2310
366 911 2326
377 918 2344
385 921 2350
393 924 2356
400 923 2353
411 931 2372
413 919 2341
424 927 2360
433 930 2368
439 928 2361
447 929 2364
452 926 2355
455 916 2327
455 902 2290
456 891 2261
459 882 2238
467 884 2243
474 884 2242
475 873 2211
449 813 2058
483 864 2187
501 883 2233
506 879 2223
514 882 2229
521 882 2228
527 880 2220
534 879 2218
542 882 2223
549 882 2223
556 882 2220
562 881 2216
569 881 2215
574 878 2207
579 874 2196
567 846 2124
526 777 1947
505 737 1846
508 732 1832
514 732 1831
530 747 1867
528 735 1837
538 741 1851
545 743 1854
550 742 1850
558 745 1855
560 740 1842
573 749 1863
578 748 1859
572 733 1819
578 733 1818
586 737 1825
600 746 1848
605 745 1844
593 723 1787
610 736 1819
602 720 1777
622 737 1818
626 735 1811
639 744 1830
633 730 1795
654 747 1835
647 732 1798
660 740 1815
679 755 1850
712 785 1922
744 813 1989
759 822 2009
769 826 2017
778 829 2021
789 834 2031
799 837 2037
803 835 2029
808 833 2022
805 823 1997
813 825 1999
840 846 2047
862 861 2080
873 865 2089
880 865 2087
890 868 2091
898 869 2091
908 872 2096
916 873 2097
921 871 2089
928 871 2087
936 872 2087
943 872 2083
950 872 2081
957 873 2080
960 869 2068
963 865 2057
972 867 2058
968 858 2034
975 858 2031
965 844 1994
960 833 1967
959 827 1949
912 781 1837
771 656 1539
735 620 1453
739 620 1450
715 596 1392
736 609 1422
755 621 1447
857 700 1629
914 742 1726
927 748 1735
947 759 1759
952 758 1754
955 756 1746
961 756 1744
959 749 1726
979 760 1748
980 756 1736
979 751 1721
985 751 1718
997 756 1727
999 753 1717
1002 750 1708
1011 753 1712
1017 753 1709
1022 752 1703
1031 754 1706
1024 745 1680
-838 620 1351
-878 654 1427
-1143 855 1872
-1322 994 2182
-1320 998 2197
-1328 1010 2226
-1319 1009 2229
-1291 994 2198
-1256 972 2154
-1273 991 2201
-1236 968 2154
-1188 936 2086
-1181 936 2089
-1124 897 2005
-1062 852 1908
-1117 902 2023
-1055 857 1926
-1037 848 1909
-1005 827 1865
-1052 871 1968
-1087 905 2049
-1052 882 1999
-1070 903 2050
-1129 959 2180
-1123 960 2186
-1136 977 2229
-1131 979 2238
-1142 995 2277
-1133 994 2278
-1113 983 2258
-1093 972 2235
-1073 960 2211
-1061 957 2207
-1041 945 2182
-999 914 2113
-967 890 2062
-943 875 2029
-940 878 2039
-936 880 2047
-932 883 2057
-929 886 2067
-925 889 2077
-921 892 2085
-913 891 2087
-911 895 2100
-905 896 2105
-902 899 2115
-892 897 2112
-886 897 2115
-873 891 2103
-865 891 2105
-860 892 2110
-846 885 2096
-839 884 2097
-829 881 2091
-819 877 2086
-805 869 2069
-798 869 2071
-778 855 2039
-756 838 2001
-770 861 2058
-750 845 2023
-736 836 2004
-732 840 2014
-725 839 2015
-716 836 2009
-707 833 2004
-701 833 2007
-698 837 2019
-694 840 2028
-684 836 2020
-680 839 2029
-674 839 2032
-671 843 2044
-666 845 2050
-660 845 2053
-653 845 2055
-648 847 2060
-639 844 2055
-634 845 2061
-626 843 2057
-620 845 2063
-615 846 2068
-610 848 2076
-606 852 2087
-599 851 2087
-595 854 2096
-586 851 2089
-581 853 2096
-573 851 2093
-567 852 2096
-558 847 2087
-551 847 2088
-544 847 2089
-535 843 2081
-531 846 2091
-520 840 2077
-518 847 2096
-511 846 2094
-504 845 2094
-496 842 2087
-491 845 2097
-484 844 2096
-479 847 2105
-473 847 2106
-465 845 2102
-460 847 2109
-454 849 2114
-448 849 2116
-440 847 2113
-433 845 2108
-429 850 2122
-421 848 2119
-416 851 2127
-408 848 2122
-403 850 2128
-393 843 2111
-388 846 2119
-383 849 2129
-374 844 2117
-368 846 2124
-361 843 2117
-355 844 2121
-346 839 2110
-342 846 2128
-334 842 2119
-328 843 2122
-321 841 2119
-314 841 2118
-309 844 2127
-303 845 2129
-295 842 2123
-288 840 2120
-283 844 2129
-275 841 2124
-266 833 2104
-253 811 2049
-239 786 1985
-236 798 2017
-235 815 2062
-222 789 1997
-212 777 1968
-206 778 1969
-203 789 1999
-206 824 2089
-204 843 2136
-198 843 2138
-191 841 2132
-185 843 2138
-178 842 2138
-171 840 2131
-165 838 2127
-159 843 2140
-152 839 2131
-145 837 2128
-139 841 2137
-133 842 2142
-126 838 2131
-119 838 2132
-113 840 2138
-107 839 2136
-100 843 2145
-94 844 2147
-87 841 2140
-80 836 2127
-74 835 2127
-68 845 2153
-61 843 2148
-55 850 2165
-49 847 2158
-42 851 2169
-36 854 2176
-29 852 2171
-23 858 2188
-16 859 2189
-9 860 2191
-3 859 2191
3 859 2190
10 862 2197
16 863 2201
23 858 2187
29 857 2184
35 840 2143
42 837 2133
50 878 2239
62 961 2452
72 986 2515
79 986 2515
82 934 2382
83 859 2191
84 803 2048
90 801 2043
100 837 2134
106 832 2122
112 826 2106
118 828 2109
125 827 2108
132 832 2120
140 846 2155
149 859 2189
158 867 2210
165 870 2217
172 875 2228
179 875 2229
185 872 2220
191 867 2208
194 849 2161
191 810 2060
193 790 2008
198 784 1995
203 783 1991
210 786 1998
222 808 2053
250 884 2248
265 911 2316
272 914 2322
280 916 2326
281 895 2272
286 889 2256
292 887 2251
304 902 2287
314 911 2311
323 916 2324
332 922 2337
342 929 2354
348 925 2344
353 919 2328
355 907 2296
367 920 2328
381 935 2367
387 932 2358
395 935 2363
402 935 2362
404 922 2330
414 929 2347
418 922 2328
427 925 2335
438 933 2353
445 933 2352
448 924 2328
454 922 2323
466 931 2343
469 923 2323
472 914 2298
476 909 2286
482 907 2278
475 880 2210
420 767 1924
465 837 2099
498 884 2217
508 890 2229
514 888 2224
519 885 2215
526 886 2216
535 888 2220
541 887 2216
548 888 2217
555 888 2216
559 883 2202
568 886 2209
572 881 2194
577 878 2185
564 848 2109
511 759 1886
512 753 1869
506 734 1822
516 741 1838
538 764 1893
532 747 1850
539 749 1854
544 748 1849
555 755 1865
554 746 1841
556 741 1827
568 748 1843
556 726 1787
581 750 1845
581 743 1826
603 763 1875
593 743 1823
603 748 1835
615 756 1852
606 738 1807
615 742 1815
638 763 1864
630 745 1819
625 733 1788
635 738 1798
653 752 1830
647 739 1797
674 762 1851
678 760 1845
717 797 1934
746 822 1992
758 828 2006
773 837 2024
780 838 2025
791 843 2035
800 845 2039
804 843 2030
809 840 2022
803 827 1989
817 836 2006
841 853 2046
859 864 2070
870 869 2079
878 869 2078
888 873 2084
894 872 2080
902 873 2079
911 876 2083
915 872 2073
924 875 2075
930 873 2070
936 873 2066
949 878 2077
952 875 2066
960 876 2065
963 873 2055
968 871 2049
968 865 2031
964 855 2005
954 840 1968
955 835 1954
950 825 1927
880 759 1769
786 674 1567
736 626 1455
732 619 1435
722 606 1404
717 598 1383
768 637 1470
886 730 1684
928 759 1749
934 760 1747
938 758 1741
953 765 1755
962 767 1757
959 760 1738
967 762 1739
955 748 1704
978 761 1730
985 762 1730
992 762 1729
997 762 1724
1002 761 1720
1012 764 1724
1015 762 1715
1017 759 1706
1022 758 1701
1020 752 1684
1035 759 1697
-805 601 1298
-859 645 1394
-1017 767 1663
-1307 990 2155
-1297 988 2155
-1313 1007 2199
-1289 993 2174
-1280 992 2176
-1218 950 2086
-1180 926 2037
-1160 916 2019
-1067 848 1871
-1031 824 1823
-1100 885 1960
