VERSION 0.7
FIELDS x y z
SIZE 4 4 4
TYPE I I I
COUNT 1 1 1
WIDTH 3488
HEIGHT 1
VIEWPOINT 0.0 0.0 0.0 1.0 0.0 0.0 0.0
POINTS 3488
DATA ascii
214 -1040 3165
221 -1033 3143
228 -1020 3105
244 -1047 3184
250 -1033 3142
265 -1056 3211
272 -1047 3183
283 -1053 3200
288 -1037 3149
307 -1068 3243
312 -1054 3200
321 -1052 3193
336 -1068 3241
341 -1053 3193
352 -1060 3213
360 -1052 3190
370 -1056 3198
380 -1057 3200
392 -1062 3215
400 -1059 3205
404 -1043 3156
418 -1056 3195
430 -1060 3206
0 0 0
432 -1020 3080
443 -1025 3096
456 -1033 3116
471 -1046 3154
480 -1044 3148
485 -1035 3118
501 -1050 3162
511 -1050 3161
517 -1043 3139
535 -1059 3186
540 -1051 3159
549 -1050 3154
559 -1051 3158
518 -957 2872
251 -452 1357
226 -399 1198
224 -390 1168
229 -392 1175
228 -386 1155
234 -389 1163
245 -402 1203
249 -402 1202
250 -399 1191
252 -395 1181
265 -410 1223
264 -403 1202
265 -398 1187
0 0 0
0 0 0
0 0 0
0 0 0
0 0 0
0 0 0
131 -177 527
77 -101 299
90 -117 347
75 -96 284
56 -69 205
78 -97 288
99 -123 362
118 -146 431
53 -62 183
16 -15 45
1277 -1575 4637
0 0 0
0 0 0
0 0 0
0 0 0
0 0 0
0 0 0
0 0 0
0 0 0
0 0 0
0 0 0
0 0 0
0 0 0
0 0 0
0 0 0
0 0 0
0 0 0
0 0 0
0 0 0
0 0 0
0 0 0
0 0 0
0 0 0
0 0 0
0 0 0
0 0 0
0 0 0
0 0 0
1032 -969 2777
1069 -995 2850
1079 -997 2851
1087 -996 2845
1091 -991 2829
1103 -994 2834
1104 -987 2810
1058 -939 2669
1061 -933 2650
1083 -945 2681
1106 -958 2713
1090 -937 2651
1086 -926 2617
1115 -944 2664
1097 -921 2598
1088 -907 2554
1093 -905 2544
1116 -917 2574
1098 -895 2511
1092 -884 2476
1085 -871 2437
1081 -862 2409
1070 -847 2364
1101 -866 2412
1114 -870 2421
1079 -837 2324
1107 -852 2365
1069 -817 2263
1082 -822 2273
1104 -832 2299
1121 -840 2316
1127 -839 2309
1121 -829 2278
1127 -827 2271
1115 -813 2229
1121 -813 2225
1120 -806 2204
1112 -796 2171
1114 -792 2157
1119 -790 2150
1119 -785 2132
1125 -784 2126
1130 -783 2119
1131 -779 2105
1120 -767 2069
1128 -767 2067
1135 -767 2063
1138 -765 2054
1130 -755 2023
1129 -750 2006
1131 -747 1993
1148 -754 2009
1140 -744 1979
1148 -745 1977
1147 -740 1960
1152 -739 1955
-763 -460 1251
-758 -460 1251
-724 -442 1204
-525 -322 879
-496 -306 838
-491 -305 835
-491 -306 841
-477 -299 823
-477 -301 830
-473 -301 830
-475 -304 840
-465 -299 828
-463 -300 831
-460 -299 831
-442 -289 805
-450 -297 827
-462 -307 855
-484 -323 903
-489 -328 918
-657 -444 1245
-1069 -727 2040
-1070 -733 2059
-1066 -734 2066
-1058 -733 2067
-1052 -734 2072
-1040 -730 2065
-1032 -730 2066
-1028 -732 2074
-1016 -728 2066
-1008 -727 2066
-998 -725 2064
-994 -727 2072
-982 -723 2064
-967 -717 2049
-944 -705 2017
-956 -719 2060
-953 -721 2070
-946 -722 2073
-943 -724 2083
-925 -716 2061
-900 -701 2021
-902 -708 2044
-879 -696 2010
-878 -700 2025
-880 -707 2047
-861 -697 2021
-861 -702 2037
-845 -694 2018
-839 -694 2020
-832 -694 2023
-832 -700 2041
-826 -700 2043
-815 -696 2035
-784 -675 1975
-783 -680 1991
-751 -657 1927
-770 -679 1993
-757 -673 1978
-746 -669 1967
-746 -675 1987
-749 -683 2012
-737 -678 2000
-739 -686 2025
-720 -674 1991
-702 -663 1960
-693 -661 1956
-708 -681 2016
-721 -700 2074
-710 -695 2062
-695 -687 2041
-682 -680 2022
-681 -685 2039
-671 -682 2030
-666 -684 2037
-661 -685 2042
-655 -685 2044
-652 -688 2056
-640 -683 2042
-638 -688 2058
-624 -679 2032
-623 -686 2054
-613 -681 2042
-611 -685 2057
-603 -684 2055
-599 -686 2063
-592 -686 2063
-583 -684 2057
-572 -678 2040
-570 -682 2056
-560 -679 2046
-556 -681 2054
-560 -694 2096
-546 -685 2069
-543 -689 2082
-528 -678 2051
-530 -689 2085
-520 -684 2072
-517 -689 2086
-507 -683 2071
-501 -683 2072
-499 -690 2092
-486 -680 2065
-484 -687 2085
-478 -688 2091
-533 -777 2362
-592 -874 2658
-623 -932 2837
-599 -908 2766
-619 -953 2903
-622 -971 2958
-610 -967 2947
-600 -965 2943
-597 -974 2972
-595 -985 3008
-592 -996 3041
-621 -1062 3246
-672 -1167 3567
0 0 0
0 0 0
0 0 0
0 0 0
0 0 0
0 0 0
0 0 0
0 0 0
-520 -1055 3236
-551 -1141 3500
-570 -1203 3692
-613 -1318 4046
-611 -1340 4115
-592 -1326 4073
-580 -1325 4071
-565 -1321 4058
-554 -1324 4068
-541 -1320 4059
-529 -1322 4066
-516 -1319 4058
-504 -1320 4060
-493 -1324 4073
-481 -1325 4078
-467 -1319 4059
-457 -1325 4081
-443 -1320 4065
-431 -1321 4068
-419 -1320 4068
-407 -1322 4074
-395 -1322 4073
-378 -1307 4027
-378 -1347 4152
-303 -1120 3453
-266 -1019 3142
-252 -1003 3092
-239 -985 3038
-233 -998 3080
-227 -1014 3129
-216 -1006 3104
-208 -1010 3116
-196 -999 3084
-188 -1006 3105
-179 -1006 3106
-170 -1008 3111
-160 -1001 3089
-150 -996 3073
-142 -1007 3107
-133 -1009 3116
-123 -1004 3100
-112 -992 3061
-105 -1004 3099
-95 -996 3076
-85 -996 3074
-78 -1013 3127
-67 -997 3078
-58 -997 3079
-49 -1001 3089
-40 -1005 3102
-31 -1006 3106
-21 -1004 3099
-12 -1008 3111
-3 -994 3068
5 -1007 3108
15 -1009 3114
24 -1015 3130
33 -1012 3120
43 -1015 3131
52 -1007 3105
61 -1015 3131
70 -1012 3119
80 -1013 3123
88 -1005 3097
98 -1011 3114
109 -1021 3146
117 -1009 3109
127 -1020 3142
136 -1017 3133
146 -1017 3133
155 -1017 3133
163 -1012 3114
175 -1026 3158
187 -1037 3192
193 -1023 3146
203 -1022 3144
214 -1032 3173
222 -1027 3157
233 -1033 3174
240 -1021 3138
250 -1025 3149
263 -1038 3186
270 -1028 3155
282 -1037 3183
290 -1032 3166
301 -1039 3188
312 -1045 3204
321 -1041 3192
329 -1037 3177
342 -1048 3209
348 -1037 3175
357 -1036 3172
371 -1047 3203
380 -1046 3199
391 -1050 3212
398 -1043 3189
406 -1038 3173
412 -1031 3148
424 -1037 3166
0 0 0
431 -1009 3079
450 -1030 3141
459 -1030 3140
471 -1035 3154
480 -1036 3154
491 -1037 3158
498 -1032 3142
512 -1043 3171
516 -1032 3136
530 -1039 3158
540 -1042 3163
547 -1036 3144
558 -1039 3153
406 -741 2247
240 -429 1300
223 -392 1187
224 -387 1171
226 -383 1160
234 -391 1184
237 -391 1183
240 -390 1177
238 -381 1151
247 -390 1178
252 -393 1184
257 -395 1189
260 -394 1185
283 -423 1272
0 0 0
0 0 0
0 0 0
0 0 0
0 0 0
93 -125 375
88 -116 348
80 -104 311
76 -97 292
68 -85 253
82 -102 306
59 -71 213
104 -129 384
0 0 0
36 -40 118
63 -73 218
0 0 0
0 0 0
0 0 0
0 0 0
0 0 0
0 0 0
0 0 0
0 0 0
0 0 0
0 0 0
0 0 0
0 0 0
0 0 0
0 0 0
0 0 0
0 0 0
0 0 0
0 0 0
0 0 0
0 0 0
0 0 0
0 0 0
1050 -1029 3000
0 0 0
0 0 0
0 0 0
0 0 0
0 0 0
1030 -959 2777
1064 -982 2840
1080 -988 2855
1079 -979 2826
1090 -981 2828
1089 -972 2799
1085 -961 2763
1091 -959 2754
1061 -925 2654
1092 -945 2707
1085 -931 2664
1084 -923 2637
1097 -927 2646
1101 -923 2632
1087 -905 2576
1094 -904 2570
1102 -903 2566
1099 -894 2537
1092 -882 2499
1080 -866 2450
1044 -831 2348
1085 -857 2420
1070 -840 2366
1068 -832 2341
1051 -813 2285
1086 -835 2342
1098 -838 2347
1113 -843 2359
1102 -829 2317
1124 -840 2344
1113 -826 2302
1134 -836 2327
1116 -818 2271
1108 -807 2237
1115 -806 2232
1107 -795 2198
1115 -795 2196
1110 -787 2169
1111 -782 2153
1109 -776 2132
1124 -782 2145
1125 -778 2130
1130 -776 2123
1114 -760 2076
1122 -761 2074
1122 -756 2058
1137 -762 2070
1132 -754 2045
1144 -758 2050
1136 -748 2020
1132 -741 1998
1148 -747 2010
1150 -743 1998
1141 -734 1968
1140 -729 1952
1141 -725 1938
-764 -457 1253
-755 -454 1248
-682 -412 1136
-513 -312 861
-494 -302 834
-492 -303 838
-480 -297 824
-483 -301 836
-473 -296 824
-471 -296 826
-471 -298 833
-462 -295 824
-463 -297 831
-463 -299 838
-469 -305 856
-474 -310 872
-473 -311 876
-474 -313 885
-505 -336 950
-723 -484 1372
-1074 -724 2053
-1070 -725 2061
-1064 -726 2066
-1056 -725 2066
-1047 -724 2064
-1039 -723 2066
-1031 -722 2067
-1025 -723 2071
-1014 -720 2065
-1009 -721 2071
-998 -718 2066
-991 -718 2069
-980 -715 2062
-960 -705 2037
-952 -705 2037
-960 -715 2070
-951 -713 2068
-948 -716 2078
-940 -715 2079
-922 -707 2057
-900 -695 2024
-888 -691 2014
-891 -698 2039
-879 -694 2028
-870 -692 2024
-866 -694 2033
-855 -691 2027
-853 -694 2039
-845 -693 2038
-838 -692 2038
-833 -693 2043
-827 -695 2049
-818 -692 2045
-799 -681 2014
-752 -646 1913
-772 -669 1982
-758 -663 1966
-754 -665 1973
-753 -669 1989
-752 -674 2004
-749 -677 2015
-740 -675 2010
-722 -664 1980
-713 -662 1975
-714 -668 1995
-703 -664 1985
-706 -672 2012
-703 -676 2024
-702 -681 2042
-684 -670 2010
-678 -670 2014
-686 -684 2056
-662 -667 2006
-659 -670 2016
-669 -687 2069
-658 -682 2057
-657 -688 2075
-647 -683 2064
-636 -679 2053
-630 -680 2056
-622 -677 2050
-615 -677 2052
-611 -679 2059
-603 -677 2054
-598 -679 2061
-591 -679 2062
-579 -672 2044
-572 -671 2041
-562 -668 2032
-568 -682 2076
-558 -678 2066
-556 -682 2081
-545 -677 2065
-539 -677 2067
-532 -677 2068
-521 -671 2050
-519 -676 2067
-517 -682 2087
-506 -676 2070
-497 -672 2058
-489 -669 2052
-489 -678 2080
-480 -675 2071
-485 -691 2122
-542 -782 2402
-626 -916 2814
-594 -880 2707
-605 -910 2800
-629 -959 2951
-625 -966 2976
-620 -973 2996
-596 -950 2928
-601 -972 2998
-617 -1013 3125
-580 -968 2985
-632 -1069 3301
-683 -1175 3628
0 0 0
0 0 0
0 0 0
0 0 0
0 0 0
0 0 0
0 0 0
0 0 0
-525 -1056 3271
-546 -1119 3467
-589 -1232 3817
-618 -1318 4085
-605 -1315 4077
-597 -1324 4106
-581 -1317 4085
-566 -1310 4065
-552 -1305 4052
-539 -1305 4053
-528 -1307 4061
-515 -1304 4051
-505 -1310 4072
-492 -1309 4070
-482 -1316 4090
-469 -1311 4077
-456 -1312 4079
-444 -1312 4082
-431 -1309 4074
-420 -1312 4081
-407 -1311 4080
-395 -1311 4080
-386 -1323 4119
-390 -1379 4294
-360 -1315 4097
-272 -1032 3215
-252 -993 3093
-242 -988 3078
-234 -996 3103
-223 -986 3071
-215 -990 3086
-204 -984 3067
-194 -981 3057
-186 -983 3066
-178 -992 3093
-168 -988 3079
-159 -989 3082
-148 -976 3043
-141 -991 3091
-132 -992 3092
-123 -992 3092
-113 -985 3072
-104 -991 3089
-95 -988 3079
-85 -988 3080
-77 -998 3112
-68 -995 3101
-59 -998 3111
-49 -993 3096
-40 -1004 3129
-31 -996 3106
-22 -1006 3136
-12 -996 3104
-3 -992 3091
5 -997 3107
15 -1001 3121
24 -1002 3123
33 -989 3080
42 -997 3105
51 -992 3089
61 -1002 3121
70 -1002 3122
80 -1008 3139
90 -1009 3142
98 -996 3101
107 -1000 3113
118 -1014 3156
127 -1012 3148
137 -1010 3142
144 -993 3088
154 -1002 3115
165 -1012 3146
175 -1015 3155
184 -1011 3143
193 -1012 3146
203 -1014 3150
211 -1006 3124
223 -1021 3169
228 -1001 3106
241 -1014 3148
253 -1029 3192
262 -1023 3174
272 -1027 3186
276 -1008 3125
290 -1023 3170
299 -1022 3168
311 -1029 3186
320 -1030 3188
331 -1032 3193
338 -1026 3174
348 -1027 3176
363 -1043 3224
371 -1039 3211
379 -1033 3192
389 -1034 3193
400 -1040 3211
406 -1030 3179
418 -1037 3199
432 -1047 3231
0 0 0
425 -986 3038
441 -1000 3082
455 -1012 3115
472 -1029 3167
476 -1016 3125
490 -1026 3155
496 -1019 3133
506 -1021 3135
521 -1032 3169
519 -1009 3096
542 -1035 3174
546 -1025 3143
547 -1009 3092
363 -656 2009
228 -403 1234
224 -390 1193
220 -376 1150
229 -386 1179
230 -381 1164
235 -385 1174
238 -384 1171
243 -385 1173
249 -389 1185
251 -387 1179
256 -389 1183
260 -389 1185
258 -381 1158
302 -440 1339
0 0 0
0 0 0
0 0 0
0 0 0
0 0 0
98 -128 388
91 -118 357
68 -85 257
79 -98 297
67 -82 248
50 -59 177
42 -48 145
108 -131 394
13 -11 34
27 -29 86
0 0 0
0 0 0
0 0 0
0 0 0
0 0 0
0 0 0
0 0 0
0 0 0
0 0 0
0 0 0
0 0 0
0 0 0
0 0 0
0 0 0
0 0 0
0 0 0
0 0 0
0 0 0
0 0 0
0 0 0
0 0 0
0 0 0
0 0 0
1054 -1015 2984
1055 -1007 2958
0 0 0
0 0 0
0 0 0
1045 -964 2820
1057 -966 2824
1085 -984 2873
1084 -975 2841
1079 -963 2803
1090 -964 2804
1094 -960 2789
1072 -933 2709
1102 -952 2758
1071 -918 2657
1105 -940 2717
1088 -918 2651
1094 -916 2643
1102 -915 2637
1087 -896 2578
1096 -897 2577
1089 -884 2538
1081 -872 2498
1065 -852 2439
1089 -865 2473
1076 -848 2422
1077 -843 2404
1056 -821 2337
1106 -854 2427
1101 -844 2396
1095 -834 2364
1104 -835 2363
1110 -833 2356
1114 -831 2345
1115 -826 2328
1126 -828 2330
1127 -823 2314
1142 -829 2326
1099 -792 2220
1127 -807 2259
1128 -803 2243
1099 -777 2167
1115 -783 2182
1113 -777 2160
1112 -771 2141
1111 -766 2122
1116 -764 2115
1114 -758 2095
1117 -756 2084
1120 -753 2073
1132 -756 2079
1142 -759 2082
1144 -755 2068
1137 -746 2040
1148 -749 2044
1132 -734 2000
1145 -738 2007
1133 -726 1970
1139 -726 1967
1144 -725 1961
1146 -721 1948
-756 -447 1242
-747 -445 1236
-648 -388 1081
-503 -303 845
-496 -300 840
-487 -297 830
-483 -296 830
-477 -294 826
-478 -296 833
-473 -295 831
-469 -294 830
-471 -297 840
-457 -290 822
-467 -298 846
-465 -299 850
-445 -288 818
-473 -308 877
-470 -308 879
-508 -335 957
-799 -530 1516
-1080 -721 2066
-1067 -717 2057
-1064 -719 2067
-1054 -717 2064
-1047 -717 2068
-1039 -716 2068
-1027 -712 2059
-1024 -715 2071
-1014 -713 2068
-1010 -715 2075
-998 -712 2069
-991 -711 2069
-977 -706 2058
-954 -694 2026
-959 -703 2054
-957 -706 2067
-953 -708 2075
-944 -707 2073
-941 -710 2084
-924 -702 2064
-904 -691 2035
-900 -694 2044
-882 -685 2020
-876 -685 2025
-873 -688 2035
-856 -679 2012
-851 -681 2018
-853 -687 2040
-847 -688 2044
-834 -683 2031
-832 -687 2045
-818 -680 2028
-814 -682 2036
-794 -671 2003
-740 -630 1884
-764 -656 1964
-768 -665 1993
-740 -646 1938
-751 -662 1986
-753 -668 2008
-753 -675 2029
-738 -667 2007
-730 -665 2003
-702 -645 1945
-717 -664 2006
-705 -659 1992
-712 -672 2033
-702 -668 2022
-698 -670 2031
-689 -669 2028
-680 -665 2020
-677 -669 2033
-664 -662 2013
-655 -660 2008
-657 -668 2035
-661 -679 2069
-654 -678 2067
-641 -671 2048
-633 -669 2044
-623 -666 2036
-619 -668 2042
-617 -673 2060
-610 -672 2060
-603 -672 2060
-598 -673 2064
-588 -669 2052
-580 -667 2050
-574 -667 2050
-571 -671 2065
-566 -672 2069
-553 -665 2049
-547 -666 2051
-547 -673 2076
-541 -674 2078
-532 -671 2070
-529 -674 2083
-523 -674 2084
-511 -668 2066
-506 -670 2073
-503 -673 2084
-495 -672 2082
-487 -669 2074
-483 -673 2086
-488 -689 2136
-557 -797 2473
-608 -881 2736
-576 -846 2628
-613 -912 2836
-639 -966 3003
-616 -944 2937
-612 -952 2962
-609 -961 2991
-596 -955 2974
-578 -940 2929
-602 -995 3101
-638 -1071 3340
-669 -1140 3558
0 0 0
0 0 0
0 0 0
0 0 0
0 0 0
0 0 0
0 0 0
0 0 0
-531 -1058 3312
-555 -1128 3529
-589 -1220 3821
-623 -1314 4116
-606 -1306 4091
-597 -1313 4116
-578 -1297 4066
-566 -1297 4067
-552 -1295 4061
-542 -1298 4074
-527 -1293 4058
-515 -1293 4060
-505 -1299 4077
-492 -1297 4073
-480 -1296 4070
-467 -1295 4068
-457 -1301 4088
-444 -1298 4080
-430 -1293 4065
-418 -1295 4072
-405 -1292 4063
-395 -1299 4086
-391 -1326 4170
-386 -1353 4256
-374 -1354 4260
-286 -1074 3379
-256 -998 3141
-242 -980 3085
-234 -985 3100
-223 -979 3081
-213 -972 3061
-206 -983 3095
-193 -965 3037
-187 -980 3087
-176 -970 3054
-167 -975 3070
-158 -971 3059
-152 -993 3127
-143 -992 3124
-132 -986 3107
-121 -967 3046
-114 -991 3121
-104 -979 3084
-96 -988 3111
-87 -991 3122
-75 -965 3040
-67 -978 3082
-58 -974 3069
-48 -967 3044
-39 -978 3080
-31 -990 3119
-21 -979 3081
-12 -990 3117
-3 -978 3080
5 -994 3130
15 -981 3089
24 -976 3072
33 -993 3124
42 -987 3106
52 -992 3121
61 -995 3132
70 -987 3105
80 -994 3127
89 -986 3101
98 -989 3112
107 -983 3092
117 -992 3119
126 -994 3125
135 -991 3115
144 -988 3105
155 -999 3140
164 -994 3121
174 -998 3135
182 -992 3113
193 -1004 3151
202 -1000 3140
211 -1000 3138
220 -998 3129
233 -1013 3178
241 -1008 3161
253 -1019 3193
258 -998 3128
270 -1009 3159
280 -1012 3168
290 -1014 3176
299 -1012 3169
313 -1027 3213
322 -1026 3210
333 -1029 3216
337 -1012 3162
349 -1020 3187
360 -1023 3196
366 -1015 3170
376 -1015 3170
385 -1015 3167
396 -1019 3179
403 -1012 3157
414 -1016 3166
413 -990 3083
0 0 0
426 -979 3046
446 -1003 3123
451 -994 3090
462 -997 3101
476 -1007 3129
488 -1013 3146
497 -1012 3143
506 -1011 3137
518 -1015 3148
525 -1010 3132
530 -1003 3109
540 -1003 3108
463 -844 2614
277 -494 1530
224 -393 1215
220 -379 1171
223 -377 1166
226 -377 1163
236 -388 1196
229 -370 1143
236 -376 1158
239 -376 1158
243 -377 1160
249 -380 1171
250 -375 1154
262 -388 1194
260 -380 1168
0 0 0
0 0 0
0 0 0
0 0 0
0 0 0
0 0 0
75 -96 294
79 -101 308
67 -83 254
72 -89 271
66 -80 244
50 -58 178
88 -105 321
0 0 0
65 -75 230
11 -9 28
0 0 0
0 0 0
0 0 0
0 0 0
0 0 0
0 0 0
0 0 0
0 0 0
0 0 0
0 0 0
0 0 0
0 0 0
0 0 0
0 0 0
0 0 0
0 0 0
0 0 0
0 0 0
0 0 0
0 0 0
0 0 0
0 0 0
0 0 0
1049 -1001 2973
1044 -988 2931
0 0 0
0 0 0
0 0 0
1048 -957 2829
1065 -965 2848
1089 -979 2886
1074 -957 2819
1084 -958 2818
1065 -934 2744
1097 -954 2800
1091 -941 2758
1094 -936 2741
1092 -927 2713
1102 -929 2713
1088 -910 2654
1105 -917 2671
1093 -900 2619
1108 -905 2630
1082 -877 2545
1112 -895 2595
1092 -872 2526
1024 -812 2348
1071 -843 2434
1054 -824 2376
1070 -830 2390
1107 -852 2452
1109 -848 2436
1106 -840 2409
1115 -841 2408
1107 -829 2370
1105 -822 2348
1117 -825 2353
1120 -822 2341
1112 -810 2304
1111 -804 2283
1110 -798 2262
1104 -789 2233
1116 -792 2239
1085 -765 2159
1107 -775 2185
1101 -766 2157
1110 -767 2156
1118 -768 2154
1126 -769 2152
1122 -761 2128
1128 -761 2123
1124 -753 2098
1127 -751 2088
1121 -742 2060
1138 -749 2076
1128 -738 2042
1132 -736 2034
1143 -738 2036
1139 -731 2014
1138 -726 1997
1134 -720 1974
1134 -715 1959
1148 -721 1970
1140 -711 1941
-771 -452 1267
-748 -441 1239
-615 -365 1026
-492 -294 828
-497 -298 842
-488 -295 833
-487 -295 837
-479 -293 831
-471 -289 822
-481 -297 846
-468 -291 829
-469 -293 837
-460 -290 829
-461 -292 837
-459 -292 840
-460 -295 847
-472 -304 876
-463 -300 866
-529 -346 998
-892 -586 1695
-1075 -711 2059
-1066 -709 2057
-1065 -713 2072
-1052 -709 2063
-1047 -710 2069
-1040 -710 2072
-1029 -707 2066
-1018 -704 2061
-1016 -707 2073
-1005 -705 2067
-998 -705 2070
-987 -702 2064
-978 -700 2062
-963 -694 2047
-964 -700 2066
-961 -702 2077
-953 -701 2076
-947 -702 2080
-942 -704 2088
-916 -689 2047
-906 -686 2041
-894 -682 2032
-888 -683 2037
-873 -676 2018
-873 -681 2036
-867 -682 2040
-855 -678 2030
-833 -665 1994
-833 -670 2012
-839 -681 2046
-827 -676 2033
-820 -676 2036
-813 -675 2035
-787 -658 1987
-740 -624 1886
-764 -650 1965
-769 -660 1998
-738 -639 1935
-763 -665 2018
-742 -653 1983
-732 -649 1974
-737 -660 2007
-716 -647 1969
-711 -647 1973
-716 -658 2007
-711 -659 2012
-709 -663 2025
-708 -668 2043
-701 -668 2044
-688 -661 2024
-681 -661 2026
-680 -666 2043
-671 -663 2037
-667 -665 2046
-669 -673 2072
-660 -671 2066
-652 -669 2063
-641 -665 2051
-632 -662 2042
-625 -661 2041
-615 -657 2032
-614 -663 2050
-610 -665 2059
-604 -667 2065
-593 -661 2049
-583 -657 2039
-582 -663 2058
-572 -659 2047
-569 -662 2057
-560 -660 2052
-554 -660 2053
-548 -661 2056
-551 -672 2094
-537 -662 2064
-539 -673 2098
-526 -664 2073
-519 -664 2073
-514 -666 2080
-505 -662 2069
-497 -660 2065
-490 -659 2062
-488 -665 2081
-486 -671 2101
-484 -677 2122
-584 -827 2594
-590 -847 2658
-599 -871 2734
-609 -899 2821
-600 -898 2821
-604 -917 2881
-611 -942 2962
-605 -946 2975
-585 -928 2921
-598 -964 3034
-587 -960 3024
-616 -1024 3226
0 0 0
0 0 0
0 0 0
0 0 0
0 0 0
0 0 0
0 0 0
0 0 0
0 0 0
-528 -1042 3295
-581 -1168 3695
-600 -1231 3895
-613 -1282 4056
-603 -1287 4074
-598 -1302 4122
-578 -1285 4070
-566 -1287 4076
-551 -1280 4057
-543 -1290 4090
-529 -1285 4072
-520 -1293 4100
-505 -1287 4083
-494 -1290 4092
-482 -1290 4094
-470 -1290 4094
-455 -1284 4076
-444 -1287 4086
-433 -1290 4095
-421 -1291 4101
-409 -1292 4105
-395 -1287 4088
-390 -1312 4168
-389 -1351 4293
-383 -1376 4374
-351 -1305 4148
-263 -1014 3225
-238 -954 3034
-231 -963 3063
-222 -964 3067
-213 -965 3069
-207 -977 3108
-194 -961 3057
-185 -962 3059
-176 -961 3058
-167 -962 3062
-160 -977 3108
-148 -960 3054
-140 -966 3075
-129 -952 3030
-121 -958 3048
-114 -979 3116
-103 -966 3074
-94 -964 3068
-85 -965 3070
-76 -966 3075
-68 -978 3112
-58 -973 3097
-48 -952 3030
-40 -975 3104
-31 -976 3106
-21 -957 3043
-12 -981 3121
-3 -970 3084
5 -974 3099
15 -970 3087
24 -984 3129
33 -967 3076
42 -976 3104
52 -978 3109
62 -987 3138
70 -977 3104
78 -963 3059
89 -984 3126
98 -982 3121
108 -986 3133
116 -974 3095
124 -968 3074
137 -990 3144
146 -987 3134
154 -979 3106
164 -984 3121
171 -972 3085
180 -973 3086
192 -988 3133
203 -997 3161
211 -987 3127
220 -986 3125
229 -985 3122
242 -1000 3166
250 -996 3154
255 -980 3101
268 -994 3144
278 -995 3148
288 -998 3156
299 -1002 3167
309 -1003 3172
320 -1008 3184
329 -1007 3182
337 -1002 3165
352 -1018 3212
358 -1009 3184
366 -1005 3170
377 -1009 3182
385 -1006 3171
397 -1012 3190
404 -1004 3164
416 -1011 3184
429 -1020 3211
0 0 0
429 -975 3067
439 -976 3070
451 -983 3090
462 -988 3103
470 -985 3093
485 -996 3124
494 -997 3127
505 -998 3130
519 -1007 3156
532 -1016 3181
532 -997 3122
530 -976 3054
0 0 0
218 -385 1203
217 -375 1173
214 -365 1139
224 -376 1173
219 -361 1127
223 -363 1132
226 -361 1126
230 -363 1131
236 -366 1140
237 -363 1129
244 -369 1146
241 -359 1117
244 -358 1112
260 -376 1167
270 -386 1196
0 0 0
0 0 0
0 0 0
0 0 0
0 0 0
68 -86 266
86 -108 335
71 -87 270
65 -79 243
60 -72 222
64 -75 232
49 -56 174
104 -123 379
90 -105 324
7 -4 13
0 0 0
0 0 0
0 0 0
0 0 0
0 0 0
0 0 0
0 0 0
0 0 0
0 0 0
0 0 0
0 0 0
0 0 0
0 0 0
0 0 0
0 0 0
0 0 0
0 0 0
0 0 0
0 0 0
0 0 0
0 0 0
0 0 0
0 0 0
0 0 0
0 0 0
1050 -975 2922
0 0 0
0 0 0
1044 -945 2822
1054 -946 2822
1073 -954 2844
1068 -943 2805
1094 -958 2847
1071 -930 2762
1085 -934 2771
1075 -919 2721
1104 -936 2769
1101 -926 2736
1098 -916 2705
1099 -910 2683
1118 -918 2704
1095 -893 2625
1088 -880 2585
1067 -857 2513
1071 -854 2501
1073 -849 2484
1098 -862 2519
1108 -864 2522
1100 -852 2482
1090 -837 2437
1113 -849 2468
1107 -838 2433
1099 -827 2396
1112 -831 2405
1127 -836 2418
1118 -823 2377
1111 -813 2344
1112 -808 2326
1128 -815 2341
1106 -793 2275
1105 -787 2255
1103 -780 2233
1091 -767 2190
1109 -774 2209
1081 -750 2136
1107 -763 2170
1112 -761 2162
1114 -758 2148
1120 -757 2143
1131 -760 2147
1127 -752 2122
1130 -750 2112
1128 -744 2093
1136 -745 2091
1125 -733 2054
1140 -739 2066
1140 -734 2049
1141 -730 2035
1135 -722 2010
1137 -719 1998
1130 -711 1970
1133 -708 1960
1141 -709 1959
1131 -699 1926
-758 -440 1248
-743 -434 1233
-583 -342 973
-490 -290 825
-486 -289 825
-498 -298 851
-491 -295 845
-472 -285 819
-471 -286 823
-475 -291 837
-471 -290 836
-461 -285 824
-466 -290 839
-469 -294 852
-464 -292 849
-476 -302 879
-463 -296 860
-477 -306 893
-543 -351 1026
-966 -628 1837
-1074 -703 2060
-1067 -703 2062
-1059 -702 2062
-1050 -701 2061
-1049 -705 2075
-1035 -700 2063
-1031 -702 2074
-1019 -698 2065
-1014 -699 2071
-1008 -700 2075
-994 -695 2065
-984 -693 2060
-975 -691 2058
-962 -687 2047
-964 -693 2069
-958 -694 2073
-951 -693 2074
-948 -696 2085
-936 -693 2077
-915 -682 2048
-904 -679 2040
-899 -679 2045
-886 -675 2033
-877 -673 2031
-872 -674 2036
-867 -675 2042
-854 -670 2030
-852 -673 2041
-837 -667 2023
-838 -673 2045
-835 -676 2054
-826 -674 2052
-813 -669 2039
-794 -658 2008
-750 -627 1914
-768 -647 1977
-765 -650 1988
-757 -649 1987
-752 -649 1991
-745 -649 1993
-733 -644 1978
-717 -635 1953
-707 -632 1946
-706 -637 1961
-716 -651 2008
-716 -657 2027
-709 -656 2027
-711 -664 2052
-708 -667 2065
-684 -651 2017
-685 -658 2038
-679 -659 2043
-666 -652 2022
-660 -652 2026
-664 -662 2059
-662 -667 2074
-651 -662 2062
-642 -660 2056
-633 -657 2048
-621 -651 2033
-622 -659 2059
-616 -659 2060
-611 -660 2064
-598 -654 2046
-599 -661 2070
-587 -656 2054
-580 -655 2053
-572 -652 2047
-568 -655 2056
-566 -661 2075
-557 -657 2065
-551 -658 2068
-543 -655 2062
-538 -658 2071
-532 -658 2075
-528 -660 2083
-519 -657 2072
-517 -663 2092
-504 -654 2066
-501 -659 2081
-494 -658 2080
-486 -656 2074
-485 -662 2097
-491 -680 2152
-588 -825 2615
-604 -859 2723
-607 -875 2774
-599 -876 2779
-623 -923 2929
-618 -930 2953
-603 -920 2922
-605 -937 2977
-591 -928 2952
-569 -909 2890
-508 -825 2625
-525 -865 2753
-583 -975 3106
0 0 0
0 0 0
0 0 0
0 0 0
0 0 0
0 0 0
0 0 0
0 0 0
-500 -978 3124
-579 -1155 3690
-618 -1256 4016
-621 -1287 4114
-605 -1278 4088
-593 -1279 4091
-581 -1281 4099
-566 -1273 4075
-555 -1276 4086
-542 -1276 4087
-532 -1279 4098
-520 -1280 4102
-506 -1278 4094
-494 -1277 4093
-482 -1279 4100
-468 -1273 4082
-456 -1274 4084
-444 -1275 4090
-430 -1270 4076
-419 -1273 4085
-409 -1281 4113
-396 -1278 4102
-387 -1289 4137
-394 -1354 4347
-397 -1411 4530
-372 -1367 4392
-256 -979 3145
-238 -948 3044
-228 -943 3030
-222 -956 3072
-214 -961 3089
-204 -956 3072
-191 -936 3007
-184 -950 3055
-176 -952 3061
-168 -961 3088
-155 -940 3021
-149 -955 3071
-140 -955 3069
-129 -944 3036
-122 -960 3088
-115 -975 3136
-104 -959 3084
-94 -960 3087
-85 -952 3061
-76 -953 3065
-66 -952 3062
-58 -956 3075
-48 -957 3077
-39 -944 3033
-30 -948 3046
-21 -961 3087
-12 -960 3085
-3 -959 3082
6 -964 3099
15 -966 3104
24 -962 3089
34 -977 3140
42 -964 3098
52 -971 3119
61 -963 3092
70 -971 3117
79 -967 3106
89 -970 3114
98 -969 3110
107 -963 3091
116 -969 3108
127 -975 3127
137 -980 3144
144 -970 3110
155 -980 3143
165 -980 3142
172 -966 3097
183 -979 3136
192 -979 3136
203 -987 3161
213 -987 3161
218 -970 3107
234 -997 3191
240 -983 3146
247 -973 3113
263 -999 3194
268 -982 3140
278 -984 3146
286 -979 3130
296 -981 3135
308 -990 3161
317 -991 3163
327 -992 3167
341 -1004 3204
351 -1005 3206
360 -1006 3207
368 -1001 3190
376 -997 3177
388 -1003 3196
396 -998 3178
409 -1007 3206
411 -990 3149
410 -965 3068
0 0 0
411 -926 2944
437 -965 3064
449 -970 3078
462 -978 3103
474 -984 3120
490 -998 3163
489 -976 3092
509 -997 3157
514 -988 3128
514 -970 3070
486 -902 2854
0 0 0
246 -438 1385
215 -374 1183
212 -363 1147
214 -361 1141
214 -356 1122
218 -356 1122
222 -357 1124
222 -352 1108
228 -356 1122
230 -353 1112
238 -362 1138
240 -358 1126
248 -365 1148
244 -355 1113
255 -366 1148
251 -355 1112
0 0 0
0 0 0
0 0 0
0 0 0
0 0 0
86 -109 340
88 -110 345
83 -102 319
65 -79 246
52 -61 190
61 -71 222
43 -49 152
37 -41 127
1248 -1502 4659
1254 -1492 4624
0 0 0
0 0 0
0 0 0
0 0 0
0 0 0
0 0 0
0 0 0
0 0 0
0 0 0
1047 -1119 3439
0 0 0
0 0 0
0 0 0
0 0 0
0 0 0
0 0 0
0 0 0
0 0 0
0 0 0
0 0 0
0 0 0
0 0 0
0 0 0
0 0 0
0 0 0
0 0 0
0 0 0
0 0 0
1010 -905 2731
1061 -943 2843
1068 -941 2834
1080 -944 2840
1093 -947 2846
1094 -941 2823
1083 -924 2768
1099 -930 2785
1077 -904 2702
1077 -897 2678
1090 -900 2686
1082 -887 2642
1036 -843 2507
1062 -858 2548
1094 -877 2602
1022 -813 2409
1087 -858 2540
1080 -846 2502
1074 -835 2466
1085 -838 2471
1103 -846 2491
1112 -847 2490
1107 -837 2457
1103 -828 2428
1109 -826 2420
1110 -822 2403
1104 -812 2370
1110 -810 2362
1112 -806 2348
1103 -794 2310
1088 -778 2259
1114 -791 2294
1094 -772 2235
1095 -767 2217
1106 -770 2222
1098 -759 2189
1104 -758 2182
1111 -759 2180
1110 -753 2160
1116 -752 2154
1122 -751 2149
1129 -751 2145
1140 -754 2149
1132 -744 2117
1141 -746 2118
1135 -737 2091
1136 -734 2077
1147 -736 2081
1137 -725 2045
1139 -722 2033
1135 -715 2011
1127 -706 1982
1132 -705 1976
1129 -699 1955
1128 -695 1939
1133 -693 1932
-757 -435 1248
-728 -421 1208
-549 -319 918
-509 -298 858
-487 -286 826
-484 -287 828
-484 -288 834
-483 -289 839
-471 -283 823
-477 -289 842
-472 -288 838
-463 -284 829
-466 -287 841
-470 -292 855
-468 -292 858
-462 -290 853
-486 -308 905
-491 -312 921
-568 -364 1074
-1018 -656 1939
-1073 -696 2060
-1066 -695 2061
-1056 -693 2058
-1050 -694 2062
-1040 -692 2061
-1033 -692 2062
-1031 -695 2074
-1019 -692 2067
-1015 -693 2076
-1005 -691 2072
-995 -689 2068
-983 -685 2059
-973 -683 2056
-959 -678 2044
-958 -682 2058
-958 -687 2076
-948 -685 2071
-942 -685 2075
-931 -682 2068
-908 -670 2035
-899 -668 2030
-896 -671 2041
-889 -670 2042
-883 -671 2045
-867 -664 2026
-874 -674 2060
-850 -661 2022
-846 -663 2030
-846 -668 2048
-838 -666 2046
-826 -662 2036
-814 -658 2025
-805 -656 2020
-776 -637 1964
-735 -608 1877
-775 -647 1998
-775 -652 2016
-761 -646 1998
-749 -641 1985
-745 -643 1994
-736 -640 1987
-718 -631 1959
-720 -637 1982
-709 -634 1972
-715 -644 2008
-711 -646 2016
-709 -650 2029
-706 -654 2042
-707 -660 2065
-684 -645 2018
-684 -651 2039
-669 -642 2014
-661 -641 2010
-664 -650 2041
-665 -657 2065
-660 -659 2071
-651 -656 2064
-639 -651 2049
-631 -649 2045
-621 -645 2033
-615 -645 2036
-615 -651 2057
-602 -645 2038
-601 -650 2057
-594 -650 2057
-589 -651 2061
-583 -652 2065
-569 -643 2040
-572 -654 2076
-567 -655 2080
-561 -656 2083
-551 -651 2069
-545 -652 2073
-536 -649 2065
-537 -658 2095
-523 -648 2066
-521 -654 2084
-511 -649 2071
-506 -650 2076
-497 -647 2066
-490 -647 2067
-487 -650 2079
-481 -651 2084
-493 -677 2166
-595 -826 2645
-605 -851 2727
-581 -830 2661
-593 -858 2752
-611 -897 2878
-610 -909 2918
-597 -902 2895
-585 -897 2882
-577 -899 2888
-539 -853 2740
-479 -770 2478
-510 -832 2677
-524 -869 2797
-498 -839 2702
0 0 0
0 0 0
0 0 0
0 0 0
0 0 0
0 0 0
0 0 0
0 0 0
-576 -1136 3669
-620 -1248 4032
-616 -1264 4082
-612 -1280 4137
-595 -1272 4111
-579 -1264 4086
-567 -1263 4086
-553 -1261 4079
-541 -1260 4077
-529 -1260 4079
-518 -1265 4095
-505 -1262 4086
-494 -1266 4100
-482 -1266 4100
-468 -1261 4086
-457 -1264 4097
-444 -1264 4095
-432 -1265 4100
-421 -1268 4110
-409 -1268 4113
-397 -1269 4116
-390 -1286 4170
-394 -1344 4359
-383 -1350 4381
-362 -1321 4287
-264 -1000 3244
-245 -964 3131
-234 -956 3103
-223 -951 3087
-214 -952 3090
-204 -945 3070
-194 -943 3063
-185 -942 3060
-177 -949 3084
-166 -939 3052
-159 -951 3090
-149 -947 3077
-138 -933 3030
-130 -940 3052
-123 -956 3106
-112 -943 3065
-103 -945 3071
-92 -929 3017
-85 -945 3071
-75 -936 3040
-66 -942 3061
-58 -957 3110
-48 -941 3058
-39 -948 3079
-30 -942 3060
-21 -954 3099
-12 -945 3068
-3 -956 3103
6 -955 3100
15 -962 3123
24 -954 3097
34 -965 3134
42 -957 3106
52 -957 3105
61 -962 3122
70 -952 3090
80 -960 3115
88 -948 3075
98 -960 3112
106 -945 3063
116 -956 3099
126 -964 3126
134 -954 3091
145 -964 3125
153 -957 3099
161 -952 3082
172 -961 3113
181 -961 3110
193 -971 3144
200 -958 3102
211 -971 3143
220 -969 3135
232 -977 3161
240 -975 3151
250 -977 3157
259 -975 3151
269 -975 3149
276 -967 3122
292 -990 3197
296 -972 3136
306 -975 3146
318 -983 3171
331 -995 3209
336 -981 3164
348 -987 3181
354 -978 3151
366 -985 3171
375 -985 3171
384 -982 3160
395 -986 3173
403 -983 3160
419 -998 3209
401 -933 2999
0 0 0
429 -957 3072
442 -965 3096
449 -960 3080
465 -975 3126
473 -972 3115
484 -976 3126
497 -982 3145
499 -969 3102
514 -978 3130
509 -953 3046
395 -724 2314
288 -517 1653
224 -394 1257
217 -374 1195
209 -355 1132
209 -349 1113
209 -343 1094
211 -342 1089
219 -350 1113
218 -342 1088
226 -350 1114
235 -359 1141
235 -353 1120
237 -351 1115
240 -351 1113
243 -350 1109
241 -343 1086
232 -324 1027
283 -392 1240
0 0 0
0 0 0
0 0 0
0 0 0
80 -100 316
68 -84 265
85 -104 329
66 -79 249
73 -87 274
51 -58 184
31 -32 103
36 -38 120
0 0 0
54 -59 186
1246 -1452 4542
0 0 0
0 0 0
0 0 0
0 0 0
0 0 0
0 0 0
0 0 0
0 0 0
0 0 0
0 0 0
0 0 0
0 0 0
0 0 0
0 0 0
0 0 0
0 0 0
0 0 0
0 0 0
0 0 0
0 0 0
0 0 0
0 0 0
0 0 0
0 0 0
0 0 0
0 0 0
0 0 0
1059 -940 2866
1063 -936 2850
1069 -934 2840
1082 -937 2847
1099 -944 2865
1097 -934 2833
1090 -921 2790
1086 -910 2754
1082 -900 2718
1093 -902 2721
1095 -897 2702
1066 -866 2606
1065 -858 2581
1013 -810 2431
1048 -831 2494
1080 -851 2549
1101 -861 2576
1093 -848 2534
1108 -854 2547
1108 -848 2526
1104 -838 2495
1113 -839 2493
1106 -828 2458
1101 -819 2426
1109 -819 2423
1095 -802 2372
1095 -797 2352
1107 -800 2358
1098 -788 2319
1086 -774 2275
1085 -768 2254
1088 -766 2244
1092 -763 2233
1086 -754 2203
1105 -762 2222
1094 -749 2182
1107 -754 2191
1102 -745 2164
1113 -748 2167
1113 -743 2152
1124 -746 2156
1127 -743 2143
1133 -742 2138
1137 -740 2129
1131 -732 2102
1131 -727 2085
1135 -726 2077
1139 -724 2068
1141 -721 2055
1117 -701 1996
1128 -704 2001
1139 -707 2006
1121 -691 1957
1124 -689 1948
1123 -685 1931
1116 -677 1906
-757 -431 1249
-724 -415 1204
-534 -307 893
-502 -291 847
-489 -285 830
-497 -291 851
-476 -280 821
-480 -284 834
-481 -287 842
-469 -282 829
-471 -284 837
-465 -283 834
-466 -285 842
-463 -285 843
-469 -290 860
-480 -299 887
-453 -283 843
-499 -314 937
-596 -378 1127
-1046 -668 1994
-1071 -688 2058
-1066 -689 2064
-1059 -689 2067
-1049 -687 2063
-1044 -688 2070
-1038 -688 2074
-1028 -686 2071
-1023 -688 2078
-1007 -682 2062
-1002 -683 2069
-993 -681 2066
-988 -683 2073
-974 -677 2060
-954 -668 2035
-962 -679 2069
-959 -681 2080
-949 -679 2075
-943 -679 2079
-933 -677 2074
-912 -666 2045
-900 -662 2034
-901 -668 2055
-892 -666 2051
-871 -656 2021
-874 -663 2045
-860 -657 2030
-847 -652 2016
-839 -651 2016
-837 -654 2027
-828 -652 2023
-825 -655 2035
-818 -654 2035
-798 -644 2004
-772 -627 1955
-769 -630 1967
-766 -633 1977
-775 -645 2017
-752 -632 1978
-761 -644 2018
-756 -646 2026
-737 -635 1993
-711 -618 1942
-724 -634 1994
-693 -613 1928
-705 -629 1982
-714 -643 2026
-701 -637 2009
-711 -651 2057
-697 -644 2037
-690 -644 2035
-683 -644 2037
-674 -641 2031
-670 -644 2040
-670 -649 2059
-666 -652 2069
-657 -649 2062
-648 -647 2058
-639 -644 2050
-630 -641 2042
-624 -641 2044
-619 -643 2051
-614 -644 2057
-604 -640 2046
-600 -643 2057
-596 -646 2066
-584 -639 2045
-576 -638 2042
-574 -643 2060
-568 -642 2060
-561 -642 2059
-558 -645 2073
-544 -637 2047
-541 -641 2060
-537 -643 2068
-525 -636 2048
-524 -643 2070
-515 -639 2060
-511 -643 2072
-504 -642 2070
-496 -639 2064
-489 -638 2062
-486 -643 2079
-480 -643 2080
-490 -666 2154
-574 -790 2556
-600 -837 2710
-591 -836 2707
-594 -852 2761
-581 -845 2740
-568 -839 2720
-535 -801 2599
-528 -802 2605
-535 -825 2679
-516 -808 2625
-495 -788 2560
-490 -792 2576
-486 -798 2597
-481 -803 2612
-469 -796 2590
-467 -807 2626
-458 -804 2619
0 0 0
0 0 0
0 0 0
0 0 0
0 0 0
0 0 0
-631 -1258 4106
-647 -1314 4289
-631 -1308 4273
-609 -1288 4209
-595 -1285 4200
-576 -1271 4154
-562 -1267 4144
-550 -1268 4147
-547 -1291 4223
-530 -1282 4194
-525 -1301 4256
-506 -1283 4201
-493 -1281 4195
-484 -1292 4230
-472 -1294 4239
-455 -1283 4201
-444 -1286 4212
-433 -1290 4228
-417 -1282 4200
-405 -1283 4204
-402 -1314 4307
-403 -1360 4457
-400 -1397 4579
-385 -1388 4553
-289 -1082 3550
-270 -1050 3445
-255 -1035 3394
-233 -983 3227
-218 -957 3141
-206 -947 3107
-193 -932 3058
-184 -929 3050
-175 -931 3054
-166 -934 3064
-154 -912 2995
-149 -942 3091
-140 -937 3077
-130 -930 3054
-120 -930 3052
-112 -939 3082
-103 -939 3081
-94 -941 3089
-85 -936 3074
-76 -938 3079
-67 -941 3089
-57 -925 3036
-47 -924 3033
-39 -938 3079
-30 -944 3098
-21 -933 3063
-12 -944 3098
-3 -938 3078
6 -937 3075
15 -946 3105
24 -945 3100
33 -951 3119
42 -928 3043
51 -940 3082
61 -946 3101
71 -951 3120
79 -937 3071
87 -932 3056
99 -954 3126
107 -945 3095
118 -960 3146
124 -939 3074
134 -945 3094
143 -941 3081
154 -955 3127
162 -943 3088
174 -961 3144
180 -944 3089
191 -953 3117
201 -955 3123
211 -958 3134
220 -958 3130
228 -953 3114
238 -955 3119
246 -952 3109
258 -961 3138
270 -972 3174
281 -975 3183
289 -972 3173
300 -978 3189
307 -969 3159
318 -975 3178
327 -971 3165
338 -976 3179
341 -958 3120
352 -964 3139
364 -970 3156
373 -969 3154
384 -972 3161
395 -977 3176
402 -972 3158
415 -979 3179
425 -981 3184
0 0 0
425 -939 3046
445 -963 3122
448 -948 3073
464 -964 3123
470 -956 3095
482 -962 3116
489 -956 3095
500 -961 3108
503 -949 3069
397 -735 2374
335 -607 1961
236 -419 1353
222 -386 1247
210 -359 1158
202 -340 1097
207 -342 1103
210 -343 1104
212 -340 1096
218 -344 1107
221 -343 1104
226 -347 1114
231 -349 1122
233 -347 1112
240 -352 1131
239 -346 1108
242 -345 1104
236 -332 1062
262 -364 1164
235 -322 1029
0 0 0
0 0 0
0 0 0
0 0 0
93 -116 369
81 -99 315
69 -83 264
56 -65 208
56 -65 207
56 -63 201
72 -83 264
49 -54 171
1251 -1476 4675
49 -52 166
1262 -1457 4607
0 0 0
0 0 0
0 0 0
0 0 0
0 0 0
0 0 0
0 0 0
0 0 0
0 0 0
0 0 0
0 0 0
0 0 0
0 0 0
0 0 0
0 0 0
0 0 0
0 0 0
0 0 0
0 0 0
0 0 0
0 0 0
0 0 0
0 0 0
0 0 0
0 0 0
0 0 0
0 0 0
1054 -927 2856
1062 -926 2849
1071 -926 2848
1083 -929 2852
1088 -925 2838
1101 -929 2846
1088 -910 2786
1087 -902 2757
1078 -888 2711
1097 -897 2734
1087 -881 2684
1096 -881 2681
1090 -870 2643
1070 -848 2572
1087 -854 2590
1064 -830 2513
1100 -852 2576
1095 -842 2543
1109 -846 2553
1116 -846 2547
1089 -819 2462
1099 -821 2465
1106 -820 2459
1096 -807 2416
1091 -797 2385
1086 -788 2354
1103 -795 2372
1101 -788 2348
1078 -766 2280
1070 -756 2245
1084 -760 2254
1097 -765 2264
1091 -755 2232
1117 -768 2268
1119 -765 2254
1119 -759 2235
1109 -748 2197
1104 -739 2170
1115 -742 2174
1112 -735 2150
1119 -735 2147
1127 -736 2146
1138 -738 2149
1141 -736 2139
1129 -724 2100
1137 -724 2098
1138 -721 2084
1130 -711 2053
1119 -700 2018
1113 -692 1992
1111 -687 1972
1119 -688 1971
1112 -679 1945
1110 -674 1926
1132 -683 1949
1121 -673 1916
-749 -422 1236
-712 -404 1185
-520 -296 872
-508 -291 858
-496 -286 844
-484 -280 829
-488 -285 843
-473 -277 823
-484 -286 848
-466 -277 823
-462 -276 823
-469 -282 842
-466 -282 842
-472 -287 861
-466 -285 855
-477 -294 882
-490 -304 913
-478 -298 898
-637 -400 1207
-1066 -673 2034
-1071 -681 2059
-1065 -681 2064
-1058 -681 2067
-1050 -681 2067
-1044 -681 2071
-1034 -679 2068
-1025 -677 2067
-1018 -677 2069
-1008 -676 2067
-1002 -676 2070
-994 -675 2070
-987 -675 2072
-971 -669 2056
-952 -660 2033
-962 -672 2071
-953 -670 2068
-951 -673 2081
-942 -672 2078
-931 -669 2072
-909 -658 2041
-891 -649 2016
-891 -654 2034
-878 -649 2022
-878 -654 2038
-860 -645 2014
-849 -642 2006
-864 -658 2059
-843 -647 2026
-831 -643 2015
-839 -654 2052
-817 -642 2017
-820 -650 2043
-803 -642 2019
-771 -621 1956
-743 -603 1901
-776 -635 2003
-765 -632 1995
-738 -614 1941
-756 -634 2007
-749 -634 2009
-738 -629 1997
-720 -620 1968
-727 -631 2005
-706 -618 1966
-721 -637 2026
-732 -652 2078
-710 -638 2036
-709 -644 2055
-699 -640 2044
-684 -632 2022
-690 -644 2060
-676 -636 2038
-664 -631 2022
-666 -639 2049
-665 -644 2067
-660 -646 2074
-647 -639 2053
-640 -639 2055
-631 -636 2048
-623 -634 2043
-617 -635 2048
-613 -637 2057
-599 -629 2030
-602 -639 2064
-599 -642 2077
-586 -635 2055
-582 -638 2065
-569 -631 2044
-570 -638 2070
-569 -645 2092
-557 -638 2070
-545 -632 2054
-543 -637 2070
-538 -638 2075
-534 -641 2086
-525 -638 2077
-518 -637 2076
-512 -638 2079
-501 -632 2062
-496 -634 2067
-495 -640 2090
-486 -636 2078
-482 -640 2090
-490 -660 2156
-564 -769 2514
-605 -835 2732
-590 -826 2704
-592 -840 2752
-576 -830 2718
-551 -805 2640
-531 -787 2582
-522 -786 2577
-513 -784 2574
-506 -786 2580
-499 -787 2584
-491 -786 2583
-483 -785 2581
-478 -791 2600
-469 -789 2595
-470 -803 2642
-500 -870 2863
0 0 0
0 0 0
0 0 0
0 0 0
0 0 0
0 0 0
-674 -1329 4383
-677 -1362 4494
-643 -1320 4358
-634 -1328 4385
-619 -1324 4372
-599 -1310 4327
-589 -1315 4345
-573 -1309 4327
-569 -1330 4396
-560 -1341 4432
-550 -1349 4461
-540 -1356 4485
-528 -1361 4502
-505 -1336 4420
-486 -1319 4365
-492 -1372 4543
-465 -1334 4418
-453 -1338 4431
-440 -1336 4426
-426 -1334 4419
-410 -1325 4389
-415 -1385 4588
-406 -1403 4650
-387 -1385 4590
-362 -1343 4451
-348 -1339 4437
-331 -1322 4384
-302 -1259 4173
-243 -1059 3513
-207 -945 3135
-194 -924 3066
-188 -940 3119
-178 -937 3107
-165 -920 3050
-158 -927 3075
-149 -929 3083
-137 -914 3032
-129 -920 3053
-120 -916 3038
-114 -941 3120
-102 -915 3036
-93 -917 3043
-84 -924 3066
-76 -928 3080
-66 -921 3056
-57 -921 3055
-49 -937 3108
-38 -916 3039
-30 -928 3077
-21 -939 3116
-12 -926 3072
-2 -923 3062
6 -933 3092
15 -918 3045
24 -949 3146
33 -922 3058
43 -936 3104
52 -936 3102
61 -936 3102
70 -941 3117
80 -940 3113
88 -933 3090
97 -928 3075
107 -934 3094
116 -937 3103
126 -945 3128
134 -933 3089
143 -934 3092
152 -928 3071
162 -938 3104
171 -936 3095
182 -942 3115
189 -935 3092
201 -946 3127
210 -946 3126
219 -945 3122
229 -946 3123
241 -958 3163
249 -952 3141
262 -967 3190
269 -956 3155
278 -958 3159
284 -944 3112
298 -959 3162
306 -954 3145
316 -957 3153
326 -960 3161
335 -960 3159
347 -965 3175
351 -950 3126
365 -962 3165
373 -959 3151
380 -953 3133
390 -954 3134
398 -953 3128
414 -967 3173
404 -922 3024
0 0 0
428 -937 3071
442 -946 3101
448 -940 3078
461 -948 3103
471 -950 3108
480 -949 3105
493 -955 3122
494 -940 3072
460 -858 2804
0 0 0
247 -442 1443
228 -400 1306
203 -350 1141
202 -341 1114
203 -338 1103
207 -339 1104
208 -336 1093
213 -338 1100
214 -335 1088
221 -339 1103
227 -343 1116
227 -339 1100
235 -346 1122
234 -340 1102
239 -343 1111
244 -345 1117
239 -332 1076
248 -341 1103
252 -341 1102
259 -346 1118
0 0 0
0 0 0
60 -73 235
71 -86 278
78 -94 303
71 -85 274
67 -78 252
67 -77 247
52 -58 187
17 -16 51
1233 -1458 4671
0 0 0
40 -41 132
0 0 0
0 0 0
0 0 0
0 0 0
0 0 0
0 0 0
0 0 0
0 0 0
0 0 0
0 0 0
0 0 0
0 0 0
0 0 0
0 0 0
0 0 0
0 0 0
0 0 0
0 0 0
0 0 0
0 0 0
0 0 0
1032 -955 2995
1071 -982 3079
0 0 0
0 0 0
0 0 0
0 0 0
0 0 0
997 -868 2703
1045 -902 2807
1069 -915 2843
1079 -916 2843
1086 -915 2835
1099 -918 2844
1102 -913 2825
1090 -896 2767
1081 -882 2721
1009 -816 2516
1016 -815 2510
1087 -866 2663
1082 -855 2627
1072 -841 2580
1094 -852 2609
1112 -859 2629
1104 -847 2587
1105 -841 2568
1108 -837 2551
1102 -826 2515
1114 -830 2522
1086 -803 2438
1107 -812 2463
1092 -796 2409
1091 -789 2386
1037 -745 2250
1118 -798 2407
1085 -769 2315
1086 -764 2298
1099 -768 2307
1106 -768 2302
1098 -758 2268
1118 -766 2290
1121 -763 2278
1112 -752 2240
1131 -760 2261
1132 -756 2245
1111 -737 2186
1118 -737 2182
1112 -728 2153
1118 -728 2149
1128 -729 2150
1136 -730 2148
1130 -722 2121
1128 -716 2101
1130 -713 2088
1126 -706 2063
1103 -688 2007
1110 -688 2003
1124 -692 2014
1125 -689 1999
1113 -678 1964
1116 -675 1953
1122 -675 1949
1130 -676 1949
1142 -679 1954
-751 -419 1242
-694 -389 1155
-510 -288 856
-505 -287 854
-495 -282 842
-487 -280 835
-490 -283 848
-473 -275 824
-472 -276 829
-470 -277 832
-477 -282 850
-476 -283 855
-466 -279 843
-468 -282 853
-480 -291 882
-485 -296 898
-491 -301 916
-499 -308 939
-688 -428 1304
-1071 -670 2046
-1072 -675 2063
-1063 -673 2062
-1060 -676 2073
-1047 -672 2065
-1045 -675 2077
-1029 -669 2060
-1022 -669 2063
-1018 -670 2071
-1010 -670 2072
-1004 -670 2076
-993 -668 2071
-985 -666 2069
-963 -657 2041
-946 -649 2022
-959 -663 2065
-955 -665 2074
-948 -665 2077
-942 -665 2081
-926 -658 2062
-895 -641 2010
-893 -645 2024
-888 -646 2029
-874 -640 2015
-877 -647 2038
-864 -642 2025
-857 -642 2026
-855 -645 2039
-839 -638 2020
-835 -640 2028
-837 -646 2050
-820 -639 2027
-816 -640 2035
-801 -634 2016
-769 -613 1953
-765 -615 1960
-779 -631 2013
-760 -621 1983
-739 -608 1945
-753 -625 2001
-757 -634 2032
-729 -616 1974
-730 -622 1997
-728 -626 2011
-715 -620 1993
-725 -634 2040
-708 -624 2011
-709 -632 2036
-704 -632 2040
-695 -630 2036
-687 -629 2031
-687 -635 2054
-671 -626 2025
-664 -625 2025
-668 -635 2059
-670 -643 2087
-660 -639 2075
-645 -630 2049
-638 -630 2048
-629 -628 2043
-617 -622 2024
-615 -626 2041
-599 -616 2009
-605 -629 2053
-598 -628 2053
-591 -628 2052
-589 -632 2067
-576 -625 2044
-569 -625 2046
-566 -628 2058
-567 -636 2087
-555 -630 2067
-548 -629 2066
-546 -634 2081
-535 -628 2065
-527 -627 2062
-525 -632 2079
-516 -628 2067
-510 -629 2073
-505 -630 2076
-494 -625 2060
-490 -627 2069
-489 -634 2094
-476 -626 2067
-495 -659 2179
-586 -790 2612
-600 -820 2713
-610 -845 2797
-616 -866 2867
-573 -817 2704
-546 -790 2618
-533 -783 2594
-528 -788 2612
-524 -792 2628
-508 -780 2590
-498 -778 2582
-492 -780 2591
-487 -784 2606
-484 -792 2633
-482 -802 2667
-509 -861 2865
-550 -946 3146
0 0 0
0 0 0
0 0 0
0 0 0
0 0 0
0 0 0
0 0 0
-674 -1342 4476
-660 -1342 4477
-634 -1316 4393
-632 -1340 4473
-610 -1321 4410
-607 -1344 4488
-589 -1333 4453
-578 -1338 4472
-564 -1335 4462
-554 -1346 4497
-547 -1360 4547
-536 -1366 4567
-522 -1366 4570
-500 -1343 4491
-496 -1371 4586
-472 -1341 4488
-463 -1353 4527
-443 -1333 4462
-428 -1330 4451
-412 -1319 4417
-404 -1337 4476
-398 -1363 4564
-381 -1350 4521
-360 -1323 4433
-347 -1324 4437
-337 -1336 4477
-319 -1317 4413
-279 -1202 4028
-209 -944 3162
-192 -908 3044
-184 -910 3052
-174 -906 3037
-164 -903 3029
-157 -914 3063
-147 -909 3047
-138 -911 3056
-129 -909 3048
-120 -913 3062
-111 -914 3064
-103 -917 3073
-93 -914 3064
-84 -915 3068
-76 -921 3087
-66 -911 3053
-57 -920 3086
-48 -912 3058
-39 -911 3056
-30 -916 3072
-21 -926 3103
-11 -909 3046
-2 -923 3094
6 -919 3080
15 -922 3089
24 -926 3104
33 -918 3076
42 -912 3054
52 -927 3105
61 -922 3087
69 -913 3056
79 -920 3079
88 -924 3094
97 -917 3070
106 -921 3082
116 -929 3109
126 -934 3124
133 -914 3056
142 -918 3071
154 -931 3114
160 -915 3059
170 -922 3083
184 -947 3163
193 -945 3157
203 -945 3155
211 -942 3145
222 -950 3170
230 -944 3150
236 -930 3102
247 -936 3122
254 -928 3095
267 -941 3137
279 -949 3163
290 -955 3183
295 -940 3131
306 -946 3149
319 -958 3189
328 -955 3178
335 -948 3153
345 -951 3164
352 -943 3134
365 -955 3173
373 -949 3154
384 -953 3165
396 -960 3187
405 -958 3179
404 -935 3102
392 -886 2939
0 0 0
415 -899 2979
436 -925 3062
451 -935 3097
460 -936 3097
472 -942 3115
482 -943 3119
484 -928 3067
475 -893 2951
0 0 0
0 0 0
220 -390 1286
211 -366 1207
200 -341 1123
196 -328 1081
199 -327 1078
203 -328 1081
209 -334 1098
213 -335 1101
221 -341 1121
222 -338 1109
226 -339 1112
232 -343 1125
236 -344 1130
237 -341 1117
240 -341 1116
249 -348 1139
237 -326 1067
250 -341 1113
238 -318 1040
233 -308 1006
262 -343 1119
0 0 0
86 -106 347
75 -91 298
83 -99 324
60 -70 228
59 -68 222
52 -58 190
41 -44 144
54 -59 192
0 0 0
0 0 0
27 -26 84
0 0 0
0 0 0
0 0 0
0 0 0
0 0 0
0 0 0
0 0 0
0 0 0
0 0 0
0 0 0
0 0 0
0 0 0
0 0 0
0 0 0
0 0 0
0 0 0
0 0 0
0 0 0
0 0 0
0 0 0
0 0 0
0 0 0
1058 -961 3045
1059 -953 3017
0 0 0
0 0 0
0 0 0
0 0 0
1044 -900 2833
1061 -907 2852
1065 -903 2836
1078 -906 2843
1083 -904 2831
1093 -904 2829
1076 -883 2761
1083 -882 2753
1070 -864 2696
1091 -874 2723
1093 -869 2703
1093 -862 2679
1098 -859 2667
1081 -839 2603
1096 -845 2616
1108 -848 2621
1096 -832 2570
1099 -829 2556
1102 -824 2540
1094 -813 2501
1084 -800 2457
1088 -797 2445
1101 -800 2453
1087 -785 2402
1080 -774 2366
1022 -727 2219
1080 -763 2327
1083 -760 2313
1064 -741 2253
1092 -756 2295
1118 -769 2330
1110 -758 2294
1113 -755 2281
1121 -756 2279
1128 -755 2276
1132 -753 2266
1111 -735 2206
1120 -735 2205
1114 -727 2176
1111 -720 2153
1117 -720 2147
1120 -717 2137
1123 -715 2126
1134 -717 2130
1132 -712 2110
1129 -705 2088
1114 -692 2044
1122 -692 2043
1125 -690 2032
1114 -679 1996
1128 -684 2007
1133 -683 2000
1130 -677 1979
1138 -678 1978
1146 -679 1977
1140 -671 1952
-759 -419 1256
-664 -369 1107
-509 -284 855
-495 -278 838
-486 -274 828
-489 -278 839
-477 -273 826
-478 -275 833
-480 -278 844
-471 -274 834
-459 -269 819
-467 -275 840
-463 -274 839
-452 -269 825
-477 -286 878
-463 -280 859
-459 -279 858
-506 -309 953
-760 -468 1442
-1072 -664 2050
-1072 -668 2065
-1068 -670 2074
-1058 -668 2071
-1050 -667 2072
-1041 -666 2071
-1031 -664 2067
-1026 -665 2073
-1019 -665 2076
-1008 -662 2069
-999 -660 2067
-992 -660 2070
-985 -660 2072
-976 -658 2070
-956 -650 2045
-964 -659 2078
-953 -657 2073
-946 -656 2073
-936 -654 2069
-924 -650 2059
-899 -637 2021
-893 -638 2024
-892 -642 2040
-877 -636 2022
-879 -642 2046
-866 -637 2032
-855 -634 2023
-843 -630 2013
-841 -633 2025
-836 -634 2032
-829 -633 2031
-824 -635 2039
-811 -630 2025
-804 -629 2024
-763 -602 1940
-734 -584 1882
-771 -618 1995
-756 -611 1975
-748 -610 1972
-756 -622 2013
-759 -629 2039
-744 -622 2017
-733 -618 2007
-728 -619 2011
-715 -614 1996
-712 -616 2006
-713 -623 2029
-702 -619 2017
-714 -635 2071
-688 -618 2018
-677 -613 2004
-687 -628 2054
-673 -621 2033
-671 -625 2047
-670 -630 2065
-668 -634 2081
-658 -631 2071
-647 -627 2059
-637 -623 2049
-628 -620 2041
-622 -621 2044
-618 -623 2054
-607 -618 2038
-601 -619 2042
-598 -622 2054
-593 -623 2060
-586 -623 2059
-574 -616 2039
-575 -624 2066
-574 -630 2087
-564 -626 2076
-553 -622 2062
-547 -621 2062
-538 -619 2054
-536 -624 2072
-537 -632 2101
-522 -621 2067
-517 -624 2076
-511 -624 2077
-506 -626 2085
-496 -620 2068
-485 -616 2053
-484 -622 2075
-476 -619 2067
-496 -654 2186
-568 -759 2538
-605 -820 2740
-581 -798 2668
-598 -832 2784
-582 -821 2750
-594 -851 2852
-594 -864 2895
-581 -856 2871
-559 -836 2805
-512 -779 2613
-496 -767 2573
-496 -778 2612
-542 -864 2900
0 0 0
-549 -904 3039
-563 -943 3169
-544 -927 3117
0 0 0
0 0 0
0 0 0
0 0 0
0 0 0
0 0 0
-680 -1314 4430
-676 -1334 4496
-665 -1339 4515
-632 -1298 4378
-626 -1312 4428
-626 -1342 4528
-608 -1331 4493
-598 -1339 4521
-587 -1345 4544
-574 -1348 4553
-575 -1382 4669
-557 -1372 4636
-547 -1381 4668
-527 -1365 4614
-512 -1362 4605
-505 -1382 4673
-489 -1373 4645
-471 -1362 4607
-449 -1340 4532
-432 -1326 4488
-412 -1305 4417
-398 -1305 4416
-389 -1318 4461
-372 -1304 4414
-359 -1305 4420
-347 -1310 4436
-332 -1302 4410
-316 -1290 4369
-267 -1141 3864
-208 -928 3144
-190 -889 3013
-183 -901 3054
-173 -892 3023
-166 -903 3061
-154 -891 3020
-147 -899 3047
-139 -907 3075
-128 -897 3039
-118 -886 3003
-111 -905 3066
-101 -895 3033
-93 -899 3046
