VERSION 0.7
FIELDS x y z
SIZE 4 4 4
TYPE I I I
COUNT 1 1 1
WIDTH 3593
HEIGHT 1
VIEWPOINT 0.0 0.0 0.0 1.0 0.0 0.0 0.0
POINTS 3593
DATA ascii
372 342 1511
379 344 1520
386 346 1529
389 344 1521
391 343 1513
393 340 1501
400 342 1510
403 341 1502
410 343 1511
417 345 1519
421 344 1514
431 349 1534
437 349 1536
440 348 1530
444 348 1528
445 345 1513
455 349 1532
457 347 1521
460 346 1515
461 343 1502
473 349 1525
479 350 1529
480 347 1514
486 348 1519
489 346 1511
499 351 1528
500 348 1515
509 351 1527
521 356 1548
523 354 1540
521 349 1517
533 355 1539
532 351 1520
551 360 1559
565 366 1584
576 370 1601
572 364 1574
578 365 1575
583 365 1574
588 365 1572
588 362 1559
601 367 1578
603 365 1569
615 369 1586
616 367 1573
621 367 1573
618 362 1551
621 361 1545
623 360 1537
637 365 1558
637 362 1543
653 368 1570
658 368 1569
666 370 1573
673 371 1577
689 377 1601
695 377 1600
700 378 1600
708 379 1604
709 377 1591
715 377 1593
718 376 1587
719 374 1576
732 378 1591
732 375 1577
735 374 1571
737 373 1563
745 374 1566
745 372 1554
757 376 1568
760 374 1560
765 374 1559
772 375 1562
769 371 1542
773 371 1537
779 371 1537
775 367 1518
778 366 1512
784 367 1512
784 364 1500
770 356 1463
742 341 1399
717 327 1341
691 313 1281
640 288 1177
619 277 1129
677 301 1227
726 321 1306
770 338 1376
803 351 1425
819 356 1442
823 356 1439
831 357 1441
-488 217 830
-489 219 838
-480 216 829
-484 219 843
-481 219 843
-484 222 855
-491 226 875
-498 231 893
-491 229 887
-491 230 894
-496 234 910
-504 239 932
-536 255 998
-589 282 1105
-622 300 1177
-629 305 1200
-663 323 1273
-810 397 1568
-833 410 1624
-777 385 1528
-603 302 1195
-543 273 1084
-539 273 1085
-539 275 1093
-535 274 1094
-537 277 1107
-527 274 1096
-522 273 1094
-527 278 1113
-542 288 1155
-515 275 1105
-529 284 1144
-549 297 1198
-552 301 1214
-556 305 1233
-555 306 1242
-546 304 1231
-521 292 1185
-505 285 1159
-493 280 1140
-515 295 1201
-500 288 1176
-541 314 1284
-587 343 1405
-597 351 1442
-587 348 1429
-584 349 1435
-583 351 1445
-577 350 1441
-567 347 1430
-568 350 1446
-566 352 1454
-559 350 1448
-559 352 1461
-547 348 1444
-547 351 1457
-543 351 1459
-537 350 1456
-533 350 1459
-526 349 1455
-521 348 1453
-507 342 1428
-499 339 1418
-498 341 1430
-492 341 1428
-497 347 1456
-496 349 1467
-494 351 1477
-489 350 1475
-483 349 1471
-474 346 1459
-468 345 1455
-468 348 1471
-460 346 1461
-454 344 1458
-459 351 1488
-453 350 1485
-438 342 1450
-429 339 1438
-432 344 1463
-431 347 1474
-421 342 1457
-421 346 1475
-416 346 1475
-411 345 1473
-400 340 1450
-402 345 1473
-398 346 1478
-395 347 1484
-392 348 1490
-384 345 1478
-380 345 1478
-375 345 1479
-369 343 1472
-366 344 1478
-364 347 1491
-357 344 1482
-355 346 1489
-352 348 1498
-349 349 1504
-340 344 1486
-333 341 1474
-324 337 1457
-320 337 1458
-314 336 1451
-308 334 1444
-306 336 1456
-306 341 1478
-295 333 1445
-295 338 1468
-289 337 1462
-287 339 1474
-281 338 1467
-277 337 1467
-270 334 1453
-264 332 1446
-263 337 1466
-259 337 1468
-253 334 1456
-245 330 1440
-244 334 1459
-238 331 1445
-233 330 1441
-228 330 1442
-225 331 1446
-221 332 1452
-216 331 1450
-212 331 1446
-207 329 1441
-206 335 1469
-200 332 1454
-196 332 1456
-190 331 1449
-187 333 1460
-182 331 1452
-179 333 1462
-176 335 1470
-170 332 1460
-165 332 1458
-161 331 1454
-156 331 1455
-152 330 1451
-148 330 1453
-145 335 1473
-141 334 1469
-136 334 1470
-132 333 1468
-126 330 1454
-119 322 1417
-111 312 1374
-103 299 1319
-95 289 1272
-89 281 1239
-82 272 1198
-78 270 1189
-73 263 1160
-69 263 1159
-66 262 1153
-62 262 1154
-59 262 1156
-55 262 1155
-51 259 1143
-49 262 1154
-46 264 1167
-43 266 1173
-40 269 1187
-37 272 1202
-34 276 1217
-31 281 1242
-28 294 1300
-26 311 1376
-22 313 1385
-19 320 1415
-16 339 1501
-11 334 1481
-7 336 1490
-3 335 1482
1 336 1487
5 335 1485
9 333 1477
14 339 1503
18 338 1499
23 336 1488
27 333 1477
31 337 1492
36 338 1496
40 337 1495
44 335 1484
49 337 1494
53 337 1492
58 338 1498
62 335 1486
67 341 1510
71 336 1488
75 338 1498
79 335 1484
84 338 1496
88 336 1488
93 338 1499
98 339 1501
101 335 1486
107 339 1501
110 336 1491
115 339 1500
119 338 1497
124 338 1499
129 341 1510
134 340 1507
138 341 1510
143 342 1513
148 342 1514
151 339 1503
157 343 1517
162 344 1522
166 343 1520
169 341 1507
173 338 1497
177 339 1499
181 338 1493
189 344 1519
191 339 1499
196 340 1502
200 340 1503
206 343 1516
210 342 1509
215 343 1514
220 343 1513
222 339 1498
229 344 1517
233 343 1513
237 342 1509
240 340 1497
243 337 1488
249 339 1495
253 339 1495
257 338 1489
263 341 1500
267 340 1499
271 340 1496
278 342 1506
280 340 1495
287 342 1505
294 345 1516
296 342 1502
298 340 1493
303 340 1495
309 342 1501
312 341 1494
316 340 1491
320 340 1490
329 344 1508
331 341 1496
335 341 1491
340 341 1493
344 341 1490
353 345 1510
357 345 1507
358 341 1491
361 340 1485
372 346 1511
374 344 1500
376 342 1489
381 342 1490
385 341 1486
392 344 1497
395 343 1491
406 347 1511
406 344 1494
416 348 1513
416 345 1496
426 349 1514
426 345 1497
430 345 1495
435 345 1496
439 345 1494
449 349 1511
460 354 1530
457 348 1504
463 349 1508
463 346 1492
473 350 1508
472 346 1490
478 347 1493
482 346 1490
488 347 1493
489 345 1479
504 352 1510
505 349 1498
511 350 1502
520 353 1513
524 353 1509
533 356 1522
540 358 1528
555 364 1555
558 363 1548
568 367 1562
569 364 1549
574 364 1549
576 362 1540
580 361 1535
591 366 1552
594 364 1545
599 364 1543
613 370 1566
619 370 1566
622 370 1561
614 362 1528
619 362 1526
626 363 1529
631 363 1528
640 366 1537
648 367 1541
650 366 1535
661 369 1546
668 370 1550
672 370 1547
683 373 1558
689 374 1558
705 380 1583
709 379 1578
708 376 1562
716 378 1568
720 377 1564
718 373 1545
724 374 1547
726 372 1539
738 376 1552
742 375 1548
748 376 1548
755 377 1548
758 376 1543
757 373 1529
760 372 1524
767 373 1525
770 372 1520
768 369 1503
771 368 1498
773 366 1490
780 367 1492
780 365 1480
778 362 1464
769 355 1437
744 341 1379
713 325 1311
683 310 1246
646 291 1168
614 275 1102
696 310 1242
745 330 1320
777 342 1367
804 352 1404
819 356 1420
-502 226 853
-480 218 822
-481 219 830
-479 220 834
-483 223 846
-480 223 847
-498 233 887
-493 231 883
-475 224 857
-473 225 861
-517 247 948
-546 262 1008
-568 274 1058
-600 291 1126
-630 308 1191
-611 300 1164
-675 333 1296
-801 397 1549
-825 411 1608
-761 382 1495
-579 293 1147
-541 276 1080
-537 276 1080
-540 279 1096
-538 280 1100
-540 283 1114
-551 290 1144
-538 285 1127
-512 274 1082
-518 279 1103
-514 278 1103
-523 285 1131
-538 295 1173
-534 295 1175
-531 295 1177
-541 303 1209
-541 305 1220
-524 297 1192
-509 291 1167
-493 284 1139
-498 289 1162
-499 291 1173
-536 315 1270
-585 346 1399
-592 353 1429
-593 356 1443
-582 352 1428
-568 346 1407
-575 353 1437
-559 346 1409
-552 344 1403
-561 352 1438
-552 350 1429
-553 353 1445
-546 352 1439
-539 350 1435
-536 351 1440
-530 350 1436
-522 348 1429
-519 348 1432
-512 347 1429
-502 343 1413
-496 341 1409
-500 347 1435
-490 343 1421
-490 346 1435
-488 348 1443
-484 349 1446
-487 354 1469
-482 353 1469
-478 354 1472
-468 349 1455
-466 351 1463
-453 345 1439
-453 348 1452
-457 355 1482
-445 349 1460
-440 348 1458
-432 345 1445
-433 350 1466
-431 352 1476
-420 346 1454
-415 346 1452
-412 346 1457
-411 349 1471
-399 343 1445
-392 340 1435
-395 347 1464
-393 349 1474
-388 348 1472
-383 348 1472
-377 347 1466
-378 351 1488
-370 348 1475
-364 347 1470
-358 345 1464
-352 344 1460
-351 347 1474
-350 350 1489
-343 348 1480
-340 349 1486
-330 343 1461
-321 338 1442
-317 338 1444
-313 339 1445
-310 341 1456
-304 338 1446
-298 337 1441
-294 337 1443
-290 337 1443
-284 335 1433
-281 337 1442
-277 337 1446
-272 336 1439
-268 336 1442
-262 335 1436
-262 340 1461
-256 337 1450
-249 333 1433
-245 335 1440
-242 335 1442
-236 334 1437
-230 331 1426
-228 334 1438
-224 334 1442
-219 334 1439
-213 330 1425
-210 333 1436
-205 332 1433
-202 333 1438
-196 331 1430
-193 332 1435
-190 334 1443
-185 334 1444
-179 330 1430
-177 335 1449
-173 335 1451
-169 334 1448
-164 334 1446
-160 334 1449
-155 332 1441
-151 332 1441
-148 335 1455
-142 332 1440
-138 333 1444
-133 331 1439
-131 335 1454
-126 334 1452
-116 319 1387
-110 312 1357
-101 299 1301
-93 287 1248
-87 278 1208
-82 274 1193
-77 269 1168
-72 265 1150
-69 264 1147
-65 263 1143
-61 262 1138
-57 259 1129
-55 263 1142
-51 262 1141
-48 262 1142
-45 265 1156
-43 269 1174
-39 271 1181
-37 275 1199
-33 276 1201
-30 282 1228
-28 293 1279
-26 307 1341
-22 315 1373
-19 330 1443
-15 334 1458
-11 337 1473
-7 335 1464
-2 337 1473
1 338 1478
5 337 1473
9 334 1462
14 336 1467
18 338 1476
23 341 1491
27 339 1483
31 338 1478
35 337 1475
40 340 1488
44 337 1472
48 337 1473
52 335 1465
56 333 1458
61 336 1468
66 338 1480
71 340 1486
75 338 1477
79 336 1471
82 335 1464
88 339 1484
92 339 1480
97 339 1481
101 339 1484
105 338 1478
110 341 1492
115 341 1491
118 338 1476
123 339 1484
128 342 1494
132 341 1491
136 338 1478
142 342 1495
146 342 1496
151 344 1502
154 340 1486
158 340 1486
164 342 1494
168 341 1490
174 345 1505
178 344 1501
182 343 1497
186 342 1492
189 340 1483
194 341 1487
200 345 1504
202 340 1482
206 339 1479
210 339 1477
218 344 1498
222 344 1499
226 343 1495
231 343 1494
235 343 1494
236 338 1470
244 344 1496
246 340 1478
251 341 1483
258 344 1495
259 339 1474
264 341 1480
269 341 1479
274 342 1482
280 343 1489
285 345 1495
289 345 1494
292 342 1483
298 344 1489
300 342 1479
304 341 1477
310 343 1482
312 340 1471
315 338 1463
322 341 1473
325 340 1469
330 340 1469
336 342 1475
341 343 1478
345 342 1474
354 346 1493
356 344 1481
359 342 1474
363 343 1475
369 343 1478
374 344 1481
379 345 1482
383 344 1477
389 345 1483
393 345 1479
397 344 1477
405 347 1488
407 345 1479
413 347 1484
417 346 1481
422 347 1483
428 348 1488
435 350 1495
436 347 1481
442 348 1485
447 349 1487
450 347 1479
457 349 1486
462 350 1487
467 350 1487
469 348 1478
478 351 1491
479 348 1478
479 345 1463
493 352 1491
494 350 1479
498 349 1477
508 353 1493
516 355 1500
519 354 1494
528 357 1505
538 360 1519
553 368 1548
555 366 1538
556 363 1526
562 364 1527
565 363 1523
575 366 1535
571 361 1511
580 363 1521
586 364 1522
593 366 1527
598 366 1526
599 363 1515
607 365 1522
606 362 1506
620 367 1527
620 364 1512
625 364 1512
635 368 1523
644 370 1532
642 366 1513
656 372 1535
657 369 1523
665 371 1529
671 371 1529
682 375 1542
685 374 1536
687 372 1528
701 377 1545
695 371 1520
717 380 1555
719 379 1548
719 376 1536
721 375 1527
736 380 1545
734 376 1529
741 377 1531
742 375 1521
751 377 1528
752 375 1518
757 375 1515
761 375 1511
764 374 1506
768 373 1502
764 369 1483
770 370 1483
776 370 1483
773 366 1465
787 371 1482
778 364 1453
781 363 1446
758 351 1394
748 344 1364
722 330 1306
676 307 1213
654 295 1164
641 288 1133
704 314 1236
749 332 1306
786 347 1361
-494 226 839
-492 226 843
-496 229 856
-495 230 860
-489 228 856
-479 225 845
-482 228 856
-493 234 883
-511 244 922
-550 264 1000
-593 286 1086
-602 292 1111
-602 294 1121
-609 299 1141
-602 297 1136
-624 310 1187
-730 364 1399
-795 399 1537
-801 405 1559
-745 379 1462
-577 296 1142
-542 280 1082
-540 281 1085
-535 280 1084
-540 285 1104
-538 285 1108
-538 287 1116
-534 287 1118
-526 284 1110
-512 279 1088
-534 292 1144
-523 288 1130
-520 289 1134
-515 288 1131
-513 289 1136
-526 298 1174
-541 308 1218
-520 299 1182
-513 297 1175
-503 293 1163
-499 293 1163
-503 297 1182
-535 318 1267
-571 342 1365
-585 353 1409
-583 355 1418
-578 354 1417
-577 356 1427
-564 351 1407
-559 350 1407
-556 352 1414
-553 352 1418
-545 350 1410
-549 355 1433
-542 354 1429
-530 349 1410
-541 359 1453
-532 355 1441
-515 347 1409
-507 344 1399
-509 349 1419
-499 345 1405
-498 348 1416
-493 347 1414
-490 348 1421
-489 350 1431
-486 351 1435
-481 350 1434
-480 353 1448
-471 350 1434
-467 350 1437
-462 349 1435
-463 353 1454
-460 354 1458
-451 351 1445
-458 359 1482
-450 357 1474
-433 347 1435
-432 349 1444
-427 349 1445
-422 349 1445
-422 352 1460
-414 349 1448
-412 351 1458
-411 354 1469
-402 350 1455
-393 346 1439
-390 348 1447
-391 352 1466
-385 350 1460
-384 354 1476
-374 348 1455
-369 348 1454
-363 346 1446
-361 348 1456
-358 350 1465
-350 346 1451
-348 348 1461
-342 347 1455
-339 348 1460
-331 345 1447
-325 343 1441
-318 340 1431
-315 341 1437
-311 342 1439
-306 341 1436
-301 339 1430
-294 337 1420
-295 342 1445
-287 338 1429
-283 338 1428
-277 337 1423
-272 335 1418
-271 339 1436
-266 338 1432
-261 337 1428
-255 335 1420
-251 335 1419
-245 333 1414
-244 337 1430
-239 336 1429
-233 333 1414
-231 336 1428
-224 332 1413
-222 336 1431
-217 334 1424
-213 335 1425
-209 335 1427
-204 335 1425
-199 333 1419
-194 332 1415
-192 335 1429
-186 332 1416
-181 331 1413
-180 337 1438
-176 337 1439
-172 337 1439
-168 336 1438
-163 335 1434
-159 335 1434
-154 334 1430
-151 337 1444
-145 333 1427
-143 338 1446
-137 334 1432
-134 337 1447
-130 337 1444
-123 332 1422
-117 325 1395
-109 315 1350
-99 296 1271
-92 287 1230
-86 281 1205
-81 274 1175
-75 266 1142
-71 265 1137
-68 264 1131
-64 263 1130
-61 263 1128
-57 260 1118
-54 264 1132
-51 263 1127
-48 265 1140
-45 266 1142
-42 269 1156
-39 269 1158
-36 276 1189
-33 279 1199
-30 282 1213
-27 292 1258
-25 306 1317
-22 319 1375
-19 328 1413
-15 336 1448
-11 339 1463
-7 336 1451
-2 336 1449
1 337 1453
5 336 1450
9 335 1446
14 338 1458
18 339 1462
22 337 1455
27 339 1461
31 338 1457
35 339 1463
40 340 1469
44 339 1463
48 339 1464
53 342 1474
57 338 1458
61 340 1466
65 340 1466
70 341 1470
74 341 1474
79 341 1471
83 340 1466
87 339 1461
91 338 1460
96 343 1478
100 339 1461
103 337 1453
109 341 1470
113 341 1471
116 337 1455
121 338 1458
127 343 1477
130 339 1462
135 341 1468
139 340 1464
144 342 1475
149 343 1477
152 340 1466
159 345 1488
162 342 1474
166 343 1477
171 343 1478
175 343 1478
179 342 1473
184 343 1476
188 343 1474
192 343 1475
198 344 1482
202 345 1484
206 343 1475
209 342 1471
213 342 1468
218 341 1466
226 347 1489
226 341 1464
230 341 1462
236 343 1473
244 347 1490
246 345 1480
250 344 1477
253 342 1466
256 340 1456
262 342 1466
268 345 1476
271 343 1468
275 341 1461
279 342 1461
283 341 1459
288 341 1460
297 347 1483
299 344 1470
304 346 1477
305 341 1458
311 343 1466
318 346 1476
319 343 1461
325 344 1468
326 340 1449
333 343 1460
339 345 1467
343 345 1467
346 343 1460
353 345 1468
357 345 1467
363 346 1471
366 345 1466
371 346 1466
376 346 1467
383 349 1479
386 348 1472
392 349 1477
394 347 1466
403 350 1480
404 347 1468
407 346 1463
418 352 1485
416 346 1461
423 349 1469
428 349 1471
431 348 1463
440 351 1476
440 347 1461
446 349 1466
449 347 1458
453 347 1458
461 350 1466
465 350 1465
475 354 1481
474 349 1461
484 354 1480
485 351 1467
484 347 1449
495 352 1468
500 352 1467
503 351 1461
512 354 1474
519 355 1479
528 358 1489
538 362 1505
545 364 1510
555 367 1522
553 363 1504
562 366 1514
562 362 1499
563 360 1489
571 362 1496
576 363 1495
586 366 1508
591 366 1505
600 369 1517
609 371 1524
602 364 1494
607 364 1493
617 368 1506
617 365 1492
623 365 1492
631 367 1500
639 369 1506
635 364 1484
645 367 1494
649 367 1491
659 369 1501
662 369 1496
675 373 1513
678 372 1505
687 374 1514
697 377 1523
694 373 1504
703 375 1510
712 377 1519
716 377 1515
714 373 1498
720 374 1498
726 375 1500
738 378 1512
743 378 1511
741 374 1494
747 375 1494
748 373 1484
757 375 1490
752 370 1469
760 372 1474
762 371 1467
766 370 1462
769 369 1457
776 370 1459
775 368 1446
779 367 1443
788 369 1448
781 363 1423
768 355 1390
739 340 1327
711 325 1266
669 304 1182
651 294 1141
648 291 1127
714 319 1234
-487 225 827
-491 229 841
-478 224 824
-495 233 859
-487 230 852
-491 234 866
-480 230 853
-526 253 941
-584 282 1054
-627 305 1140
-629 307 1152
-620 305 1144
-606 300 1126
-604 301 1132
-607 304 1146
-671 337 1276
-736 372 1410
-777 395 1501
-780 399 1517
-724 373 1420
-587 305 1161
-545 285 1087
-539 284 1083
-543 288 1101
-536 286 1094
-540 290 1111
-531 287 1101
-532 289 1113
-526 288 1109
-528 291 1123
-526 292 1128
-521 291 1125
-520 292 1132
-510 289 1120
-505 288 1117
-510 293 1138
-528 305 1188
-523 304 1188
-510 299 1167
-496 293 1144
-500 297 1163
-499 299 1172
-535 322 1266
-569 345 1358
-588 359 1417
-577 356 1403
-576 357 1411
-564 353 1395
-565 356 1410
-561 356 1411
-549 351 1394
-555 358 1421
-541 351 1398
-541 354 1411
-534 353 1407
-530 353 1408
-525 353 1409
-520 352 1407
-518 354 1417
-509 350 1404
-499 346 1389
-495 347 1393
-490 346 1393
-482 344 1382
-478 343 1383
-475 344 1389
-481 352 1421
-474 350 1414
-472 351 1421
-468 352 1423
-463 352 1424
-459 352 1427
-457 353 1433
-457 357 1450
-450 355 1443
-446 355 1445
-435 349 1422
-426 346 1409
-425 348 1421
-427 354 1445
-419 351 1434
-416 351 1437
-411 351 1439
-407 352 1441
-402 351 1439
-394 347 1425
-393 351 1440
-384 346 1423
-387 353 1451
-384 354 1458
-374 349 1438
-376 354 1461
-366 349 1440
-364 351 1450
-358 350 1446
-354 350 1446
-346 347 1435
-343 348 1440
-341 350 1450
-334 347 1439
-328 345 1432
-325 347 1440
-317 343 1425
-310 340 1413
-307 341 1419
-302 340 1414
-298 341 1418
-292 339 1410
-289 339 1414
-285 340 1418
-280 339 1413
-274 337 1407
-271 338 1410
-266 338 1410
-262 338 1413
-260 341 1425
-255 340 1421
-250 338 1414
-245 337 1411
-237 331 1388
-236 337 1410
-231 334 1402
-228 337 1413
-222 333 1399
-219 336 1409
-215 335 1408
-211 337 1414
-207 336 1413
-200 331 1393
-198 336 1413
-194 335 1411
-190 335 1411
-186 335 1412
-180 333 1404
-176 334 1406
-174 337 1420
-169 335 1411
-165 336 1417
-163 339 1433
-156 333 1408
-152 334 1411
-147 333 1407
-144 336 1420
-140 334 1414
-137 337 1426
-133 338 1429
-127 335 1420
-122 332 1406
-114 322 1364
-108 314 1331
-98 298 1262
-90 284 1204
-85 280 1185
-80 274 1161
-75 270 1142
-71 268 1133
-67 265 1124
-63 263 1113
-60 263 1114
-57 263 1115
-53 263 1114
-50 262 1111
-47 264 1121
-44 266 1128
-41 267 1132
-38 271 1150
-35 274 1161
-33 279 1186
-29 282 1199
-27 295 1255
-25 314 1337
-22 318 1352
-19 334 1419
-15 337 1433
-11 340 1448
-6 339 1441
-2 339 1444
1 336 1429
5 339 1444
9 338 1438
14 338 1440
18 338 1439
22 338 1441
27 342 1458
31 339 1446
34 335 1426
39 338 1440
44 341 1450
48 341 1454
53 344 1465
57 342 1456
61 340 1449
65 342 1454
69 338 1438
74 342 1456
78 341 1452
82 340 1447
87 343 1461
90 338 1440
94 339 1444
99 340 1448
102 338 1439
108 342 1455
113 343 1460
117 343 1461
120 340 1449
125 342 1456
129 341 1452
133 340 1446
138 343 1459
143 343 1457
148 345 1467
151 343 1460
156 343 1459
161 344 1464
166 346 1469
170 346 1472
174 346 1468
179 346 1472
182 343 1457
186 343 1458
190 342 1452
194 342 1454
200 345 1464
204 345 1462
209 346 1467
212 343 1456
216 343 1454
220 342 1451
225 344 1457
231 346 1465
233 343 1452
240 346 1467
243 344 1457
247 344 1455
252 345 1461
257 346 1463
261 345 1458
262 341 1440
270 346 1462
275 346 1461
279 346 1463
283 346 1460
286 344 1451
288 341 1439
293 342 1441
299 343 1448
307 348 1467
306 342 1438
311 343 1444
319 346 1458
318 341 1433
327 345 1452
334 348 1463
339 350 1468
340 346 1452
342 344 1442
347 344 1444
352 344 1443
358 346 1451
361 345 1445
367 346 1448
372 347 1453
376 346 1448
383 349 1458
382 344 1438
393 350 1459
397 349 1457
399 347 1448
406 350 1458
408 347 1447
411 346 1440
419 349 1452
425 350 1457
429 350 1454
433 350 1453
442 353 1466
440 349 1446
445 349 1447
453 351 1454
456 351 1451
459 349 1444
461 348 1437
470 351 1448
478 354 1460
480 352 1452
486 353 1453
491 353 1454
499 356 1465
498 352 1447
507 355 1457
515 358 1468
524 361 1479
537 366 1501
549 371 1520
551 369 1512
551 366 1496
551 363 1482
560 366 1493
562 364 1483
567 364 1484
569 362 1475
577 365 1484
585 367 1489
585 364 1476
592 365 1481
594 364 1473
607 369 1492
609 367 1485
620 371 1497
624 371 1495
627 369 1488
638 373 1502
633 368 1479
640 369 1481
642 367 1474
657 373 1496
651 367 1469
665 372 1489
669 372 1486
676 373 1488
679 372 1483
688 374 1491
698 377 1501
700 375 1491
711 379 1503
711 376 1490
716 377 1490
723 378 1492
732 380 1499
731 377 1484
741 379 1493
745 379 1488
747 377 1482
749 376 1473
752 375 1468
757 375 1467
767 378 1474
766 375 1462
769 374 1455
771 373 1448
775 372 1445
775 370 1433
779 370 1430
784 370 1428
785 368 1419
781 364 1402
761 352 1354
733 338 1296
714 327 1252
659 300 1146
647 293 1117
-480 225 814
-482 227 823
-491 233 846
-482 230 836
-491 235 859
-497 240 876
-549 266 975
-621 302 1111
-675 330 1217
-664 327 1206
-643 318 1176
-633 315 1166
-608 305 1130
-614 309 1148
-632 320 1192
-686 349 1303
-742 380 1422
-771 397 1488
-770 399 1498
-739 385 1449
-609 320 1203
-546 289 1087
-538 287 1080
-536 287 1085
-540 291 1101
-538 292 1106
-550 300 1139
-544 299 1137
-530 294 1117
-534 298 1135
-528 296 1130
-523 295 1128
-528 301 1149
-519 297 1139
-515 297 1140
-517 300 1154
-521 305 1171
-513 302 1164
-503 298 1151
-502 300 1158
-502 302 1167
-504 306 1183
-535 327 1267
-571 351 1364
-571 353 1375
-572 357 1390
-567 356 1389
-553 350 1367
-554 353 1381
-548 353 1379
-554 359 1406
-539 352 1382
-536 353 1385
-534 354 1393
-525 351 1383
-523 353 1390
-519 353 1391
-515 353 1394
-506 350 1383
-505 352 1392
-492 346 1370
-486 344 1365
-488 349 1385
-479 345 1372
-479 349 1386
-470 345 1373
-472 350 1394
-469 351 1398
-466 352 1404
-462 351 1404
-457 351 1405
-454 352 1411
-447 350 1402
-449 355 1422
-448 358 1435
-444 358 1436
-429 349 1404
-425 350 1407
-419 348 1402
-419 351 1416
-417 354 1427
-413 354 1428
-412 356 1439
-404 354 1430
-399 353 1427
-395 353 1428
-388 351 1422
-384 350 1420
-381 352 1427
-379 354 1436
-377 356 1447
-369 353 1435
-366 354 1439
-358 350 1426
-352 348 1419
-346 347 1414
-346 351 1432
-340 349 1425
-335 349 1426
-333 351 1436
-324 345 1413
-323 349 1431
-313 343 1404
-308 343 1404
-305 343 1407
-299 342 1402
-297 344 1412
-291 341 1402
-286 341 1401
-280 339 1393
-279 342 1406
-274 342 1407
-269 340 1402
-264 339 1398
-260 339 1399
-257 340 1404
-254 342 1412
-248 340 1403
-241 335 1385
-238 338 1396
-235 339 1403
-229 336 1392
-225 336 1392
-223 340 1409
-216 335 1387
-210 333 1379
-210 339 1407
-205 337 1400
-201 338 1401
-197 338 1405
-191 334 1390
-187 335 1391
-185 338 1404
-179 335 1394
-175 336 1398
-172 336 1400
-166 334 1391
-165 339 1414
-160 338 1409
-155 337 1405
-150 334 1394
-148 339 1413
-143 338 1408
-140 340 1418
-133 332 1386
-130 337 1406
-126 336 1405
-120 331 1384
-113 324 1353
-105 311 1299
-96 296 1239
-89 286 1195
-83 277 1157
-78 273 1140
-74 268 1121
-70 268 1120
-66 265 1108
-63 266 1112
-59 263 1099
-56 263 1099
-53 264 1103
-49 263 1101
-47 266 1115
-44 266 1115
-40 266 1115
-38 272 1139
-35 272 1140
-32 276 1158
-29 285 1194
-27 292 1226
-25 315 1320
-22 320 1342
-18 327 1374
-15 337 1417
-11 340 1429
-6 338 1420
-2 339 1422
1 338 1421
5 338 1422
9 338 1421
14 339 1423
18 337 1416
22 338 1422
26 340 1429
30 340 1430
35 341 1435
39 339 1425
43 338 1420
47 342 1438
52 344 1448
56 342 1437
60 342 1436
64 338 1419
69 343 1440
73 342 1438
77 342 1439
81 342 1437
85 341 1434
90 343 1440
93 340 1429
96 336 1411
102 339 1425
107 342 1439
110 341 1431
115 342 1438
120 344 1444
123 341 1431
128 342 1436
132 342 1437
136 342 1436
142 346 1452
146 346 1451
150 345 1449
154 343 1441
159 346 1452
163 345 1447
169 348 1462
172 346 1449
177 346 1452
180 344 1440
184 343 1439
190 348 1457
192 343 1436
197 344 1441
202 345 1446
204 342 1431
209 343 1435
214 344 1441
218 343 1437
224 345 1445
228 346 1447
230 343 1433
238 347 1451
240 345 1441
243 343 1433
250 346 1444
253 345 1439
258 345 1441
265 350 1459
265 344 1434
271 346 1442
276 347 1445
280 346 1440
285 346 1443
287 344 1431
291 344 1432
295 343 1427
302 346 1439
304 344 1428
310 345 1435
315 346 1437
317 344 1428
319 341 1416
325 343 1422
331 345 1431
337 347 1438
340 346 1432
346 347 1435
349 346 1432
352 344 1423
358 346 1432
361 345 1424
368 347 1434
369 345 1423
382 352 1454
383 349 1439
390 351 1448
388 346 1426
393 347 1427
402 350 1441
411 354 1457
411 350 1440
414 349 1433
420 351 1440
426 352 1443
431 353 1446
429 347 1421
440 352 1443
445 353 1443
450 354 1447
456 355 1449
455 351 1432
466 356 1451
469 355 1445
475 356 1448
476 353 1438
476 350 1422
489 356 1447
494 357 1447
495 354 1437
499 353 1433
505 355 1438
518 361 1460
527 364 1472
533 365 1475
544 369 1489
538 362 1461
543 362 1459
555 367 1478
554 364 1463
556 362 1454
563 364 1460
565 362 1452
571 362 1453
579 365 1460
586 367 1466
590 366 1463
597 367 1467
603 368 1469
611 370 1475
607 365 1453
622 371 1475
632 374 1487
625 368 1459
638 372 1475
638 369 1463
643 370 1462
649 371 1464
653 370 1459
660 371 1463
661 370 1455
671 372 1463
675 372 1460
683 374 1466
689 375 1467
691 373 1458
704 377 1474
710 378 1476
717 379 1478
724 380 1480
729 380 1479
734 380 1477
735 378 1468
742 380 1471
738 375 1451
747 377 1458
754 379 1460
758 378 1456
760 377 1449
761 375 1439
763 373 1432
776 378 1446
774 374 1430
775 372 1422
780 373 1420
777 369 1404
789 372 1415
789 370 1403
785 366 1386
760 352 1332
732 337 1273
698 320 1204
-485 230 822
-476 227 813
-481 231 828
-496 239 859
-515 249 899
-575 280 1012
-662 324 1173
-703 345 1255
-696 344 1253
-673 335 1221
-658 329 1203
-649 327 1195
-645 327 1197
-638 325 1193
-644 330 1214
-682 351 1295
-718 372 1374
-753 393 1452
-783 411 1522
-754 398 1478
-636 338 1256
-553 296 1100
-544 293 1091
-540 293 1092
-537 294 1095
-539 296 1108
-549 304 1137
-565 314 1179
-559 314 1177
-517 292 1096
-552 314 1182
-523 299 1128
-533 307 1159
-531 308 1165
-535 313 1184
-532 313 1186
-515 305 1157
-506 302 1147
-505 304 1155
-503 304 1160
-502 306 1167
-504 309 1182
-543 336 1285
-569 354 1358
-566 355 1363
-562 355 1365
-557 354 1364
-555 356 1372
-548 354 1365
-543 353 1365
-538 353 1365
-531 351 1358
-537 358 1387
-528 355 1377
-525 356 1382
-524 358 1391
-511 352 1369
-512 355 1385
-505 353 1379
-494 349 1362
-487 347 1356
-491 353 1381
-484 350 1372
-475 347 1359
-474 349 1371
-469 349 1369
-469 352 1385
-467 353 1390
-459 350 1380
-460 354 1398
-456 354 1399
-452 355 1402
-445 353 1395
-440 352 1393
-448 362 1434
-440 359 1425
-418 345 1368
-422 351 1395
-416 350 1392
-413 350 1394
-411 352 1403
-410 356 1417
-402 352 1403
-399 353 1410
-392 351 1403
-387 350 1399
-381 348 1392
-378 350 1400
-374 350 1402
-373 353 1414
-365 349 1400
-361 349 1402
-358 351 1409
-354 350 1408
-346 346 1394
-345 350 1410
-341 350 1409
-338 351 1416
-336 354 1427
-329 351 1417
-323 348 1408
-318 348 1407
-311 345 1393
-308 346 1399
-301 344 1391
-299 345 1399
-291 341 1381
-289 344 1395
-285 344 1397
-279 341 1385
-276 342 1390
-269 340 1381
-267 341 1389
-259 337 1371
-257 340 1384
-256 344 1401
-248 338 1379
-245 340 1387
-239 338 1378
-236 339 1385
-231 337 1377
-225 335 1369
-223 337 1377
-218 337 1376
-214 337 1379
-210 336 1377
-207 338 1383
-201 336 1375
-198 336 1377
-195 339 1388
-190 336 1379
-186 337 1382
-182 338 1386
-178 338 1387
-174 337 1384
-170 337 1386
-168 342 1406
-162 339 1393
-158 338 1388
-155 340 1398
-147 333 1370
-145 336 1382
-142 340 1399
-138 339 1396
-134 340 1401
-130 339 1398
-125 338 1392
-118 330 1362
-112 324 1336
-103 309 1275
-94 295 1216
-88 287 1183
-82 278 1145
-78 275 1134
-73 271 1120
-69 267 1102
-65 264 1090
-63 267 1102
-59 265 1093
-55 264 1089
-52 264 1088
-49 264 1092
-46 266 1097
-43 266 1099
-40 269 1113
-37 271 1122
-35 276 1142
-32 280 1159
-29 283 1171
-27 297 1228
-25 315 1303
-21 317 1315
-18 330 1369
-15 344 1424
-10 343 1422
-6 341 1414
-2 338 1403
1 341 1412
5 340 1410
9 339 1405
13 339 1406
18 338 1400
22 340 1411
26 335 1391
30 336 1393
34 342 1419
39 343 1423
43 341 1415
47 340 1410
51 342 1420
55 343 1423
60 343 1423
64 341 1416
68 344 1426
73 345 1432
76 343 1425
80 338 1404
85 342 1421
89 341 1416
94 345 1431
97 340 1410
102 346 1434
106 343 1421
110 342 1420
115 345 1430
118 342 1420
120 337 1398
126 341 1414
131 342 1418
136 345 1431
139 343 1421
144 345 1429
149 345 1430
153 346 1434
159 348 1442
163 348 1441
166 346 1434
172 349 1444
176 349 1443
178 344 1425
184 347 1437
187 345 1428
191 346 1430
195 345 1427
200 346 1429
204 346 1431
207 344 1420
212 346 1427
217 347 1432
219 343 1416
229 351 1448
229 345 1424
236 349 1440
239 347 1430
241 344 1418
247 346 1427
249 343 1412
254 344 1418
261 348 1434
263 345 1418
266 343 1411
274 348 1432
274 343 1411
280 344 1416
283 344 1413
289 345 1418
294 346 1420
298 346 1419
300 343 1409
307 346 1421
309 344 1411
311 342 1399
320 347 1420
323 346 1416
328 346 1415
334 348 1425
337 347 1418
343 348 1423
346 347 1417
352 349 1423
358 351 1430
359 347 1414
368 352 1433
369 349 1420
377 352 1434
379 350 1425
383 350 1423
384 347 1410
394 352 1430
396 350 1419
404 353 1431
401 346 1403
407 347 1408
418 353 1431
417 349 1414
427 354 1431
430 352 1424
435 353 1426
435 349 1410
443 352 1421
447 352 1420
456 356 1432
458 354 1424
459 352 1414
463 351 1410
471 354 1420
477 355 1423
481 355 1423
489 357 1432
492 356 1426
494 354 1418
499 355 1419
513 362 1445
524 366 1462
531 368 1469
530 364 1452
532 362 1443
537 363 1443
541 363 1441
551 366 1453
559 368 1460
561 367 1454
566 367 1451
566 364 1438
575 367 1449
575 364 1436
571 358 1413
588 366 1442
595 368 1448
600 368 1447
606 369 1449
609 368 1443
618 370 1452
616 367 1435
631 373 1458
629 369 1442
630 367 1432
628 363 1414
645 370 1441
648 369 1435
652 369 1432
654 368 1426
672 375 1453
673 373 1443
677 372 1440
689 376 1453
699 380 1464
696 375 1446
719 385 1480
729 388 1490
729 385 1478
734 385 1477
737 385 1472
735 381 1456
735 378 1444
746 382 1455
749 381 1448
753 380 1444
754 379 1437
759 378 1433
763 378 1431
767 378 1427
762 373 1408
774 376 1418
775 375 1410
778 374 1404
787 376 1411
789 375 1403
786 371 1387
788 370 1379
775 362 1347
747 346 1288
-491 236 832
-481 232 822
-500 242 860
-543 265 941
-618 302 1078
-692 340 1217
-710 351 1259
-712 354 1271
-690 345 1241
-681 343 1234
-661 335 1207
-659 336 1213
-650 333 1206
-642 331 1199
-643 334 1211
-649 339 1231
-681 357 1302
-728 385 1404
-772 410 1499
-756 404 1481
-666 359 1315
-559 303 1113
-545 297 1092
-537 295 1085
-540 299 1100
-538 299 1104
-510 286 1055
-534 301 1114
-542 308 1140
-529 302 1121
-530 305 1133
-518 300 1116
-523 305 1137
-528 310 1157
-518 306 1144
-514 306 1144
-510 305 1145
-507 306 1149
-506 308 1156
-501 307 1154
-498 307 1157
-514 319 1206
-543 340 1284
-561 353 1338
-559 355 1345
-555 355 1346
-552 356 1351
-556 361 1373
-548 359 1366
-536 353 1346
-524 348 1330
-528 353 1350
-523 353 1350
-521 354 1356
-513 352 1349
-512 354 1358
-506 352 1354
-496 349 1342
-500 354 1364
-491 351 1353
-484 349 1347
-476 346 1336
-475 348 1346
-473 350 1354
-462 345 1337
-462 348 1348
-465 353 1370
-457 350 1360
-455 352 1370
-450 351 1369
-445 351 1367
-446 354 1382
-445 357 1393
-443 359 1403
-439 359 1403
-433 357 1399
-422 352 1380
-415 349 1370
-414 352 1381
-408 350 1376
-405 351 1382
-401 351 1383
-399 353 1392
-394 353 1391
-391 354 1395
-383 350 1383
-377 349 1380
-377 352 1394
-375 355 1403
-367 351 1391
-364 353 1397
-360 353 1399
-356 353 1400
-351 352 1399
-347 352 1400
-343 352 1399
-338 351 1397
-332 349 1391
-328 350 1395
-325 351 1398
-321 351 1402
-310 343 1370
-306 344 1372
-299 340 1360
-299 345 1380
-293 343 1371
-288 341 1366
-284 342 1370
-279 341 1365
-278 344 1380
-273 343 1375
-267 341 1370
-265 343 1378
-260 342 1374
-255 341 1372
-252 342 1377
-245 339 1364
-241 338 1361
-238 340 1371
-232 338 1362
-228 337 1360
-224 337 1358
-220 337 1359
-217 339 1371
-212 338 1364
-209 339 1370
-204 337 1363
-200 337 1363
-197 339 1374
-193 340 1375
-189 339 1374
-185 340 1378
-181 339 1374
-176 338 1369
-172 339 1374
-167 336 1364
-163 336 1364
-160 338 1372
-156 337 1369
-152 339 1376
-148 339 1378
-145 341 1385
-140 339 1380
-136 340 1382
-132 340 1382
-129 341 1390
-124 338 1377
-116 327 1332
-109 318 1296
-101 307 1248
-92 292 1189
-86 285 1159
-81 279 1138
-77 275 1119
-72 270 1100
-69 269 1095
-64 265 1080
-62 266 1086
-58 265 1079
-55 267 1089
-52 266 1084
-49 267 1087
-46 267 1091
-43 269 1098
-39 268 1093
-37 273 1115
-34 275 1123
-31 278 1135
-29 285 1166
-26 292 1195
-24 306 1252
-21 319 1305
-18 329 1345
-15 347 1419
-10 342 1402
-6 341 1397
-2 342 1399
1 340 1391
5 345 1411
9 340 1392
13 341 1395
18 341 1396
22 339 1387
26 340 1394
30 339 1389
34 343 1404
38 344 1409
42 343 1407
46 342 1402
50 341 1396
55 342 1401
59 346 1418
63 342 1400
68 345 1414
71 342 1399
76 344 1409
80 343 1403
84 342 1400
88 344 1411
93 347 1420
97 345 1414
100 343 1404
106 348 1423
109 345 1413
113 344 1407
117 344 1406
122 344 1409
126 344 1410
130 346 1415
134 345 1411
139 345 1413
143 347 1418
147 346 1413
151 344 1408
153 340 1389
160 346 1413
166 351 1435
170 349 1428
173 347 1417
179 351 1435
182 347 1419
184 345 1407
189 346 1412
193 345 1410
197 344 1405
203 349 1423
204 342 1397
209 345 1405
213 344 1404
219 347 1413
224 347 1415
225 343 1398
230 344 1403
235 345 1405
242 349 1420
243 345 1405
248 347 1410
252 346 1407
256 346 1405
261 347 1409
266 347 1409
267 344 1395
274 346 1406
276 344 1397
281 345 1398
286 346 1405
293 349 1415
294 345 1398
302 350 1416
304 347 1405
308 348 1407
314 349 1411
315 345 1395
320 347 1401
327 349 1411
332 350 1415
336 349 1410
340 349 1408
341 346 1395
349 350 1409
353 350 1408
359 351 1414
360 348 1400
366 350 1408
371 350 1408
374 349 1402
382 352 1415
387 354 1420
387 349 1400
392 350 1404
400 353 1415
403 353 1412
408 353 1410
416 356 1422
418 354 1415
426 357 1426
421 349 1392
429 353 1406
432 352 1401
436 351 1398
447 357 1420
445 351 1396
454 355 1410
457 354 1407
461 354 1403
468 356 1411
475 358 1416
482 360 1426
483 357 1413
486 356 1408
491 357 1408
498 359 1415
512 366 1441
516 365 1437
523 367 1443
524 365 1434
531 366 1438
538 368 1443
539 365 1433
543 365 1430
545 364 1423
551 364 1425
556 365 1426
563 366 1431
566 365 1424
569 365 1421
570 362 1411
576 363 1412
587 368 1428
593 368 1428
594 366 1419
598 366 1417
605 367 1421
614 370 1430
619 370 1430
627 372 1435
628 370 1426
634 371 1427
633 368 1413
639 368 1414
648 371 1423
647 368 1409
660 372 1425
670 376 1435
670 373 1425
682 377 1437
687 377 1436
695 379 1442
700 380 1441
721 388 1473
724 387 1466
743 395 1493
738 390 1472
737 387 1459
737 384 1447
736 381 1434
742 382 1434
748 382 1433
747 380 1422
756 382 1428
756 379 1417
762 380 1417
761 377 1404
765 377 1401
772 378 1403
777 378 1401
780 377 1395
782 376 1389
783 374 1381
788 374 1379
794 375 1380
781 367 1347
-494 240 836
-511 250 872
-577 283 991
-664 327 1150
-717 355 1250
-714 355 1254
-713 357 1262
-700 353 1249
-686 348 1233
-668 340 1210
-661 339 1207
-651 336 1198
-653 339 1210
-650 339 1214
-640 336 1205
-638 337 1210
-648 344 1238
-687 367 1323
-740 398 1437
-756 409 1478
-702 382 1385
-583 320 1159
-543 300 1087
-540 300 1091
-543 304 1105
-540 304 1108
-534 303 1106
-523 299 1091
-532 306 1119
-524 303 1111
-535 311 1143
-524 307 1129
-510 301 1108
-503 299 1101
-522 312 1152
-509 307 1133
-520 315 1166
-512 313 1160
-509 313 1161
-502 311 1156
-505 315 1172
-524 329 1227
-549 347 1296
-554 353 1319
-551 353 1323
-547 354 1326
-545 355 1332
-540 354 1331
-531 352 1322
-529 353 1329
-524 352 1328
-518 351 1324
-517 353 1334
-515 355 1342
-510 354 1340
-507 355 1346
-499 352 1335
-497 353 1343
-489 351 1335
-488 353 1342
-485 354 1349
-476 350 1335
-474 351 1342
-470 352 1344
-462 349 1334
-461 351 1346
-461 354 1357
-458 355 1362
-455 356 1367
-448 354 1360
-447 356 1370
-441 355 1368
-435 353 1362
-432 354 1368
-435 360 1390
-429 358 1385
-416 351 1358
-410 350 1355
-404 348 1348
-401 349 1353
-402 354 1373
-397 352 1369
-395 355 1379
-388 352 1371
-389 356 1387
-382 354 1380
-375 351 1369
-371 352 1373
-367 352 1375
-366 355 1387
-362 355 1388
-359 356 1392
-349 350 1372
-346 351 1377
-346 355 1393
-338 351 1379
-338 356 1398
-329 351 1379
-328 354 1392
-322 352 1384
-317 351 1382
-308 346 1364
-304 345 1362
-300 346 1364
-294 344 1357
-288 342 1350
-286 343 1356
-283 345 1364
-278 344 1361
-272 341 1351
-270 343 1360
-266 344 1363
-260 341 1354
-258 344 1364
-253 342 1357
-249 343 1361
-245 343 1364
-239 340 1351
-236 342 1359
-231 339 1350
-227 340 1353
-222 338 1346
-219 339 1353
-213 337 1344
-210 338 1350
-206 339 1351
-202 338 1349
-199 339 1356
-195 339 1355
-189 336 1345
-186 339 1355
-183 339 1357
-179 341 1363
-176 341 1367
-172 343 1373
-166 339 1357
-163 341 1366
-158 339 1357
-155 340 1364
-152 342 1372
-147 340 1364
-143 340 1364
-139 340 1367
-136 343 1377
-131 341 1372
-128 344 1383
-122 337 1355
-114 327 1316
-108 319 1284
-99 306 1231
-92 293 1180
-86 286 1149
-80 279 1121
-76 275 1107
-71 271 1089
-68 268 1080
-64 267 1075
-61 267 1075
-58 267 1075
-54 265 1067
-52 268 1078
-48 268 1079
-45 266 1072
-42 268 1079
-39 271 1093
-37 274 1103
-34 275 1110
-31 281 1133
-28 282 1139
-25 293 1180
-23 306 1236
-20 317 1282
-17 329 1328
-14 344 1391
-10 343 1386
-6 341 1378
-2 345 1395
1 342 1385
5 345 1395
9 343 1387
13 341 1377
17 343 1387
22 342 1384
26 343 1387
30 343 1387
34 343 1387
38 343 1386
42 345 1395
46 344 1392
50 342 1384
54 344 1392
59 345 1395
62 344 1390
67 344 1391
71 344 1393
75 344 1390
79 343 1387
83 343 1388
87 344 1390
92 346 1398
95 344 1392
100 345 1396
103 342 1384
108 344 1392
112 346 1398
117 346 1398
120 343 1385
125 348 1405
129 346 1398
132 342 1382
137 346 1396
142 347 1402
146 348 1406
148 341 1378
154 345 1394
157 343 1386
162 347 1399
167 348 1406
173 351 1418
175 347 1401
178 345 1391
183 346 1393
187 346 1394
195 352 1420
197 349 1405
200 347 1398
204 346 1395
206 344 1383
213 347 1399
216 346 1392
220 346 1391
226 348 1401
227 343 1380
232 346 1389
238 348 1397
241 347 1392
245 345 1387
250 346 1391
253 346 1389
256 344 1381
263 348 1395
268 348 1397
271 348 1393
274 346 1385
277 345 1381
283 346 1387
288 347 1390
293 348 1394
298 350 1399
301 348 1390
305 348 1389
311 350 1399
311 346 1379
317 348 1387
323 349 1394
325 347 1383
331 349 1390
333 347 1380
342 351 1398
345 350 1392
348 349 1389
354 351 1394
356 349 1386
362 350 1389
366 350 1389
372 352 1396
372 348 1379
379 351 1389
388 354 1403
390 352 1394
395 353 1395
396 350 1384
402 352 1390
405 351 1384
410 352 1387
418 354 1396
420 353 1391
426 354 1394
431 354 1394
437 356 1400
443 358 1405
441 352 1383
446 353 1386
459 360 1409
456 354 1386
459 354 1384
470 358 1401
468 354 1382
478 358 1398
484 359 1401
487 358 1395
492 358 1396
511 369 1437
510 365 1420
513 364 1416
516 363 1409
528 369 1430
529 366 1419
530 363 1407
539 367 1419
536 362 1399
550 368 1421
554 368 1419
552 364 1402
552 361 1389
564 366 1406
575 370 1421
577 368 1414
576 365 1400
588 370 1417
584 364 1393
592 367 1402
600 369 1409
604 368 1405
612 371 1412
612 368 1400
621 371 1409
626 371 1409
632 372 1409
632 369 1397
636 369 1395
640 368 1393
644 368 1390
661 375 1416
667 376 1417
664 372 1398
672 374 1405
685 378 1419
694 381 1428
704 384 1437
707 383 1432
727 391 1460
732 391 1458
736 391 1455
734 387 1440
733 384 1427
736 383 1421
734 380 1406
742 382 1411
755 386 1423
752 382 1408
751 379 1395
760 381 1402
761 379 1392
767 380 1392
771 380 1389
775 379 1386
777 378 1378
778 376 1371
786 378 1375
785 375 1362
787 374 1355
-533 262 902
-621 306 1059
-731 362 1256
-752 374 1301
-734 367 1279
-719 362 1262
-703 356 1244
-691 352 1232
-677 347 1215
-663 342 1201
-650 337 1186
-651 340 1196
-646 339 1196
-645 341 1203
-638 339 1199
-638 341 1210
-633 340 1208
-656 355 1262
-706 384 1370
-745 408 1456
-721 397 1421
-634 352 1259
-550 307 1101
-544 306 1098
-540 306 1098
-542 309 1112
-536 308 1108
-539 311 1123
-541 314 1136
-531 311 1125
-532 313 1136
-543 322 1170
-503 300 1092
-522 314 1141
-516 312 1138
-504 307 1121
-510 313 1144
-506 313 1144
-502 313 1146
-502 315 1155
-514 325 1193
-527 335 1233
-548 351 1293
-548 354 1305
-542 352 1302
-534 349 1293
-539 355 1317
-531 353 1308
-529 354 1316
-520 351 1304
-520 354 1317
-506 347 1294
-504 348 1299
-514 358 1337
-499 350 1310
-497 352 1318
-493 352 1319
-488 351 1317
-487 353 1326
-482 353 1326
-476 351 1323
-466 347 1307
-463 348 1312
-461 349 1319
-454 347 1310
-454 350 1324
-448 349 1321
-451 354 1343
-445 352 1337
-442 353 1341
-440 355 1348
-435 354 1348
-432 355 1352
-431 357 1362
-427 358 1364
-421 356 1359
-416 356 1360
-404 349 1333
-400 349 1335
-399 351 1345
-400 356 1364
-396 356 1365
-390 354 1359
-386 355 1363
-380 353 1357
-376 352 1357
-368 349 1344
-366 351 1353
-366 355 1370
-361 354 1365
-359 356 1376
-351 352 1362
-347 352 1361
-343 353 1366
-341 354 1372
-336 354 1371
-329 350 1360
-325 351 1362
-326 356 1384
-318 352 1369
-317 355 1379
-312 354 1377
-301 347 1350
-296 345 1344
-291 344 1343
-286 343 1337
-285 346 1352
-279 344 1342
-274 342 1337
-272 345 1350
-267 344 1345
-263 344 1346
-259 345 1350
-257 346 1356
-249 341 1336
-249 346 1358
-241 342 1342
-241 347 1363
-233 340 1338
-228 340 1335
-223 338 1330
-220 339 1336
-215 338 1332
-213 340 1340
-207 338 1330
-203 338 1333
-198 336 1326
-196 339 1336
-193 340 1341
-189 341 1346
-186 342 1349
-181 340 1345
-176 339 1340
-174 343 1356
-169 340 1346
-167 345 1365
-162 341 1351
-157 341 1349
-154 341 1351
-148 339 1342
-146 341 1352
-142 342 1355
-138 343 1359
-134 342 1356
-130 342 1359
-127 344 1367
-122 341 1355
-114 330 1309
-107 321 1273
-98 306 1217
-90 292 1160
-85 285 1133
-79 279 1109
-75 274 1087
-71 273 1082
-67 270 1072
-64 269 1067
-60 268 1064
-58 270 1071
-54 265 1055
-51 269 1071
-48 266 1060
-44 266 1059
-42 270 1073
-39 271 1080
-36 272 1083
-33 276 1099
-30 279 1112
-28 285 1134
-25 292 1162
-23 308 1229
-20 321 1282
-17 328 1310
-14 342 1366
-10 345 1379
-6 343 1370
-2 344 1375
1 344 1372
5 343 1371
9 340 1359
13 342 1366
17 345 1377
22 347 1386
25 343 1371
30 346 1381
33 342 1366
38 347 1387
42 343 1372
46 345 1379
50 347 1386
53 340 1360
58 344 1374
62 345 1379
66 344 1373
70 344 1375
74 344 1372
78 345 1377
82 344 1376
86 343 1370
90 343 1370
94 342 1366
99 347 1385
103 348 1388
106 342 1367
111 345 1378
115 345 1377
119 344 1371
124 348 1388
128 346 1382
132 347 1383
137 349 1392
141 348 1388
143 344 1373
149 349 1391
152 346 1380
156 346 1380
162 349 1390
165 347 1385
167 344 1370
174 350 1394
176 345 1373
181 347 1384
186 349 1389
192 351 1397
195 349 1390
198 347 1383
201 346 1375
207 349 1386
210 346 1376
215 348 1382
218 347 1380
222 346 1375
227 348 1383
229 345 1370
236 348 1382
238 346 1374
246 351 1391
248 348 1380
251 347 1374
256 348 1379
260 348 1380
265 349 1381
268 348 1377
272 347 1373
276 347 1372
281 348 1375
284 346 1368
291 350 1381
293 347 1371
297 347 1371
302 348 1373
307 349 1378
308 346 1362
316 350 1379
318 348 1371
322 348 1370
327 349 1373
333 350 1377
336 350 1375
340 349 1372
347 352 1382
352 353 1385
354 351 1376
360 352 1381
362 351 1374
368 352 1377
374 354 1386
377 353 1379
384 355 1388
386 353 1379
390 353 1380
396 355 1383
398 352 1374
402 352 1372
407 353 1374
411 353 1372
416 354 1375
418 352 1368
427 356 1381
429 354 1374
430 351 1361
442 358 1386
444 355 1376
447 354 1372
453 356 1378
459 358 1382
462 356 1376
466 356 1375
472 358 1379
478 359 1383
484 360 1385
489 360 1386
499 365 1403
503 365 1401
506 364 1395
517 368 1412
515 364 1393
526 368 1410
524 364 1392
529 364 1391
536 366 1398
542 367 1400
545 366 1394
551 367 1397
554 367 1393
564 370 1405
565 368 1395
571 369 1399
575 369 1396
584 371 1404
585 369 1395
582 365 1376
587 365 1377
591 364 1372
604 370 1393
609 370 1391
609 368 1380
615 369 1382
621 369 1383
631 373 1394
640 375 1402
640 373 1392
646 374 1393
651 374 1393
655 374 1390
663 376 1395
667 376 1393
672 376 1391
688 382 1413
686 378 1397
706 387 1428
717 390 1439
722 390 1437
721 387 1423
723 386 1417
728 386 1415
730 385 1408
738 387 1413
731 380 1388
739 382 1393
745 383 1393
744 380 1381
752 381 1384
766 386 1399
761 381 1380
770 384 1386
768 380 1372
774 381 1372
770 377 1355
779 379 1361
784 379 1360
785 377 1350
-678 336 1147
-791 394 1347
-773 387 1326
-737 371 1274
-722 366 1257
-698 356 1225
-702 359 1240
-685 353 1220
-671 348 1204
-663 346 1199
-654 343 1192
-649 343 1192
-641 341 1187
-638 341 1190
-638 343 1198
-630 341 1192
-631 343 1204
-642 351 1235
-690 380 1337
-726 402 1418
-731 407 1439
-676 379 1342
-572 323 1144
-541 308 1092
-542 311 1102
-541 312 1108
-542 314 1119
-530 310 1104
-538 316 1128
-517 306 1094
-531 316 1132
-519 312 1117
-519 313 1125
-514 312 1123
-523 321 1154
-514 317 1142
-514 319 1152
-510 319 1152
-506 319 1153
-508 322 1168
-516 330 1196
-544 350 1271
-547 355 1291
-550 359 1309
-538 354 1290
-529 350 1281
-527 351 1286
-518 349 1277
-521 353 1294
-519 355 1303
-504 347 1275
-512 355 1308
-502 351 1294
-500 353 1301
-503 357 1319
-499 358 1322
-494 357 1321
-489 356 1321
-480 352 1307
-476 353 1310
-467 348 1295
-464 349 1300
-460 350 1302
-453 347 1296
-449 347 1296
-454 354 1323
-449 353 1321
-445 353 1322
-441 353 1323
-437 354 1326
-436 356 1336
-430 354 1332
-427 355 1336
-426 357 1346
-423 359 1352
-418 358 1350
-403 348 1314
-404 353 1332
-395 348 1317
-391 348 1317
-391 352 1333
-393 357 1354
-388 356 1352
-375 348 1321
-376 353 1342
-371 352 1340
-364 349 1330
-362 351 1336
-363 356 1358
-352 349 1331
-354 355 1356
-350 355 1356
-344 353 1349
-340 353 1351
-335 352 1348
-332 354 1354
-327 352 1350
-327 357 1369
-321 355 1361
-319 357 1371
-312 353 1358
-306 351 1350
-299 348 1340
-294 347 1336
-290 347 1337
-283 343 1322
-282 347 1338
-273 341 1316
-272 345 1330
-268 345 1331
-263 343 1327
-261 346 1338
-258 346 1339
-252 343 1330
-248 343 1330
-245 345 1337
-239 343 1330
-236 343 1331
-228 338 1312
-226 341 1325
-221 338 1314
-217 339 1317
-214 341 1324
-209 338 1315
-205 339 1318
-202 339 1321
-199 341 1330
-194 340 1323
-189 338 1319
-188 342 1335
-183 341 1330
-179 341 1329
-175 341 1332
-171 341 1333
-168 343 1339
-164 341 1334
-161 343 1342
-156 342 1340
-150 338 1323
-149 343 1342
-144 341 1336
-141 345 1351
-137 345 1350
-134 347 1359
-128 342 1341
-125 343 1346
-120 341 1338
-113 331 1298
-104 317 1242
-95 301 1179
-89 293 1147
-83 284 1113
-79 280 1099
-74 274 1076
-70 271 1064
-66 270 1061
-63 268 1053
-59 268 1050
-56 268 1052
-54 269 1056
-50 267 1048
-47 268 1053
-44 269 1055
-42 271 1066
-38 272 1068
-36 274 1076
-33 276 1084
-30 280 1101
-27 285 1122
-25 295 1160
-23 308 1212
-20 322 1268
-17 335 1320
-14 342 1350
-10 345 1362
-6 347 1368
-2 341 1345
1 344 1355
5 346 1365
9 343 1352
13 345 1360
17 346 1365
21 348 1372
25 344 1356
29 343 1354
34 348 1373
38 348 1374
41 346 1367
45 345 1360
49 343 1355
54 348 1373
57 344 1359
62 348 1374
65 344 1357
70 345 1363
74 346 1366
78 345 1362
82 347 1368
85 345 1360
90 345 1361
94 346 1365
98 347 1367
102 348 1373
107 349 1375
110 345 1361
114 346 1364
117 344 1356
123 348 1373
126 346 1363
131 348 1372
133 343 1351
138 346 1362
142 347 1365
147 347 1366
151 347 1366
155 348 1369
159 347 1366
164 350 1378
169 350 1378
173 351 1379
177 350 1377
181 350 1376
186 352 1383
189 351 1379
192 349 1371
197 350 1377
200 349 1370
205 350 1374
207 347 1361
213 349 1372
216 348 1365
220 346 1359
223 346 1356
229 348 1364
231 345 1353
238 350 1370
242 349 1369
243 346 1354
249 348 1363
250 344 1347
258 349 1364
261 348 1362
268 351 1372
267 345 1350
273 347 1356
280 351 1371
283 349 1364
285 348 1356
290 348 1358
294 348 1355
300 350 1364
302 348 1356
305 346 1348
309 346 1347
315 349 1358
319 349 1356
327 353 1371
326 347 1349
334 351 1363
336 349 1354
340 349 1355
345 350 1356
351 352 1364
352 349 1350
358 351 1357
365 354 1367
368 352 1361
375 355 1371
376 352 1357
382 353 1363
383 351 1353
394 357 1374
397 356 1371
398 353 1360
399 350 1347
408 354 1361
411 353 1357
416 354 1359
419 353 1354
423 353 1353
431 356 1364
427 350 1338
439 356 1360
443 356 1361
447 355 1357
456 359 1371
462 361 1376
459 355 1354
468 359 1365
473 360 1368
476 358 1363
487 363 1379
495 366 1390
498 365 1385
506 368 1393
511 369 1395
506 361 1367
516 366 1383
529 371 1402
526 367 1382
532 368 1386
537 368 1387
536 364 1369
539 364 1366
552 369 1387
550 365 1369
560 369 1382
564 369 1379
570 369 1381
573 369 1377
571 365 1360
574 364 1356
588 370 1377
591 369 1373
594 368 1368
597 368 1364
604 369 1368
616 373 1383
616 371 1373
623 372 1375
629 373 1377
638 376 1386
637 373 1372
636 370 1359
653 377 1384
653 375 1373
652 371 1360
659 373 1363
671 377 1377
673 376 1370
698 387 1409
698 385 1399
