VERSION 0.7
FIELDS x y z
SIZE 4 4 4
TYPE I I I
COUNT 1 1 1
WIDTH 3161
HEIGHT 1
VIEWPOINT 0.0 0.0 0.0 1.0 0.0 0.0 0.0
POINTS 3161
DATA ascii
-446 -1084 2779
-438 -1086 2784
-428 -1083 2778
-421 -1084 2782
-411 -1083 2779
-401 -1079 2770
-393 -1079 2771
-383 -1076 2763
-374 -1073 2757
-367 -1077 2768
-357 -1073 2759
-347 -1069 2749
-338 -1068 2747
-330 -1068 2748
-321 -1065 2741
-312 -1063 2736
-304 -1064 2739
-296 -1065 2742
-286 -1059 2728
-277 -1058 2725
-269 -1058 2727
-260 -1057 2726
-251 -1053 2716
-243 -1055 2720
-233 -1047 2700
-226 -1050 2709
-217 -1047 2701
-209 -1047 2702
-200 -1048 2703
-192 -1046 2699
-183 -1044 2695
-175 -1045 2696
-166 -1040 2685
-158 -1041 2688
-150 -1040 2685
-141 -1036 2676
-133 -1037 2676
-125 -1033 2668
-116 -1029 2657
-109 -1035 2674
-100 -1033 2667
-92 -1031 2662
-84 -1031 2662
-75 -1026 2651
-68 -1028 2655
-60 -1029 2657
-51 -1027 2651
-43 -1025 2648
-35 -1023 2642
-27 -1024 2645
-19 -1022 2639
-11 -1022 2639
-3 -1021 2636
4 -1023 2641
12 -1022 2638
20 -1018 2628
28 -1016 2622
36 -1017 2625
44 -1017 2624
52 -1014 2616
59 -1013 2613
67 -1011 2608
75 -1012 2610
83 -1011 2608
90 -1004 2589
99 -1009 2601
106 -1007 2595
114 -1004 2589
122 -1007 2595
130 -1004 2588
137 -1003 2583
145 -1002 2581
153 -1002 2580
161 -1003 2582
169 -1002 2580
175 -996 2563
184 -1004 2582
191 -998 2565
198 -995 2558
207 -997 2562
214 -997 2561
221 -991 2547
229 -993 2551
237 -995 2554
245 -995 2555
253 -994 2551
259 -989 2536
267 -989 2535
275 -991 2540
282 -989 2533
290 -988 2530
298 -991 2538
305 -989 2532
312 -984 2518
319 -983 2513
327 -984 2517
335 -987 2522
342 -985 2515
350 -984 2512
357 -983 2509
365 -983 2508
372 -981 2502
379 -981 2501
388 -983 2505
394 -980 2496
401 -978 2488
408 -976 2482
418 -982 2497
424 -978 2486
432 -979 2488
439 -977 2480
446 -977 2479
453 -976 2475
460 -973 2467
469 -977 2475
476 -975 2467
482 -972 2459
490 -973 2460
498 -974 2461
504 -971 2453
511 -969 2446
519 -971 2450
526 -970 2444
533 -968 2439
541 -970 2443
550 -972 2445
558 -973 2446
563 -968 2432
571 -969 2433
579 -970 2434
586 -968 2428
593 -968 2426
598 -964 2415
606 -964 2413
613 -965 2411
621 -965 2412
628 -964 2407
637 -966 2410
645 -968 2412
649 -963 2398
659 -966 2403
665 -964 2397
673 -964 2395
679 -963 2390
688 -964 2391
695 -964 2389
701 -961 2380
710 -963 2383
715 -961 2374
723 -961 2373
730 -961 2370
738 -962 2371
744 -960 2363
752 -960 2362
759 -960 2358
769 -962 2363
774 -959 2353
785 -965 2364
789 -960 2349
794 -957 2340
806 -962 2350
811 -960 2342
819 -960 2341
827 -961 2341
833 -959 2334
840 -959 2331
848 -960 2329
856 -960 2327
863 -959 2324
871 -960 2322
879 -961 2322
886 -961 2319
890 -957 2307
898 -957 2305
910 -962 2314
913 -957 2300
924 -961 2305
927 -957 2294
938 -960 2299
945 -960 2295
951 -959 2289
958 -958 2285
968 -961 2288
976 -962 2287
980 -958 2275
986 -956 2268
995 -958 2269
1003 -959 2268
1007 -955 2257
1016 -957 2258
1024 -958 2257
1029 -956 2249
1041 -960 2255
1048 -959 2250
1050 -955 2236
1063 -959 2243
1065 -955 2230
1072 -954 2226
1041 -920 2144
970 -851 1979
911 -794 1843
900 -779 1805
901 -774 1792
911 -778 1798
916 -777 1794
923 -778 1793
927 -776 1786
926 -770 1768
933 -771 1768
945 -776 1777
950 -776 1772
952 -772 1761
956 -771 1756
962 -771 1752
963 -767 1740
978 -774 1754
975 -767 1735
986 -771 1741
983 -764 1721
994 -768 1727
1007 -774 1737
1010 -771 1729
1018 -772 1728
1020 -770 1718
1025 -769 1713
1026 -765 1702
-2116 -1489 3387
-2102 -1488 3390
-2083 -1483 3384
-2066 -1479 3383
-2038 -1468 3362
-2019 -1463 3356
-1994 -1453 3340
-1983 -1453 3346
-1963 -1447 3338
-1946 -1443 3335
-1919 -1432 3314
-1898 -1424 3302
-1874 -1415 3286
-1852 -1407 3273
-1821 -1392 3244
-1806 -1389 3241
-1779 -1377 3218
-1770 -1378 3227
-1748 -1370 3213
-1731 -1365 3206
-1717 -1363 3206
-1706 -1363 3211
-1693 -1361 3211
-1678 -1357 3208
-1669 -1359 3216
-1653 -1355 3211
-1642 -1355 3216
-1622 -1347 3203
-1615 -1350 3214
-1590 -1339 3191
-1561 -1323 3158
-1540 -1314 3141
-1529 -1313 3144
-1511 -1307 3134
-1494 -1301 3124
-1489 -1306 3141
-1464 -1293 3113
-1432 -1274 3070
-1399 -1253 3025
-1383 -1248 3017
-1371 -1247 3016
-1356 -1242 3009
-1345 -1240 3009
-1332 -1238 3007
-1310 -1226 2982
-1300 -1227 2987
-1279 -1216 2963
-1256 -1203 2936
-1234 -1191 2910
-1223 -1190 2911
-1203 -1180 2889
-1214 -1200 2942
-1210 -1206 2959
-1074 -1078 2650
-922 -933 2295
-887 -905 2229
-1048 -1078 2658
-1154 -1197 2953
-1158 -1211 2991
-1154 -1217 3010
-1147 -1220 3020
-1136 -1219 3020
-1128 -1220 3027
-1116 -1218 3024
-1103 -1215 3019
-1090 -1211 3013
-1076 -1206 3004
-1063 -1203 2998
-1051 -1200 2993
-1041 -1199 2993
-1027 -1194 2984
-1014 -1190 2977
-1003 -1188 2974
-991 -1185 2971
-980 -1182 2966
-968 -1179 2960
-960 -1182 2969
-944 -1173 2950
-935 -1174 2955
-920 -1167 2939
-915 -1172 2953
-900 -1166 2940
-888 -1162 2933
-876 -1157 2924
-863 -1153 2914
-849 -1146 2899
-840 -1146 2902
-830 -1145 2901
-816 -1139 2888
-807 -1139 2889
-796 -1136 2886
-784 -1132 2875
-774 -1130 2874
-765 -1129 2873
-755 -1128 2873
-742 -1123 2861
-734 -1125 2867
-725 -1124 2867
-717 -1126 2873
-703 -1117 2853
-695 -1119 2859
-683 -1114 2849
-675 -1115 2854
-666 -1115 2853
-654 -1109 2841
-645 -1109 2841
-637 -1111 2848
-623 -1102 2826
-616 -1104 2833
-605 -1100 2826
-596 -1100 2827
-587 -1099 2826
-575 -1094 2813
-567 -1095 2818
-558 -1095 2818
-550 -1095 2819
-541 -1094 2819
-531 -1091 2813
-522 -1092 2815
-509 -1083 2793
-502 -1086 2803
-493 -1086 2803
-484 -1084 2800
-474 -1081 2793
-465 -1081 2794
-456 -1078 2788
-447 -1077 2785
-437 -1075 2782
-430 -1078 2789
-419 -1072 2775
-409 -1069 2768
-401 -1070 2771
-393 -1070 2773
-383 -1065 2761
-374 -1064 2758
-364 -1061 2753
-356 -1063 2756
-347 -1061 2752
-338 -1059 2750
-331 -1063 2760
-320 -1055 2740
-312 -1056 2743
-303 -1052 2733
-294 -1052 2735
-286 -1051 2732
-277 -1048 2725
-267 -1043 2711
-260 -1046 2721
-251 -1043 2713
-242 -1043 2712
-234 -1042 2712
-225 -1040 2707
-217 -1039 2705
-208 -1037 2700
-199 -1035 2695
-191 -1035 2694
-183 -1035 2694
-175 -1033 2691
-166 -1029 2680
-158 -1030 2684
-149 -1028 2677
-141 -1025 2669
-133 -1030 2684
-125 -1025 2671
-116 -1021 2660
-108 -1027 2675
-100 -1022 2662
-92 -1023 2665
-84 -1024 2668
-76 -1023 2665
-68 -1021 2660
-59 -1018 2652
-51 -1021 2659
-43 -1017 2649
-35 -1017 2649
-27 -1013 2640
-19 -1011 2635
-11 -1014 2642
-3 -1011 2633
4 -1010 2631
12 -1011 2632
20 -1008 2624
28 -1011 2634
36 -1004 2615
44 -1007 2622
51 -1002 2608
60 -1007 2622
67 -1005 2615
75 -1004 2612
83 -1002 2607
91 -1002 2607
98 -999 2597
106 -1000 2599
114 -996 2590
122 -994 2585
130 -999 2596
137 -996 2588
145 -994 2582
153 -994 2583
161 -993 2579
168 -993 2577
176 -993 2578
184 -994 2579
192 -993 2577
199 -989 2564
206 -985 2554
215 -990 2565
222 -987 2558
229 -984 2549
237 -986 2553
244 -983 2546
252 -983 2545
260 -983 2545
267 -982 2539
275 -983 2543
281 -978 2527
289 -978 2528
298 -983 2539
304 -978 2524
313 -979 2528
320 -979 2526
327 -976 2517
334 -975 2513
341 -972 2505
349 -975 2511
356 -972 2503
365 -976 2512
372 -973 2503
379 -973 2502
386 -971 2495
393 -969 2491
401 -971 2494
408 -970 2489
417 -971 2492
424 -970 2486
431 -969 2484
439 -970 2485
445 -967 2477
454 -970 2483
460 -966 2469
468 -967 2470
474 -964 2462
481 -963 2460
489 -963 2457
497 -963 2457
505 -965 2459
511 -963 2452
518 -962 2447
525 -960 2443
534 -963 2448
540 -960 2438
548 -962 2441
555 -961 2437
563 -961 2437
570 -960 2431
577 -960 2430
583 -956 2419
593 -961 2429
599 -958 2419
606 -957 2416
613 -957 2413
620 -956 2410
627 -955 2406
636 -958 2410
642 -956 2403
651 -957 2405
657 -955 2397
666 -957 2401
673 -956 2397
680 -956 2394
687 -955 2390
690 -950 2375
700 -952 2379
706 -950 2372
715 -953 2378
723 -954 2377
732 -955 2378
738 -953 2371
743 -951 2362
751 -951 2361
760 -953 2363
765 -950 2353
776 -955 2363
781 -952 2355
790 -954 2356
797 -953 2352
800 -948 2337
810 -951 2343
819 -953 2344
824 -950 2335
832 -950 2332
839 -951 2331
848 -952 2333
855 -952 2329
862 -951 2325
868 -949 2317
876 -950 2317
884 -950 2315
890 -949 2309
901 -953 2315
905 -950 2305
911 -948 2298
921 -951 2302
930 -952 2302
934 -948 2290
940 -947 2286
952 -952 2293
958 -951 2287
964 -949 2282
972 -950 2280
978 -948 2272
984 -947 2268
994 -949 2269
1003 -951 2271
1007 -948 2259
1016 -949 2260
1020 -946 2249
1025 -944 2241
1038 -949 2250
1047 -951 2250
1054 -950 2246
1063 -951 2246
1069 -950 2240
1072 -947 2228
1050 -921 2164
983 -856 2009
916 -792 1855
899 -772 1807
896 -764 1785
911 -772 1799
911 -767 1785
909 -760 1767
922 -766 1777
932 -769 1782
935 -767 1775
940 -766 1769
946 -766 1766
957 -770 1773
956 -765 1757
958 -762 1747
969 -766 1754
976 -767 1753
977 -763 1741
984 -763 1738
993 -766 1741
1003 -769 1745
1006 -767 1737
1003 -760 1718
1007 -758 1711
1019 -763 1719
1020 -759 1708
1025 -759 1703
-2115 -1477 3390
-2097 -1473 3387
-2072 -1463 3372
-2057 -1461 3372
-2034 -1453 3360
-2013 -1446 3350
-1987 -1436 3332
-1980 -1439 3345
-1953 -1428 3326
-1925 -1416 3303
-1903 -1409 3291
-1885 -1404 3285
-1865 -1397 3274
-1843 -1389 3262
-1821 -1381 3247
-1800 -1373 3235
-1778 -1365 3220
-1762 -1361 3216
-1748 -1358 3215
-1742 -1363 3231
-1717 -1352 3209
-1702 -1348 3206
-1690 -1348 3210
-1680 -1348 3217
-1660 -1341 3203
-1661 -1351 3231
-1639 -1341 3213
-1618 -1333 3199
-1588 -1317 3165
-1553 -1297 3120
-1531 -1287 3100
-1509 -1277 3081
-1489 -1269 3066
-1481 -1271 3075
-1468 -1269 3074
-1460 -1271 3084
-1439 -1261 3064
-1407 -1242 3021
-1398 -1243 3027
-1382 -1237 3018
-1370 -1236 3018
-1354 -1230 3009
-1343 -1229 3010
-1327 -1223 2998
-1308 -1215 2983
-1295 -1212 2979
-1275 -1203 2959
-1250 -1188 2925
-1232 -1180 2910
-1236 -1193 2944
-1233 -1199 2963
-1235 -1210 2995
-1239 -1224 3033
-1160 -1155 2865
-956 -960 2383
-881 -892 2218
-998 -1019 2535
-1132 -1165 2902
-1159 -1202 2998
-1150 -1203 3003
-1144 -1207 3016
-1131 -1203 3009
-1124 -1207 3021
-1111 -1203 3014
-1100 -1202 3015
-1088 -1200 3012
-1077 -1197 3009
-1065 -1194 3004
-1049 -1188 2991
-1042 -1191 3001
-1027 -1185 2988
-1014 -1181 2981
-1003 -1178 2977
-992 -1176 2975
-979 -1172 2967
-968 -1171 2966
-956 -1167 2959
-945 -1166 2958
-933 -1162 2951
-919 -1156 2938
-913 -1160 2951
-898 -1154 2937
-889 -1154 2940
-871 -1143 2913
-863 -1143 2917
-849 -1138 2904
-834 -1129 2885
-826 -1131 2892
-814 -1126 2882
-802 -1122 2873
-793 -1122 2875
-784 -1123 2879
-778 -1126 2890
-765 -1121 2878
-755 -1119 2875
-745 -1118 2875
-732 -1113 2862
-727 -1118 2878
-719 -1120 2884
-705 -1112 2865
-694 -1108 2857
-685 -1108 2859
-676 -1108 2860
-663 -1101 2843
-652 -1098 2836
-644 -1099 2842
-633 -1094 2831
-622 -1092 2825
-614 -1093 2830
-603 -1088 2820
-596 -1091 2829
-586 -1089 2824
-576 -1086 2819
-566 -1085 2816
-557 -1084 2815
-547 -1081 2810
-539 -1083 2816
-529 -1080 2809
-521 -1081 2811
-510 -1077 2803
-500 -1073 2795
-491 -1073 2796
-483 -1075 2800
-474 -1072 2795
-464 -1070 2789
-454 -1066 2781
-447 -1069 2789
-438 -1067 2787
-426 -1061 2771
-418 -1061 2771
-409 -1059 2766
-400 -1059 2768
-390 -1054 2757
-383 -1059 2770
-373 -1055 2759
-363 -1051 2749
-355 -1051 2752
-347 -1051 2753
-339 -1052 2756
-329 -1048 2745
-321 -1050 2752
-310 -1041 2727
-302 -1042 2732
-294 -1042 2732
-286 -1043 2736
-276 -1036 2718
-268 -1038 2723
-259 -1038 2722
-250 -1033 2711
-242 -1033 2712
-233 -1030 2704
-225 -1030 2703
-216 -1027 2697
-208 -1028 2700
-200 -1027 2699
-190 -1022 2685
-182 -1024 2689
-174 -1025 2693
-166 -1024 2690
-158 -1024 2690
-150 -1022 2686
-141 -1019 2679
-133 -1017 2673
-125 -1020 2682
-117 -1020 2680
-108 -1014 2666
-100 -1014 2667
-92 -1015 2667
-83 -1011 2658
-75 -1009 2653
-67 -1007 2647
-59 -1010 2656
-51 -1010 2656
-43 -1006 2646
-35 -1005 2642
-27 -1005 2642
-19 -1005 2641
-11 -1007 2647
-3 -1001 2631
4 -999 2626
12 -999 2626
20 -1002 2632
28 -999 2624
36 -1000 2627
44 -998 2621
51 -993 2607
59 -994 2610
67 -996 2614
75 -994 2610
83 -994 2610
91 -992 2604
98 -989 2596
106 -988 2592
114 -988 2593
122 -986 2586
129 -986 2585
137 -982 2575
145 -986 2585
152 -983 2576
161 -985 2581
168 -983 2576
176 -983 2573
183 -980 2566
191 -980 2566
198 -978 2559
206 -980 2565
214 -979 2560
221 -976 2552
229 -976 2552
236 -975 2548
243 -971 2536
252 -975 2545
259 -972 2538
266 -970 2532
274 -972 2536
282 -973 2537
289 -969 2528
298 -974 2538
304 -970 2527
312 -969 2523
320 -971 2529
326 -966 2514
335 -969 2520
341 -964 2507
348 -964 2506
357 -968 2515
364 -965 2506
372 -966 2508
378 -963 2498
386 -963 2498
394 -965 2501
402 -964 2497
407 -959 2483
416 -962 2489
422 -959 2481
432 -962 2489
437 -958 2475
446 -960 2479
453 -959 2475
460 -958 2472
465 -954 2460
475 -958 2468
482 -957 2465
488 -954 2455
495 -953 2453
504 -956 2459
509 -950 2442
517 -951 2442
525 -953 2445
533 -953 2443
538 -948 2431
547 -951 2435
554 -951 2435
561 -950 2431
568 -949 2425
575 -948 2423
585 -953 2432
593 -952 2430
599 -951 2425
605 -948 2414
613 -949 2415
618 -946 2406
627 -947 2406
636 -950 2413
640 -945 2398
650 -948 2403
657 -947 2400
665 -948 2399
671 -947 2395
677 -945 2388
683 -942 2379
691 -943 2379
699 -945 2381
707 -945 2381
715 -946 2379
723 -946 2377
731 -946 2377
734 -941 2361
743 -943 2364
748 -940 2355
755 -940 2352
768 -946 2365
773 -943 2356
781 -945 2357
788 -944 2352
794 -942 2346
803 -943 2347
811 -944 2346
818 -944 2342
825 -944 2341
831 -942 2334
837 -941 2328
846 -942 2329
852 -940 2322
861 -942 2324
868 -942 2321
876 -943 2320
882 -941 2312
890 -942 2312
899 -944 2314
904 -941 2305
914 -944 2308
918 -940 2298
923 -938 2289
935 -943 2298
940 -940 2287
949 -942 2289
958 -943 2290
968 -945 2293
968 -938 2273
978 -941 2276
988 -943 2279
987 -936 2257
999 -940 2263
1007 -940 2262
1008 -934 2245
1021 -939 2254
1025 -936 2243
1035 -939 2247
1043 -940 2245
1055 -944 2251
1059 -941 2241
1062 -937 2229
1078 -945 2244
1057 -920 2182
992 -857 2030
926 -795 1879
889 -757 1787
905 -766 1805
909 -764 1798
913 -763 1792
913 -758 1777
922 -760 1780
927 -760 1776
936 -762 1778
938 -759 1768
946 -760 1768
949 -758 1761
964 -765 1774
966 -762 1763
974 -764 1765
971 -757 1746
983 -761 1753
979 -754 1732
988 -756 1735
994 -756 1732
1004 -759 1735
1010 -759 1732
1012 -756 1722
1022 -759 1727
1026 -757 1719
1023 -751 1702
-2112 -1463 3390
-2096 -1460 3390
-2076 -1454 3382
-2040 -1437 3349
-2026 -1436 3351
-2008 -1431 3346
-1986 -1424 3336
-1957 -1411 3311
-1928 -1399 3288
-1914 -1396 3288
-1894 -1390 3279
-1878 -1387 3277
-1848 -1373 3250
-1827 -1365 3237
-1807 -1359 3226
-1793 -1357 3226
-1773 -1350 3217
-1762 -1350 3221
-1731 -1335 3190
-1733 -1345 3219
-1717 -1341 3214
-1707 -1342 3221
-1692 -1338 3218
-1674 -1332 3208
-1664 -1333 3215
-1648 -1329 3210
-1630 -1324 3201
-1592 -1301 3151
-1549 -1275 3091
-1505 -1247 3028
-1481 -1235 3004
-1474 -1238 3014
-1465 -1238 3020
-1452 -1236 3020
-1451 -1243 3041
-1437 -1240 3037
-1430 -1243 3049
-1405 -1230 3020
-1388 -1224 3009
-1380 -1226 3018
-1360 -1217 3000
-1350 -1217 3004
-1342 -1218 3010
-1319 -1206 2985
-1306 -1203 2981
-1290 -1198 2971
-1266 -1184 2940
-1267 -1195 2970
-1252 -1190 2961
-1253 -1200 2990
-1245 -1202 2997
-1243 -1208 3018
-1267 -1242 3104
-1214 -1200 3003
-1051 -1047 2623
-940 -944 2369
-937 -949 2384
-1091 -1114 2800
-1152 -1185 2983
-1147 -1191 2999
-1145 -1198 3021
-1133 -1196 3019
-1121 -1193 3015
-1111 -1193 3018
-1096 -1188 3007
-1084 -1186 3004
-1074 -1184 3004
-1060 -1180 2995
-1050 -1179 2996
-1039 -1178 2996
-1025 -1173 2985
-1012 -1168 2977
-999 -1164 2969
-987 -1161 2964
-978 -1162 2967
-967 -1160 2967
-951 -1152 2948
-943 -1153 2953
-933 -1152 2954
-922 -1151 2952
-909 -1146 2941
-897 -1142 2935
-888 -1144 2940
-872 -1134 2918
-859 -1129 2907
-846 -1124 2896
-837 -1124 2898
-830 -1127 2907
-818 -1123 2899
-806 -1120 2893
-795 -1117 2888
-785 -1116 2887
-776 -1115 2887
-767 -1115 2889
-755 -1111 2881
-745 -1110 2879
-734 -1106 2870
-724 -1105 2869
-713 -1102 2863
-705 -1102 2866
-694 -1100 2861
-682 -1095 2850
-674 -1096 2854
-661 -1089 2839
-653 -1091 2844
-642 -1087 2837
-634 -1088 2840
-625 -1088 2842
-615 -1086 2837
-605 -1083 2831
-595 -1081 2827
-586 -1081 2829
-576 -1078 2821
-568 -1079 2826
-558 -1077 2822
-547 -1072 2810
-539 -1075 2819
-529 -1072 2813
-519 -1069 2808
-511 -1069 2808
-500 -1064 2795
-492 -1065 2800
-482 -1063 2795
-472 -1061 2790
-462 -1057 2782
-455 -1060 2790
-445 -1055 2779
-435 -1054 2776
-428 -1055 2781
-417 -1051 2771
-408 -1049 2765
-400 -1051 2772
-391 -1050 2769
-382 -1047 2762
-372 -1043 2752
-364 -1043 2754
-355 -1041 2749
-345 -1038 2743
-338 -1042 2752
-329 -1039 2746
-319 -1035 2738
-309 -1029 2721
-301 -1031 2727
-292 -1028 2719
-284 -1028 2720
-276 -1029 2724
-267 -1027 2719
-259 -1026 2717
-250 -1026 2716
-242 -1024 2711
-234 -1026 2718
-224 -1019 2700
-217 -1023 2709
-208 -1020 2703
-200 -1021 2706
-191 -1017 2695
-183 -1017 2696
-175 -1020 2703
-167 -1019 2701
-158 -1014 2690
-150 -1014 2690
-141 -1009 2675
-133 -1013 2686
-125 -1010 2679
-116 -1006 2668
-108 -1005 2665
-100 -1007 2672
-91 -1003 2659
-83 -1000 2651
-75 -1001 2656
-67 -1003 2660
-59 -1000 2651
-51 -997 2644
-43 -1001 2654
-35 -995 2640
-27 -997 2643
-19 -997 2643
-11 -995 2638
-3 -993 2632
4 -993 2634
12 -991 2628
20 -994 2636
28 -990 2624
36 -986 2614
44 -989 2621
52 -988 2619
59 -983 2603
67 -985 2611
75 -980 2596
83 -985 2610
90 -980 2596
98 -980 2594
106 -982 2599
114 -981 2596
122 -978 2588
129 -978 2587
137 -976 2581
145 -976 2582
153 -975 2579
160 -974 2575
168 -974 2576
175 -972 2568
183 -972 2568
191 -973 2570
198 -970 2563
206 -968 2555
214 -970 2559
221 -965 2547
228 -966 2548
237 -971 2561
244 -966 2546
251 -963 2537
259 -963 2538
266 -963 2537
275 -968 2547
281 -960 2526
289 -964 2535
297 -962 2531
305 -964 2533
312 -962 2529
320 -964 2531
326 -958 2516
334 -959 2517
341 -957 2510
348 -955 2504
356 -956 2505
364 -958 2511
371 -955 2502
378 -955 2500
386 -956 2500
392 -951 2488
401 -954 2495
407 -951 2485
416 -954 2491
424 -954 2490
430 -952 2484
437 -950 2476
444 -949 2474
452 -950 2474
460 -951 2475
467 -949 2470
475 -951 2472
482 -949 2467
488 -947 2459
496 -947 2459
502 -945 2451
511 -946 2453
516 -943 2443
524 -944 2444
533 -945 2446
539 -944 2441
547 -944 2439
553 -941 2430
561 -942 2432
569 -943 2432
577 -944 2433
583 -942 2425
591 -942 2424
598 -941 2421
605 -941 2418
612 -940 2415
618 -937 2405
627 -940 2411
634 -939 2407
642 -940 2408
647 -937 2398
656 -939 2399
662 -937 2392
670 -937 2392
676 -936 2386
684 -936 2384
690 -935 2380
697 -933 2374
704 -933 2372
712 -934 2371
719 -934 2369
725 -932 2362
735 -935 2368
743 -936 2368
749 -933 2359
758 -936 2362
763 -933 2354
773 -936 2360
778 -933 2349
786 -934 2349
794 -935 2348
799 -932 2340
808 -933 2340
814 -932 2336
822 -933 2334
829 -932 2329
837 -933 2330
844 -933 2326
853 -934 2328
858 -932 2320
869 -935 2325
874 -933 2317
883 -934 2317
889 -933 2312
897 -934 2310
902 -932 2303
911 -933 2303
918 -933 2299
924 -931 2294
934 -933 2296
941 -934 2294
948 -933 2290
955 -933 2285
963 -933 2283
972 -935 2284
978 -934 2279
982 -930 2267
990 -931 2265
996 -930 2261
1003 -929 2256
1013 -931 2258
1015 -927 2244
1022 -927 2240
1032 -929 2243
1041 -931 2244
1048 -930 2238
1060 -934 2245
1063 -930 2233
1071 -931 2232
1064 -919 2199
1007 -863 2063
929 -790 1886
898 -759 1807
896 -752 1789
904 -754 1790
914 -757 1795
919 -757 1791
924 -755 1785
924 -751 1773
939 -758 1787
940 -754 1773
938 -747 1755
952 -754 1768
959 -755 1768
970 -759 1774
974 -757 1766
967 -748 1741
973 -747 1737
984 -751 1743
987 -749 1735
994 -750 1733
1001 -751 1733
999 -745 1716
1004 -744 1711
1019 -751 1723
1023 -749 1716
1025 -747 1708
-2108 -1448 3389
-2087 -1442 3380
-2064 -1434 3367
-2042 -1427 3358
-2032 -1428 3365
-2007 -1419 3349
-1972 -1402 3316
-1945 -1391 3295
-1914 -1377 3268
-1904 -1378 3276
-1877 -1367 3254
-1870 -1370 3267
-1844 -1359 3247
-1827 -1355 3242
-1814 -1353 3244
-1795 -1347 3234
-1773 -1339 3221
-1760 -1338 3222
-1740 -1331 3210
-1726 -1328 3209
-1699 -1316 3185
-1702 -1327 3216
-1681 -1319 3201
-1668 -1317 3201
-1659 -1318 3209
-1648 -1318 3214
-1613 -1299 3172
-1545 -1252 3062
-1500 -1225 2998
-1485 -1220 2992
-1468 -1214 2981
-1463 -1218 2995
-1462 -1226 3018
-1445 -1220 3008
-1432 -1217 3005
-1426 -1221 3018
-1411 -1216 3011
-1402 -1218 3019
-1382 -1209 2999
-1373 -1210 3006
-1360 -1207 3002
-1350 -1206 3005
-1335 -1202 2999
-1319 -1197 2989
-1297 -1185 2964
-1282 -1180 2955
-1273 -1181 2961
-1263 -1181 2962
-1256 -1184 2973
-1256 -1193 3000
-1257 -1203 3029
-1251 -1207 3042
-1253 -1218 3073
-1227 -1202 3037
-1123 -1110 2806
-994 -991 2508
-892 -896 2271
-1007 -1019 2586
-1125 -1149 2918
-1153 -1187 3017
-1141 -1185 3015
-1129 -1183 3013
-1120 -1183 3016
-1110 -1183 3018
-1094 -1176 3004
-1084 -1175 3006
-1071 -1172 3000
-1061 -1171 3001
-1046 -1166 2989
-1035 -1164 2987
-1022 -1159 2979
-1007 -1153 2966
-998 -1154 2971
-989 -1155 2974
-976 -1150 2964
-965 -1148 2962
-952 -1144 2954
-941 -1142 2951
-927 -1137 2941
-921 -1141 2953
-909 -1137 2945
-897 -1133 2939
-885 -1130 2933
-872 -1125 2921
-864 -1127 2929
-848 -1117 2906
-839 -1118 2910
-827 -1114 2900
-818 -1115 2904
-807 -1112 2899
-798 -1112 2901
-785 -1107 2890
-776 -1106 2890
-764 -1101 2880
-754 -1101 2880
-745 -1100 2879
-732 -1095 2869
-725 -1097 2874
-715 -1096 2874
-703 -1090 2861
-691 -1087 2854
-682 -1086 2853
-674 -1087 2856
-663 -1084 2852
-653 -1082 2849
-645 -1083 2852
-637 -1084 2855
-625 -1078 2842
-613 -1074 2833
-606 -1077 2842
-595 -1073 2833
-585 -1070 2827
-577 -1072 2834
-567 -1068 2825
-556 -1065 2816
-546 -1063 2812
-539 -1065 2820
-527 -1059 2803
-520 -1061 2812
-509 -1058 2804
-498 -1053 2792
-491 -1055 2799
-483 -1056 2803
-472 -1052 2793
-464 -1053 2797
-454 -1048 2785
-445 -1048 2784
-436 -1047 2783
-427 -1046 2781
-419 -1047 2785
-407 -1039 2763
-401 -1044 2778
-389 -1036 2757
-381 -1037 2763
-372 -1034 2753
-363 -1034 2755
-353 -1028 2741
-346 -1033 2754
-337 -1029 2744
-327 -1027 2738
-318 -1024 2731
-310 -1023 2730
-301 -1023 2730
-294 -1025 2735
-284 -1019 2721
-277 -1026 2739
-268 -1021 2727
-258 -1017 2716
-251 -1019 2722
-241 -1015 2713
-233 -1013 2707
-225 -1014 2711
-217 -1015 2714
-207 -1009 2698
-198 -1005 2688
-190 -1007 2693
-183 -1009 2698
-174 -1004 2685
-166 -1004 2687
-157 -1005 2688
-149 -1000 2676
-141 -1004 2687
-133 -1001 2678
-124 -998 2670
-116 -998 2670
-108 -997 2668
-99 -995 2662
-92 -999 2673
-83 -993 2657
-75 -996 2666
-67 -994 2660
-59 -994 2661
-51 -990 2649
-43 -988 2644
-35 -989 2647
-27 -986 2640
-19 -986 2638
-11 -985 2636
-3 -982 2627
4 -983 2631
12 -981 2625
20 -981 2625
28 -979 2619
36 -980 2621
44 -978 2616
51 -977 2612
59 -976 2610
67 -978 2615
75 -974 2604
83 -972 2599
91 -973 2601
98 -973 2600
106 -972 2598
114 -969 2589
122 -970 2589
130 -970 2591
137 -966 2578
145 -969 2586
153 -969 2585
160 -966 2577
168 -965 2573
176 -966 2576
183 -962 2565
191 -965 2571
198 -962 2562
206 -963 2565
214 -962 2562
220 -957 2547
228 -958 2549
235 -955 2542
244 -959 2551
251 -956 2542
258 -955 2538
266 -955 2537
274 -954 2535
282 -956 2539
289 -953 2531
296 -952 2527
303 -950 2521
311 -952 2525
318 -950 2517
326 -950 2517
333 -949 2514
341 -950 2515
349 -950 2514
355 -947 2505
362 -945 2498
370 -946 2500
377 -944 2495
386 -947 2499
393 -946 2497
400 -943 2489
408 -944 2490
415 -944 2489
421 -941 2478
429 -942 2480
437 -941 2477
446 -945 2485
452 -941 2474
458 -939 2468
466 -939 2465
473 -938 2462
481 -939 2462
487 -936 2454
494 -935 2449
502 -936 2451
510 -937 2451
516 -935 2445
525 -937 2448
532 -935 2443
538 -934 2439
546 -935 2439
554 -936 2440
559 -932 2427
566 -931 2423
576 -934 2429
581 -931 2419
589 -931 2419
597 -932 2418
605 -934 2421
609 -928 2404
618 -930 2408
624 -927 2400
632 -929 2402
641 -930 2404
649 -932 2407
657 -932 2404
661 -927 2389
670 -929 2394
673 -924 2379
680 -924 2375
690 -927 2381
701 -931 2390
706 -928 2381
712 -926 2374
719 -925 2369
728 -927 2372
736 -928 2372
742 -926 2365
747 -924 2357
758 -929 2366
765 -927 2360
771 -926 2355
780 -927 2356
786 -926 2350
793 -925 2347
798 -923 2339
806 -923 2336
813 -923 2334
822 -924 2335
832 -928 2341
837 -925 2332
844 -925 2328
851 -924 2325
861 -927 2328
864 -923 2315
874 -925 2318
877 -921 2306
888 -925 2312
895 -924 2308
903 -924 2306
907 -922 2296
917 -924 2299
925 -925 2298
929 -921 2288
941 -925 2295
947 -924 2288
955 -925 2287
963 -926 2287
971 -926 2284
979 -927 2284
982 -922 2269
989 -922 2267
994 -920 2259
1006 -925 2266
1010 -921 2254
1017 -921 2250
1037 -932 2275
1028 -918 2237
1041 -922 2245
1050 -925 2247
1055 -923 2239
1062 -922 2233
1073 -925 2239
1076 -922 2226
1020 -867 2092
942 -795 1914
895 -750 1803
901 -750 1801
902 -746 1788
898 -738 1766
914 -747 1784
923 -749 1787
925 -746 1777
927 -743 1766
945 -752 1786
942 -745 1765
953 -749 1772
952 -744 1757
965 -749 1766
968 -747 1758
971 -745 1750
976 -743 1744
985 -746 1747
981 -738 1726
997 -746 1741
997 -742 1728
1007 -744 1731
1009 -742 1723
1021 -747 1730
1013 -736 1702
1033 -746 1722
-2094 -1427 3370
-2090 -1432 3389
-2069 -1426 3381
-2042 -1416 3362
-2024 -1411 3358
-2002 -1404 3346
-1977 -1394 3328
-1944 -1379 3299
-1922 -1372 3287
-1901 -1365 3276
-1881 -1359 3266
-1866 -1356 3264
-1843 -1347 3250
-1813 -1334 3222
-1809 -1339 3239
-1787 -1331 3225
-1778 -1332 3233
-1752 -1321 3212
-1733 -1315 3202
-1721 -1314 3205
-1713 -1316 3214
-1691 -1307 3199
-1686 -1312 3214
-1672 -1309 3212
-1657 -1307 3211
-1636 -1298 3195
-1591 -1271 3132
-1520 -1222 3016
-1488 -1204 2977
-1483 -1208 2991
-1469 -1205 2987
-1464 -1209 3001
-1451 -1207 3000
-1443 -1208 3007
-1440 -1215 3027
-1421 -1207 3012
-1406 -1202 3004
-1406 -1211 3030
-1390 -1206 3021
-1372 -1199 3007
-1356 -1193 2997
-1349 -1196 3008
-1325 -1183 2980
-1311 -1180 2974
-1299 -1178 2972
-1281 -1171 2958
-1269 -1168 2954
-1264 -1173 2970
-1258 -1176 2982
-1245 -1172 2977
-1242 -1179 2996
-1246 -1192 3032
-1228 -1184 3016
-1208 -1175 2996
-1158 -1135 2897
-1051 -1038 2653
-908 -905 2315
-914 -918 2350
-1068 -1081 2772
-1144 -1168 2998
-1140 -1174 3017
-1132 -1176 3023
-1115 -1168 3006
-1106 -1169 3013
-1094 -1167 3009
-1082 -1164 3003
-1069 -1160 2997
-1059 -1159 2998
-1043 -1153 2985
-1033 -1152 2985
-1023 -1152 2987
-1012 -1150 2985
-997 -1144 2971
-985 -1140 2964
-974 -1138 2961
-964 -1138 2964
-956 -1139 2969
-941 -1132 2954
-929 -1129 2948
-916 -1125 2940
-907 -1126 2944
-895 -1122 2936
-883 -1119 2929
-873 -1117 2927
-859 -1112 2916
-850 -1111 2915
-836 -1105 2902
-826 -1104 2901
-814 -1100 2894
-802 -1096 2886
-795 -1099 2893
-783 -1095 2886
-773 -1093 2883
-763 -1092 2882
-754 -1091 2882
-741 -1086 2870
-729 -1081 2859
-721 -1083 2865
-713 -1084 2870
-705 -1086 2875
-695 -1083 2870
-683 -1079 2861
-673 -1076 2856
-665 -1078 2861
-653 -1073 2851
-644 -1073 2852
-634 -1070 2845
-626 -1072 2851
-614 -1066 2837
-603 -1063 2831
-593 -1060 2824
-584 -1059 2823
-575 -1058 2822
-566 -1059 2827
-556 -1056 2820
-547 -1056 2820
-539 -1057 2825
-528 -1051 2809
-517 -1047 2799
-510 -1050 2808
-500 -1047 2802
-491 -1048 2804
-483 -1048 2808
-470 -1039 2784
-462 -1040 2786
-453 -1038 2782
-445 -1039 2785
-435 -1035 2777
-425 -1034 2774
-416 -1032 2770
-407 -1030 2767
-399 -1030 2766
-389 -1026 2756
-380 -1026 2757
-372 -1027 2762
-363 -1024 2755
-355 -1025 2757
-347 -1026 2760
-337 -1021 2748
-328 -1019 2743
-320 -1020 2746
-310 -1018 2740
-301 -1014 2732
-293 -1015 2734
-283 -1010 2722
-275 -1009 2719
-267 -1012 2727
-259 -1010 2723
-249 -1006 2713
-241 -1006 2712
-232 -1001 2701
-224 -1004 2708
-216 -1003 2705
-207 -1000 2697
-199 -1000 2699
-190 -998 2694
-182 -995 2687
-174 -998 2695
-165 -996 2689
-157 -994 2683
-149 -994 2685
-140 -991 2677
-132 -993 2681
-124 -991 2677
-116 -987 2667
-108 -991 2676
-100 -989 2671
-91 -985 2661
-83 -984 2658
-75 -984 2658
-67 -986 2663
-59 -981 2651
-51 -981 2649
-43 -979 2644
-35 -979 2645
-27 -979 2643
-19 -979 2645
-11 -973 2627
-3 -975 2634
4 -976 2634
12 -972 2625
20 -972 2623
28 -971 2620
36 -972 2623
43 -965 2604
52 -969 2616
59 -967 2608
67 -968 2610
75 -964 2600
83 -968 2610
90 -962 2595
98 -963 2597
106 -962 2594
113 -959 2583
122 -961 2590
129 -959 2583
137 -960 2587
144 -956 2576
152 -956 2574
160 -956 2575
168 -957 2575
175 -953 2565
183 -954 2567
191 -954 2566
197 -947 2547
206 -953 2561
213 -950 2553
221 -951 2554
228 -948 2546
236 -950 2550
244 -951 2551
251 -948 2543
258 -947 2541
266 -947 2539
274 -947 2538
281 -944 2529
288 -943 2527
296 -946 2533
303 -941 2520
311 -944 2526
318 -941 2516
325 -941 2516
333 -941 2515
340 -939 2509
348 -939 2508
355 -938 2503
364 -941 2511
369 -934 2490
377 -935 2493
384 -936 2493
392 -935 2490
400 -937 2493
407 -936 2490
414 -933 2481
420 -929 2471
427 -930 2471
436 -932 2475
443 -931 2472
451 -932 2474
458 -930 2466
464 -929 2461
474 -932 2468
479 -928 2457
487 -929 2457
495 -929 2457
502 -930 2456
509 -928 2450
516 -926 2444
524 -928 2447
531 -926 2442
538 -925 2437
546 -927 2441
550 -921 2423
559 -924 2429
567 -925 2430
576 -926 2431
582 -925 2426
590 -925 2424
596 -922 2416
603 -923 2416
610 -922 2412
617 -921 2407
624 -920 2402
631 -919 2399
638 -919 2396
648 -923 2404
655 -922 2401
662 -921 2396
668 -920 2390
676 -920 2389
682 -919 2385
689 -918 2381
697 -919 2380
704 -919 2378
714 -922 2383
716 -915 2363
727 -919 2373
733 -917 2365
741 -918 2367
748 -917 2361
756 -918 2361
762 -917 2356
767 -914 2346
776 -916 2348
784 -917 2348
790 -915 2341
800 -917 2345
806 -916 2341
814 -917 2339
824 -919 2343
827 -915 2329
833 -913 2323
843 -916 2327
852 -918 2330
856 -914 2318
866 -917 2323
870 -914 2311
880 -917 2316
886 -915 2310
897 -918 2314
903 -917 2308
908 -915 2301
914 -913 2294
922 -914 2293
933 -918 2300
938 -915 2291
945 -915 2286
954 -917 2288
958 -913 2276
970 -918 2285
976 -917 2279
980 -914 2269
986 -912 2262
994 -913 2260
1002 -914 2260
1009 -913 2255
1014 -911 2247
1013 -904 2226
1027 -909 2236
1042 -916 2251
1049 -916 2247
1057 -916 2244
1063 -915 2238
1067 -912 2228
1070 -909 2216
1028 -867 2111
951 -796 1936
894 -744 1805
900 -744 1802
904 -742 1795
904 -737 1781
911 -738 1780
921 -741 1784
922 -737 1772
923 -733 1760
940 -742 1777
941 -738 1766
949 -739 1766
951 -737 1757
956 -736 1752
969 -741 1761
974 -741 1758
976 -738 1747
976 -734 1734
983 -734 1733
992 -737 1735
1000 -738 1735
1000 -734 1722
1006 -734 1719
1011 -733 1715
1019 -735 1715
1024 -734 1710
-2091 -1413 3371
-2077 -1411 3372
-2063 -1410 3376
-2044 -1405 3369
-2030 -1403 3371
-1993 -1386 3335
-1956 -1369 3299
-1937 -1363 3291
-1910 -1352 3271
-1890 -1346 3261
-1875 -1343 3259
-1860 -1340 3258
-1845 -1337 3256
-1831 -1336 3258
-1803 -1323 3233
-1788 -1320 3231
-1768 -1314 3219
-1755 -1312 3220
-1740 -1309 3218
-1719 -1302 3205
-1702 -1297 3198
-1694 -1299 3208
-1690 -1304 3226
-1669 -1296 3211
-1656 -1295 3212
-1637 -1288 3200
-1579 -1251 3113
-1523 -1215 3027
-1487 -1193 2978
-1480 -1196 2989
-1469 -1195 2991
-1466 -1201 3009
-1453 -1199 3008
-1446 -1201 3018
-1432 -1198 3013
-1422 -1198 3017
-1409 -1195 3015
-1397 -1193 3014
-1382 -1189 3008
-1367 -1185 3001
-1361 -1188 3013
-1340 -1179 2993
-1323 -1172 2979
-1305 -1164 2963
-1299 -1168 2976
-1284 -1163 2966
-1273 -1162 2967
-1266 -1164 2977
-1252 -1160 2970
-1243 -1161 2976
-1240 -1168 2996
-1228 -1166 2994
-1217 -1165 2994
-1203 -1160 2986
-1185 -1152 2968
-1099 -1077 2777
-986 -974 2516
-881 -878 2271
-991 -995 2576
-1114 -1128 2923
-1135 -1159 3006
-1120 -1154 2995
-1116 -1159 3012
-1103 -1156 3007
-1090 -1152 2999
-1078 -1150 2996
-1067 -1149 2997
-1055 -1146 2992
-1045 -1145 2993
-1031 -1140 2982
-1020 -1138 2980
-1010 -1138 2983
-994 -1130 2964
-988 -1134 2976
-974 -1130 2967
-961 -1125 2958
-950 -1124 2956
-939 -1121 2951
-927 -1117 2944
-919 -1119 2952
-905 -1113 2938
-893 -1111 2934
-879 -1105 2920
-869 -1103 2918
-858 -1100 2913
-849 -1101 2917
-835 -1095 2902
-822 -1090 2891
-816 -1093 2903
-805 -1090 2896
-792 -1086 2887
-782 -1084 2884
-772 -1082 2881
-763 -1082 2882
-754 -1082 2885
-744 -1082 2885
-731 -1075 2870
-723 -1077 2875
-713 -1075 2873
-702 -1072 2866
-692 -1070 2862
-681 -1066 2854
-672 -1067 2857
-662 -1064 2851
-652 -1062 2847
-644 -1063 2852
-631 -1058 2838
-624 -1060 2845
-614 -1057 2840
-603 -1053 2831
-593 -1052 2830
-585 -1053 2833
-574 -1049 2823
-566 -1049 2826
-554 -1044 2812
-545 -1043 2810
-538 -1046 2821
-526 -1039 2803
-518 -1042 2811
-507 -1037 2799
-497 -1034 2791
-489 -1034 2794
-479 -1032 2788
-470 -1030 2785
-462 -1030 2787
-453 -1031 2790
-443 -1026 2777
-435 -1027 2780
-426 -1026 2778
-417 -1025 2776
-408 -1024 2774
-399 -1021 2769
-389 -1019 2762
-381 -1020 2768
-371 -1015 2754
-362 -1014 2753
-354 -1015 2754
-345 -1012 2748
-337 -1014 2754
-327 -1010 2743
-319 -1010 2744
-309 -1004 2729
-301 -1006 2733
-293 -1007 2738
-283 -1002 2725
-275 -1002 2726
-267 -1002 2726
-258 -998 2715
-250 -1000 2721
-242 -1000 2721
-232 -996 2711
-223 -993 2702
-216 -997 2713
-207 -993 2703
-199 -991 2700
-190 -990 2698
-182 -989 2694
-173 -986 2687
-165 -983 2679
-157 -989 2694
-149 -986 2688
-140 -984 2681
-132 -982 2677
-124 -982 2677
-116 -981 2674
-107 -979 2668
-99 -979 2668
-91 -976 2661
-83 -978 2665
-75 -975 2657
-67 -972 2649
-59 -975 2658
-51 -974 2655
-43 -972 2649
-35 -967 2637
-27 -971 2647
-19 -970 2643
-11 -967 2636
-3 -968 2639
4 -961 2617
12 -963 2623
20 -967 2634
28 -964 2627
36 -963 2623
43 -956 2605
51 -959 2610
60 -962 2619
67 -958 2608
75 -957 2604
83 -957 2603
91 -956 2603
98 -955 2599
106 -952 2591
114 -954 2594
122 -953 2591
129 -950 2584
137 -950 2584
145 -952 2588
152 -950 2582
160 -947 2573
168 -948 2574
175 -944 2564
182 -944 2563
190 -944 2562
198 -943 2558
206 -944 2560
213 -940 2550
221 -943 2556
228 -942 2552
236 -941 2549
243 -940 2547
251 -939 2543
258 -938 2538
266 -939 2540
273 -935 2531
281 -936 2532
288 -935 2527
296 -937 2531
302 -932 2517
310 -933 2519
317 -931 2513
325 -932 2514
333 -932 2514
340 -930 2509
348 -932 2511
354 -929 2502
362 -928 2500
370 -929 2500
378 -930 2502
384 -927 2493
393 -931 2503
398 -924 2482
406 -925 2485
413 -924 2479
422 -927 2487
429 -925 2480
434 -921 2469
443 -924 2474
449 -921 2464
458 -923 2469
465 -923 2468
471 -919 2457
479 -920 2458
486 -920 2456
494 -920 2455
503 -922 2460
509 -921 2454
515 -917 2442
523 -919 2445
528 -914 2432
535 -914 2429
546 -919 2440
552 -916 2432
559 -916 2430
564 -912 2419
576 -919 2433
580 -914 2420
587 -913 2415
595 -914 2416
602 -913 2412
612 -916 2419
618 -914 2412
625 -914 2410
631 -912 2401
639 -913 2403
645 -911 2396
655 -915 2405
661 -912 2395
669 -913 2395
676 -913 2392
684 -914 2393
690 -911 2384
698 -913 2386
703 -909 2375
710 -909 2371
718 -910 2373
725 -909 2369
734 -911 2372
741 -910 2366
745 -906 2354
754 -908 2356
760 -906 2350
767 -906 2348
776 -908 2350
783 -907 2346
790 -907 2344
799 -909 2346
803 -905 2332
812 -907 2337
820 -908 2335
826 -907 2330
835 -908 2331
842 -908 2328
849 -908 2325
856 -907 2320
864 -908 2320
873 -910 2322
879 -907 2314
885 -907 2309
891 -905 2304
905 -912 2317
911 -910 2310
917 -909 2304
924 -909 2301
930 -908 2295
937 -907 2291
943 -906 2284
952 -907 2285
956 -904 2275
965 -905 2275
974 -907 2276
983 -908 2277
989 -907 2271
992 -903 2257
1000 -904 2256
1006 -903 2250
1012 -902 2246
1007 -891 2215
1030 -904 2245
1039 -906 2246
1049 -908 2249
1051 -904 2235
1062 -907 2240
1068 -906 2233
1070 -901 2218
1038 -868 2134
964 -801 1965
906 -747 1830
898 -735 1799
907 -738 1803
910 -736 1795
913 -733 1785
914 -729 1773
925 -734 1781
931 -734 1777
930 -728 1762
949 -739 1784
940 -727 1752
948 -728 1752
967 -738 1774
962 -730 1752
975 -735 1760
978 -733 1753
982 -732 1747
977 -724 1724
989 -728 1731
1003 -734 1742
1001 -728 1726
995 -720 1703
1014 -730 1722
1015 -726 1710
1021 -726 1708
-2091 -1401 3374
-2075 -1399 3375
-2050 -1390 3359
-2038 -1389 3364
-2019 -1384 3357
-1993 -1375 3339
-1956 -1357 3302
-1941 -1355 3302
-1909 -1340 3272
-1891 -1335 3266
-1876 -1333 3265
-1846 -1319 3238
-1843 -1325 3257
-1819 -1316 3240
-1803 -1312 3236
-1783 -1306 3226
-1769 -1303 3225
-1755 -1301 3225
-1731 -1292 3206
-1717 -1289 3204
-1703 -1287 3204
-1692 -1287 3209
-1676 -1283 3204
-1668 -1285 3214
-1657 -1284 3217
-1631 -1273 3193
-1591 -1250 3139
-1528 -1209 3041
-1495 -1190 2998
-1482 -1188 2997
-1473 -1188 3002
-1462 -1188 3006
-1457 -1192 3020
-1443 -1188 3014
-1440 -1194 3033
-1420 -1186 3017
-1410 -1186 3020
-1397 -1183 3017
-1379 -1177 3004
-1363 -1172 2995
-1357 -1174 3006
-1340 -1168 2995
-1323 -1163 2983
-1316 -1165 2992
-1301 -1160 2984
-1286 -1156 2976
-1283 -1162 2996
-1260 -1150 2968
-1250 -1149 2969
-1241 -1149 2974
-1234 -1152 2983
-1223 -1151 2985
-1220 -1157 3003
-1202 -1149 2986
-1183 -1140 2967
-1154 -1122 2921
-1038 -1017 2651
-918 -907 2367
-904 -901 2353
-1061 -1066 2787
-1126 -1141 2987
-1123 -1148 3007
-1111 -1145 3002
-1099 -1142 2999
-1090 -1143 3003
-1076 -1139 2995
-1065 -1137 2995
-1053 -1134 2989
-1044 -1135 2993
-1029 -1129 2979
-1017 -1126 2975
-1007 -1126 2977
-993 -1121 2967
-984 -1121 2969
-971 -1116 2959
-954 -1108 2940
-949 -1113 2956
-936 -1108 2945
-924 -1105 2939
-913 -1103 2937
-903 -1102 2935
-890 -1097 2925
-880 -1096 2925
-864 -1088 2904
-856 -1089 2910
-845 -1087 2906
-837 -1088 2910
-827 -1087 2911
-814 -1081 2898
-804 -1081 2898
-796 -1082 2903
-783 -1076 2889
-777 -1080 2902
-763 -1074 2887
-751 -1070 2877
-746 -1075 2893
-732 -1068 2876
-725 -1070 2885
-711 -1063 2866
-703 -1065 2873
-691 -1060 2862
-681 -1059 2860
-671 -1056 2854
-662 -1056 2855
-652 -1053 2850
-641 -1050 2843
-631 -1049 2841
-623 -1050 2845
-615 -1050 2848
-601 -1042 2827
-592 -1042 2828
-585 -1044 2835
-573 -1038 2821
-565 -1040 2828
-556 -1039 2825
-543 -1031 2805
-536 -1034 2814
-526 -1031 2806
-515 -1027 2797
-507 -1028 2802
-497 -1025 2794
-489 -1025 2795
-480 -1025 2795
-470 -1023 2791
-461 -1020 2783
-452 -1020 2785
-443 -1018 2782
-434 -1016 2777
-424 -1014 2772
-416 -1016 2777
-407 -1012 2768
-399 -1015 2777
-390 -1012 2770
-380 -1009 2763
-370 -1005 2752
-363 -1007 2759
-353 -1004 2750
-345 -1003 2749
-336 -1002 2745
-327 -1001 2744
-318 -999 2740
-310 -999 2741
-301 -996 2733
-292 -996 2734
-284 -995 2732
-274 -990 2716
-266 -992 2723
-258 -990 2718
-249 -988 2715
-241 -989 2717
-232 -985 2707
-224 -985 2707
-215 -984 2703
-207 -983 2701
-198 -980 2694
-189 -977 2686
-182 -983 2703
-173 -974 2679
-165 -979 2692
-157 -976 2685
-149 -977 2687
-140 -975 2681
-132 -974 2680
-124 -973 2677
-115 -969 2666
-108 -972 2673
-99 -969 2667
-91 -965 2654
-83 -966 2659
-75 -965 2655
-67 -964 2653
-59 -962 2648
-51 -963 2648
-43 -962 2647
-35 -963 2648
-27 -959 2638
-19 -961 2643
-11 -961 2644
-3 -955 2625
4 -956 2630
12 -961 2641
20 -954 2623
28 -953 2621
36 -956 2628
44 -951 2615
52 -952 2617
59 -948 2604
67 -950 2610
75 -948 2603
83 -948 2604
90 -947 2600
98 -948 2603
106 -943 2589
113 -942 2586
121 -939 2578
130 -946 2596
137 -941 2581
144 -940 2579
152 -941 2581
160 -941 2580
168 -940 2576
175 -939 2574
182 -935 2562
190 -936 2565
198 -938 2568
205 -935 2559
213 -933 2553
220 -932 2550
228 -932 2550
235 -931 2545
243 -932 2548
250 -929 2538
258 -928 2535
266 -931 2542
273 -928 2532
281 -930 2538
288 -927 2529
295 -926 2525
303 -927 2528
310 -923 2516
317 -924 2518
325 -925 2519
332 -923 2511
340 -922 2510
348 -923 2511
355 -921 2505
362 -921 2502
370 -921 2502
377 -921 2502
384 -920 2497
392 -921 2498
399 -919 2491
405 -914 2478
413 -916 2481
421 -917 2484
428 -916 2479
437 -919 2485
444 -917 2480
450 -915 2471
456 -912 2462
465 -914 2467
472 -913 2463
479 -913 2462
487 -913 2459
494 -913 2458
499 -908 2444
507 -909 2445
513 -907 2438
522 -908 2440
529 -908 2436
535 -906 2431
544 -909 2437
552 -909 2435
558 -907 2428
568 -911 2438
573 -907 2424
580 -907 2423
587 -905 2416
594 -905 2415
603 -907 2418
610 -907 2416
615 -902 2402
624 -906 2409
632 -905 2407
639 -905 2404
646 -905 2402
652 -902 2393
659 -903 2392
666 -902 2387
675 -903 2389
682 -904 2388
688 -901 2379
697 -903 2384
701 -899 2370
711 -903 2378
718 -902 2373
722 -897 2359
731 -900 2364
740 -902 2368
745 -899 2358
752 -898 2353
757 -896 2345
769 -901 2356
775 -900 2350
784 -901 2351
790 -900 2346
801 -903 2353
804 -899 2340
813 -900 2340
819 -899 2335
826 -899 2332
832 -897 2324
842 -900 2328
846 -897 2319
854 -898 2318
862 -898 2316
870 -899 2316
877 -899 2313
886 -900 2314
894 -901 2313
901 -901 2310
910 -902 2310
917 -901 2306
924 -901 2304
931 -901 2299
934 -897 2286
945 -900 2293
949 -897 2281
959 -900 2285
967 -900 2284
972 -898 2274
979 -898 2271
986 -897 2267
994 -898 2265
1000 -896 2258
1007 -897 2257
1012 -894 2247
1016 -891 2236
1025 -893 2237
1040 -899 2251
1052 -904 2258
1057 -901 2249
1059 -897 2235
1068 -899 2236
1071 -895 2223
1047 -869 2156
977 -804 1993
909 -743 1838
889 -722 1784
906 -731 1803
904 -725 1784
911 -726 1785
912 -722 1772
922 -725 1776
922 -721 1763
938 -728 1778
941 -726 1770
947 -726 1766
951 -724 1760
958 -725 1760
963 -724 1754
972 -727 1758
976 -726 1752
982 -726 1748
978 -719 1728
992 -724 1739
994 -721 1728
1000 -722 1727
1007 -722 1725
1005 -717 1708
1027 -728 1732
1016 -717 1701
-2095 -1392 3385
-2077 -1388 3381
-2056 -1382 3373
-2041 -1380 3373
-2006 -1364 3341
-1981 -1355 3323
-1950 -1342 3297
-1938 -1341 3301
-1907 -1327 3273
-1881 -1317 3254
-1869 -1317 3257
-1854 -1314 3256
-1836 -1309 3250
-1819 -1305 3245
-1800 -1299 3235
-1784 -1296 3232
-1762 -1288 3218
-1736 -1277 3194
-1736 -1285 3220
-1715 -1277 3205
-1704 -1277 3210
-1689 -1274 3207
-1675 -1271 3206
-1665 -1272 3211
-1650 -1269 3209
-1634 -1264 3202
-1596 -1244 3155
-1557 -1221 3102
-1501 -1185 3013
-1479 -1175 2994
-1472 -1178 3006
-1461 -1177 3006
-1454 -1179 3016
-1449 -1183 3031
-1444 -1188 3046
-1423 -1179 3028
-1407 -1174 3018
-1387 -1166 3001
-1378 -1166 3007
-1365 -1163 3003
-1353 -1161 3001
-1342 -1161 3004
-1331 -1160 3004
-1318 -1157 3002
-1306 -1155 2999
-1300 -1159 3013
-1291 -1159 3017
-1275 -1154 3006
-1266 -1154 3010
-1254 -1153 3010
-1242 -1150 3007
-1232 -1150 3010
-1220 -1147 3007
-1208 -1146 3006
-1193 -1141 2996
-1175 -1132 2977
-1104 -1073 2824
-994 -974 2566
-887 -877 2313
-987 -983 2596
-1099 -1104 2917
-1119 -1134 3000
-1109 -1134 3002
-1098 -1132 3000
-1086 -1129 2996
-1079 -1133 3007
-1066 -1129 3000
-1051 -1123 2988
-1038 -1118 2978
-1025 -1115 2972
-1015 -1114 2973
-1004 -1112 2970
-994 -1112 2970
-980 -1107 2961
-967 -1103 2952
-957 -1102 2951
-946 -1100 2950
-938 -1102 2956
-920 -1091 2930
-914 -1095 2943
-903 -1092 2938
-889 -1087 2925
-878 -1085 2922
-865 -1080 2911
-857 -1081 2917
-849 -1082 2922
-834 -1075 2905
-827 -1077 2912
-815 -1075 2907
-806 -1074 2907
-795 -1071 2901
-782 -1066 2890
-772 -1065 2889
-762 -1063 2885
-751 -1060 2879
-740 -1057 2873
-731 -1057 2874
-721 -1056 2872
-712 -1055 2873
-702 -1053 2869
-689 -1048 2855
-682 -1051 2865
-671 -1048 2859
-661 -1046 2856
-650 -1041 2844
-641 -1042 2848
-629 -1037 2835
-622 -1039 2842
-612 -1037 2838
-601 -1034 2831
-593 -1034 2832
-582 -1030 2822
-572 -1028 2819
-563 -1027 2816
-552 -1023 2809
-544 -1023 2810
-535 -1023 2811
-527 -1025 2815
-519 -1025 2818
-508 -1021 2807
-499 -1021 2808
-489 -1017 2799
-479 -1015 2794
-471 -1016 2798
-461 -1013 2791
-452 -1012 2790
-444 -1011 2788
-433 -1006 2775
-424 -1006 2775
-416 -1005 2774
-407 -1005 2776
-396 -998 2757
-388 -999 2758
-378 -996 2752
-371 -999 2761
-362 -996 2753
-351 -991 2740
-344 -995 2752
-335 -992 2745
-327 -992 2744
-318 -991 2744
-310 -990 2742
-300 -986 2732
-292 -988 2736
-283 -985 2729
-274 -983 2723
-266 -982 2722
-258 -983 2724
-249 -979 2714
-240 -977 2708
-231 -974 2701
-223 -976 2707
-216 -979 2715
-207 -975 2705
-198 -971 2693
-190 -972 2697
-181 -970 2693
-173 -970 2693
-165 -968 2686
-156 -964 2675
-148 -968 2686
-140 -965 2679
-132 -964 2677
-124 -963 2673
-115 -961 2669
-107 -961 2669
-99 -962 2670
-91 -959 2663
-83 -957 2658
-74 -952 2644
-67 -955 2651
-59 -955 2650
-50 -954 2648
-42 -952 2644
-34 -951 2640
-27 -952 2644
-19 -951 2639
-11 -950 2636
-3 -947 2627
4 -948 2630
12 -947 2627
20 -946 2625
28 -945 2621
36 -944 2619
44 -943 2615
51 -940 2607
59 -943 2615
67 -938 2600
75 -940 2608
82 -936 2596
91 -941 2607
98 -939 2602
106 -934 2589
114 -935 2592
121 -933 2583
129 -936 2591
137 -935 2588
144 -932 2579
152 -932 2578
160 -930 2575
167 -930 2574
175 -932 2577
183 -929 2570
190 -928 2566
197 -926 2560
205 -927 2561
213 -928 2565
220 -923 2550
228 -923 2549
235 -923 2548
243 -924 2550
251 -923 2545
258 -922 2541
265 -919 2534
272 -917 2527
280 -917 2526
288 -919 2530
295 -918 2527
302 -915 2519
310 -917 2522
316 -912 2508
323 -911 2504
332 -913 2509
339 -912 2503
348 -916 2515
353 -909 2494
362 -912 2502
369 -912 2502
376 -912 2498
384 -912 2498
390 -907 2483
397 -907 2482
406 -909 2486
412 -905 2476
421 -910 2485
428 -908 2480
435 -908 2478
441 -905 2468
450 -907 2473
457 -906 2469
465 -907 2471
470 -902 2456
478 -903 2458
484 -901 2449
491 -900 2446
500 -901 2449
508 -902 2449
516 -904 2452
522 -900 2441
532 -905 2453
537 -902 2442
545 -902 2442
552 -901 2436
558 -899 2430
565 -899 2428
572 -897 2422
581 -900 2426
586 -897 2417
592 -894 2409
601 -897 2414
608 -896 2410
617 -898 2412
621 -894 2400
630 -896 2404
636 -894 2396
645 -896 2400
651 -893 2391
660 -896 2396
667 -896 2395
671 -891 2380
680 -893 2384
686 -891 2375
697 -895 2385
702 -892 2375
708 -891 2370
718 -894 2374
725 -894 2372
732 -893 2368
738 -892 2364
743 -889 2353
752 -890 2355
761 -892 2358
765 -889 2347
773 -890 2347
781 -891 2346
788 -890 2343
794 -889 2337
805 -892 2344
811 -891 2338
817 -890 2332
826 -891 2332
832 -890 2329
841 -891 2329
847 -890 2323
853 -889 2317
863 -892 2322
871 -892 2320
880 -894 2322
884 -890 2310
891 -890 2306
896 -888 2299
907 -891 2304
912 -889 2296
917 -887 2288
927 -890 2293
937 -892 2295
941 -888 2284
951 -892 2289
957 -890 2282
963 -889 2277
972 -890 2276
976 -888 2267
985 -889 2268
991 -888 2262
999 -888 2259
1006 -888 2255
1013 -888 2252
1013 -881 2232
1024 -885 2239
1034 -887 2240
1049 -893 2253
1050 -888 2236
1058 -889 2236
1070 -893 2243
1073 -889 2229
1052 -866 2168
988 -807 2018
913 -741 1849
903 -727 1813
913 -731 1818
908 -722 1795
914 -722 1792
912 -716 1773
920 -717 1774
932 -723 1784
943 -726 1790
938 -718 1766
953 -725 1780
948 -716 1757
957 -719 1760
963 -719 1758
967 -717 1750
972 -717 1747
984 -722 1755
981 -715 1735
987 -715 1733
995 -716 1733
1009 -722 1744
1008 -717 1728
1010 -714 1718
1011 -711 1707
1015 -709 1700
-2084 -1373 3372
-2075 -1375 3382
-2043 -1362 3355
-2030 -1361 3359
-2005 -1352 3342
-1982 -1344 3329
-1949 -1329 3298
-1919 -1317 3273
-1908 -1317 3279
-1882 -1307 3259
-1865 -1303 3255
-1847 -1298 3247
-1827 -1292 3237
-1813 -1289 3237
-1794 -1284 3228
-1780 -1282 3229
-1763 -1277 3222
-1747 -1274 3218
-1731 -1270 3214
-1712 -1264 3204
-1697 -1261 3201
-1689 -1263 3211
-1682 -1266 3223
-1660 -1257 3206
-1647 -1256 3208
-1632 -1252 3203
-1603 -1239 3172
-1571 -1222 3133
-1527 -1195 3070
-1494 -1178 3029
-1472 -1168 3007
-1460 -1166 3007
-1457 -1172 3027
-1453 -1177 3044
-1438 -1173 3037
-1421 -1167 3027
-1407 -1164 3022
-1391 -1159 3011
-1381 -1159 3017
-1370 -1158 3018
-1359 -1157 3020
-1353 -1160 3030
-1341 -1158 3030
-1328 -1156 3026
-1317 -1155 3028
-1304 -1152 3024
-1294 -1152 3028
-1289 -1156 3042
-1269 -1147 3021
-1260 -1148 3028
-1248 -1146 3025
-1241 -1148 3034
-1223 -1141 3019
-1215 -1142 3025
-1202 -1139 3021
-1186 -1134 3010
-1155 -1113 2958
-1072 -1042 2771
-956 -937 2495
-911 -900 2400
-1051 -1048 2795
-1110 -1116 2980
-1108 -1123 3002
-1101 -1125 3011
-1085 -1120 2998
-1072 -1115 2990
-1065 -1119 3001
-1049 -1111 2983
-1040 -1112 2989
-1029 -1110 2987
-1015 -1105 2975
-1002 -1101 2967
-992 -1101 2969
-981 -1099 2966
-967 -1094 2956
-957 -1092 2954
-946 -1091 2952
-938 -1092 2957
-923 -1086 2944
-912 -1083 2939
-900 -1080 2933
-890 -1080 2934
-880 -1078 2931
-868 -1074 2924
-859 -1075 2927
-847 -1071 2920
-837 -1070 2917
-825 -1066 2910
-814 -1064 2906
-804 -1063 2905
-793 -1061 2900
-783 -1059 2897
-773 -1057 2895
-763 -1056 2893
-750 -1051 2880
-743 -1053 2888
-732 -1050 2881
-721 -1047 2876
-710 -1044 2869
-701 -1044 2872
-689 -1039 2859
-680 -1039 2860
-670 -1037 2855
-658 -1032 2844
-650 -1033 2848
-639 -1029 2839
-631 -1031 2845
-621 -1029 2841
-612 -1029 2842
-601 -1024 2830
-590 -1020 2821
-581 -1021 2824
-573 -1020 2825
-564 -1020 2824
-551 -1013 2805
-545 -1018 2822
-534 -1013 2809
-526 -1013 2811
-518 -1015 2817
