VERSION 0.7
FIELDS x y z
SIZE 4 4 4
TYPE I I I
COUNT 1 1 1
WIDTH 3435
HEIGHT 1
VIEWPOINT 0.0 0.0 0.0 1.0 0.0 0.0 0.0
POINTS 3435
DATA ascii
-59 -23 177
-103 -40 309
-53 -21 162
-42 -16 130
-49 -19 154
-60 -24 189
-77 -32 246
-76 -32 246
-48 -20 158
-81 -34 264
-70 -30 233
-79 -34 263
-72 -32 246
-20 -8 73
-1386 -627 4701
-1357 -621 4653
-1347 -622 4670
-1328 -620 4657
-683 -322 2426
-649 -309 2328
-636 -307 2310
-629 -307 2312
-624 -307 2318
-619 -308 2327
-610 -308 2322
-584 -298 2249
-573 -296 2233
-567 -296 2236
-555 -293 2217
-551 -295 2229
-543 -294 2222
-533 -292 2209
-519 -288 2180
-510 -287 2172
-500 -285 2158
-492 -284 2151
-482 -281 2133
-469 -278 2107
-463 -277 2105
-454 -276 2096
-444 -274 2079
-435 -272 2068
-341 -216 1647
-122 -79 607
-111 -73 560
-215 -142 1089
-280 -188 1434
-249 -170 1300
-90 -62 483
-82 -58 447
-133 -96 734
-205 -149 1142
-123 -92 704
-59 -45 349
-44 -34 271
-30 -24 190
0 0 0
2 0 0
0 0 0
-463 -387 2949
-449 -383 2917
-439 -381 2905
-429 -380 2895
-419 -379 2887
-408 -376 2868
-393 -370 2823
-380 -365 2785
0 0 0
-100 -102 784
-59 -62 483
-37 -41 320
-35 -39 308
-63 -70 546
-302 -342 2612
-304 -353 2694
-292 -348 2661
-289 -354 2704
-276 -347 2654
-273 -353 2698
-269 -359 2743
-252 -347 2653
-239 -339 2590
-231 -338 2585
-229 -347 2649
-222 -347 2654
-215 -350 2670
-209 -352 2687
-202 -353 2694
-179 -327 2496
-72 -139 1066
-58 -118 904
-60 -128 980
-56 -125 961
-53 -124 951
-50 -125 957
-47 -125 958
-45 -125 962
-42 -125 958
-38 -122 941
-35 -121 927
-33 -124 952
-30 -123 947
-27 -122 938
-24 -121 933
-22 -122 939
-19 -122 934
-16 -119 913
-13 -121 926
-11 -122 934
-8 -120 924
-5 -121 931
-3 -122 937
0 -122 934
2 -121 926
4 -124 948
7 -124 951
10 -123 947
13 -122 939
15 -122 939
18 -122 938
21 -122 937
23 -121 924
26 -123 939
28 -119 914
32 -123 938
34 -120 918
36 -119 915
38 -117 899
42 -120 917
45 -121 922
47 -121 924
49 -119 906
52 -119 908
55 -120 918
58 -120 915
59 -116 890
63 -121 921
65 -118 901
67 -117 893
73 -124 949
73 -119 905
78 -123 940
69 -104 792
414 -633 4777
414 -612 4621
424 -608 4586
436 -606 4569
444 -598 4510
454 -594 4481
467 -594 4480
478 -592 4458
489 -590 4440
502 -590 4441
515 -590 4441
523 -585 4401
534 -583 4384
548 -584 4391
558 -582 4373
570 -581 4367
578 -576 4324
589 -575 4312
601 -574 4308
611 -572 4291
623 -572 4287
635 -571 4279
645 -569 4259
655 -567 4244
664 -565 4224
678 -566 4233
686 -562 4201
697 -561 4192
706 -559 4171
719 -560 4174
729 -558 4163
736 -554 4131
746 -553 4118
757 -552 4111
769 -552 4108
775 -548 4077
785 -547 4066
796 -546 4057
804 -544 4037
815 -543 4030
824 -541 4012
834 -540 4001
844 -539 3993
850 -535 3962
864 -537 3973
871 -534 3949
881 -533 3941
887 -530 3916
898 -530 3910
908 -529 3899
915 -526 3878
923 -525 3863
937 -526 3873
946 -525 3860
952 -522 3837
958 -519 3813
968 -518 3803
981 -520 3810
992 -520 3806
1032 -534 3911
1068 -547 4003
1033 -524 3827
1018 -510 3725
1028 -510 3720
1043 -512 3733
1047 -508 3703
1057 -508 3697
1059 -504 3665
1075 -506 3677
1095 -510 3706
1102 -509 3691
1112 -508 3684
1127 -510 3695
1137 -510 3688
1147 -509 3682
1167 -513 3708
1174 -512 3691
1185 -512 3688
1200 -513 3697
1223 -519 3732
1231 -517 3720
1250 -521 3739
1275 -527 3777
1276 -522 3744
1303 -529 3785
1302 -524 3746
1327 -529 3782
1329 -526 3753
1357 -532 3796
1377 -536 3815
1386 -535 3805
1413 -541 3843
1423 -540 3835
1432 -539 3824
1463 -547 3873
1467 -544 3847
1503 -553 3909
1548 -565 3990
1544 -559 3945
1531 -550 3877
1549 -553 3887
1547 -548 3848
1563 -549 3855
1579 -551 3860
1580 -547 3830
1606 -552 3859
1631 -557 3887
1658 -562 3918
1682 -566 3942
1696 -567 3941
1702 -565 3923
1742 -574 3982
1766 -578 4003
1768 -575 3975
1774 -573 3957
1819 -583 4025
1819 -579 3991
1819 -575 3959
1810 -569 3908
1811 -565 3878
1824 -566 3876
1835 -566 3869
1856 -568 3881
1871 -569 3881
1879 -568 3869
1899 -570 3879
1914 -571 3880
1927 -571 3875
1932 -570 3856
1960 -574 3881
1974 -575 3879
1983 -574 3867
1997 -574 3864
2017 -577 3873
2034 -578 3876
2048 -579 3873
2056 -577 3859
2078 -580 3872
2095 -582 3874
2118 -585 3887
2131 -585 3882
2135 -583 3860
2169 -589 3894
2171 -586 3867
-1177 -286 2031
-1162 -284 2019
-1111 -273 1946
-1009 -249 1779
-968 -240 1719
-1093 -273 1957
-1130 -284 2037
-1120 -283 2034
-1148 -292 2102
-1156 -296 2131
-1145 -295 2128
-1140 -296 2134
-1133 -295 2136
-1121 -294 2129
-1116 -295 2137
-1112 -296 2145
-1103 -295 2144
-1105 -297 2164
-1100 -298 2172
-1096 -299 2179
-1084 -298 2174
-1064 -294 2150
-994 -276 2023
-1010 -283 2072
-977 -275 2020
-930 -264 1939
-742 -212 1559
-446 -128 945
-371 -107 793
-291 -84 627
-240 -70 523
-60 -17 132
-1973 -588 4345
-1909 -573 4238
-1887 -570 4225
-1913 -582 4317
-861 -263 1961
-897 -277 2060
-712 -221 1649
-220 -68 515
-156 -48 370
-164 -51 390
-257 -81 616
-156 -50 379
-148 -47 361
-146 -47 360
-211 -69 525
-108 -35 273
-116 -38 296
-88 -29 227
-94 -31 244
-58 -19 152
-96 -32 253
-86 -29 230
-69 -23 186
-63 -22 172
-41 -14 114
-59 -21 165
-38 -13 108
-91 -33 255
-59 -21 170
-46 -16 133
-72 -27 211
-30 -11 91
-50 -19 151
-51 -19 155
-50 -19 152
-56 -22 173
-40 -15 126
-40 -16 128
-94 -37 294
-51 -20 162
-79 -32 253
-75 -31 244
-70 -29 231
-105 -44 347
-59 -25 198
-50 -21 173
-17 -7 61
-1382 -612 4691
-1354 -606 4646
-1345 -608 4666
-1336 -610 4686
-651 -300 2310
-648 -302 2326
-639 -301 2320
-632 -301 2324
-626 -302 2328
-619 -301 2327
-611 -301 2325
-587 -292 2259
-568 -287 2215
-567 -289 2236
-554 -286 2214
-548 -287 2218
-545 -288 2231
-531 -284 2203
-520 -282 2184
-510 -280 2170
-502 -279 2164
-488 -275 2135
-484 -276 2146
-474 -274 2130
-463 -271 2108
-455 -271 2102
-445 -268 2085
-432 -264 2055
-351 -217 1692
-121 -76 598
-110 -71 556
-193 -125 980
-281 -185 1444
-274 -183 1428
-102 -69 549
-86 -59 468
-73 -51 409
-70 -50 399
-57 -42 334
-47 -35 279
-26 -20 167
-3 -3 35
0 0 0
-8 -7 66
0 0 0
-462 -377 2941
-450 -375 2925
-439 -373 2906
-428 -371 2893
-422 -373 2907
-407 -367 2863
-396 -365 2847
-373 -351 2739
0 0 0
-139 -137 1076
-92 -94 738
-39 -41 329
-37 -41 326
-44 -49 388
0 0 0
-273 -310 2426
-288 -336 2625
-286 -343 2679
-284 -350 2732
-272 -345 2695
-265 -345 2699
-255 -343 2683
-239 -332 2592
-231 -331 2589
-227 -336 2623
-222 -340 2653
-215 -342 2669
-207 -341 2662
-199 -341 2665
-126 -225 1762
-66 -125 981
-62 -124 972
-59 -123 964
-56 -123 967
-53 -123 965
-49 -120 942
-48 -122 963
-44 -120 948
-40 -116 912
-39 -121 950
-36 -122 960
-33 -121 952
-29 -116 916
-27 -119 934
-24 -117 922
-23 -123 964
-19 -120 940
-16 -119 934
-14 -120 944
-11 -118 925
-8 -119 932
-5 -117 918
-3 -119 934
0 -119 933
2 -119 934
4 -120 939
7 -120 946
10 -119 936
13 -119 937
15 -121 950
18 -121 950
21 -119 936
24 -121 945
26 -119 932
28 -117 916
31 -118 923
34 -117 919
36 -116 912
39 -118 927
41 -117 913
44 -116 908
46 -114 896
50 -117 916
53 -119 928
55 -118 921
57 -116 905
61 -120 934
63 -117 915
65 -116 910
69 -119 931
69 -115 895
73 -116 904
78 -119 931
59 -86 671
407 -609 4700
412 -596 4603
423 -592 4569
433 -588 4541
443 -584 4505
457 -585 4509
468 -582 4489
479 -581 4473
490 -578 4449
503 -578 4453
514 -576 4430
524 -573 4406
535 -571 4390
547 -570 4383
556 -567 4355
568 -566 4349
580 -565 4339
591 -564 4329
598 -559 4286
610 -559 4285
624 -560 4290
637 -561 4295
645 -557 4265
655 -555 4247
665 -553 4231
679 -554 4239
686 -550 4204
699 -551 4205
709 -549 4193
717 -546 4166
728 -545 4154
740 -545 4157
748 -542 4132
758 -541 4117
766 -538 4095
777 -537 4086
788 -536 4078
796 -534 4059
807 -534 4050
815 -531 4028
825 -530 4019
831 -527 3991
843 -527 3989
853 -525 3977
863 -525 3970
873 -524 3958
879 -520 3931
888 -519 3918
896 -517 3903
906 -516 3893
916 -515 3883
926 -515 3875
936 -514 3868
945 -513 3858
954 -512 3845
961 -510 3826
969 -508 3808
979 -507 3803
989 -507 3796
1035 -524 3925
1068 -535 4002
1029 -510 3810
1019 -499 3729
1027 -498 3716
1038 -498 3713
1043 -495 3689
1051 -494 3678
1060 -493 3668
1075 -495 3681
1094 -499 3705
1117 -505 3743
1130 -505 3746
1145 -507 3756
1159 -508 3761
1178 -512 3782
1192 -513 3790
1206 -514 3794
1221 -516 3802
1226 -513 3780
1256 -521 3834
1288 -530 3892
1305 -532 3905
1316 -531 3898
1336 -535 3922
1357 -539 3946
1384 -545 3984
1400 -547 3992
1431 -554 4041
1440 -553 4029
1453 -553 4027
1478 -558 4058
1491 -558 4057
1508 -560 4068
1536 -566 4104
1570 -574 4157
1590 -577 4173
1632 -588 4245
1640 -586 4228
1641 -582 4194
1645 -579 4166
1642 -573 4124
1640 -568 4082
1648 -567 4067
1613 -551 3946
1606 -544 3895
1613 -543 3878
1632 -545 3892
1660 -550 3924
1681 -554 3942
1689 -552 3927
1719 -558 3963
1737 -560 3971
1742 -558 3950
1781 -566 4005
1791 -566 3996
1807 -567 3998
1820 -567 3995
1826 -565 3976
1813 -557 3916
1805 -551 3866
1831 -555 3891
1836 -553 3871
1851 -554 3872
1873 -557 3888
1886 -558 3885
1895 -557 3871
1914 -559 3881
1930 -560 3882
1941 -560 3876
1942 -557 3846
1970 -561 3871
1993 -564 3888
1997 -562 3866
2013 -563 3867
2026 -563 3862
2043 -565 3866
2057 -566 3864
2078 -568 3874
2085 -566 3856
2098 -567 3851
2113 -567 3851
2122 -567 3838
2149 -571 3859
2163 -571 3855
-1100 -261 1898
-1092 -260 1899
-1050 -252 1840
-1045 -252 1844
-1080 -262 1919
-1075 -262 1925
-1117 -274 2014
-1114 -275 2025
-1149 -286 2104
-1137 -284 2097
-1132 -285 2103
-1113 -282 2084
-1114 -284 2102
-1098 -281 2086
-1108 -286 2122
-1090 -283 2103
-1103 -288 2145
-1077 -283 2111
-1077 -285 2128
-1091 -290 2171
-1058 -283 2121
-1009 -272 2038
-989 -268 2014
-1020 -279 2093
-980 -270 2028
-962 -266 2005
-828 -231 1740
-632 -177 1340
-435 -122 929
-345 -98 744
-245 -69 532
-188 -53 411
-1993 -580 4391
-1910 -560 4243
-1890 -558 4233
-1948 -579 4397
-887 -265 2020
-942 -284 2162
-843 -256 1953
-159 -48 372
-138 -42 327
-153 -47 365
-204 -63 490
-260 -81 630
-190 -60 466
-252 -80 620
-163 -52 406
-89 -28 225
-127 -41 324
-118 -38 302
-79 -25 206
-54 -17 141
-33 -10 88
-85 -28 226
-47 -15 127
-81 -27 220
-42 -14 117
-38 -13 108
-55 -19 155
-39 -13 113
-60 -21 172
-59 -21 172
-49 -17 145
-86 -31 252
-51 -19 154
-24 -8 75
-57 -21 175
-53 -20 163
-58 -22 181
-58 -22 181
-63 -24 199
-49 -19 159
-62 -24 199
-68 -27 221
-45 -18 151
-49 -20 164
-43 -17 146
-35 -14 121
-11 -4 44
-1387 -600 4710
-1351 -590 4637
-1339 -591 4645
-1331 -594 4670
-651 -293 2313
-648 -295 2329
-641 -295 2331
-630 -293 2316
-628 -296 2336
-621 -296 2336
-614 -295 2336
-594 -289 2288
-571 -281 2227
-564 -281 2225
-556 -280 2221
-549 -281 2223
-543 -280 2223
-528 -276 2191
-519 -275 2184
-509 -273 2166
-500 -272 2156
-495 -272 2164
-482 -269 2135
-472 -267 2120
-464 -266 2113
-456 -265 2108
-446 -262 2088
-435 -260 2068
-359 -218 1735
-130 -80 642
-105 -66 530
-183 -116 928
-255 -164 1310
-242 -158 1261
-94 -62 505
-75 -50 410
-72 -50 406
-58 -41 335
-49 -35 286
-37 -27 226
-40 -30 245
-20 -15 131
-19 -15 129
-43 -34 278
-19 -16 134
0 0 0
-444 -361 2883
-436 -362 2890
-435 -368 2941
-419 -362 2891
-412 -363 2899
-399 -359 2868
-391 -360 2874
-305 -287 2295
-243 -234 1873
-224 -220 1765
-52 -53 436
-46 -49 399
-40 -43 354
-54 -59 482
-256 -284 2273
-288 -328 2623
-284 -332 2657
-285 -344 2748
-269 -334 2668
-260 -331 2649
-259 -341 2726
-245 -333 2663
-225 -315 2522
-214 -311 2485
-220 -329 2635
-214 -333 2663
-205 -331 2644
-176 -295 2363
-75 -133 1073
-66 -122 979
-60 -117 942
-57 -116 933
-55 -117 940
-53 -119 955
-50 -119 962
-46 -117 939
-44 -118 952
-41 -118 950
-37 -113 912
-35 -116 936
-34 -120 968
-29 -115 924
-27 -117 939
-24 -115 923
-22 -116 935
-19 -118 951
-17 -118 947
-14 -117 943
-11 -114 921
-8 -117 942
-6 -117 943
-3 -117 944
0 -117 941
2 -117 938
4 -116 933
7 -116 930
10 -118 947
13 -118 949
15 -118 946
18 -120 965
21 -119 955
24 -121 972
26 -117 940
29 -118 950
31 -116 932
34 -116 928
38 -119 952
39 -114 911
42 -116 930
45 -115 921
48 -116 932
50 -116 926
53 -116 930
54 -113 908
58 -115 922
60 -113 907
64 -116 925
65 -114 914
69 -115 920
70 -113 902
76 -119 950
74 -111 884
28 -37 300
403 -589 4655
413 -584 4611
423 -579 4572
432 -573 4525
444 -572 4512
455 -569 4493
466 -567 4473
478 -566 4464
491 -566 4462
500 -562 4430
511 -560 4408
523 -559 4397
535 -558 4394
548 -559 4395
557 -555 4363
569 -554 4353
580 -553 4346
590 -551 4325
601 -549 4311
615 -550 4318
624 -547 4293
635 -547 4284
646 -545 4271
655 -542 4247
665 -540 4229
674 -538 4205
685 -537 4198
700 -539 4212
707 -535 4177
716 -533 4161
729 -534 4165
739 -532 4148
750 -531 4141
755 -526 4101
764 -524 4082
778 -526 4092
784 -522 4062
796 -522 4057
807 -521 4050
813 -518 4023
822 -516 4004
833 -516 4001
844 -515 3993
853 -514 3981
859 -511 3954
869 -510 3942
879 -509 3935
887 -507 3917
896 -505 3900
910 -507 3911
915 -504 3881
926 -503 3878
932 -501 3854
940 -499 3837
952 -499 3835
960 -498 3822
967 -495 3801
982 -498 3816
989 -496 3798
1031 -511 3911
1079 -529 4046
1032 -500 3822
1018 -488 3726
1028 -487 3722
1034 -485 3702
1045 -485 3697
1052 -483 3681
1061 -483 3674
1078 -486 3692
1103 -492 3736
1115 -492 3735
1136 -497 3766
1147 -497 3763
1155 -496 3750
1170 -497 3759
1196 -503 3802
1209 -504 3806
1221 -504 3803
1230 -503 3792
1261 -511 3849
1294 -520 3911
1326 -529 3970
1329 -525 3939
1368 -536 4017
1387 -538 4032
1412 -544 4067
1445 -551 4121
1466 -555 4141
1491 -560 4173
1500 -559 4161
1531 -566 4208
1548 -567 4215
1556 -565 4198
1571 -566 4199
1608 -575 4261
1619 -575 4251
1630 -574 4241
1649 -576 4253
1661 -576 4247
1685 -580 4269
1710 -584 4296
1707 -579 4250
1722 -579 4252
1690 -564 4135
1718 -569 4168
1710 -562 4112
1690 -552 4031
1711 -555 4046
1694 -545 3973
1725 -551 4011
1729 -549 3988
1724 -543 3943
1768 -554 4012
1790 -557 4027
1801 -556 4019
1822 -559 4033
1838 -560 4036
1819 -550 3961
1818 -547 3928
1814 -542 3888
1829 -543 3889
1835 -541 3870
1860 -545 3892
1861 -542 3863
1890 -547 3894
1895 -544 3873
1906 -544 3866
1917 -544 3858
1936 -546 3865
1957 -549 3879
1973 -550 3879
1988 -550 3878
1987 -547 3849
2013 -551 3868
2028 -552 3867
2042 -552 3866
2053 -552 3857
2072 -554 3864
2079 -552 3847
2102 -555 3861
2123 -558 3870
2123 -554 3841
2153 -559 3867
2170 -560 3870
-1118 -259 1931
-1080 -251 1879
-1063 -249 1863
-1081 -254 1908
-1066 -253 1896
-1073 -256 1923
-1094 -262 1975
-1094 -264 1989
-1120 -272 2052
-1089 -266 2010
-1087 -267 2022
-1079 -267 2021
-1068 -266 2016
-1062 -266 2020
-1056 -266 2023
-1049 -266 2026
-1064 -271 2071
-1050 -269 2058
-1050 -271 2074
-1044 -271 2077
-1014 -265 2034
-1020 -269 2062
-994 -264 2026
-989 -264 2031
-967 -260 2002
-939 -254 1958
-872 -237 1833
-661 -181 1400
-826 -228 1764
-540 -149 1163
-349 -97 759
-153 -42 337
-1995 -567 4399
-1907 -546 4238
-1909 -550 4278
0 0 0
-922 -269 2101
-941 -277 2162
-833 -246 1929
-180 -53 422
-184 -54 435
-134 -40 321
-197 -59 473
-273 -83 662
-230 -71 563
-310 -96 763
-186 -58 463
-69 -21 175
-109 -34 278
-112 -35 286
-112 -35 289
-81 -26 212
-68 -22 181
-60 -19 162
-68 -22 183
-75 -25 204
-48 -15 132
-89 -30 248
-71 -24 199
-55 -19 157
-43 -15 126
-78 -27 226
-46 -16 137
-36 -12 109
-68 -24 201
-39 -14 118
-73 -26 220
-59 -21 180
-57 -21 176
-19 -7 63
-79 -30 249
-47 -18 151
-75 -29 242
-69 -27 225
-65 -25 213
-60 -24 200
-40 -16 137
-74 -30 252
2 1 -3
-1375 -581 4670
-1353 -577 4646
-1345 -580 4668
-1338 -583 4695
-650 -286 2311
-654 -291 2352
-637 -286 2315
-632 -287 2323
-627 -288 2334
-619 -288 2331
-610 -287 2322
-585 -278 2253
-569 -274 2220
-563 -274 2225
-555 -274 2220
-550 -274 2225
-539 -272 2208
-527 -269 2187
-518 -268 2180
-509 -267 2167
-498 -264 2150
-491 -264 2150
-480 -262 2129
-472 -260 2120
-465 -260 2118
-455 -258 2101
-447 -257 2095
-431 -252 2052
-378 -223 1823
-141 -85 700
-107 -65 542
-155 -96 791
-260 -163 1334
-230 -147 1203
-95 -62 512
-77 -51 425
-74 -49 412
-57 -39 328
-62 -43 361
-33 -24 204
-40 -29 247
-39 -28 241
-46 -35 294
-68 -51 429
-28 -22 187
-763 -595 4855
-454 -361 2954
-446 -362 2958
-431 -356 2914
-420 -354 2896
-415 -357 2920
-403 -355 2900
-392 -352 2881
-296 -271 2224
-249 -234 1919
-243 -234 1919
-126 -125 1028
-51 -52 437
-51 -54 454
-34 -37 315
0 0 0
-289 -321 2633
-248 -284 2324
-267 -314 2575
-271 -328 2686
-258 -322 2636
0 0 0
0 0 0
0 0 0
0 0 0
-206 -301 2469
-210 -318 2606
-198 -311 2549
-96 -158 1302
-68 -117 969
-63 -115 948
-61 -115 952
-59 -116 961
-54 -113 936
-52 -114 941
-51 -118 970
-47 -115 949
-44 -115 946
-41 -115 945
-38 -115 945
-36 -115 947
-33 -113 936
-30 -113 931
-27 -114 942
-24 -113 934
-21 -112 921
-19 -114 942
-16 -111 919
-13 -112 927
-11 -113 933
-8 -114 938
-5 -112 924
-3 -113 932
0 -113 928
2 -115 946
4 -115 946
7 -112 924
10 -115 949
13 -114 941
15 -115 942
18 -114 937
21 -117 962
24 -115 943
27 -117 964
29 -114 936
32 -115 940
34 -113 926
37 -115 942
40 -114 938
42 -113 929
45 -113 931
48 -114 939
50 -112 915
51 -110 899
56 -114 935
57 -111 907
61 -114 932
63 -112 914
63 -108 882
68 -112 913
70 -110 898
73 -112 912
61 -88 725
399 -589 4766
401 -572 4632
411 -568 4591
421 -563 4551
433 -561 4533
443 -557 4503
454 -555 4480
465 -553 4466
477 -552 4456
487 -549 4428
499 -548 4417
512 -548 4418
522 -545 4393
535 -545 4390
547 -544 4384
557 -542 4364
568 -540 4346
579 -539 4338
594 -542 4355
602 -537 4314
613 -536 4306
625 -535 4298
635 -533 4280
645 -531 4261
658 -532 4267
667 -529 4242
676 -527 4222
688 -527 4215
698 -525 4199
709 -524 4192
718 -522 4172
725 -519 4142
736 -517 4131
747 -517 4128
756 -515 4107
768 -515 4104
776 -513 4083
786 -511 4070
792 -508 4039
808 -510 4058
813 -506 4020
823 -505 4011
830 -502 3987
841 -502 3983
848 -499 3957
862 -500 3965
871 -499 3952
880 -498 3938
888 -496 3921
898 -495 3912
908 -494 3903
909 -489 3858
924 -491 3870
934 -490 3863
940 -487 3838
951 -487 3834
961 -487 3825
968 -484 3806
977 -484 3796
986 -482 3784
1027 -497 3898
1085 -519 4068
1037 -491 3844
1023 -479 3747
1029 -477 3725
1037 -475 3711
1043 -473 3692
1053 -473 3687
1061 -472 3673
1077 -474 3687
1101 -480 3729
1122 -484 3762
1134 -484 3759
1146 -485 3761
1166 -489 3785
1173 -487 3770
1196 -492 3804
1209 -492 3804
1216 -491 3789
1223 -489 3772
1254 -497 3831
1287 -506 3891
1308 -509 3916
1331 -514 3947
1356 -519 3983
1380 -524 4013
1406 -529 4050
1431 -534 4083
1456 -539 4115
1489 -546 4170
1514 -551 4199
1519 -548 4175
1555 -557 4235
1573 -558 4243
1592 -561 4258
1611 -563 4270
1623 -563 4261
1649 -568 4293
1674 -572 4319
1677 -568 4289
1698 -571 4305
1718 -573 4316
1719 -569 4280
1779 -585 4392
1754 -572 4293
1764 -572 4282
1771 -570 4261
1796 -573 4285
1797 -570 4253
1791 -564 4201
1782 -557 4145
1757 -545 4054
1769 -545 4047
1781 -545 4043
1807 -549 4067
1824 -551 4072
1855 -556 4108
1838 -547 4037
1832 -542 3992
1813 -533 3919
1803 -526 3866
1824 -529 3880
1844 -531 3890
1853 -531 3880
1871 -532 3886
1886 -533 3886
1893 -532 3871
1911 -533 3876
1937 -537 3900
1943 -536 3881
1948 -534 3862
1974 -538 3883
1980 -536 3865
1992 -536 3859
2017 -540 3878
2025 -538 3863
2044 -540 3869
2061 -541 3872
2065 -539 3851
2087 -542 3864
2103 -543 3865
2121 -544 3867
2140 -546 3874
2149 -545 3861
2155 -544 3843
-1140 -257 1970
-1123 -255 1955
-1119 -256 1963
-1109 -255 1959
-1095 -253 1948
-1101 -256 1973
-1110 -260 2004
-1093 -257 1989
-1094 -259 2004
-1095 -261 2022
-1082 -259 2012
-1076 -259 2017
-1080 -262 2040
-1054 -257 2005
-1064 -261 2040
-1061 -262 2049
-1057 -263 2057
-1043 -261 2046
-1041 -262 2058
-1032 -262 2055
-1024 -261 2055
-1011 -260 2045
-1027 -266 2093
-995 -259 2043
-998 -261 2066
-981 -259 2047
-912 -242 1918
-803 -214 1702
-932 -251 1992
-810 -219 1745
-871 -238 1892
-838 -230 1835
0 0 0
-1858 -519 4132
-1905 -536 4271
-954 -270 2157
-954 -272 2175
-948 -272 2178
-874 -252 2025
0 0 0
-256 -74 605
-369 -108 878
-291 -86 698
-266 -79 645
-377 -113 921
-424 -129 1043
-205 -62 510
-198 -61 498
-163 -50 413
-147 -45 377
-148 -46 382
-102 -32 267
-94 -29 249
-67 -21 180
-45 -14 123
-50 -16 137
-67 -22 186
-38 -12 107
-86 -28 240
-69 -23 195
-50 -16 143
-67 -22 193
-41 -14 121
-59 -20 175
-43 -14 129
-42 -14 128
-83 -30 252
-45 -16 138
-52 -19 164
-54 -20 171
-52 -19 167
-43 -16 138
-85 -32 274
-67 -25 220
-70 -27 231
-56 -21 186
-68 -26 228
-71 -28 241
1 1 -1
-1376 -567 4674
-1352 -563 4645
-1341 -564 4656
-1330 -566 4669
-664 -285 2359
-650 -282 2339
-639 -280 2324
-632 -280 2324
-628 -282 2336
-622 -282 2342
-607 -279 2313
-595 -276 2295
-566 -266 2210
-565 -269 2234
-553 -266 2210
-545 -265 2209
-538 -265 2204
-531 -265 2206
-515 -260 2168
-510 -261 2172
-502 -260 2168
-490 -257 2143
-481 -256 2133
-470 -253 2113
-462 -252 2108
-455 -252 2102
-441 -248 2069
-427 -243 2033
-362 -209 1750
-117 -68 580
-110 -65 555
-175 -105 889
-232 -142 1194
-206 -128 1080
-89 -57 482
-98 -63 535
-73 -48 408
-57 -38 328
-35 -24 212
-54 -37 324
-63 -44 380
-42 -30 261
-47 -34 297
-55 -41 349
-48 -36 313
-54 -42 358
0 0 0
-445 -352 2947
-432 -349 2924
-425 -350 2933
-414 -348 2915
-397 -341 2857
-393 -345 2891
-290 -260 2185
-248 -228 1912
-234 -220 1849
-149 -143 1208
-39 -40 344
-43 -45 387
-57 -60 511
0 0 0
-248 -269 2262
-63 -72 611
0 0 0
0 0 0
0 0 0
0 0 0
0 0 0
0 0 0
0 0 0
0 0 0
-162 -240 2018
-95 -147 1239
-73 -119 1003
-67 -114 963
-62 -110 933
-60 -112 945
-57 -110 928
-56 -114 960
-52 -111 941
-51 -116 979
-47 -112 945
-44 -113 956
-41 -111 935
-38 -110 927
-35 -110 926
-34 -114 961
-29 -109 922
-28 -113 956
-24 -110 933
-21 -109 923
-19 -111 939
-16 -109 925
-14 -112 948
-11 -110 932
-8 -112 943
-5 -111 940
-3 -111 933
0 -110 925
2 -113 953
4 -111 938
7 -111 933
10 -113 953
13 -113 952
16 -113 955
18 -113 952
21 -112 942
24 -113 954
26 -110 927
30 -115 967
32 -114 956
34 -111 933
38 -114 963
40 -112 940
44 -114 962
45 -111 930
48 -111 929
50 -111 929
53 -110 920
56 -111 931
59 -112 943
61 -110 927
65 -112 942
67 -111 929
71 -113 950
69 -106 888
65 -96 805
405 -604 5011
390 -561 4655
401 -558 4624
411 -554 4588
420 -549 4544
430 -545 4509
442 -543 4496
454 -542 4487
464 -539 4457
477 -538 4451
487 -535 4425
501 -536 4431
512 -535 4416
523 -533 4399
534 -531 4385
546 -531 4378
558 -530 4371
566 -526 4334
579 -527 4340
591 -526 4333
599 -522 4298
612 -523 4300
624 -522 4292
634 -520 4277
644 -518 4259
652 -515 4231
666 -516 4234
676 -514 4220
684 -512 4195
694 -510 4179
705 -509 4172
715 -507 4153
726 -507 4146
734 -504 4124
745 -504 4116
756 -503 4107
767 -502 4102
776 -500 4081
783 -498 4058
794 -497 4051
804 -496 4038
815 -496 4034
826 -495 4025
830 -491 3988
843 -491 3990
849 -488 3962
860 -488 3958
869 -486 3944
875 -483 3916
888 -484 3922
899 -484 3918
905 -481 3893
916 -481 3888
926 -480 3877
938 -481 3880
943 -477 3849
949 -475 3826
961 -475 3828
965 -472 3794
979 -473 3803
990 -473 3801
1036 -490 3932
1067 -499 4000
1043 -482 3866
1020 -467 3738
1039 -470 3764
1043 -467 3736
1043 -462 3693
1057 -464 3702
1062 -461 3677
1079 -464 3695
1102 -469 3733
1121 -472 3756
1136 -474 3768
1155 -477 3791
1166 -477 3786
1172 -475 3767
1192 -479 3793
1209 -481 3806
1218 -480 3796
1218 -476 3756
1251 -485 3823
1282 -492 3877
1304 -496 3906
1316 -496 3904
1340 -501 3935
1366 -506 3974
1395 -513 4020
1423 -519 4062
1443 -521 4079
1468 -526 4112
1490 -529 4134
1516 -534 4168
1539 -538 4192
1570 -545 4239
1595 -549 4265
1608 -549 4262
1624 -550 4265
1661 -558 4324
1669 -557 4307
1689 -559 4320
1704 -560 4320
1737 -566 4367
1749 -566 4356
1566 -503 3867
1751 -558 4287
1799 -569 4369
1837 -577 4424
1840 -574 4392
1838 -569 4350
1854 -570 4351
1843 -563 4290
1861 -564 4296
1857 -559 4252
1864 -557 4232
1872 -556 4215
1867 -551 4169
1879 -551 4163
1888 -549 4147
1878 -543 4093
1831 -526 3958
1831 -522 3927
1848 -524 3932
1853 -522 3911
1871 -523 3917
1883 -523 3913
1898 -524 3912
1909 -524 3905
1928 -526 3913
1935 -525 3898
1949 -525 3894
1976 -529 3919
1979 -527 3894
1994 -527 3894
1995 -524 3865
2008 -525 3862
2030 -527 3874
2039 -526 3862
2065 -530 3881
2071 -529 3865
2086 -529 3863
2092 -528 3845
2123 -532 3872
2130 -531 3857
2148 -533 3860
2162 -533 3857
-1140 -251 1971
-1134 -251 1974
-1124 -250 1970
-1125 -252 1988
-1111 -250 1977
-1111 -252 1992
-1107 -252 2000
-1099 -252 2000
-1096 -253 2008
-1093 -254 2018
-1082 -253 2014
-1084 -255 2032
-1076 -254 2032
-1069 -254 2034
-1064 -255 2041
-1060 -255 2048
-1051 -255 2046
-1045 -255 2050
-1044 -256 2064
-1033 -255 2058
-1030 -256 2068
-1024 -257 2073
-1017 -257 2074
-1014 -257 2084
-1006 -257 2083
-989 -254 2064
-963 -249 2025
-961 -250 2038
-953 -250 2037
-958 -253 2065
-962 -256 2090
-961 -258 2105
-959 -259 2118
-983 -267 2187
-964 -264 2161
-945 -261 2137
-951 -264 2168
-949 -266 2182
-933 -263 2162
-903 -256 2110
-890 -255 2098
-889 -256 2112
-883 -256 2117
-873 -255 2112
-875 -258 2134
-842 -250 2070
-822 -246 2039
-802 -242 2007
-820 -249 2069
-782 -240 1992
-763 -235 1959
-735 -229 1905
-640 -201 1673
-643 -203 1697
0 0 0
0 0 0
0 0 0
-227 -73 623
-238 -78 661
-126 -41 353
-89 -29 254
-115 -38 331
-79 -26 230
-27 -8 81
-45 -15 136
-47 -16 141
-46 -16 142
-70 -24 216
-26 -9 83
-98 -35 303
-66 -23 207
-95 -35 302
-92 -34 295
-30 -11 102
-75 -28 248
-78 -29 259
-46 -17 156
-51 -19 174
-4 -1 19
-1373 -552 4666
-1357 -551 4663
-1337 -549 4646
-1324 -549 4649
-651 -273 2316
-649 -275 2336
-638 -273 2322
-634 -274 2332
-625 -274 2327
-618 -273 2327
-609 -272 2319
-589 -267 2271
-570 -261 2226
-564 -261 2229
-556 -261 2222
-547 -260 2217
-538 -259 2208
-527 -257 2191
-520 -256 2189
-508 -253 2166
-498 -252 2153
-490 -251 2145
-480 -249 2128
-471 -248 2120
-458 -244 2089
-450 -243 2082
-414 -227 1943
-305 -169 1452
-136 -76 663
-119 -68 589
-121 -70 610
-150 -88 766
-227 -135 1167
-233 -142 1220
-104 -64 559
-100 -62 545
-82 -52 457
-64 -42 368
-65 -43 376
-61 -41 359
-43 -29 263
-50 -35 312
-50 -35 314
-59 -43 379
-45 -33 294
-56 -42 373
-40 -31 276
-464 -358 3078
-432 -340 2925
-427 -343 2948
-412 -338 2903
-410 -344 2953
-393 -336 2890
-335 -293 2522
-237 -212 1827
-174 -159 1376
-83 -78 681
-45 -44 390
-35 -35 313
-51 -52 458
-76 -79 692
-242 -257 2212
-30 -34 306
-42 -49 430
-43 -51 447
0 0 0
-40 -51 447
0 0 0
-33 -45 399
-60 -82 716
-65 -92 802
-75 -110 957
-73 -111 966
-70 -110 957
-68 -113 977
-63 -108 937
-62 -111 964
-57 -108 938
-54 -107 930
-53 -110 955
-50 -111 962
-47 -111 961
-44 -110 953
-41 -108 940
-38 -108 938
-35 -108 933
-34 -111 965
-29 -106 920
-27 -109 942
-24 -108 932
-22 -108 940
-19 -107 930
-16 -106 922
-13 -106 919
-11 -109 941
-8 -107 923
-5 -109 940
-3 -107 928
0 -107 926
2 -108 934
4 -110 948
7 -109 941
10 -109 943
12 -107 926
15 -108 932
18 -110 952
21 -109 937
24 -109 943
27 -111 959
29 -108 935
32 -110 953
36 -113 973
39 -113 977
40 -110 949
44 -112 964
45 -109 942
47 -107 923
51 -111 952
52 -105 902
56 -108 932
59 -109 936
60 -106 916
66 -111 958
69 -113 970
68 -106 908
63 -94 813
7 -5 56
380 -553 4704
389 -547 4650
398 -541 4597
411 -540 4586
420 -535 4541
430 -531 4505
442 -530 4497
455 -530 4493
467 -529 4482
477 -526 4454
490 -526 4456
501 -524 4437
514 -524 4432
524 -521 4411
536 -521 4404
544 -516 4360
557 -517 4367
568 -515 4353
582 -516 4360
592 -514 4337
598 -508 4286
612 -510 4300
623 -509 4287
637 -510 4297
644 -506 4257
653 -504 4237
666 -504 4237
677 -503 4228
685 -500 4198
697 -500 4199
705 -497 4172
718 -497 4171
723 -492 4128
737 -494 4139
745 -491 4115
755 -490 4103
764 -488 4086
776 -488 4082
787 -488 4075
793 -484 4044
807 -486 4054
815 -484 4035
825 -482 4020
830 -479 3989
840 -478 3980
853 -478 3981
860 -476 3959
872 -476 3957
879 -474 3934
889 -473 3927
895 -470 3900
907 -471 3901
914 -469 3880
920 -466 3854
933 -466 3857
939 -464 3834
952 -465 3837
963 -465 3835
969 -462 3812
982 -463 3818
994 -464 3816
1026 -473 3894
1077 -492 4042
1035 -467 3838
1022 -456 3745
1029 -454 3726
1042 -455 3731
1048 -453 3710
1053 -451 3686
1062 -450 3677
1076 -451 3685
1100 -457 3727
1126 -463 3774
1138 -464 3776
1150 -464 3776
1167 -466 3790
1176 -465 3779
1196 -469 3804
1211 -471 3814
1216 -468 3790
1225 -467 3781
1251 -473 3821
1272 -477 3848
1296 -481 3881
1310 -482 3886
1331 -486 3911
1356 -490 3945
1382 -496 3982
1398 -497 3990
1414 -499 3998
1439 -503 4030
1437 -498 3988
1455 -501 4002
1474 -503 4014
1504 -509 4060
1527 -513 4084
1568 -523 4158
1635 -541 4297
1649 -541 4295
1664 -542 4296
1696 -548 4339
1714 -550 4346
1735 -552 4362
1747 -552 4353
1606 -503 3967
1755 -546 4298
1783 -551 4330
1830 -561 4406
1847 -562 4410
1875 -567 4439
1906 -572 4475
1889 -563 4399
1898 -562 4383
1913 -562 4380
1923 -561 4366
1948 -565 4389
1953 -563 4364
1970 -563 4365
1945 -553 4276
1933 -545 4214
1887 -529 4080
1874 -522 4020
1875 -519 3990
1889 -519 3989
1901 -519 3983
1915 -520 3980
1933 -521 3985
1935 -518 3958
1942 -517 3944
1965 -520 3958
1972 -519 3942
1986 -519 3940
2001 -520 3940
2017 -521 3941
2030 -521 3935
2043 -521 3930
2056 -522 3926
2059 -519 3902
2087 -523 3925
2083 -519 3888
2096 -519 3884
2110 -520 3880
2130 -522 3887
2137 -520 3871
2156 -522 3877
2167 -522 3868
-1136 -244 1965
-1132 -244 1972
-1131 -245 1984
-1122 -245 1984
-1115 -245 1986
-1112 -245 1994
-1105 -245 1997
-1105 -247 2011
-1093 -246 2004
-1088 -246 2011
-1091 -248 2031
-1075 -246 2017
-1077 -248 2036
-1071 -248 2039
-1063 -248 2039
-1056 -248 2042
-1052 -249 2050
-1047 -249 2056
-1044 -250 2064
-1035 -249 2064
-1030 -250 2070
-1023 -250 2071
-1018 -250 2076
-1013 -250 2082
-1004 -250 2080
-992 -249 2071
-979 -247 2061
-970 -246 2058
-975 -249 2084
-977 -252 2105
-969 -251 2106
-966 -252 2117
-963 -253 2127
-960 -254 2138
-954 -254 2140
-946 -254 2141
-944 -256 2153
-940 -256 2162
-925 -254 2146
-918 -254 2147
-919 -256 2167
-913 -256 2170
-905 -256 2171
-901 -257 2178
-894 -257 2180
-888 -257 2185
-881 -257 2187
-871 -256 2181
-859 -255 2170
-868 -259 2210
-859 -259 2206
-852 -259 2209
-846 -259 2211
-838 -258 2211
-834 -259 2221
-827 -259 2222
-821 -260 2226
-817 -260 2235
-805 -259 2223
-794 -258 2215
-784 -257 2207
-791 -261 2248
-767 -256 2201
-758 -255 2193
-732 -248 2141
-733 -251 2163
-730 -252 2176
-712 -248 2143
-683 -240 2076
-666 -236 2044
-648 -232 2010
0 0 0
0 0 0
0 0 0
0 0 0
-187 -70 613
-159 -60 529
-89 -33 301
-15 -5 56
-1381 -541 4696
-1358 -538 4668
-1348 -540 4686
-1348 -545 4735
-654 -267 2327
-650 -268 2338
-640 -267 2329
-631 -266 2323
-624 -266 2323
-617 -266 2326
-612 -267 2334
-587 -259 2266
-576 -257 2249
-565 -255 2232
-558 -255 2232
-548 -254 2221
-537 -252 2203
-531 -252 2205
-519 -249 2183
-508 -247 2168
-499 -246 2157
-490 -245 2147
-477 -241 2115
-469 -240 2110
-446 -232 2034
-370 -195 1711
-91 -48 434
-19 -10 98
-47 -26 238
-132 -74 655
-122 -69 616
-150 -86 766
-230 -134 1184
-234 -139 1226
-122 -73 652
-106 -64 576
-83 -51 462
-57 -36 326
-50 -32 295
-72 -47 427
-52 -35 318
-33 -23 210
-52 -36 327
-14 -10 101
-53 -38 346
-36 -26 243
-45 -34 307
0 0 0
-431 -331 2914
-424 -332 2929
-419 -335 2952
-414 -338 2981
-402 -335 2958
-379 -323 2849
0 0 0
-110 -99 882
-83 -77 688
-43 -41 372
-34 -33 305
-47 -48 431
-57 -58 522
0 0 0
-58 -63 568
-40 -45 410
-48 -56 501
-47 -56 508
-45 -56 501
-57 -72 641
-52 -68 611
-64 -85 762
-76 -105 931
-74 -107 949
-72 -107 955
-69 -106 948
-67 -108 961
-64 -107 955
-62 -109 971
-58 -107 954
-54 -104 929
-53 -108 961
-50 -107 949
-46 -104 928
-44 -106 941
-41 -107 951
-38 -106 947
-35 -106 941
-32 -105 933
-30 -105 933
-27 -105 932
-24 -106 939
-22 -106 946
-19 -106 940
-16 -104 927
-14 -107 952
-10 -103 911
-8 -104 927
-5 -103 916
-3 -106 941
0 -104 923
2 -105 936
4 -105 933
7 -106 940
10 -106 944
13 -108 953
16 -108 954
18 -107 948
21 -107 950
24 -108 952
27 -108 960
29 -106 941
33 -110 970
34 -106 938
38 -108 955
41 -108 958
44 -109 962
45 -106 938
48 -106 939
50 -104 922
53 -106 935
52 -99 872
59 -107 944
61 -105 924
63 -103 911
62 -97 859
49 -72 640
369 -563 4915
366 -539 4698
376 -533 4645
389 -533 4642
400 -530 4616
410 -525 4575
422 -524 4564
430 -518 4507
441 -516 4486
454 -515 4480
465 -514 4467
478 -514 4467
489 -511 4441
502 -512 4445
514 -511 4432
525 -510 4422
539 -510 4424
546 -505 4381
556 -503 4359
569 -503 4357
582 -503 4359
590 -499 4321
600 -497 4301
611 -496 4291
625 -497 4298
634 -495 4273
647 -496 4281
656 -493 4257
664 -490 4225
675 -489 4218
688 -490 4217
694 -485 4177
706 -485 4176
720 -486 4184
725 -482 4142
737 -482 4141
746 -480 4122
757 -479 4114
767 -478 4100
778 -478 4094
785 -475 4068
792 -472 4040
805 -473 4046
816 -472 4040
822 -469 4009
831 -467 3992
846 -469 4005
852 -466 3977
862 -465 3966
870 -464 3950
878 -462 3931
891 -463 3938
897 -460 3908
907 -459 3902
912 -456 3872
924 -456 3871
929 -453 3843
944 -455 3856
953 -454 3844
964 -454 3841
970 -452 3817
974 -448 3787
993 -452 3813
1026 -462 3893
1066 -474 3998
1035 -456 3837
1019 -444 3733
1026 -442 3719
1040 -443 3725
1044 -440 3697
1052 -439 3686
1060 -438 3674
1077 -441 3690
1101 -446 3734
1122 -450 3764
1139 -453 3779
1157 -455 3799
1169 -456 3797
1175 -454 3778
1199 -459 3817
1209 -458 3810
1216 -457 3792
1219 -454 3763
1243 -458 3797
1264 -462 3823
1280 -464 3836
1296 -465 3845
1313 -467 3858
1340 -473 3898
1371 -480 3951
1389 -482 3965
1392 -479 3937
1405 -479 3935
1398 -473 3880
1375 -462 3782
1358 -452 3699
1375 -454 3712
1419 -465 3795
1474 -479 3908
1557 -502 4091
1609 -515 4191
1641 -521 4236
1676 -528 4290
1692 -529 4291
1714 -532 4311
1739 -536 4334
1556 -476 3845
1698 -515 4159
1773 -534 4306
1831 -548 4410
1854 -551 4428
1860 -549 4406
1892 -554 4442
1915 -557 4459
1942 -561 4485
1942 -557 4448
1947 -555 4422
1972 -558 4444
1986 -558 4440
1997 -557 4427
1999 -554 4396
2016 -555 4398
2016 -552 4361
1983 -539 4255
1985 -536 4227
1987 -533 4198
1992 -531 4175
2000 -530 4159
2008 -528 4142
2002 -524 4098
2012 -523 4086
2025 -523 4080
2026 -520 4052
2030 -518 4029
2039 -517 4015
2062 -520 4029
2057 -515 3989
2077 -517 3998
2082 -515 3976
2103 -517 3986
2103 -514 3956
2119 -515 3956
2126 -514 3941
2147 -516 3948
2158 -516 3939
2167 -515 3926
2184 -516 3927
2188 -514 3907
-1140 -238 1973
-1132 -238 1973
-1130 -239 1984
-1119 -238 1978
-1117 -239 1989
-1112 -239 1996
-1108 -240 2003
-1106 -241 2014
-1100 -241 2019
-1088 -240 2012
-1083 -240 2018
-1078 -240 2023
-1074 -241 2031
-1073 -242 2045
-1068 -243 2049
-1057 -242 2045
-1050 -242 2045
-1050 -243 2062
-1043 -243 2063
-1035 -243 2064
-1024 -242 2058
-1018 -242 2061
-1013 -242 2068
-1011 -244 2080
-1011 -245 2095
-997 -243 2082
-983 -242 2070
-980 -242 2079
-975 -243 2087
-977 -245 2106
-975 -246 2120
-969 -247 2124
-963 -247 2128
-959 -247 2135
-949 -247 2130
-946 -247 2141
-942 -248 2149
-935 -248 2152
-932 -249 2163
-924 -249 2163
-919 -249 2167
-910 -249 2165
-907 -250 2175
-903 -251 2184
-899 -252 2195
-891 -251 2193
-890 -253 2210
-880 -252 2204
-873 -252 2205
-869 -253 2215
-862 -253 2215
-857 -253 2223
-850 -253 2224
-851 -256 2246
-839 -254 2235
-834 -255 2242
-826 -254 2240
-822 -255 2250
-814 -255 2249
-807 -255 2251
-802 -256 2258
-798 -257 2268
-793 -257 2275
-789 -258 2285
-781 -258 2285
-778 -259 2295
-770 -259 2295
-763 -259 2297
-758 -260 2304
-756 -261 2320
-747 -261 2318
-738 -260 2311
-734 -261 2324
-726 -261 2323
-714 -259 2307
-705 -258 2301
-695 -257 2292
-689 -257 2296
-697 -263 2350
0 0 0
-1334 -515 4586
-1310 -511 4553
-663 -261 2334
-653 -260 2325
-651 -262 2345
-641 -261 2334
-631 -259 2325
-625 -260 2328
-618 -260 2329
-609 -259 2321
-588 -253 2270
-573 -249 2237
-562 -247 2223
-555 -247 2221
-547 -247 2217
-539 -246 2212
-529 -245 2201
-518 -242 2182
-509 -241 2170
-496 -238 2146
-487 -237 2132
-470 -231 2086
-424 -212 1909
-196 -99 900
-41 -21 198
-8 -4 50
-15 -8 83
-47 -25 235
-110 -60 548
-103 -57 522
-134 -75 684
-197 -112 1019
-272 -157 1420
-139 -81 742
-89 -53 487
-62 -38 351
-39 -24 231
-40 -25 238
-40 -25 241
-55 -35 331
-51 -34 318
-45 -30 286
-33 -23 219
-41 -28 269
-40 -29 272
-41 -30 279
-23 -18 171
-464 -347 3142
-437 -334 3018
-421 -328 2972
-411 -327 2962
-406 -330 2987
-400 -332 3007
0 0 0
-80 -71 649
-70 -63 579
-52 -48 449
-52 -49 456
-45 -45 414
-46 -46 430
-51 -53 486
-51 -54 502
-42 -46 430
-45 -51 472
-51 -59 542
-61 -72 666
-60 -73 675
-75 -95 866
-77 -100 913
-78 -105 956
-74 -103 943
-73 -106 971
-72 -109 992
-68 -106 969
-64 -105 960
-61 -104 954
-59 -105 962
-55 -104 951
-52 -103 938
-49 -104 948
-47 -105 963
-45 -106 968
-41 -104 947
-39 -104 954
-35 -103 937
-32 -102 934
-30 -102 934
-27 -103 939
-24 -102 928
-22 -104 945
-19 -102 933
-16 -102 934
-14 -104 948
-11 -103 940
-8 -103 939
-5 -101 925
-3 -103 941
0 -102 927
2 -104 944
5 -104 945
7 -103 938
10 -104 947
13 -105 955
16 -104 949
18 -103 940
21 -103 941
24 -104 948
27 -106 964
29 -103 937
32 -104 949
35 -105 954
38 -106 959
41 -106 966
44 -108 978
47 -108 976
47 -102 924
43 -87 790
47 -90 814
50 -92 834
52 -90 817
50 -83 759
39 -60 545
3 0 6
348 -539 4828
354 -527 4716
364 -522 4669
376 -520 4651
386 -516 4614
399 -515 4607
410 -513 4581
419 -507 4533
431 -506 4519
443 -505 4505
454 -503 4488
466 -502 4476
479 -501 4469
489 -499 4446
499 -496 4421
511 -495 4411
524 -495 4408
535 -494 4397
548 -494 4396
557 -491 4367
570 -491 4365
579 -488 4336
590 -487 4325
602 -486 4317
611 -484 4295
624 -485 4298
632 -481 4261
646 -482 4269
658 -482 4265
667 -480 4246
675 -477 4218
685 -475 4200
699 -476 4209
707 -474 4183
716 -472 4164
726 -471 4151
737 -470 4143
743 -466 4104
756 -467 4111
768 -466 4106
778 -466 4097
786 -463 4074
795 -461 4054
804 -460 4039
816 -461 4041
823 -458 4014
827 -454 3976
846 -457 4005
853 -455 3982
861 -453 3962
873 -453 3963
880 -451 3941
887 -449 3921
895 -447 3902
905 -447 3895
911 -444 3866
923 -444 3866
933 -444 3860
941 -442 3843
954 -443 3847
958 -440 3816
968 -439 3810
973 -437 3785
993 -441 3816
1026 -450 3895
1068 -464 4008
1030 -442 3818
1020 -433 3737
1027 -431 3721
1039 -432 3723
1040 -428 3684
1053 -429 3688
1059 -427 3671
1075 -429 3685
1098 -434 3723
1124 -440 3771
1136 -440 3772
1155 -443 3794
1172 -445 3810
1180 -444 3794
1202 -448 3826
1213 -448 3821
1211 -443 3777
1216 -441 3753
1211 -435 3700
1220 -434 3691
1230 -434 3685
1250 -438 3710
1272 -441 3737
1298 -446 3778
1342 -458 3869
1362 -461 3889
1333 -447 3769
1313 -436 3678
1309 -432 3632
1296 -424 3564
1307 -424 3561
1314 -423 3546
1330 -425 3559
1351 -428 3582
1417 -445 3724
1574 -491 4100
1625 -503 4196
1647 -506 4215
1674 -511 4247
1703 -516 4283
1728 -519 4309
1586 -473 3919
1694 -501 4150
1771 -520 4302
1817 -530 4378
1859 -539 4441
1878 -540 4448
1897 -542 4457
1924 -546 4483
1941 -547 4485
1957 -548 4485
1981 -550 4501
1990 -549 4486
2012 -551 4497
2021 -550 4482
2029 -549 4464
2032 -546 4433
2055 -548 4448
2043 -542 4386
2044 -538 4354
2058 -539 4350
2063 -536 4325
2076 -536 4318
2084 -535 4301
2089 -533 4278
2093 -530 4252
2110 -532 4254
2122 -531 4244
2126 -529 4221
2133 -528 4202
2136 -525 4176
2155 -527 4181
2169 -527 4176
2167 -523 4141
2172 -521 4118
2186 -522 4114
2194 -520 4098
2207 -520 4091
2207 -517 4060
2220 -518 4055
2227 -516 4037
2225 -513 4004
2234 -512 3989
-1139 -231 1971
-1131 -231 1972
-1132 -233 1987
-1126 -233 1992
-1117 -232 1990
-1112 -233 1996
-1102 -232 1992
-1100 -233 2005
-1098 -234 2015
-1095 -235 2024
-1087 -234 2025
-1080 -234 2028
-1075 -235 2032
-1064 -234 2029
-1063 -235 2042
-1056 -235 2044
-1049 -235 2046
-1046 -236 2054
-1043 -237 2064
-1040 -237 2074
-1026 -236 2062
-1021 -236 2069
-1018 -237 2078
-1013 -237 2084
-1004 -237 2083
-992 -236 2073
-986 -236 2077
-981 -236 2084
-980 -237 2096
-978 -239 2109
-978 -240 2127
-970 -240 2127
-967 -241 2137
-958 -240 2134
-954 -241 2142
-948 -241 2146
-940 -241 2146
-935 -242 2153
-929 -242 2157
-925 -242 2164
-920 -243 2172
-912 -243 2171
-908 -244 2180
-901 -243 2181
-898 -244 2192
-892 -245 2196
-887 -245 2203
-879 -245 2202
-876 -246 2213
-871 -247 2220
-863 -246 2219
-858 -247 2225
-853 -247 2232
-846 -247 2233
-842 -248 2243
-836 -249 2248
-829 -248 2249
-825 -250 2260
-819 -250 2264
-815 -251 2272
-808 -251 2275
-799 -250 2271
-795 -251 2281
-786 -250 2276
-786 -253 2298
-781 -253 2305
-775 -254 2310
-763 -252 2297
-760 -253 2312
-754 -254 2315
-749 -255 2325
-741 -254 2322
-739 -256 2340
-729 -255 2330
-727 -257 2350
-719 -256 2348
-711 -256 2346
-703 -256 2345
-700 -257 2359
-696 -258 2371
-692 -259 2382
-685 -260 2385
-670 -257 2358
-662 -256 2358
-650 -254 2340
-642 -254 2339
-628 -251 2312
-626 -253 2333
-616 -252 2322
-608 -251 2318
-586 -245 2263
-573 -243 2240
-568 -244 2249
-558 -242 2236
-548 -240 2220
-539 -240 2215
-528 -237 2195
-515 -234 2169
-508 -234 2168
-495 -231 2142
-475 -225 2082
-380 -182 1688
-65 -31 299
-17 -8 88
-4 -2 28
-6 -3 40
-5 -3 36
-2 -1 21
-113 -59 562
-104 -56 525
-114 -62 583
-190 -105 981
-237 -133 1238
-161 -92 858
-94 -54 513
-81 -48 454
-66 -39 375
-48 -29 285
-46 -28 274
-39 -25 241
-42 -27 263
-36 -23 230
-31 -21 208
-39 -27 260
-46 -32 305
-30 -21 212
-30 -22 215
-8 -6 70
0 0 0
0 0 0
0 0 0
0 0 0
0 0 0
-48 -40 385
-55 -47 447
-62 -55 520
-46 -42 399
-39 -36 351
-39 -37 360
-42 -41 391
-54 -54 512
-51 -53 500
-63 -66 626
-80 -87 816
-84 -94 883
-83 -95 897
-84 -100 938
-83 -102 953
-79 -101 944
-77 -101 949
-74 -100 939
-72 -102 954
-68 -100 941
-66 -101 949
-64 -102 955
-60 -101 946
-59 -103 968
-56 -103 967
-52 -101 944
-50 -101 952
-46 -99 930
-44 -101 951
-42 -102 961
-38 -99 934
-35 -100 938
-32 -99 934
-30 -99 933
-27 -99 933
-24 -100 940
-22 -100 937
-19 -100 942
-16 -99 927
-13 -99 931
-11 -100 941
-8 -99 929
-5 -100 934
-3 -101 942
0 -100 940
2 -101 943
5 -100 938
7 -101 947
10 -103 964
13 -100 931
15 -101 943
18 -102 951
21 -101 943
24 -101 942
26 -100 938
29 -101 947
32 -103 960
36 -104 971
38 -104 970
41 -103 960
44 -103 963
47 -105 975
46 -97 904
27 -50 474
24 -42 399
26 -44 415
20 -29 283
9 -9 95
334 -547 5035
340 -533 4907
347 -524 4818
354 -514 4725
363 -507 4662
377 -507 4660
389 -506 4645
399 -501 4599
408 -497 4559
419 -494 4530
431 -493 4521
443 -492 4506
453 -488 4474
465 -487 4459
479 -488 4470
489 -486 4445
501 -485 4436
512 -483 4420
523 -481 4401
536 -482 4403
547 -480 4386
556 -477 4355
570 -479 4368
577 -474 4325
590 -474 4323
602 -474 4322
614 -474 4315
624 -472 4293
634 -470 4277
643 -468 4254
658 -469 4267
668 -468 4250
675 -464 4215
688 -465 4217
697 -463 4200
706 -461 4178
715 -459 4156
728 -459 4158
734 -455 4122
743 -454 4105
757 -455 4116
766 -453 4097
777 -453 4093
784 -450 4066
795 -450 4057
802 -447 4032
813 -447 4025
824 -446 4018
834 -446 4010
840 -442 3979
853 -443 3984
862 -442 3971
868 -439 3940
880 -439 3941
890 -439 3934
895 -435 3901
904 -434 3887
913 -433 3876
923 -433 3868
931 -432 3854
941 -431 3845
948 -429 3825
957 -428 3815
970 -429 3817
976 -427 3796
986 -426 3790
1025 -438 3891
1068 -452 4010
1035 -433 3837
1015 -420 3721
1028 -421 3726
1041 -422 3730
1039 -416 3683
1050 -416 3678
1061 -417 3677
1075 -418 3684
1102 -424 3737
1124 -428 3771
1141 -431 3787
1161 -434 3812
1172 -434 3811
1183 -434 3804
1199 -435 3816
1212 -436 3820
1201 -428 3747
1199 -424 3702
1200 -420 3669
1203 -418 3642
1210 -416 3627
1224 -417 3633
1242 -420 3649
1258 -422 3662
1294 -430 3730
1331 -439 3802
1319 -431 3733
1299 -421 3641
1299 -417 3607
1303 -415 3583
1300 -411 3543
1316 -413 3555
1324 -412 3543
1346 -415 3568
1386 -425 3643
1523 -463 3969
1610 -486 4159
1641 -491 4201
1668 -496 4234
1688 -498 4247
1718 -503 4284
1629 -473 4028
1655 -477 4056
1761 -504 4280
1799 -512 4336
1837 -519 4391
1866 -523 4423
1888 -526 4437
1904 -526 4436
1921 -527 4440
1944 -530 4456
1977 -535 4493
1989 -535 4484
2002 -535 4477
2020 -536 4481
2041 -538 4492
2047 -536 4467
2065 -537 4471
2073 -536 4453
2090 -536 4453
2105 -537 4450
2101 -532 4406
2124 -535 4419
2128 -533 4394
2140 -532 4384
2150 -531 4370
2165 -532 4366
2173 -530 4348
2182 -529 4333
2187 -527 4310
2198 -527 4299
2207 -526 4282
2219 -525 4274
2232 -525 4266
2230 -522 4231
2238 -521 4214
2249 -520 4202
2264 -521 4200
2271 -519 4181
2281 -518 4168
2292 -518 4156
2292 -515 4126
2308 -516 4124
-1137 -225 1968
-1134 -225 1977
-1128 -225 1982
-1116 -224 1975
-1111 -225 1980
-1111 -226 1995
-1109 -227 2006
-1104 -227 2012
-1100 -228 2019
-1093 -228 2022
-1086 -228 2023
-1079 -228 2027
-1076 -229 2036
-1066 -228 2032
-1060 -228 2036
-1056 -228 2043
-1051 -229 2049
-1047 -229 2057
-1042 -230 2063
-1037 -230 2069
-1025 -229 2061
-1018 -229 2063
-1017 -230 2077
-1009 -230 2078
-1001 -230 2076
-990 -229 2070
-987 -229 2079
-985 -231 2091
-981 -231 2100
-979 -232 2113
-973 -233 2117
-966 -232 2117
-965 -234 2134
-957 -234 2132
-948 -233 2131
-946 -234 2142
-942 -235 2152
-933 -234 2148
-931 -236 2162
-924 -236 2164
-917 -236 2165
-912 -236 2171
-907 -237 2178
-904 -237 2188
-897 -237 2190
-894 -239 2202
-887 -239 2204
-878 -238 2201
-876 -239 2213
-870 -239 2218
-858 -238 2206
-856 -240 2222
-848 -239 2221
-842 -239 2225
-842 -241 2244
-835 -241 2245
-828 -241 2248
-824 -242 2258
-817 -242 2260
-810 -242 2260
-807 -244 2274
-802 -244 2279
-794 -244 2280
-786 -244 2278
-786 -246 2298
-776 -245 2292
-770 -245 2298
-764 -245 2301
-764 -248 2323
-755 -247 2319
-748 -247 2321
-743 -248 2330
-735 -248 2329
-734 -250 2348
-726 -249 2347
-720 -250 2353
-712 -249 2351
-704 -249 2350
-703 -251 2369
-697 -252 2377
-688 -251 2369
-682 -251 2374
-676 -252 2381
-666 -251 2373
-655 -250 2360
-642 -247 2340
-635 -247 2341
-623 -245 2322
-617 -246 2329
-608 -245 2321
-585 -238 2260
-579 -238 2263
-569 -237 2252
-560 -236 2243
-547 -234 2220
-539 -233 2214
-532 -233 2211
-522 -231 2198
-503 -226 2147
-455 -207 1970
-391 -180 1714
-117 -54 527
-17 -8 87
-5 -2 31
2 1 -3
-1053 -519 4933
-1040 -520 4939
-1002 -508 4829
-121 -62 602
-114 -59 575
-101 -53 519
-184 -99 950
-285 -155 1488
-210 -117 1120
-105 -59 575
-84 -48 470
-82 -48 468
-44 -26 258
-10 -6 68
-623 -381 3634
-19 -12 129
-20 -13 134
-720 -464 4428
0 0 0
-44 -30 294
-33 -23 229
-32 -22 226
-25 -18 188
-19 -14 147
-50 -37 365
-52 -39 389
-63 -49 478
-55 -44 428
-54 -44 433
-49 -41 400
-62 -53 518
-41 -36 358
-37 -33 332
-38 -35 350
-44 -42 415
-62 -60 589
-87 -86 836
-90 -92 887
-91 -96 925
-90 -97 937
-87 -97 941
-85 -97 941
-82 -97 938
-79 -98 942
-79 -100 970
-75 -99 952
-71 -98 946
-69 -98 946
-66 -99 953
-64 -100 966
-62 -100 964
-57 -97 940
-56 -100 968
-53 -99 958
-49 -97 941
-46 -97 938
-43 -96 926
-41 -97 939
-38 -97 937
-36 -99 952
-32 -96 925
-30 -98 949
-27 -97 938
-24 -96 930
-21 -96 929
-19 -97 939
-16 -97 936
-13 -97 938
-11 -97 939
-8 -98 941
-5 -94 911
-3 -97 935
0 -96 927
2 -96 920
5 -97 932
7 -99 950
10 -97 937
13 -99 949
16 -100 957
19 -100 964
21 -98 938
24 -100 958
27 -100 961
29 -99 953
32 -99 950
36 -102 982
39 -102 975
41 -99 954
44 -101 965
47 -101 967
46 -93 892
24 -42 413
26 -45 437
28 -46 446
27 -42 406
22 -31 303
13 -15 155
6 -4 50
351 -515 4871
359 -506 4779
369 -501 4731
377 -494 4669
390 -494 4658
399 -488 4602
407 -482 4543
419 -481 4532
431 -479 4514
444 -479 4511
455 -477 4490
465 -474 4461
477 -473 4455
487 -471 4430
501 -472 4438
514 -472 4435
524 -470 4412
535 -469 4399
545 -466 4371
558 -466 4376
570 -466 4369
579 -463 4337
593 -464 4344
600 -459 4302
611 -459 4292
622 -457 4279
635 -458 4284
643 -455 4251
654 -454 4241
665 -454 4235
676 -452 4221
686 -451 4209
697 -450 4196
704 -447 4163
720 -450 4187
727 -447 4156
740 -447 4158
745 -443 4120
759 -444 4125
764 -440 4086
774 -439 4077
785 -439 4069
794 -437 4051
804 -436 4039
808 -432 3999
825 -435 4026
835 -434 4015
841 -431 3987
853 -432 3985
856 -427 3942
869 -428 3949
880 -428 3941
888 -426 3925
900 -427 3926
907 -425 3905
914 -422 3881
921 -421 3862
935 -422 3869
938 -418 3834
949 -418 3829
959 -418 3824
969 -417 3816
978 -416 3806
987 -415 3795
1017 -423 3864
1072 -441 4024
1035 -421 3840
1019 -410 3736
1022 -407 3705
1042 -411 3736
1041 -406 3689
1051 -406 3684
1059 -405 3669
1076 -407 3689
1102 -413 3739
1117 -415 3749
1138 -418 3780
1156 -421 3799
1167 -421 3794
1181 -422 3800
1199 -424 3817
1223 -429 3855
1214 -422 3789
1219 -419 3764
1217 -415 3722
1230 -416 3725
1224 -410 3668
1241 -412 3682
1257 -414 3694
1268 -414 3691
1287 -417 3712
1329 -427 3798
1362 -434 3856
1349 -426 3781
1350 -422 3748
1348 -418 3708
1346 -414 3668
1371 -419 3703
1374 -416 3678
1394 -419 3699
1426 -425 3749
1515 -449 3949
1628 -478 4205
1643 -479 4206
1675 -485 4252
1702 -489 4282
1715 -489 4277
1653 -468 4087
1639 -460 4017
1755 -489 4266
1791 -496 4317
1826 -502 4364
1857 -507 4402
1875 -508 4406
1901 -512 4432
1922 -514 4444
1954 -519 4479
1967 -519 4473
1988 -521 4484
2002 -521 4478
2036 -526 4517
2046 -525 4504
2053 -523 4481
2077 -526 4497
2088 -525 4486
2099 -525 4473
2107 -523 4455
2110 -521 4426
2136 -524 4447
