VERSION 0.7
FIELDS x y z
SIZE 4 4 4
TYPE I I I
COUNT 1 1 1
WIDTH 3295
HEIGHT 1
VIEWPOINT 0.0 0.0 0.0 1.0 0.0 0.0 0.0
POINTS 3295
DATA ascii
14 -524 2547
21 -523 2545
29 -522 2541
36 -522 2538
43 -520 2529
51 -522 2536
58 -518 2518
65 -520 2526
73 -520 2526
80 -519 2522
87 -519 2521
95 -521 2528
102 -519 2521
109 -519 2519
117 -518 2514
124 -519 2518
132 -520 2521
138 -517 2506
146 -518 2512
153 -516 2502
161 -518 2512
167 -516 2501
175 -516 2501
181 -514 2489
189 -515 2496
196 -516 2498
203 -515 2490
210 -515 2489
218 -515 2491
224 -513 2481
232 -514 2483
239 -513 2478
247 -514 2484
253 -514 2480
261 -513 2477
268 -514 2483
276 -515 2485
283 -514 2477
290 -513 2475
295 -510 2456
304 -513 2471
309 -509 2453
315 -508 2447
322 -507 2440
328 -505 2429
335 -506 2433
343 -506 2433
348 -504 2423
355 -503 2416
362 -503 2415
369 -504 2416
378 -506 2426
383 -503 2410
389 -502 2404
398 -505 2417
406 -506 2420
411 -502 2403
419 -504 2410
425 -503 2403
433 -504 2406
440 -504 2405
448 -505 2411
454 -504 2403
462 -504 2405
468 -504 2399
474 -503 2394
481 -503 2392
490 -504 2396
495 -502 2388
502 -502 2385
508 -501 2378
522 -508 2410
541 -520 2465
558 -529 2507
576 -539 2553
585 -540 2554
581 -529 2502
576 -518 2448
573 -509 2405
577 -507 2392
582 -505 2380
588 -503 2373
597 -506 2381
604 -505 2379
610 -505 2374
618 -506 2376
625 -505 2372
631 -504 2367
638 -504 2365
646 -505 2368
650 -503 2355
659 -504 2358
666 -504 2355
675 -505 2361
681 -505 2355
686 -503 2347
693 -503 2346
700 -503 2344
707 -503 2341
716 -505 2348
721 -503 2338
728 -503 2336
736 -504 2338
743 -504 2336
751 -505 2337
760 -506 2339
765 -504 2330
772 -504 2328
778 -504 2323
784 -503 2319
792 -504 2319
801 -505 2323
806 -504 2314
813 -504 2311
820 -504 2311
829 -505 2313
836 -505 2309
844 -506 2310
850 -505 2306
859 -506 2308
861 -504 2294
872 -506 2302
879 -506 2298
882 -503 2285
894 -506 2295
898 -505 2285
905 -505 2283
912 -505 2280
918 -504 2276
926 -505 2275
930 -503 2265
940 -505 2270
948 -505 2270
954 -505 2264
961 -505 2261
969 -505 2261
974 -504 2254
983 -505 2255
988 -504 2247
996 -504 2246
995 -501 2226
1013 -506 2247
1027 -510 2260
1041 -513 2271
1021 -500 2211
1038 -505 2229
1049 -507 2234
1050 -504 2219
1057 -504 2216
1061 -503 2207
1067 -502 2201
1000 -467 2047
911 -423 1848
893 -412 1798
897 -411 1790
901 -410 1785
906 -410 1780
911 -410 1777
919 -411 1779
922 -409 1770
931 -411 1775
934 -410 1767
948 -413 1779
944 -409 1759
956 -412 1767
958 -410 1757
960 -409 1748
960 -406 1734
971 -409 1742
980 -410 1744
982 -408 1735
984 -407 1725
-1345 -516 2285
-1337 -516 2289
-1319 -512 2275
-1304 -509 2266
-1287 -505 2253
-1279 -505 2256
-1267 -504 2252
-1257 -502 2251
-1247 -501 2248
-1238 -501 2250
-1223 -498 2239
-1205 -493 2222
-1198 -494 2227
-1186 -491 2221
-1179 -491 2224
-1168 -490 2221
-1161 -490 2225
-1142 -485 2206
-1128 -482 2194
-1121 -482 2199
-1117 -484 2208
-1103 -481 2196
-1092 -479 2193
-1082 -478 2189
-1074 -477 2189
-1066 -477 2190
-1051 -473 2177
-1047 -475 2187
-1038 -474 2185
-1028 -473 2181
-1019 -471 2179
-1009 -470 2177
-1000 -469 2173
-991 -468 2172
-981 -467 2168
-980 -469 2182
-993 -479 2232
-999 -486 2263
-999 -489 2281
-995 -491 2292
-993 -493 2306
-990 -496 2319
-983 -496 2321
-985 -501 2347
-978 -501 2349
-968 -499 2345
-969 -504 2368
-966 -506 2381
-962 -508 2393
-962 -511 2413
-957 -513 2423
-952 -514 2431
-945 -515 2436
-942 -517 2449
-937 -519 2458
-932 -520 2468
-931 -524 2488
-926 -525 2496
-923 -529 2513
-924 -533 2538
-915 -533 2538
-921 -541 2578
-907 -537 2562
-918 -549 2620
-928 -560 2674
-920 -559 2674
-901 -553 2646
-894 -554 2651
-874 -546 2618
-861 -543 2605
-852 -543 2605
-846 -544 2610
-846 -549 2638
-857 -562 2701
-862 -570 2745
-869 -581 2796
-883 -596 2870
-887 -604 2914
-876 -603 2909
-868 -603 2913
-856 -601 2903
-844 -599 2896
-837 -600 2901
-828 -600 2902
-819 -600 2906
-806 -597 2890
-793 -594 2879
-786 -594 2883
-778 -596 2890
-765 -592 2875
-756 -592 2877
-742 -588 2856
-732 -587 2853
-724 -587 2854
-714 -586 2852
-702 -583 2841
-685 -575 2804
-668 -569 2773
-666 -574 2798
-659 -575 2805
-651 -576 2810
-642 -575 2809
-629 -571 2789
-620 -570 2786
-611 -570 2785
-600 -567 2771
-592 -567 2774
-582 -565 2767
-574 -566 2769
-565 -565 2768
-553 -562 2752
-542 -558 2737
-533 -558 2736
-523 -556 2725
-513 -553 2714
-504 -552 2712
-495 -552 2709
-489 -553 2717
-478 -550 2702
-469 -549 2696
-460 -548 2693
-452 -548 2696
-442 -546 2686
-434 -545 2681
-424 -542 2670
-417 -543 2675
-407 -541 2664
-398 -540 2658
-391 -540 2661
-383 -541 2665
-374 -539 2654
-368 -541 2667
-358 -539 2657
-349 -536 2643
-342 -537 2650
-334 -538 2651
-324 -534 2634
-317 -536 2643
-310 -537 2649
-302 -536 2646
-293 -533 2632
-284 -532 2626
-277 -532 2627
-268 -530 2619
-261 -531 2625
-254 -533 2630
-245 -531 2623
-237 -529 2614
-230 -530 2619
-221 -528 2610
-215 -532 2627
-205 -527 2606
-198 -527 2603
-190 -528 2607
-182 -525 2595
-174 -525 2593
-166 -524 2589
-159 -525 2594
-151 -523 2586
-143 -524 2588
-136 -523 2585
-128 -521 2577
-120 -520 2571
-112 -519 2567
-105 -521 2577
-97 -521 2574
-90 -519 2566
-82 -520 2568
-75 -519 2564
-67 -518 2557
-60 -520 2569
-52 -518 2559
-45 -518 2560
-37 -517 2552
-30 -516 2547
-22 -517 2554
-15 -517 2553
-7 -516 2547
0 -515 2541
7 -515 2545
14 -514 2539
21 -513 2530
29 -514 2534
36 -513 2532
43 -512 2527
51 -512 2526
58 -511 2521
66 -513 2528
73 -512 2522
80 -511 2519
87 -510 2515
95 -512 2523
102 -511 2520
109 -510 2510
116 -508 2502
124 -510 2509
131 -510 2508
138 -510 2509
145 -508 2500
152 -508 2498
160 -510 2508
167 -508 2499
174 -508 2499
182 -508 2498
189 -507 2491
196 -508 2496
202 -505 2481
211 -508 2492
217 -505 2479
223 -504 2472
232 -506 2480
239 -505 2478
245 -504 2470
252 -504 2470
260 -505 2474
267 -505 2471
274 -505 2470
282 -506 2476
288 -504 2463
296 -504 2466
302 -503 2458
306 -497 2429
310 -492 2404
317 -492 2405
326 -495 2415
333 -495 2414
341 -496 2420
348 -496 2420
355 -496 2419
362 -496 2417
367 -494 2403
375 -495 2410
382 -494 2405
389 -494 2404
396 -494 2402
403 -495 2402
412 -497 2411
416 -493 2391
423 -493 2393
430 -494 2393
438 -495 2396
444 -493 2386
452 -494 2391
458 -494 2388
468 -496 2398
475 -496 2398
481 -496 2393
488 -495 2389
493 -493 2378
501 -494 2383
506 -492 2371
514 -493 2375
523 -495 2384
540 -504 2424
556 -512 2462
555 -505 2427
556 -499 2396
556 -493 2364
562 -492 2357
570 -493 2364
581 -496 2376
587 -496 2372
595 -496 2372
602 -496 2371
609 -497 2370
614 -495 2362
624 -497 2371
630 -496 2364
638 -497 2365
643 -496 2358
648 -494 2349
657 -496 2353
664 -496 2352
673 -497 2356
678 -495 2347
687 -497 2352
691 -495 2339
699 -496 2343
705 -495 2335
712 -495 2335
720 -495 2335
728 -496 2335
732 -494 2326
743 -497 2335
748 -495 2326
756 -496 2329
762 -495 2323
770 -496 2323
776 -495 2318
783 -495 2315
789 -495 2310
796 -495 2309
803 -495 2307
809 -495 2303
818 -496 2306
823 -494 2297
833 -496 2304
840 -496 2300
848 -497 2302
854 -496 2295
861 -496 2294
868 -496 2292
877 -498 2295
881 -495 2283
890 -497 2287
895 -496 2279
903 -496 2279
909 -496 2273
918 -497 2277
926 -498 2277
928 -495 2262
938 -496 2265
947 -497 2267
954 -498 2266
959 -496 2257
965 -496 2252
975 -498 2257
979 -496 2247
988 -497 2249
993 -496 2240
1006 -499 2252
1007 -496 2236
1015 -496 2234
1019 -495 2225
1037 -500 2246
1035 -496 2224
1043 -497 2222
1050 -497 2220
1056 -496 2215
1059 -495 2204
1066 -495 2201
1001 -461 2050
919 -420 1865
892 -405 1796
899 -406 1796
902 -405 1788
905 -404 1780
909 -403 1773
918 -404 1778
921 -403 1769
934 -407 1782
933 -404 1766
937 -403 1760
943 -403 1757
953 -405 1762
951 -401 1745
955 -401 1739
963 -402 1742
964 -400 1729
971 -401 1730
985 -404 1741
996 -406 1747
-1338 -506 2276
-1320 -502 2261
-1318 -504 2275
-1298 -499 2257
-1285 -497 2251
-1277 -497 2254
-1268 -497 2255
-1255 -494 2248
-1246 -494 2249
-1230 -490 2236
-1226 -492 2247
-1210 -488 2234
-1197 -486 2227
-1186 -484 2223
-1183 -486 2234
-1164 -481 2216
-1158 -482 2220
-1143 -479 2209
-1141 -481 2223
-1126 -478 2210
-1122 -479 2218
-1103 -474 2198
-1087 -470 2184
-1082 -471 2190
-1075 -471 2193
-1064 -469 2188
-1066 -473 2209
-1047 -468 2188
-1034 -465 2177
-1026 -465 2178
-1021 -466 2186
-1003 -460 2164
-991 -458 2156
-986 -459 2162
-978 -459 2162
-983 -464 2192
-993 -472 2233
-1000 -479 2267
-993 -479 2270
-996 -484 2296
-988 -484 2296
-993 -490 2326
-986 -490 2331
-982 -492 2340
-975 -492 2343
-976 -496 2366
-964 -494 2357
-963 -497 2377
-963 -501 2396
-958 -502 2404
-956 -505 2420
-947 -504 2420
-947 -508 2442
-945 -512 2459
-939 -513 2466
-936 -515 2478
-933 -518 2494
-924 -517 2493
-921 -519 2507
-919 -523 2525
-914 -524 2535
-916 -530 2564
-905 -528 2559
-904 -532 2581
-899 -534 2591
-893 -535 2600
-884 -535 2599
-881 -538 2615
-876 -540 2626
-863 -537 2613
-852 -535 2606
-844 -534 2606
-841 -538 2625
-842 -544 2654
-838 -546 2668
-841 -554 2707
-873 -581 2840
-885 -594 2909
-877 -595 2914
-867 -594 2911
-859 -594 2915
-847 -592 2906
-838 -592 2906
-825 -589 2894
-814 -587 2887
-807 -589 2895
-796 -587 2890
-786 -586 2887
-776 -585 2883
-762 -581 2864
-751 -579 2858
-733 -572 2823
-721 -569 2809
-709 -566 2796
-699 -565 2793
-687 -562 2779
-670 -555 2747
-659 -553 2737
-653 -555 2746
-643 -553 2741
-635 -553 2741
-626 -553 2740
-617 -551 2735
-606 -550 2727
-597 -549 2724
-590 -550 2731
-579 -547 2718
-572 -548 2722
-561 -545 2710
-553 -545 2712
-544 -544 2706
-534 -543 2701
-525 -541 2694
-516 -540 2688
-509 -542 2698
-501 -541 2698
-491 -539 2685
-484 -540 2692
-475 -539 2688
-465 -537 2677
-455 -535 2668
-448 -535 2672
-440 -535 2671
-433 -536 2677
-425 -536 2676
-413 -531 2654
-406 -532 2658
-398 -531 2657
-391 -533 2665
-381 -530 2652
-373 -530 2652
-364 -528 2642
-356 -527 2638
-347 -526 2635
-341 -528 2642
-332 -527 2640
-323 -525 2629
-315 -525 2627
-308 -525 2630
-299 -524 2624
-292 -524 2626
-284 -524 2626
-276 -523 2622
-268 -523 2620
-259 -521 2612
-252 -522 2616
-244 -521 2610
-236 -519 2603
-228 -520 2609
-220 -519 2601
-212 -518 2599
-204 -517 2595
-196 -516 2590
-189 -517 2595
-181 -515 2582
-174 -518 2598
-166 -516 2591
-158 -514 2579
-151 -515 2584
-143 -515 2583
-135 -512 2571
-127 -512 2571
-120 -514 2579
-112 -514 2576
-105 -512 2568
-97 -510 2559
-90 -512 2571
-82 -511 2562
-75 -512 2568
-67 -510 2557
-59 -510 2557
-52 -511 2560
-44 -508 2547
-37 -510 2556
-29 -508 2548
-22 -509 2553
-15 -506 2537
-7 -507 2543
0 -506 2538
7 -505 2533
14 -505 2530
21 -506 2537
29 -505 2530
36 -505 2531
43 -504 2527
50 -501 2508
58 -502 2512
65 -503 2520
73 -502 2513
80 -502 2512
87 -501 2509
94 -500 2503
101 -500 2502
109 -501 2503
116 -500 2499
123 -499 2497
131 -500 2501
138 -499 2494
144 -497 2485
151 -497 2481
159 -499 2490
166 -497 2480
173 -496 2474
181 -499 2490
188 -498 2485
194 -495 2469
202 -498 2480
209 -496 2471
217 -497 2477
224 -497 2477
231 -496 2472
238 -496 2471
245 -497 2472
251 -494 2458
259 -495 2463
266 -494 2457
272 -494 2454
280 -494 2456
287 -493 2451
294 -493 2449
301 -493 2447
304 -487 2416
307 -480 2380
313 -479 2374
322 -482 2390
330 -483 2394
338 -485 2402
344 -484 2395
352 -485 2399
360 -487 2406
365 -484 2391
373 -484 2393
381 -486 2399
387 -485 2396
394 -485 2395
401 -485 2389
409 -486 2396
415 -485 2390
422 -485 2389
428 -484 2383
435 -484 2379
443 -485 2382
451 -486 2386
456 -484 2375
465 -486 2383
471 -485 2378
478 -485 2378
484 -484 2370
490 -483 2366
498 -484 2370
505 -484 2369
512 -484 2364
519 -484 2362
525 -483 2360
537 -488 2378
534 -479 2334
540 -478 2328
549 -480 2337
559 -482 2346
565 -481 2340
573 -483 2346
580 -482 2342
592 -487 2361
599 -487 2362
607 -488 2364
613 -487 2358
621 -487 2358
628 -487 2356
633 -486 2347
641 -487 2350
647 -486 2344
654 -486 2344
662 -487 2346
672 -489 2353
678 -488 2347
683 -487 2341
691 -488 2341
696 -487 2334
701 -485 2323
711 -487 2332
718 -487 2332
722 -485 2320
730 -486 2321
740 -488 2327
745 -487 2320
752 -486 2316
760 -487 2319
767 -487 2316
774 -487 2314
781 -487 2312
788 -487 2308
795 -487 2309
802 -487 2306
807 -486 2297
813 -485 2291
822 -487 2296
829 -487 2294
835 -486 2287
844 -488 2293
851 -487 2289
858 -487 2287
863 -487 2280
872 -488 2283
883 -490 2291
883 -486 2271
895 -489 2281
899 -487 2270
908 -488 2273
915 -488 2269
921 -488 2265
927 -487 2261
939 -490 2270
941 -487 2255
951 -489 2259
953 -486 2244
965 -489 2253
971 -488 2248
978 -489 2247
983 -488 2239
991 -488 2239
1005 -491 2251
995 -483 2210
1014 -489 2234
1039 -498 2270
1036 -493 2245
1035 -489 2225
1044 -490 2227
1051 -490 2222
1058 -490 2221
1061 -488 2209
1065 -487 2200
1009 -458 2067
920 -415 1869
901 -403 1814
891 -396 1781
897 -397 1778
898 -395 1768
916 -400 1789
913 -396 1769
916 -395 1760
932 -400 1778
934 -398 1768
943 -399 1771
945 -398 1762
941 -394 1742
956 -398 1755
966 -400 1761
955 -393 1727
971 -397 1744
977 -397 1741
981 -397 1735
988 -397 1735
-1337 -498 2276
-1322 -495 2268
-1312 -494 2266
-1300 -493 2262
-1288 -491 2258
-1274 -488 2250
-1269 -489 2257
-1254 -487 2249
-1241 -484 2241
-1224 -481 2228
-1216 -480 2229
-1205 -479 2227
-1198 -479 2230
-1188 -478 2227
-1173 -475 2217
-1162 -473 2214
-1152 -472 2211
-1158 -478 2240
-1132 -470 2206
-1123 -469 2206
-1123 -472 2222
-1107 -468 2207
-1109 -472 2229
-1080 -463 2187
-1076 -464 2198
-1052 -457 2165
-1055 -461 2189
-1038 -457 2171
-1033 -458 2178
-1022 -456 2171
-1008 -453 2158
-1006 -455 2172
-992 -452 2160
-986 -452 2163
-978 -452 2163
-985 -458 2198
-1000 -468 2248
-1003 -473 2275
-998 -474 2282
-993 -476 2291
-992 -478 2306
-989 -481 2320
-985 -482 2330
-978 -482 2333
-978 -486 2353
-976 -489 2368
-971 -490 2377
-964 -490 2381
-964 -494 2401
-961 -496 2414
-951 -495 2410
-950 -499 2430
-944 -500 2437
-941 -502 2449
-938 -504 2464
-934 -506 2476
-932 -510 2494
-925 -510 2497
-919 -511 2504
-912 -511 2508
-915 -517 2541
-911 -519 2552
-903 -519 2555
-900 -522 2571
-896 -524 2583
-891 -526 2595
-883 -526 2597
-880 -529 2611
-870 -528 2609
-870 -533 2635
-862 -533 2636
-850 -531 2628
-855 -538 2668
-848 -539 2673
-838 -538 2672
-839 -544 2701
-882 -578 2870
-887 -587 2916
-877 -586 2916
-866 -585 2911
-856 -583 2906
-845 -582 2902
-836 -582 2903
-827 -582 2905
-815 -580 2895
-801 -576 2877
-794 -577 2886
-783 -576 2879
-774 -575 2876
-762 -573 2868
-742 -564 2826
-716 -551 2761
-704 -547 2745
-698 -550 2757
-685 -546 2741
-672 -542 2722
-668 -545 2739
-655 -542 2722
-646 -540 2717
-635 -538 2709
-630 -540 2720
-618 -538 2707
-610 -538 2708
-603 -538 2711
-591 -535 2695
-586 -538 2711
-576 -536 2704
-566 -534 2697
-557 -534 2694
-548 -533 2690
-539 -532 2686
-531 -532 2687
-523 -531 2686
-516 -532 2692
-506 -531 2685
-498 -530 2682
-488 -528 2674
-481 -529 2679
-472 -528 2675
-462 -525 2660
-454 -526 2665
-445 -524 2655
-437 -524 2656
-430 -525 2663
-420 -522 2647
-413 -523 2651
-405 -523 2652
-395 -520 2641
-387 -519 2636
-381 -522 2651
-370 -518 2631
-362 -518 2630
-355 -519 2637
-348 -520 2642
-340 -519 2636
-330 -516 2622
-323 -517 2629
-316 -518 2634
-307 -516 2623
-299 -516 2625
-291 -514 2616
-283 -515 2620
-275 -514 2617
-267 -513 2610
-259 -513 2610
-252 -513 2612
-243 -510 2598
-235 -511 2601
-227 -509 2594
-219 -510 2595
-212 -509 2591
-203 -507 2584
-196 -509 2591
-188 -505 2574
-180 -507 2580
-172 -505 2572
-165 -507 2581
-158 -506 2578
-150 -504 2569
-142 -503 2561
-135 -506 2578
-127 -502 2560
-119 -501 2551
-112 -503 2561
-104 -499 2544
-96 -501 2552
-89 -501 2551
-81 -499 2543
-74 -499 2544
-66 -500 2545
-59 -497 2533
-51 -496 2524
-44 -498 2538
-37 -497 2529
-29 -497 2530
-22 -497 2528
-14 -495 2519
-7 -494 2516
0 -494 2516
7 -495 2517
14 -495 2521
21 -495 2520
29 -494 2512
36 -492 2504
43 -493 2509
51 -494 2512
57 -491 2494
65 -493 2505
72 -489 2484
79 -491 2492
87 -492 2498
94 -490 2488
101 -489 2482
108 -490 2490
115 -487 2474
122 -488 2478
130 -489 2480
137 -488 2475
143 -487 2469
151 -488 2472
158 -487 2466
165 -486 2462
172 -485 2459
179 -487 2465
186 -486 2461
193 -484 2451
200 -484 2450
207 -484 2451
214 -484 2451
221 -483 2440
228 -483 2441
235 -483 2439
241 -480 2426
249 -483 2439
257 -483 2441
262 -481 2427
269 -480 2421
277 -482 2429
283 -480 2421
291 -482 2430
297 -480 2421
303 -478 2407
306 -471 2373
313 -472 2376
319 -470 2363
327 -471 2370
336 -475 2386
344 -477 2394
350 -475 2388
359 -477 2396
364 -476 2386
373 -477 2394
378 -476 2384
386 -477 2390
394 -478 2394
400 -476 2383
408 -478 2390
412 -474 2373
421 -476 2381
427 -476 2375
433 -475 2371
441 -476 2376
448 -475 2372
455 -476 2373
461 -474 2363
467 -473 2358
475 -474 2361
481 -474 2359
491 -477 2370
496 -475 2359
504 -476 2365
509 -474 2351
516 -474 2351
522 -474 2347
528 -472 2340
534 -472 2335
541 -472 2333
549 -472 2336
556 -473 2336
566 -476 2349
572 -475 2342
577 -473 2332
584 -473 2331
593 -475 2339
600 -475 2335
606 -474 2332
616 -476 2341
621 -475 2333
628 -476 2332
635 -475 2328
642 -475 2327
651 -477 2333
657 -476 2327
661 -474 2317
668 -474 2315
679 -477 2326
684 -475 2317
690 -475 2314
698 -476 2315
706 -477 2318
714 -477 2317
719 -476 2309
727 -477 2311
734 -477 2310
739 -476 2303
749 -477 2308
755 -477 2303
763 -478 2306
769 -477 2301
777 -478 2301
783 -477 2295
792 -479 2301
797 -477 2293
806 -478 2294
813 -478 2293
818 -477 2286
827 -479 2290
833 -478 2284
840 -478 2282
848 -479 2283
853 -478 2276
861 -478 2275
868 -478 2272
878 -480 2278
882 -478 2268
892 -480 2275
896 -478 2262
902 -478 2259
912 -479 2263
917 -478 2255
927 -480 2260
933 -479 2255
941 -480 2257
948 -480 2254
955 -480 2249
962 -480 2247
970 -481 2247
975 -480 2239
984 -481 2241
991 -481 2240
1024 -493 2294
1004 -481 2232
1019 -484 2246
1017 -480 2223
1026 -481 2226
1034 -481 2224
1041 -482 2222
1051 -483 2224
1054 -481 2213
1061 -481 2211
1068 -481 2208
1020 -457 2090
924 -411 1878
885 -391 1785
895 -393 1791
899 -392 1784
900 -390 1773
911 -392 1780
917 -392 1777
923 -393 1776
920 -389 1757
935 -393 1771
937 -391 1761
948 -393 1769
951 -392 1761
957 -393 1759
956 -390 1744
970 -393 1755
971 -391 1744
973 -390 1735
980 -390 1734
990 -392 1739
-1342 -492 2286
-1323 -488 2270
-1298 -482 2244
-1300 -485 2264
-1286 -483 2257
-1269 -479 2243
-1263 -480 2250
-1257 -480 2255
-1242 -477 2245
-1234 -477 2246
-1219 -474 2236
-1211 -474 2238
-1200 -473 2236
-1190 -471 2233
-1184 -472 2239
-1167 -468 2224
-1157 -467 2222
-1145 -465 2215
-1134 -464 2212
-1110 -457 2182
-1112 -461 2203
-1108 -462 2212
-1086 -455 2184
-1085 -458 2200
-1059 -450 2165
-1053 -450 2168
-1046 -451 2172
-1037 -449 2169
-1031 -450 2175
-1022 -449 2174
-1016 -450 2178
-1004 -447 2170
-1005 -451 2190
-982 -443 2156
-973 -443 2154
-985 -451 2198
-1002 -462 2254
-1002 -466 2273
-998 -467 2283
-998 -471 2303
-987 -469 2296
-985 -471 2312
-984 -475 2329
-980 -476 2338
-975 -477 2346
-969 -478 2353
-968 -481 2369
-966 -484 2387
-961 -485 2394
-959 -488 2411
-956 -490 2424
-953 -492 2437
-945 -492 2438
-943 -495 2456
-938 -497 2465
-930 -496 2466
-931 -501 2492
-924 -501 2495
-920 -503 2507
-916 -506 2522
-915 -509 2541
-910 -511 2550
-907 -514 2568
-900 -514 2572
-897 -517 2589
-889 -517 2590
-882 -518 2595
-879 -521 2612
-874 -523 2624
-867 -523 2628
-864 -526 2644
-855 -526 2644
-851 -528 2657
-847 -531 2673
-842 -533 2685
-847 -541 2730
-869 -561 2830
-876 -571 2882
-873 -575 2904
-862 -573 2896
-854 -573 2901
-845 -574 2905
-835 -573 2902
-825 -572 2897
-813 -570 2889
-805 -570 2891
-793 -568 2883
-782 -566 2875
-772 -565 2871
-760 -563 2861
-732 -548 2787
-709 -537 2734
-703 -539 2746
-688 -534 2720
-679 -533 2717
-669 -532 2712
-661 -532 2714
-653 -532 2715
-644 -531 2711
-634 -529 2705
-627 -531 2712
-619 -530 2711
-608 -528 2701
-599 -527 2695
-591 -527 2697
-582 -526 2697
-577 -528 2708
-568 -528 2705
-555 -524 2686
-545 -522 2677
-538 -522 2679
-530 -522 2681
-520 -521 2673
-512 -520 2672
-502 -518 2662
-496 -520 2671
-487 -519 2671
-479 -518 2666
-470 -517 2660
-460 -516 2653
-453 -516 2658
-445 -516 2654
-435 -513 2644
-429 -516 2656
-421 -516 2657
-412 -514 2648
-404 -514 2648
-396 -513 2645
-387 -512 2641
-380 -512 2643
-368 -508 2619
-361 -509 2626
-353 -508 2623
-346 -509 2628
-337 -508 2621
-328 -506 2612
-321 -506 2612
-313 -505 2609
-305 -504 2606
-297 -505 2611
-288 -503 2598
-281 -503 2599
-273 -502 2593
-265 -502 2593
-257 -500 2587
-250 -503 2599
-241 -500 2585
-233 -499 2582
-226 -499 2579
-218 -498 2578
-210 -498 2577
-202 -497 2573
-194 -495 2559
-186 -495 2559
-179 -494 2555
-172 -496 2565
-164 -494 2554
-156 -493 2550
-148 -491 2542
-140 -491 2543
-133 -492 2545
-125 -491 2540
-118 -490 2534
-110 -490 2533
-103 -489 2530
-96 -491 2540
-88 -491 2540
-81 -489 2530
-73 -488 2522
-66 -487 2521
-59 -490 2532
-51 -487 2518
-44 -487 2519
-36 -485 2510
-29 -487 2516
-22 -487 2516
-14 -486 2513
-7 -487 2517
0 -485 2505
7 -485 2505
14 -482 2491
21 -485 2505
28 -483 2493
36 -483 2495
43 -483 2492
50 -483 2492
57 -481 2482
64 -480 2479
72 -480 2479
79 -480 2476
86 -481 2483
94 -482 2485
100 -479 2470
107 -479 2470
114 -479 2467
122 -479 2467
129 -479 2467
136 -477 2457
143 -477 2455
150 -478 2460
157 -477 2456
164 -477 2457
171 -477 2455
179 -477 2454
185 -475 2441
192 -476 2448
200 -476 2447
206 -475 2439
213 -474 2434
220 -474 2436
228 -475 2439
233 -472 2422
241 -474 2431
248 -473 2424
256 -474 2432
262 -473 2423
268 -472 2416
276 -472 2419
282 -471 2412
289 -471 2413
297 -472 2416
303 -471 2410
308 -468 2394
313 -465 2376
319 -463 2367
325 -462 2357
331 -461 2351
339 -463 2363
349 -466 2378
357 -468 2387
363 -467 2380
370 -466 2376
377 -467 2377
383 -466 2371
391 -467 2374
397 -466 2371
404 -466 2369
412 -468 2375
418 -466 2365
426 -467 2371
432 -466 2364
438 -465 2355
447 -467 2366
454 -467 2366
459 -465 2355
467 -466 2358
474 -467 2361
480 -466 2353
486 -465 2346
493 -465 2348
500 -465 2344
509 -467 2352
513 -464 2338
521 -465 2340
529 -466 2345
533 -463 2329
540 -464 2332
548 -465 2333
557 -467 2340
562 -465 2331
570 -466 2335
576 -465 2330
583 -465 2326
586 -462 2311
593 -462 2308
602 -464 2317
609 -464 2316
616 -465 2316
623 -464 2313
631 -465 2315
637 -465 2312
644 -465 2310
652 -465 2310
658 -465 2306
666 -466 2308
672 -465 2305
679 -465 2302
685 -464 2296
693 -465 2298
699 -465 2296
706 -465 2294
712 -464 2289
720 -465 2291
726 -465 2286
733 -464 2283
738 -463 2275
747 -465 2281
754 -465 2278
758 -463 2268
767 -464 2271
778 -467 2282
782 -465 2273
788 -465 2268
797 -466 2271
803 -466 2267
809 -465 2263
820 -468 2272
826 -467 2267
832 -466 2261
843 -469 2270
849 -468 2266
857 -469 2266
864 -469 2264
868 -468 2254
878 -469 2260
883 -468 2253
893 -470 2257
899 -469 2252
908 -470 2254
915 -471 2253
919 -469 2242
932 -472 2255
936 -471 2246
943 -471 2242
950 -471 2240
960 -472 2243
963 -470 2232
971 -471 2232
978 -471 2230
984 -470 2224
994 -472 2228
1005 -474 2235
1028 -482 2267
1024 -476 2239
1023 -472 2218
1037 -476 2232
1043 -475 2226
1048 -475 2220
1057 -475 2220
1063 -475 2215
1062 -472 2196
1019 -449 2089
929 -407 1889
897 -390 1810
888 -384 1777
909 -391 1805
903 -385 1779
907 -385 1774
917 -387 1779
918 -385 1767
925 -385 1766
933 -386 1768
936 -385 1761
942 -385 1759
953 -387 1766
952 -385 1751
961 -386 1754
969 -387 1754
967 -384 1739
975 -385 1739
984 -386 1742
986 -385 1732
-1330 -480 2266
-1323 -480 2271
-1316 -481 2276
-1291 -474 2250
-1287 -476 2259
-1280 -476 2264
-1262 -472 2248
-1256 -472 2254
-1240 -469 2243
-1221 -465 2225
-1230 -471 2259
-1223 -471 2262
-1199 -465 2235
-1181 -461 2217
-1180 -463 2234
-1171 -462 2232
-1160 -461 2229
-1146 -458 2218
-1125 -453 2196
-1121 -454 2205
-1103 -450 2187
-1098 -450 2192
-1089 -450 2191
-1082 -450 2195
-1072 -449 2193
-1064 -448 2193
-1051 -446 2183
-1049 -448 2196
-1032 -443 2177
-1029 -445 2189
-1020 -444 2187
-1009 -443 2181
-999 -442 2178
-983 -437 2161
-972 -435 2153
-986 -445 2202
-1001 -455 2255
-1001 -458 2272
-994 -458 2276
-997 -463 2301
-992 -464 2309
-984 -464 2311
-987 -469 2337
-979 -469 2339
-978 -472 2356
-968 -470 2353
-964 -472 2363
-961 -474 2376
-963 -478 2400
-957 -479 2407
-956 -483 2425
-953 -485 2439
-945 -485 2442
-941 -487 2454
-937 -488 2463
-931 -489 2471
-927 -491 2483
-926 -495 2502
-915 -493 2497
-915 -497 2518
-909 -499 2527
-906 -501 2543
-902 -503 2554
-896 -504 2561
-891 -506 2573
-887 -508 2584
-886 -512 2608
-876 -511 2603
-871 -513 2614
-868 -516 2631
-864 -518 2645
-852 -516 2636
-847 -517 2646
-842 -519 2658
-837 -521 2670
-840 -529 2709
-843 -536 2746
-848 -544 2791
-849 -550 2826
-852 -558 2865
-849 -562 2888
-842 -563 2894
-831 -561 2889
-822 -561 2891
-814 -561 2893
-803 -560 2887
-793 -559 2882
-780 -556 2870
-768 -553 2857
-751 -547 2828
-720 -531 2746
-704 -525 2718
-694 -524 2712
-685 -523 2707
-676 -522 2704
-669 -524 2714
-659 -521 2703
-649 -520 2699
-641 -520 2699
-634 -521 2704
-621 -518 2688
-613 -517 2686
-604 -516 2682
-598 -518 2694
-586 -515 2678
-580 -516 2688
-568 -513 2671
-561 -514 2677
-553 -514 2675
-543 -512 2666
-536 -513 2673
-525 -509 2656
-519 -512 2671
-512 -512 2672
-501 -509 2659
-493 -509 2658
-484 -508 2652
-473 -505 2638
-467 -506 2646
-460 -507 2653
-452 -507 2650
-441 -504 2637
-434 -504 2639
-425 -504 2636
-418 -504 2637
-407 -500 2619
-399 -499 2615
-391 -499 2616
-384 -500 2621
-375 -498 2611
-368 -499 2616
-360 -500 2620
-353 -501 2625
-343 -497 2607
-334 -496 2600
-327 -496 2601
-319 -496 2602
-313 -497 2610
-304 -496 2604
-298 -498 2614
-286 -492 2583
-280 -495 2598
-271 -492 2585
-265 -494 2592
-256 -493 2587
-248 -492 2582
-241 -491 2580
-233 -491 2577
-225 -490 2577
-217 -488 2565
-209 -489 2567
-202 -488 2565
-195 -489 2572
-186 -488 2563
-179 -487 2562
-171 -487 2558
-163 -485 2550
-155 -484 2546
-148 -485 2551
-141 -486 2554
-134 -487 2557
-126 -486 2552
-118 -483 2540
-110 -479 2516
-103 -483 2539
-96 -483 2539
-89 -485 2546
-81 -483 2538
-73 -482 2533
-66 -480 2523
-58 -481 2525
-51 -480 2522
-44 -481 2524
-36 -481 2524
-29 -481 2527
-21 -478 2509
-14 -476 2498
-7 -479 2514
0 -478 2512
7 -477 2502
14 -479 2512
21 -477 2502
28 -475 2495
36 -478 2506
43 -476 2497
50 -475 2489
58 -476 2495
64 -473 2478
72 -477 2498
79 -474 2486
86 -471 2470
94 -474 2484
101 -473 2479
108 -474 2481
115 -472 2470
122 -473 2475
130 -474 2479
136 -471 2466
143 -469 2456
150 -471 2466
158 -472 2470
165 -471 2465
171 -469 2453
179 -470 2455
185 -469 2451
192 -469 2448
200 -470 2452
207 -469 2449
214 -469 2445
221 -469 2447
228 -470 2449
235 -468 2442
242 -469 2443
249 -469 2442
256 -468 2438
263 -467 2431
269 -466 2426
277 -468 2433
284 -467 2427
290 -466 2423
298 -467 2426
305 -466 2422
312 -467 2427
316 -462 2396
319 -456 2367
325 -455 2362
329 -451 2339
337 -452 2344
345 -454 2352
352 -454 2353
361 -457 2366
368 -458 2368
375 -457 2363
382 -457 2364
389 -457 2361
395 -456 2355
403 -458 2363
409 -456 2353
416 -457 2357
423 -457 2353
430 -458 2356
437 -457 2352
444 -457 2352
450 -456 2347
457 -457 2347
465 -458 2351
471 -457 2343
478 -457 2342
485 -457 2343
491 -456 2336
499 -457 2339
506 -457 2338
513 -457 2340
517 -455 2326
525 -456 2327
533 -457 2334
539 -456 2327
546 -456 2327
554 -457 2330
560 -456 2322
567 -456 2321
574 -457 2322
580 -456 2317
586 -455 2310
591 -454 2303
596 -452 2294
606 -455 2304
616 -457 2315
623 -458 2315
631 -458 2316
637 -457 2310
644 -458 2312
650 -457 2305
655 -455 2295
665 -458 2306
671 -457 2301
676 -456 2293
685 -457 2297
688 -455 2283
699 -458 2296
702 -456 2282
709 -455 2279
717 -456 2280
723 -456 2277
733 -458 2286
736 -455 2270
746 -457 2278
752 -457 2274
759 -457 2272
766 -457 2269
771 -456 2263
777 -455 2258
787 -457 2264
794 -457 2263
803 -458 2267
806 -457 2255
814 -457 2256
821 -457 2252
827 -457 2248
835 -458 2250
842 -458 2248
852 -459 2254
856 -458 2243
863 -458 2241
868 -457 2235
879 -459 2243
885 -458 2237
890 -457 2230
898 -458 2231
905 -458 2229
914 -459 2231
919 -458 2223
929 -460 2228
937 -461 2230
942 -460 2222
948 -459 2217
953 -459 2211
968 -462 2225
975 -462 2223
984 -463 2225
992 -464 2226
1009 -469 2244
1020 -471 2252
1018 -466 2228
1026 -467 2226
1034 -467 2226
1037 -466 2216
1049 -468 2222
1053 -467 2214
1059 -466 2209
1055 -462 2183
1018 -442 2089
932 -402 1896
890 -381 1796
898 -382 1798
893 -378 1775
901 -379 1776
909 -380 1779
917 -381 1779
914 -377 1759
920 -378 1759
934 -381 1771
931 -377 1753
937 -377 1750
944 -378 1750
954 -380 1755
958 -379 1748
962 -379 1744
973 -381 1750
986 -384 1760
984 -381 1744
993 -382 1747
-1327 -472 2264
-1324 -473 2275
-1312 -472 2271
-1296 -469 2261
-1273 -463 2237
-1270 -465 2249
-1264 -466 2254
-1251 -463 2247
-1240 -462 2244
-1226 -460 2236
-1218 -459 2238
-1202 -456 2225
-1195 -456 2230
-1193 -458 2242
-1173 -453 2221
-1162 -452 2218
-1150 -450 2212
-1141 -449 2211
-1135 -450 2216
-1125 -449 2214
-1116 -448 2214
-1104 -446 2206
-1092 -444 2199
-1087 -445 2206
-1075 -443 2200
-1073 -445 2213
-1057 -441 2197
-1049 -441 2198
-1040 -440 2197
-1030 -439 2192
-1021 -438 2190
-1010 -436 2185
-998 -434 2177
-982 -430 2159
-975 -430 2160
-988 -439 2208
-1000 -448 2254
-999 -450 2270
-997 -452 2284
-993 -454 2295
-990 -456 2307
-986 -457 2316
-985 -460 2333
-978 -460 2336
-972 -461 2342
-974 -466 2367
-965 -465 2366
-960 -466 2375
-960 -470 2395
-960 -474 2417
-957 -475 2429
-950 -476 2433
-950 -480 2456
-940 -479 2451
-936 -480 2462
-935 -484 2483
-932 -486 2496
-924 -486 2500
-919 -488 2508
-915 -490 2520
-912 -492 2537
-905 -493 2541
-899 -494 2548
-896 -496 2562
-888 -497 2566
-884 -499 2579
-881 -501 2593
-875 -502 2603
-872 -505 2619
-863 -505 2619
-856 -505 2624
-856 -510 2649
-847 -510 2649
-845 -513 2669
-837 -513 2671
-834 -516 2690
-829 -519 2703
-826 -522 2720
-826 -527 2749
-821 -529 2762
-820 -534 2790
-825 -543 2839
-818 -544 2846
-816 -549 2871
-809 -549 2876
-798 -548 2871
-791 -549 2876
-766 -538 2821
-747 -530 2781
-729 -523 2748
-709 -515 2704
-699 -513 2699
-693 -515 2706
-687 -517 2719
-673 -512 2694
-665 -512 2696
-654 -510 2685
-645 -509 2684
-638 -510 2689
-628 -509 2684
-620 -508 2681
-610 -507 2676
-601 -506 2674
-592 -505 2671
-584 -505 2670
-577 -506 2676
-566 -503 2663
-558 -503 2661
-550 -503 2662
-542 -503 2663
-535 -503 2667
-523 -500 2649
-516 -501 2656
-506 -499 2644
-497 -498 2641
-490 -498 2642
-483 -499 2650
-473 -497 2638
-469 -501 2662
-458 -498 2644
-448 -495 2630
-442 -497 2640
-433 -496 2638
-424 -495 2632
-418 -496 2637
-408 -493 2625
-400 -494 2626
-392 -493 2623
-384 -493 2625
-376 -492 2620
-367 -491 2616
-360 -491 2615
-352 -492 2619
-343 -490 2610
-336 -491 2616
-327 -489 2606
-321 -490 2614
-312 -489 2609
-304 -489 2606
-296 -488 2603
-288 -487 2600
-281 -488 2602
-274 -488 2606
-264 -485 2587
-256 -484 2582
-249 -486 2592
-242 -486 2592
-234 -485 2589
-225 -483 2579
-219 -485 2589
-210 -483 2578
-202 -483 2577
-195 -483 2577
-187 -482 2572
-179 -482 2572
-171 -480 2564
-164 -481 2566
-156 -479 2559
-148 -477 2545
-141 -478 2550
-133 -477 2545
-125 -476 2543
-118 -478 2550
-111 -476 2544
-103 -476 2543
-96 -476 2539
-88 -475 2538
-81 -476 2543
-73 -475 2536
-66 -474 2530
-59 -476 2541
-51 -473 2524
-44 -474 2530
-36 -473 2526
-29 -473 2522
-22 -473 2523
-14 -470 2509
-7 -470 2506
0 -472 2518
7 -471 2510
14 -470 2508
21 -469 2499
29 -471 2509
36 -471 2509
43 -470 2504
50 -467 2489
57 -467 2486
65 -466 2485
72 -466 2481
79 -467 2487
86 -466 2480
93 -464 2471
101 -465 2477
108 -467 2485
115 -464 2470
122 -465 2473
129 -466 2475
136 -464 2465
143 -464 2466
151 -464 2467
158 -464 2467
164 -463 2457
172 -463 2461
179 -463 2459
186 -464 2460
193 -462 2450
200 -463 2454
207 -463 2456
214 -462 2449
220 -460 2435
228 -462 2448
234 -460 2434
242 -462 2443
249 -460 2434
256 -460 2434
263 -460 2431
269 -459 2428
278 -462 2439
284 -460 2429
290 -459 2424
299 -461 2436
305 -460 2429
312 -460 2424
319 -459 2422
321 -453 2386
326 -449 2366
331 -447 2356
337 -445 2343
343 -445 2339
349 -443 2330
358 -446 2345
365 -446 2345
373 -448 2355
381 -449 2358
387 -449 2355
395 -449 2355
402 -450 2357
408 -448 2349
414 -447 2342
422 -448 2348
430 -450 2354
435 -448 2342
442 -448 2341
448 -447 2336
455 -448 2338
462 -447 2334
469 -448 2334
476 -448 2334
481 -446 2322
489 -448 2330
495 -447 2324
503 -448 2327
508 -446 2315
516 -447 2320
523 -447 2318
532 -449 2327
537 -448 2320
543 -447 2316
549 -446 2309
556 -446 2309
563 -447 2309
571 -447 2310
577 -447 2306
585 -447 2307
589 -446 2298
593 -443 2284
602 -445 2291
610 -446 2293
618 -447 2295
631 -451 2317
637 -451 2313
645 -451 2314
653 -452 2317
658 -451 2307
667 -452 2313
674 -453 2314
680 -452 2306
687 -452 2308
693 -451 2302
699 -451 2296
704 -449 2288
712 -450 2289
722 -452 2299
724 -449 2280
731 -449 2280
740 -451 2284
748 -451 2285
754 -451 2280
759 -450 2274
767 -451 2275
772 -450 2267
782 -451 2272
785 -449 2261
793 -450 2262
800 -450 2260
808 -451 2262
817 -452 2265
823 -451 2260
830 -451 2257
834 -450 2247
841 -450 2245
849 -450 2246
856 -450 2243
862 -450 2239
866 -449 2230
874 -449 2230
883 -451 2235
889 -450 2230
896 -450 2227
905 -451 2230
913 -452 2231
916 -450 2219
921 -449 2211
931 -451 2216
940 -452 2218
943 -450 2207
956 -453 2219
962 -453 2214
968 -452 2209
975 -452 2206
987 -455 2215
999 -457 2222
1031 -468 2275
1023 -462 2240
1040 -466 2260
1032 -459 2223
1043 -461 2230
1047 -460 2219
1052 -459 2211
1060 -460 2212
1053 -453 2179
1028 -440 2111
931 -395 1895
895 -378 1808
896 -376 1796
899 -374 1786
903 -374 1782
902 -371 1766
912 -373 1771
912 -371 1758
931 -376 1780
933 -375 1771
938 -374 1766
943 -374 1762
946 -373 1754
954 -374 1757
953 -371 1740
965 -374 1751
969 -373 1744
982 -376 1755
985 -375 1746
985 -373 1733
-1344 -470 2293
-1339 -471 2302
-1298 -460 2249
-1295 -461 2260
-1278 -458 2247
-1261 -454 2234
-1260 -456 2248
-1260 -459 2265
-1231 -451 2229
-1226 -452 2238
-1204 -447 2213
-1207 -451 2236
-1200 -451 2240
-1178 -445 2215
-1174 -446 2224
-1167 -446 2227
-1159 -446 2229
-1143 -443 2216
-1138 -444 2224
-1129 -443 2224
-1117 -441 2216
-1107 -440 2214
-1104 -442 2225
-1088 -438 2209
-1086 -440 2222
-1074 -438 2216
-1070 -440 2226
-1052 -435 2205
-1044 -435 2205
-1030 -432 2193
-1023 -432 2197
-1013 -431 2193
-1000 -428 2181
-987 -425 2172
-977 -424 2167
-989 -432 2211
-1003 -442 2261
-1003 -445 2280
-996 -445 2283
-990 -445 2288
-991 -449 2310
-987 -451 2319
-982 -452 2329
-980 -454 2343
-975 -455 2350
-969 -456 2356
-970 -460 2378
-967 -462 2393
-962 -463 2402
-951 -462 2394
-953 -466 2422
-946 -467 2425
-943 -469 2439
-944 -473 2462
-938 -474 2470
-935 -476 2485
-929 -477 2491
-926 -479 2505
-919 -480 2509
-915 -482 2523
-914 -485 2542
-904 -485 2540
-899 -486 2549
-895 -488 2563
-894 -492 2585
-885 -491 2583
-879 -492 2590
-876 -495 2607
-871 -497 2617
-863 -497 2619
-860 -500 2636
-853 -500 2641
-844 -500 2641
-841 -503 2660
-837 -505 2674
-830 -506 2678
-823 -507 2683
-821 -511 2706
-816 -512 2718
-808 -513 2723
-804 -516 2738
-801 -519 2757
-801 -524 2787
-795 -526 2798
-793 -530 2823
-792 -535 2851
-778 -531 2831
-751 -519 2767
-731 -511 2725
-718 -507 2708
-707 -505 2698
-698 -505 2697
-693 -507 2711
-680 -503 2691
-672 -503 2693
-663 -503 2690
-656 -503 2695
-646 -502 2689
-639 -503 2697
-626 -499 2676
-619 -500 2680
-610 -499 2677
-600 -497 2668
-594 -499 2681
-586 -499 2680
-578 -499 2681
-568 -497 2672
-559 -496 2670
-550 -495 2664
-544 -497 2673
-534 -495 2666
-525 -494 2661
-517 -494 2661
-511 -496 2671
-502 -494 2664
-492 -493 2656
-482 -490 2645
-476 -492 2655
-468 -492 2653
-459 -491 2650
-451 -490 2648
-441 -488 2638
-433 -488 2639
-425 -488 2636
-418 -488 2640
-409 -487 2634
-400 -486 2626
-393 -487 2635
-383 -484 2619
-377 -487 2633
-369 -485 2627
-360 -484 2622
-352 -484 2620
-345 -484 2622
-335 -481 2608
-330 -485 2625
-321 -483 2617
-314 -484 2623
-303 -480 2599
-297 -481 2608
-288 -479 2597
-281 -481 2610
-273 -480 2605
-265 -479 2596
-257 -479 2597
-248 -477 2585
-240 -476 2580
-234 -477 2589
-224 -474 2572
-218 -477 2589
-210 -475 2575
-203 -476 2582
-194 -474 2571
-185 -471 2553
-178 -472 2560
-171 -471 2556
-164 -473 2566
-156 -472 2559
-148 -471 2557
-140 -469 2547
-133 -471 2553
-126 -471 2555
-118 -469 2547
-110 -469 2542
-103 -469 2547
-95 -467 2534
-88 -467 2533
-80 -465 2523
-73 -466 2528
-65 -464 2516
-58 -467 2531
-51 -465 2523
-43 -465 2520
-36 -465 2524
-29 -464 2519
-21 -465 2519
-14 -464 2515
-7 -462 2506
0 -461 2501
7 -465 2518
14 -463 2507
21 -463 2507
29 -460 2494
36 -462 2503
43 -458 2480
50 -460 2493
57 -458 2479
65 -459 2484
72 -458 2481
79 -457 2470
87 -460 2491
93 -459 2481
100 -458 2475
108 -457 2472
115 -459 2481
122 -456 2464
129 -456 2463
136 -455 2457
143 -454 2453
150 -457 2465
157 -456 2460
164 -455 2457
171 -455 2455
178 -453 2444
185 -455 2451
192 -454 2446
199 -453 2443
207 -454 2446
213 -452 2436
220 -453 2440
228 -453 2441
234 -452 2433
241 -453 2435
249 -453 2435
255 -452 2432
263 -453 2432
267 -448 2409
277 -453 2435
283 -452 2426
290 -452 2423
296 -450 2413
304 -451 2419
311 -451 2415
317 -449 2407
324 -449 2406
328 -446 2386
333 -443 2371
336 -438 2343
343 -437 2337
349 -436 2331
354 -434 2321
362 -435 2325
369 -436 2327
377 -438 2336
385 -439 2342
394 -441 2350
400 -440 2345
406 -439 2340
412 -439 2336
420 -440 2339
427 -440 2338
434 -440 2337
441 -440 2338
444 -437 2319
453 -438 2325
460 -439 2328
467 -439 2326
473 -438 2320
480 -438 2319
487 -438 2318
494 -438 2317
501 -439 2318
507 -438 2315
516 -440 2321
522 -439 2316
528 -439 2311
535 -439 2312
541 -438 2307
548 -439 2307
555 -438 2304
560 -437 2294
567 -437 2294
575 -438 2297
582 -438 2296
591 -440 2303
596 -439 2297
602 -438 2293
608 -438 2288
613 -436 2279
624 -439 2291
634 -441 2301
643 -443 2309
652 -444 2314
660 -445 2316
665 -444 2308
673 -445 2309
679 -444 2305
685 -443 2299
692 -444 2300
697 -442 2290
709 -446 2304
713 -444 2294
716 -442 2280
724 -442 2282
733 -443 2285
736 -442 2274
747 -444 2282
754 -444 2282
762 -445 2282
766 -443 2271
776 -445 2279
783 -445 2278
789 -444 2272
793 -443 2261
796 -441 2250
807 -443 2259
814 -443 2257
821 -443 2256
827 -443 2251
834 -443 2248
842 -443 2249
847 -443 2242
855 -443 2242
860 -442 2235
873 -445 2248
875 -443 2234
887 -446 2246
892 -445 2238
895 -443 2226
900 -442 2218
906 -442 2214
917 -443 2220
925 -444 2222
931 -444 2217
939 -444 2217
946 -444 2215
952 -444 2210
958 -444 2206
964 -443 2201
968 -442 2193
979 -444 2199
997 -449 2219
1008 -451 2226
1036 -460 2270
1011 -446 2196
1027 -450 2213
1042 -454 2227
1045 -452 2216
1051 -452 2211
1054 -450 2200
1051 -446 2176
1020 -430 2095
938 -392 1910
891 -370 1800
898 -371 1800
899 -369 1787
902 -368 1780
912 -369 1785
914 -368 1775
920 -368 1774
923 -367 1765
931 -368 1768
932 -366 1755
939 -367 1756
943 -366 1749
951 -367 1752
963 -370 1760
962 -367 1745
971 -368 1748
966 -364 1727
987 -370 1751
989 -369 1741
-1323 -455 2259
-1320 -457 2271
-1296 -451 2247
-1309 -458 2285
-1294 -456 2277
-1270 -450 2250
-1246 -444 2225
-1253 -450 2255
-1238 -447 2243
-1233 -448 2251
-1226 -448 2256
-1209 -444 2242
-1206 -446 2253
-1193 -444 2244
-1191 -446 2258
-1170 -440 2235
-1165 -441 2242
-1154 -440 2238
-1145 -439 2239
-1131 -437 2229
-1124 -437 2231
-1107 -433 2215
-1097 -432 2211
-1091 -432 2217
-1080 -431 2212
-1071 -430 2211
-1058 -428 2202
-1051 -428 2205
-1037 -425 2192
-1032 -426 2199
-1020 -424 2191
-1011 -423 2189
-1001 -421 2185
-984 -417 2165
-976 -417 2166
-989 -425 2213
-1002 -434 2262
-1002 -437 2280
-999 -439 2292
-992 -439 2294
-990 -441 2309
-988 -444 2324
-985 -446 2335
-978 -446 2339
-973 -447 2347
-970 -449 2361
-965 -451 2370
-963 -453 2384
-962 -456 2404
-955 -456 2407
-953 -459 2422
-946 -459 2426
-943 -461 2441
-939 -463 2452
-932 -463 2455
-932 -467 2478
-930 -470 2495
-920 -469 2491
-916 -471 2502
-910 -472 2511
-912 -477 2539
-903 -476 2537
-901 -479 2556
-893 -479 2557
-887 -480 2566
-882 -482 2574
-876 -483 2582
-873 -486 2599
-867 -487 2609
-860 -487 2612
-860 -492 2637
-850 -491 2634
-845 -493 2646
-843 -496 2667
-836 -497 2671
-829 -497 2677
-824 -499 2690
-820 -502 2703
-814 -503 2713
-811 -506 2731
-795 -501 2706
-798 -509 2749
-792 -510 2757
-788 -513 2776
-788 -518 2806
-780 -519 2810
-760 -511 2767
-742 -504 2733
-732 -503 2730
-717 -499 2707
-713 -501 2721
-702 -499 2712
-692 -498 2706
-683 -497 2704
-678 -500 2717
-665 -496 2698
-655 -495 2694
-646 -494 2693
-640 -496 2702
-630 -494 2695
-623 -495 2699
-611 -492 2684
-603 -492 2685
-594 -491 2683
-588 -492 2689
-579 -492 2688
-569 -490 2680
-563 -492 2688
-552 -489 2675
-546 -491 2685
-534 -487 2665
-526 -487 2668
-518 -487 2667
-508 -485 2657
-500 -485 2659
-492 -484 2655
-484 -485 2660
-475 -483 2650
-469 -485 2661
-459 -483 2649
-450 -482 2644
-442 -482 2645
-433 -480 2636
-425 -480 2635
-417 -480 2635
-408 -479 2631
-400 -478 2630
-393 -478 2631
-386 -480 2639
-379 -480 2643
-369 -478 2627
-359 -475 2615
-352 -476 2621
-344 -476 2620
-336 -475 2613
-327 -473 2604
-320 -475 2615
-312 -474 2611
-304 -473 2604
-297 -474 2609
-287 -470 2588
-279 -470 2590
-272 -471 2597
-264 -470 2592
-256 -469 2588
-248 -468 2581
-241 -469 2587
-232 -467 2573
-225 -467 2575
-218 -469 2584
-209 -466 2569
-202 -467 2574
-193 -463 2556
-186 -464 2559
-179 -465 2563
-171 -466 2569
-163 -463 2554
-156 -464 2557
-148 -462 2546
-141 -463 2551
-133 -462 2551
-125 -460 2536
-117 -459 2530
-110 -460 2535
-103 -459 2532
-96 -461 2541
-88 -458 2526
-80 -459 2532
-73 -459 2533
-65 -457 2520
-58 -458 2524
-51 -457 2520
-43 -458 2522
-36 -456 2516
-29 -456 2512
-21 -456 2510
-14 -454 2502
-7 -454 2502
0 -453 2493
7 -455 2504
14 -453 2493
21 -454 2498
29 -453 2494
36 -452 2489
43 -452 2486
50 -453 2495
57 -451 2481
65 -451 2484
72 -449 2471
79 -451 2482
86 -450 2473
93 -448 2465
100 -450 2475
108 -450 2471
115 -449 2469
122 -451 2476
128 -448 2459
136 -447 2457
143 -449 2466
150 -447 2451
157 -447 2455
164 -446 2449
171 -448 2456
178 -447 2450
186 -448 2456
192 -447 2449
199 -446 2441
206 -445 2435
214 -447 2445
221 -447 2445
227 -445 2436
234 -446 2438
242 -446 2437
248 -444 2426
255 -444 2424
262 -444 2424
269 -444 2423
274 -442 2411
282 -442 2412
290 -444 2420
296 -442 2409
303 -442 2411
310 -442 2406
316 -441 2401
323 -441 2399
328 -438 2386
333 -436 2371
339 -434 2362
343 -431 2340
349 -429 2333
353 -426 2316
360 -427 2318
365 -425 2306
372 -425 2306
382 -428 2321
390 -430 2327
397 -430 2327
403 -430 2326
411 -430 2328
416 -428 2315
424 -430 2325
432 -432 2331
437 -429 2318
444 -429 2315
450 -429 2312
459 -431 2321
463 -428 2306
471 -429 2312
479 -430 2314
486 -431 2316
493 -431 2314
499 -430 2312
506 -430 2310
512 -430 2305
520 -430 2307
526 -430 2302
531 -429 2294
537 -428 2291
545 -429 2292
550 -428 2285
559 -429 2291
567 -430 2295
573 -430 2292
579 -429 2287
585 -429 2283
593 -429 2284
598 -428 2277
605 -428 2275
614 -430 2282
614 -425 2255
622 -426 2259
635 -430 2279
647 -434 2299
656 -436 2304
665 -437 2307
672 -437 2308
680 -438 2308
685 -436 2300
692 -437 2299
697 -436 2292
704 -436 2290
710 -435 2284
718 -436 2287
725 -436 2287
733 -437 2288
742 -438 2292
744 -435 2275
751 -435 2273
759 -436 2275
766 -436 2273
772 -436 2269
778 -435 2264
786 -436 2265
792 -435 2261
800 -436 2260
806 -435 2257
811 -435 2251
820 -436 2253
825 -435 2246
833 -436 2248
839 -435 2242
847 -436 2244
854 -436 2242
861 -436 2240
869 -436 2239
874 -436 2233
884 -437 2239
888 -436 2230
899 -438 2235
906 -438 2234
911 -437 2227
918 -437 2225
928 -439 2230
933 -438 2224
934 -435 2206
943 -436 2208
951 -437 2209
961 -438 2214
965 -437 2205
971 -437 2200
980 -438 2202
990 -439 2205
1001 -441 2213
1007 -440 2207
1035 -450 2251
1030 -444 2220
1039 -445 2222
1047 -446 2222
1052 -445 2214
1054 -443 2202
1046 -437 2168
1029 -427 2114
934 -385 1904
889 -364 1798
885 -360 1775
898 -362 1786
914 -367 1804
902 -360 1767
915 -363 1779
921 -363 1777
922 -361 1765
935 -364 1776
935 -362 1762
942 -362 1762
945 -361 1756
942 -358 1736
957 -362 1750
962 -361 1746
977 -365 1760
967 -359 1729
981 -362 1740
998 -366 1758
-1322 -448 2259
-1313 -447 2260
-1300 -445 2255
-1309 -451 2287
-1275 -442 2244
-1273 -444 2258
-1264 -443 2258
-1253 -442 2255
-1242 -441 2252
-1237 -442 2259
-1223 -439 2252
-1220 -441 2263
-1201 -437 2244
-1197 -438 2254
-1183 -435 2244
-1171 -434 2239
-1156 -431 2228
-1154 -433 2241
-1141 -431 2233
-1127 -428 2221
-1119 -428 2222
-1103 -425 2209
-1097 -425 2214
-1088 -424 2213
-1079 -423 2211
-1071 -423 2212
-1054 -419 2195
-1046 -419 2196
-1039 -419 2197
-1029 -418 2194
-1021 -417 2195
-1014 -417 2198
-996 -413 2177
-985 -411 2170
-977 -410 2169
-992 -420 2221
-1002 -427 2261
-1000 -429 2276
-995 -430 2283
-994 -433 2301
-990 -434 2310
-990 -437 2329
-983 -438 2333
-978 -439 2341
-979 -442 2363
-974 -443 2371
-970 -445 2382
-964 -446 2388
-960 -447 2398
-956 -449 2410
-952 -451 2421
-950 -453 2437
-946 -455 2450
-938 -455 2450
-930 -455 2451
-934 -461 2485
-927 -461 2487
-924 -463 2502
-917 -464 2507
-915 -467 2526
-910 -468 2534
-903 -468 2538
-900 -471 2556
-893 -471 2558
-891 -474 2578
-886 -476 2589
-879 -477 2594
-872 -477 2598
-867 -479 2608
-860 -479 2612
-857 -482 2631
-850 -483 2636
-845 -484 2646
-838 -485 2650
-833 -487 2664
-826 -487 2668
-821 -489 2680
-819 -493 2701
-811 -493 2706
-807 -496 2721
-801 -497 2731
-796 -499 2744
-787 -499 2742
-780 -499 2747
-779 -504 2775
-768 -503 2767
-756 -500 2755
-742 -497 2737
-733 -496 2734
-720 -493 2718
-706 -488 2695
-701 -490 2709
-690 -489 2701
-686 -492 2720
-673 -488 2698
-664 -487 2697
-658 -489 2708
-640 -482 2668
-635 -484 2682
-629 -486 2692
-621 -486 2693
-613 -485 2691
-602 -483 2682
-594 -483 2681
-587 -484 2687
-575 -481 2671
-564 -478 2656
-557 -479 2663
-552 -481 2675
-538 -476 2650
-532 -478 2660
-526 -480 2671
-514 -476 2650
-509 -478 2663
-499 -476 2654
-490 -475 2649
-484 -477 2659
-474 -475 2647
-462 -471 2628
-454 -471 2626
-448 -473 2638
-441 -473 2642
-434 -474 2645
-424 -472 2635
-414 -469 2622
-408 -471 2630
-400 -470 2628
-393 -471 2635
-382 -467 2612
-375 -469 2623
-368 -469 2624
-358 -467 2611
-351 -468 2617
-343 -467 2615
-335 -466 2610
-326 -464 2600
-318 -464 2599
-312 -466 2609
-302 -463 2591
-294 -462 2587
-287 -462 2590
-278 -461 2584
-271 -461 2586
-263 -461 2583
-255 -460 2578
-248 -460 2581
-240 -460 2578
-230 -456 2558
-223 -457 2564
-215 -455 2551
-208 -456 2558
-201 -456 2558
-192 -455 2551
-186 -457 2562
-178 -455 2554
-170 -455 2549
-162 -454 2544
-155 -455 2551
-147 -452 2535
-140 -452 2536
-132 -451 2530
-125 -451 2531
-118 -453 2539
-110 -450 2525
-102 -449 2520
-95 -449 2518
-87 -447 2508
-80 -451 2527
-72 -447 2509
-65 -450 2521
-58 -447 2507
-50 -448 2509
-43 -448 2512
-36 -448 2511
-28 -446 2502
-21 -446 2496
-14 -446 2501
-7 -446 2497
0 -446 2497
7 -444 2489
14 -445 2491
21 -445 2493
29 -446 2497
36 -444 2484
43 -445 2493
50 -443 2481
57 -443 2481
64 -442 2474
72 -443 2478
79 -444 2482
85 -440 2458
93 -441 2467
100 -442 2469
107 -441 2466
114 -440 2461
121 -440 2459
129 -441 2462
135 -439 2453
142 -439 2449
149 -439 2448
157 -440 2455
164 -440 2454
171 -439 2448
177 -437 2436
184 -438 2439
191 -437 2434
199 -438 2437
205 -436 2428
213 -438 2438
219 -437 2430
226 -436 2427
234 -438 2433
240 -436 2423
247 -436 2423
256 -438 2436
262 -438 2431
268 -436 2419
275 -435 2416
281 -434 2409
289 -435 2411
295 -434 2404
302 -434 2402
309 -434 2403
314 -432 2389
321 -431 2385
326 -429 2372
335 -432 2387
340 -428 2368
345 -426 2353
349 -423 2335
356 -423 2334
359 -418 2307
363 -416 2293
371 -416 2295
377 -416 2295
385 -418 2300
394 -419 2309
402 -421 2317
409 -421 2317
414 -420 2306
421 -420 2307
429 -421 2313
437 -422 2318
443 -421 2310
450 -421 2310
456 -421 2307
462 -420 2302
470 -422 2307
475 -420 2298
484 -422 2305
489 -420 2296
498 -422 2304
503 -421 2297
508 -420 2288
515 -420 2289
524 -422 2296
529 -420 2286
538 -422 2293
542 -420 2281
552 -422 2293
557 -421 2285
565 -422 2289
567 -419 2269
575 -419 2272
582 -420 2271
588 -419 2267
595 -419 2266
598 -417 2251
603 -415 2242
607 -414 2231
608 -410 2209
618 -412 2218
636 -420 2259
646 -422 2267
655 -423 2273
663 -424 2277
669 -424 2273
673 -422 2262
682 -424 2269
688 -423 2262
694 -423 2259
700 -422 2253
705 -421 2247
717 -424 2261
721 -422 2249
726 -422 2244
734 -423 2247
741 -423 2245
747 -422 2241
751 -421 2230
758 -421 2228
766 -421 2229
772 -421 2227
781 -422 2229
787 -422 2227
793 -422 2221
802 -423 2226
809 -423 2223
814 -422 2217
821 -422 2215
828 -423 2215
835 -423 2212
842 -423 2211
849 -423 2209
855 -422 2204
863 -423 2204
870 -423 2203
