VERSION 0.7
FIELDS x y z
SIZE 4 4 4
TYPE I I I
COUNT 1 1 1
WIDTH 3300
HEIGHT 1
VIEWPOINT 0.0 0.0 0.0 1.0 0.0 0.0 0.0
POINTS 3300
DATA ascii
-690 -336 2657
-681 -336 2656
-672 -335 2650
-659 -333 2634
-650 -332 2628
-646 -334 2647
-637 -333 2641
-627 -332 2635
-619 -332 2636
-614 -333 2645
-601 -331 2626
-591 -330 2616
-583 -329 2617
-576 -330 2620
-568 -330 2620
-561 -331 2628
-553 -330 2624
-542 -328 2610
-531 -327 2598
-527 -328 2613
-519 -329 2615
-507 -326 2592
-499 -325 2589
-489 -324 2583
-480 -323 2572
-474 -324 2582
-466 -324 2583
-457 -323 2572
-449 -322 2570
-440 -321 2564
-432 -321 2564
-424 -321 2559
-417 -322 2567
-407 -319 2548
-400 -319 2550
-392 -319 2550
-383 -318 2542
-376 -319 2546
-368 -318 2543
-361 -318 2540
-353 -318 2543
-343 -316 2524
-336 -316 2524
-329 -316 2528
-322 -316 2529
-314 -316 2527
-305 -315 2515
-298 -314 2513
-291 -315 2520
-283 -314 2515
-275 -314 2509
-267 -313 2501
-260 -313 2501
-252 -312 2497
-245 -313 2500
-237 -311 2490
-230 -312 2497
-222 -312 2493
-215 -311 2487
-206 -309 2473
-200 -310 2484
-192 -309 2474
-184 -308 2463
-177 -308 2467
-170 -308 2467
-162 -308 2462
-155 -308 2464
-148 -308 2464
-141 -308 2461
-134 -308 2461
-126 -307 2458
-119 -307 2458
-113 -308 2465
-105 -306 2449
-98 -307 2456
-91 -307 2454
-83 -306 2445
-76 -307 2450
-69 -306 2443
-62 -305 2435
-55 -304 2430
-48 -305 2435
-41 -305 2433
-34 -304 2432
-27 -304 2432
-19 -304 2429
-12 -303 2419
-5 -304 2427
1 -303 2417
8 -303 2414
15 -302 2408
22 -302 2411
28 -302 2408
35 -302 2406
42 -301 2398
49 -300 2390
56 -300 2391
63 -300 2388
70 -300 2387
77 -301 2396
84 -300 2391
90 -300 2384
97 -300 2388
104 -299 2376
110 -297 2365
117 -298 2370
124 -298 2369
131 -298 2368
138 -298 2371
146 -301 2390
151 -297 2359
155 -291 2312
162 -293 2322
169 -293 2326
175 -292 2317
184 -296 2346
192 -297 2352
201 -301 2386
205 -297 2353
210 -293 2324
218 -295 2337
224 -295 2334
231 -296 2340
238 -295 2334
244 -295 2329
251 -295 2331
257 -295 2326
264 -294 2322
273 -297 2341
278 -295 2326
284 -294 2318
291 -294 2319
297 -294 2317
304 -294 2317
310 -294 2311
317 -294 2312
323 -293 2303
329 -292 2299
335 -292 2297
342 -292 2297
350 -293 2302
353 -290 2278
352 -284 2231
359 -285 2231
376 -293 2294
381 -291 2283
386 -291 2275
394 -292 2281
403 -293 2290
411 -294 2300
417 -294 2296
424 -294 2293
428 -292 2281
435 -292 2278
439 -291 2266
447 -291 2269
454 -292 2274
457 -290 2254
465 -290 2257
474 -292 2267
479 -291 2259
482 -289 2242
491 -290 2250
496 -290 2245
503 -290 2242
514 -292 2263
531 -298 2305
522 -289 2236
537 -294 2273
526 -284 2195
542 -289 2232
551 -291 2242
556 -290 2237
562 -290 2233
579 -295 2270
579 -292 2243
582 -290 2227
588 -290 2225
591 -288 2211
584 -282 2158
601 -287 2196
608 -287 2193
624 -292 2228
631 -292 2227
633 -290 2211
645 -292 2226
653 -293 2230
654 -290 2208
660 -290 2204
667 -291 2207
674 -291 2206
680 -290 2201
694 -293 2223
677 -283 2146
692 -287 2173
698 -287 2169
706 -288 2171
717 -290 2185
725 -290 2185
738 -293 2203
741 -292 2192
757 -295 2217
766 -296 2220
770 -295 2211
774 -294 2202
766 -289 2160
770 -288 2150
776 -287 2145
774 -285 2122
785 -286 2131
792 -286 2131
798 -286 2127
805 -287 2128
811 -286 2124
820 -287 2127
821 -285 2112
829 -286 2113
838 -287 2117
844 -287 2114
850 -287 2112
856 -286 2107
863 -287 2107
870 -287 2106
874 -286 2098
885 -288 2106
891 -288 2102
898 -288 2101
906 -288 2103
911 -288 2096
920 -289 2099
920 -287 2082
930 -288 2087
936 -288 2083
943 -288 2083
949 -288 2078
954 -288 2074
965 -289 2081
983 -292 2103
1012 -299 2148
988 -290 2078
986 -288 2059
995 -288 2061
991 -285 2037
938 -268 1913
895 -254 1809
893 -252 1792
898 -252 1787
899 -251 1776
916 -254 1796
917 -253 1784
912 -250 1761
925 -252 1773
926 -250 1760
928 -249 1751
945 -253 1769
942 -250 1751
949 -251 1752
959 -252 1756
951 -248 1729
964 -250 1739
967 -250 1732
980 -252 1741
-1323 -306 2284
-1303 -304 2267
-1285 -301 2253
-1271 -299 2243
-1264 -300 2248
-1258 -300 2254
-1243 -298 2243
-1233 -297 2242
-1223 -297 2240
-1220 -298 2251
-1207 -297 2245
-1200 -297 2249
-1187 -295 2241
-1176 -294 2236
-1164 -293 2231
-1165 -295 2249
-1145 -292 2228
-1136 -292 2228
-1126 -291 2225
-1121 -291 2232
-1095 -286 2196
-1095 -288 2214
-1081 -287 2203
-1080 -288 2217
-1063 -285 2199
-1063 -288 2218
-1046 -285 2200
-1032 -283 2188
-1030 -284 2200
-1018 -283 2192
-1012 -283 2197
-995 -280 2177
-974 -276 2148
-974 -278 2165
-990 -285 2219
-999 -290 2258
-1002 -292 2282
-996 -293 2287
-993 -294 2300
-985 -294 2300
-984 -296 2318
-980 -297 2327
-975 -298 2335
-975 -300 2356
-967 -300 2355
-967 -302 2376
-961 -302 2381
-959 -304 2398
-955 -305 2407
-948 -305 2412
-944 -307 2423
-940 -308 2434
-939 -310 2454
-932 -310 2457
-931 -312 2476
-923 -312 2478
-922 -315 2497
-915 -315 2502
-913 -317 2519
-905 -317 2519
-905 -319 2542
-896 -319 2541
-892 -320 2555
-889 -322 2569
-883 -323 2576
-878 -324 2587
-873 -325 2598
-866 -325 2603
-859 -326 2607
-857 -328 2625
-849 -328 2628
-841 -328 2631
-835 -329 2637
-834 -332 2662
-825 -331 2662
-814 -330 2654
-812 -332 2672
-805 -333 2678
-801 -335 2694
-789 -333 2682
-772 -329 2654
-772 -333 2683
-770 -335 2704
-752 -331 2672
-743 -331 2669
-735 -331 2670
-723 -329 2658
-716 -329 2661
-708 -329 2665
-698 -328 2658
-690 -328 2659
-677 -326 2642
-672 -327 2653
-663 -327 2650
-650 -324 2630
-648 -327 2655
-637 -326 2644
-628 -325 2641
-621 -325 2642
-611 -324 2634
-604 -325 2641
-594 -324 2632
-584 -322 2620
-573 -321 2609
-567 -322 2619
-562 -323 2630
-552 -322 2621
-542 -320 2610
-533 -320 2607
-527 -321 2617
-518 -320 2611
-508 -319 2600
-498 -317 2585
-490 -317 2585
-479 -315 2569
-473 -316 2581
-463 -315 2568
-457 -315 2576
-448 -314 2567
-442 -316 2579
-434 -315 2576
-425 -314 2566
-415 -312 2553
-406 -311 2547
-400 -312 2554
-394 -313 2561
-385 -313 2557
-376 -311 2544
-367 -310 2537
-359 -310 2534
-353 -310 2538
-345 -310 2533
-338 -310 2540
-329 -309 2530
-322 -309 2532
-313 -308 2523
-306 -308 2525
-297 -307 2513
-290 -307 2513
-282 -306 2504
-274 -306 2504
-267 -306 2504
-260 -306 2505
-252 -305 2502
-245 -306 2507
-238 -306 2510
-230 -305 2503
-222 -304 2492
-214 -303 2482
-207 -303 2481
-199 -303 2480
-192 -302 2477
-184 -302 2472
-177 -301 2469
-170 -301 2466
-163 -302 2470
-155 -301 2468
-148 -300 2457
-141 -301 2466
-134 -301 2463
-126 -300 2456
-119 -300 2457
-112 -300 2456
-105 -300 2455
-98 -300 2456
-90 -299 2444
-83 -299 2449
-76 -299 2443
-69 -299 2447
-62 -300 2455
-55 -300 2454
-48 -299 2446
-41 -297 2431
-34 -298 2435
-26 -298 2433
-19 -296 2420
-12 -295 2415
-5 -295 2413
1 -296 2418
8 -295 2414
15 -296 2422
22 -295 2410
28 -294 2403
35 -295 2408
42 -295 2406
49 -293 2393
56 -293 2387
63 -293 2387
70 -294 2398
77 -293 2393
84 -293 2391
90 -293 2385
97 -292 2380
104 -292 2378
111 -292 2378
116 -289 2354
124 -290 2362
131 -291 2366
139 -293 2388
146 -293 2386
153 -295 2399
159 -292 2372
166 -293 2383
172 -291 2365
177 -289 2346
184 -289 2349
191 -289 2343
198 -289 2346
204 -289 2342
212 -290 2348
218 -289 2342
225 -290 2347
231 -289 2339
238 -289 2339
245 -288 2334
251 -288 2332
257 -287 2324
264 -287 2323
271 -288 2330
273 -283 2284
283 -286 2309
289 -285 2302
298 -288 2323
303 -287 2313
311 -287 2316
316 -286 2301
323 -286 2306
330 -287 2308
336 -286 2300
343 -286 2300
349 -286 2297
353 -284 2279
349 -276 2213
362 -280 2248
376 -286 2293
380 -284 2280
387 -284 2278
393 -284 2274
406 -289 2311
414 -290 2317
420 -289 2313
422 -286 2286
429 -286 2286
434 -285 2277
439 -284 2266
445 -283 2259
454 -285 2272
460 -285 2266
466 -285 2265
472 -284 2262
478 -284 2254
483 -283 2248
490 -283 2248
497 -284 2250
504 -283 2247
509 -283 2239
517 -284 2245
516 -279 2210
529 -283 2237
538 -284 2245
535 -279 2206
551 -284 2243
555 -283 2229
568 -286 2255
572 -285 2242
576 -284 2233
580 -283 2221
588 -283 2223
595 -283 2224
595 -280 2199
600 -280 2191
613 -283 2215
623 -284 2224
628 -284 2218
639 -286 2232
643 -285 2220
649 -284 2217
656 -285 2216
664 -285 2220
669 -285 2213
675 -284 2209
683 -285 2212
691 -285 2213
684 -280 2170
694 -282 2180
694 -279 2158
708 -282 2178
711 -280 2164
711 -278 2144
710 -275 2120
728 -280 2151
727 -277 2129
735 -277 2130
743 -278 2135
752 -279 2140
767 -282 2161
766 -280 2139
769 -278 2127
777 -279 2129
782 -279 2124
793 -280 2133
798 -280 2128
807 -281 2133
811 -280 2124
817 -280 2122
826 -281 2124
831 -280 2119
835 -279 2111
845 -281 2118
848 -279 2105
859 -281 2114
862 -280 2105
873 -281 2113
880 -282 2113
885 -281 2105
888 -280 2095
899 -281 2103
905 -281 2100
908 -280 2090
916 -281 2090
923 -281 2090
930 -281 2087
938 -282 2089
943 -281 2083
946 -281 2074
947 -279 2058
961 -281 2071
983 -286 2102
1012 -292 2148
993 -285 2090
983 -280 2053
990 -280 2051
993 -279 2042
940 -263 1917
900 -250 1820
893 -246 1792
901 -247 1794
902 -246 1782
905 -245 1774
911 -245 1772
918 -245 1772
922 -245 1768
932 -246 1772
935 -246 1765
933 -244 1748
946 -246 1759
946 -244 1745
954 -245 1747
960 -245 1746
969 -246 1748
965 -244 1729
975 -245 1734
-1325 -299 2288
-1302 -296 2266
-1302 -298 2283
-1276 -293 2254
-1272 -294 2262
-1271 -296 2278
-1256 -294 2268
-1242 -292 2258
-1231 -291 2255
-1225 -292 2262
-1222 -293 2273
-1205 -291 2258
-1187 -288 2242
-1177 -287 2240
-1171 -288 2245
-1160 -287 2241
-1149 -286 2236
-1138 -285 2232
-1132 -285 2237
-1122 -285 2234
-1106 -282 2219
-1095 -281 2215
-1089 -282 2220
-1074 -280 2207
-1067 -280 2209
-1055 -278 2202
-1046 -278 2201
-1043 -279 2210
-1028 -277 2197
-1019 -276 2194
-1011 -276 2195
-997 -274 2182
-975 -270 2152
-976 -272 2171
-994 -279 2229
-998 -282 2257
-1001 -285 2282
-996 -286 2290
-987 -285 2288
-989 -288 2312
-980 -288 2310
-981 -290 2330
-976 -291 2338
-974 -292 2354
-970 -293 2363
-966 -294 2375
-963 -296 2387
-957 -296 2394
-952 -297 2402
-949 -298 2415
-945 -299 2425
-940 -300 2435
-940 -303 2455
-934 -303 2461
-929 -304 2471
-923 -305 2478
-925 -308 2506
-918 -308 2509
-911 -309 2515
-906 -309 2523
-904 -311 2540
-898 -312 2548
-894 -313 2560
-883 -312 2555
-883 -315 2579
-877 -316 2584
-873 -317 2597
-864 -317 2597
-857 -317 2602
-854 -319 2618
-846 -319 2619
-842 -321 2635
-837 -322 2645
-830 -322 2649
-822 -322 2651
-817 -323 2662
-806 -322 2654
-806 -326 2685
-797 -325 2682
-790 -325 2686
-774 -322 2661
-770 -324 2677
-770 -327 2706
-749 -322 2662
-735 -319 2641
-737 -324 2681
-724 -321 2660
-716 -321 2664
-707 -321 2662
-698 -320 2656
-690 -320 2657
-680 -319 2653
-673 -320 2657
-663 -319 2650
-652 -318 2640
-647 -319 2652
-637 -318 2646
-628 -317 2641
-618 -316 2633
-606 -314 2617
-603 -316 2636
-595 -317 2639
-585 -315 2627
-575 -314 2619
-570 -316 2632
-563 -316 2635
-552 -314 2624
-542 -313 2611
-533 -312 2608
-524 -312 2604
-516 -311 2602
-509 -312 2605
-497 -309 2585
-490 -309 2587
-481 -308 2579
-472 -308 2576
-460 -304 2547
-457 -308 2575
-449 -308 2577
-441 -307 2574
-434 -308 2579
-426 -308 2576
-417 -306 2565
-410 -306 2567
-400 -305 2557
-394 -306 2563
-385 -304 2552
-376 -303 2544
-369 -304 2546
-361 -303 2545
-354 -304 2552
-345 -302 2535
-337 -302 2532
-330 -303 2538
-321 -301 2523
-314 -301 2529
-306 -301 2526
-298 -300 2515
-290 -300 2516
-283 -300 2516
-274 -298 2504
-267 -299 2507
-260 -298 2504
-253 -299 2512
-245 -299 2507
-238 -299 2507
-231 -299 2509
-223 -298 2504
-214 -296 2486
-207 -295 2480
-200 -296 2484
-192 -295 2477
-184 -294 2470
-177 -294 2470
-170 -294 2469
-163 -294 2472
-155 -293 2459
-148 -294 2467
-141 -294 2463
-133 -293 2456
-126 -293 2456
-119 -293 2455
-112 -292 2454
-105 -293 2457
-97 -292 2447
-90 -291 2443
-83 -291 2444
-76 -292 2447
-69 -292 2448
-62 -292 2447
-55 -292 2450
-48 -292 2444
-40 -290 2430
-33 -290 2428
-26 -290 2432
-19 -290 2428
-12 -290 2425
-5 -288 2413
1 -289 2416
8 -289 2421
15 -289 2420
22 -288 2411
29 -287 2405
35 -287 2401
42 -287 2399
49 -287 2398
56 -286 2395
63 -287 2395
70 -286 2390
77 -286 2387
84 -287 2397
90 -285 2378
97 -286 2386
104 -285 2380
111 -285 2377
117 -284 2370
124 -284 2369
131 -284 2370
138 -285 2378
145 -285 2371
152 -284 2368
158 -283 2361
165 -284 2363
171 -283 2356
179 -284 2362
184 -282 2347
191 -282 2341
198 -282 2344
205 -282 2346
211 -282 2342
218 -282 2340
225 -282 2343
231 -282 2337
237 -281 2329
245 -282 2334
251 -282 2333
258 -282 2335
264 -281 2326
270 -280 2319
266 -269 2230
275 -271 2244
280 -270 2235
298 -281 2323
305 -281 2322
310 -280 2313
316 -279 2306
323 -279 2304
330 -280 2305
336 -280 2304
343 -279 2302
349 -279 2298
356 -279 2298
356 -274 2258
360 -273 2241
373 -277 2275
381 -278 2282
387 -278 2282
394 -278 2282
394 -273 2242
416 -284 2329
416 -279 2287
423 -280 2289
428 -279 2281
433 -278 2270
440 -278 2272
444 -276 2257
453 -278 2267
460 -278 2267
466 -278 2265
474 -279 2269
479 -278 2263
484 -277 2253
491 -277 2253
499 -278 2255
503 -276 2244
510 -277 2244
516 -276 2240
522 -276 2238
529 -276 2237
534 -276 2230
537 -274 2213
552 -278 2247
568 -283 2284
562 -276 2231
562 -273 2204
574 -276 2225
574 -273 2199
585 -275 2212
592 -275 2212
601 -277 2221
606 -276 2214
617 -278 2231
622 -277 2223
630 -278 2224
637 -278 2226
641 -277 2213
648 -277 2213
659 -279 2228
663 -278 2216
669 -278 2213
675 -278 2211
688 -280 2227
686 -277 2198
689 -275 2186
679 -269 2133
681 -267 2116
700 -272 2155
703 -271 2143
706 -270 2129
711 -269 2124
723 -271 2137
724 -269 2121
733 -270 2126
0 0 0
751 -272 2137
742 -267 2092
761 -271 2124
768 -271 2124
779 -273 2135
780 -271 2117
786 -271 2117
798 -273 2128
802 -272 2120
811 -273 2125
816 -273 2120
822 -273 2115
829 -273 2113
838 -274 2119
842 -273 2111
850 -273 2111
858 -274 2113
861 -273 2103
870 -274 2106
875 -274 2101
883 -274 2102
890 -274 2101
894 -274 2093
902 -274 2093
911 -275 2098
915 -274 2090
923 -275 2090
932 -276 2094
936 -275 2086
940 -274 2076
945 -274 2070
958 -276 2083
957 -273 2063
977 -277 2091
1014 -286 2153
993 -278 2091
983 -274 2053
984 -272 2039
992 -273 2039
938 -256 1914
896 -243 1813
892 -240 1790
899 -241 1791
903 -240 1785
908 -240 1781
909 -239 1769
921 -241 1779
915 -238 1755
926 -239 1762
932 -239 1760
936 -239 1755
942 -239 1752
949 -239 1753
956 -240 1751
958 -239 1742
964 -239 1741
971 -239 1740
979 -240 1740
-1319 -291 2280
-1304 -289 2271
-1304 -291 2287
-1286 -288 2271
-1284 -289 2285
-1274 -289 2284
-1253 -286 2263
-1244 -286 2264
-1237 -286 2268
-1231 -286 2274
-1212 -283 2256
-1203 -283 2256
-1196 -283 2259
-1178 -280 2241
-1174 -281 2251
-1158 -279 2238
-1150 -279 2239
-1137 -278 2232
-1129 -278 2233
-1117 -276 2225
-1108 -276 2224
-1093 -274 2212
-1090 -275 2224
-1075 -273 2210
-1065 -272 2207
-1058 -272 2208
-1050 -272 2208
-1036 -270 2197
-1024 -269 2189
-1017 -269 2191
-1003 -267 2179
-992 -266 2171
-976 -263 2154
-975 -265 2168
-992 -272 2226
-1002 -276 2267
-1000 -278 2280
-997 -279 2291
-988 -278 2290
-989 -281 2312
-980 -280 2311
-977 -282 2323
-978 -284 2345
-976 -285 2359
-966 -285 2354
-968 -288 2379
-961 -288 2384
-958 -289 2396
-954 -290 2408
-948 -291 2414
-946 -292 2430
-939 -293 2434
-934 -293 2442
-933 -295 2461
-928 -296 2471
-922 -297 2477
-921 -299 2496
-913 -299 2497
-908 -300 2507
-907 -302 2526
-903 -303 2540
-898 -304 2549
-890 -304 2550
-889 -307 2573
-884 -308 2582
-877 -308 2588
-869 -308 2587
-864 -309 2600
-858 -310 2605
-852 -310 2614
-847 -312 2626
-839 -312 2627
-838 -314 2650
-828 -313 2646
-820 -313 2648
-818 -316 2669
-812 -316 2674
-803 -316 2676
-799 -318 2689
-784 -315 2667
-776 -315 2667
-764 -313 2657
-771 -320 2711
-749 -314 2662
-740 -313 2661
-727 -311 2643
-724 -314 2664
-713 -312 2654
-709 -314 2670
-700 -313 2666
-688 -312 2653
-681 -312 2657
-672 -312 2655
-661 -310 2644
-652 -310 2639
-646 -310 2647
-639 -311 2651
-630 -310 2647
-619 -309 2635
-609 -308 2627
-601 -308 2630
-594 -308 2633
-583 -306 2620
-574 -306 2613
-566 -306 2615
-562 -308 2633
-552 -306 2622
-542 -305 2615
-535 -306 2616
-526 -305 2612
-517 -304 2606
-510 -304 2609
-498 -302 2591
-488 -301 2580
-482 -302 2589
-473 -301 2580
-465 -301 2579
-454 -299 2563
-448 -299 2570
-441 -300 2572
-432 -299 2566
-425 -299 2568
-414 -297 2549
-408 -298 2558
-401 -298 2563
-392 -297 2555
-384 -296 2548
-376 -296 2546
-368 -296 2545
-360 -295 2540
-352 -295 2538
-345 -295 2535
-335 -293 2523
-328 -294 2526
-321 -294 2528
-314 -294 2528
-306 -293 2522
-298 -292 2516
-289 -291 2508
-283 -292 2515
-275 -292 2514
-268 -292 2512
-260 -292 2510
-252 -291 2503
-245 -291 2504
-236 -289 2491
-229 -289 2490
-222 -290 2494
-214 -289 2488
-207 -289 2488
-200 -289 2484
-192 -288 2481
-183 -286 2458
-177 -287 2467
-170 -287 2468
-163 -287 2471
-155 -287 2471
-148 -286 2460
-141 -286 2461
-134 -286 2464
-126 -286 2459
-119 -286 2460
-112 -286 2460
-105 -286 2456
-98 -285 2453
-91 -286 2455
-83 -285 2452
-76 -284 2441
-69 -284 2442
-62 -284 2440
-55 -284 2441
-48 -284 2438
-40 -283 2435
-33 -283 2433
-26 -283 2434
-19 -284 2440
-12 -282 2421
-5 -282 2418
1 -281 2413
8 -281 2413
15 -281 2408
22 -281 2409
28 -280 2398
35 -280 2405
42 -280 2400
49 -279 2394
56 -279 2394
63 -279 2392
70 -280 2395
77 -279 2393
84 -280 2394
90 -279 2386
97 -278 2377
104 -278 2376
110 -277 2369
117 -278 2373
124 -277 2371
131 -278 2372
138 -277 2370
145 -278 2373
151 -277 2364
158 -277 2362
165 -276 2358
171 -276 2357
178 -277 2358
185 -276 2350
191 -276 2351
198 -275 2346
204 -275 2340
211 -274 2336
218 -275 2340
226 -277 2352
231 -275 2338
238 -275 2340
245 -275 2335
251 -274 2329
258 -275 2335
265 -275 2330
270 -274 2321
279 -276 2336
278 -268 2274
289 -273 2309
297 -273 2316
305 -274 2322
311 -274 2318
317 -273 2310
323 -273 2310
330 -273 2308
337 -273 2309
342 -272 2299
348 -272 2293
356 -273 2299
362 -272 2296
368 -272 2289
374 -271 2285
381 -271 2282
388 -272 2285
394 -271 2278
404 -274 2299
413 -275 2312
417 -274 2297
424 -274 2297
430 -274 2293
435 -272 2282
442 -273 2283
449 -273 2283
456 -273 2285
463 -273 2285
469 -273 2280
475 -272 2273
481 -272 2272
489 -273 2277
494 -272 2268
501 -272 2265
509 -273 2270
516 -273 2271
523 -273 2272
529 -273 2270
537 -274 2271
539 -271 2250
545 -271 2248
553 -272 2251
563 -274 2264
566 -272 2248
573 -272 2248
582 -273 2257
584 -271 2236
592 -272 2241
598 -272 2237
606 -272 2239
615 -273 2247
616 -271 2226
626 -272 2236
638 -275 2255
635 -271 2220
646 -273 2232
653 -273 2232
660 -273 2231
665 -272 2224
671 -272 2219
680 -273 2228
690 -274 2234
694 -273 2224
683 -267 2168
682 -264 2142
682 -261 2121
712 -270 2190
701 -263 2135
711 -265 2146
709 -262 2118
713 -261 2109
0 0 0
731 -263 2120
0 0 0
734 -260 2091
747 -262 2106
769 -268 2148
753 -260 2085
779 -267 2135
778 -264 2115
777 -262 2092
793 -265 2116
802 -266 2120
809 -266 2120
815 -266 2117
825 -267 2122
826 -265 2107
834 -266 2109
844 -267 2116
848 -267 2108
856 -267 2109
863 -267 2107
872 -268 2111
876 -267 2104
881 -267 2099
887 -267 2094
897 -268 2101
902 -268 2095
909 -268 2092
916 -268 2092
919 -267 2082
931 -269 2091
933 -267 2078
940 -267 2077
939 -265 2059
954 -268 2075
951 -265 2051
980 -272 2098
1015 -280 2156
997 -273 2100
985 -268 2058
986 -266 2044
984 -264 2025
940 -251 1918
896 -237 1814
887 -233 1782
890 -233 1773
903 -234 1785
902 -233 1769
910 -234 1772
913 -233 1764
928 -235 1779
927 -234 1765
937 -235 1771
935 -233 1753
945 -234 1759
943 -232 1742
954 -234 1749
959 -233 1745
964 -233 1740
969 -233 1738
980 -235 1744
-1317 -283 2278
-1319 -285 2297
-1303 -283 2286
-1303 -284 2302
-1283 -282 2284
-1261 -279 2262
-1256 -279 2270
-1253 -280 2281
-1234 -278 2264
-1222 -277 2258
-1211 -276 2254
-1200 -275 2250
-1184 -273 2238
-1178 -273 2244
-1170 -273 2245
-1162 -273 2245
-1142 -270 2225
-1137 -271 2232
-1128 -270 2232
-1112 -268 2216
-1100 -267 2210
-1097 -268 2221
-1087 -267 2218
-1074 -266 2208
-1062 -265 2201
-1059 -266 2212
-1041 -263 2191
-1027 -261 2180
-1026 -262 2194
-1015 -262 2188
-1005 -261 2184
-992 -259 2172
-980 -258 2163
-981 -260 2183
-993 -265 2229
-999 -268 2260
-997 -270 2274
-993 -271 2284
-990 -272 2295
-987 -273 2308
-981 -273 2312
-981 -276 2333
-975 -276 2337
-969 -276 2344
-972 -279 2370
-967 -280 2379
-963 -281 2389
-955 -281 2391
-950 -282 2399
-953 -285 2426
-945 -285 2429
-939 -285 2434
-936 -287 2449
-933 -288 2462
-927 -288 2467
-921 -289 2475
-922 -292 2500
-913 -291 2498
-906 -292 2503
-900 -292 2508
-903 -296 2541
-901 -298 2559
-891 -297 2553
-887 -298 2568
-887 -301 2592
-877 -300 2587
-874 -302 2605
-867 -302 2609
-861 -303 2615
-851 -302 2612
-849 -304 2632
-842 -305 2635
-837 -306 2647
-828 -306 2647
-821 -306 2651
-812 -306 2650
-806 -306 2657
-805 -309 2682
-798 -309 2688
-789 -309 2687
-772 -305 2656
-765 -306 2662
-770 -311 2710
-752 -307 2673
-737 -304 2653
-716 -299 2604
-739 -312 2719
-708 -302 2636
-707 -305 2664
-698 -305 2659
-689 -304 2657
-684 -305 2669
-671 -303 2649
-661 -302 2644
-653 -302 2644
-645 -302 2645
-641 -304 2661
-630 -303 2651
-619 -301 2638
-613 -302 2649
-602 -301 2635
-595 -301 2639
-584 -299 2627
-574 -298 2618
-567 -298 2620
-562 -300 2634
-553 -299 2630
-541 -297 2612
-535 -298 2619
-526 -297 2612
-518 -297 2613
-508 -296 2600
-499 -295 2593
-488 -293 2577
-481 -294 2584
-474 -294 2587
-464 -293 2576
-457 -293 2577
-448 -292 2572
-439 -291 2564
-433 -292 2573
-424 -291 2565
-417 -291 2566
-411 -292 2575
-400 -290 2557
-391 -289 2548
-386 -290 2561
-377 -290 2557
-368 -289 2547
-360 -288 2539
-352 -288 2537
-345 -288 2540
-337 -288 2539
-329 -287 2532
-321 -287 2529
-314 -287 2532
-306 -286 2528
-299 -286 2527
-292 -287 2533
-283 -286 2522
-274 -284 2505
-266 -283 2501
-260 -284 2507
-251 -283 2496
-244 -282 2494
-236 -282 2490
-229 -282 2492
-221 -281 2484
-214 -281 2483
-207 -281 2482
-199 -281 2482
-192 -281 2481
-184 -280 2471
-177 -280 2468
-170 -281 2480
-163 -280 2472
-156 -280 2473
-148 -279 2459
-140 -279 2461
-134 -280 2468
-127 -280 2467
-119 -279 2464
-112 -278 2456
-105 -278 2453
-97 -278 2449
-90 -278 2453
-83 -276 2435
-76 -277 2446
-69 -276 2437
-61 -276 2432
-55 -277 2440
-48 -277 2441
-40 -277 2438
-33 -276 2429
-26 -277 2439
-19 -276 2433
-12 -276 2433
-5 -275 2418
1 -275 2418
8 -274 2412
15 -273 2403
22 -275 2417
28 -272 2396
36 -273 2405
42 -273 2400
49 -272 2395
56 -272 2395
63 -272 2394
70 -272 2387
77 -272 2386
84 -272 2385
90 -271 2380
97 -272 2384
104 -270 2371
110 -270 2370
118 -272 2382
124 -271 2372
131 -271 2372
138 -271 2374
145 -271 2377
151 -270 2362
158 -270 2363
165 -269 2358
172 -270 2360
178 -270 2358
185 -269 2356
192 -269 2352
198 -269 2353
205 -270 2354
212 -270 2356
218 -268 2342
225 -269 2346
232 -269 2345
238 -268 2335
245 -268 2340
252 -269 2342
258 -268 2333
265 -268 2334
272 -268 2331
278 -268 2328
284 -267 2319
291 -267 2324
296 -266 2312
304 -267 2317
311 -267 2316
317 -266 2310
323 -266 2307
330 -267 2310
337 -266 2307
343 -266 2302
348 -265 2293
356 -266 2302
362 -266 2296
368 -265 2292
374 -265 2287
381 -265 2283
388 -265 2284
393 -264 2278
404 -267 2297
411 -267 2302
418 -267 2302
426 -268 2307
431 -267 2296
438 -267 2295
444 -267 2293
452 -268 2298
459 -268 2297
469 -270 2312
470 -267 2285
473 -265 2266
483 -266 2280
491 -267 2284
497 -267 2282
508 -269 2298
509 -266 2273
519 -268 2285
523 -267 2273
534 -269 2289
538 -268 2277
536 -264 2241
545 -265 2248
552 -265 2250
567 -269 2281
572 -268 2274
577 -267 2264
583 -267 2262
591 -268 2263
594 -266 2251
605 -268 2263
611 -268 2261
599 -260 2191
612 -263 2213
626 -266 2238
637 -268 2251
642 -267 2242
651 -268 2248
659 -268 2252
664 -268 2246
673 -269 2251
683 -270 2262
692 -271 2268
697 -271 2260
692 -266 2221
684 -261 2172
687 -259 2158
692 -259 2152
689 -255 2122
707 -259 2155
720 -262 2172
717 -259 2143
719 -257 2127
728 -258 2133
727 -255 2111
732 -255 2104
740 -256 2108
749 -256 2112
763 -259 2131
769 -259 2129
773 -258 2120
793 -263 2156
792 -260 2133
788 -257 2102
806 -261 2130
811 -260 2126
819 -261 2127
823 -260 2119
832 -261 2123
834 -260 2110
846 -261 2123
850 -260 2112
855 -260 2108
862 -260 2106
870 -261 2108
876 -261 2104
884 -261 2106
888 -261 2097
897 -261 2100
899 -260 2088
911 -262 2099
919 -262 2100
924 -262 2093
929 -261 2087
935 -261 2084
941 -261 2081
947 -261 2077
963 -264 2096
971 -264 2095
979 -265 2097
1012 -272 2151
1001 -267 2109
985 -261 2059
986 -260 2044
992 -260 2040
941 -245 1921
897 -232 1816
887 -228 1781
897 -229 1787
906 -230 1791
901 -227 1768
910 -228 1773
912 -227 1763
919 -227 1763
925 -227 1761
929 -227 1755
935 -227 1753
942 -228 1753
952 -229 1759
951 -227 1744
960 -228 1746
966 -228 1744
970 -228 1738
981 -229 1747
-1326 -277 2293
-1314 -276 2290
-1301 -275 2283
-1292 -275 2285
-1292 -276 2301
-1266 -272 2271
-1252 -271 2264
-1254 -273 2283
-1238 -271 2271
-1225 -270 2265
-1208 -268 2250
-1197 -267 2246
-1194 -268 2258
-1175 -265 2238
-1165 -265 2236
-1156 -265 2236
-1143 -263 2228
-1141 -264 2241
-1121 -261 2218
-1115 -262 2224
-1107 -261 2224
-1091 -260 2210
-1084 -259 2212
-1073 -259 2207
-1064 -258 2206
-1056 -258 2205
-1043 -256 2197
-1034 -256 2195
-1023 -255 2188
-1014 -254 2186
-1004 -254 2183
-990 -252 2169
-976 -250 2157
-974 -251 2170
-994 -258 2232
-1001 -262 2265
-1000 -264 2282
-993 -264 2284
-991 -265 2298
-986 -266 2307
-986 -268 2326
-978 -267 2326
-980 -270 2351
-969 -269 2344
-971 -272 2370
-960 -271 2362
-961 -273 2386
-957 -274 2395
-951 -275 2402
-950 -276 2420
-946 -277 2431
-940 -278 2438
-939 -280 2457
-934 -281 2466
-928 -281 2471
-924 -283 2485
-921 -284 2499
-912 -283 2497
-908 -285 2509
-900 -285 2510
-898 -286 2529
-898 -289 2550
-892 -289 2557
-889 -291 2573
-885 -292 2585
-878 -293 2590
-871 -293 2597
-865 -294 2603
-856 -293 2600
-853 -295 2619
-846 -295 2622
-843 -297 2641
-837 -298 2648
-829 -298 2650
-825 -299 2665
-813 -298 2653
-805 -298 2655
-809 -302 2695
-797 -301 2685
-791 -302 2694
-774 -298 2664
-764 -298 2659
-770 -303 2709
-752 -299 2676
-726 -292 2611
-723 -294 2630
-723 -297 2661
-703 -292 2619
-706 -297 2660
-698 -297 2662
-691 -297 2665
-681 -296 2658
-671 -296 2653
-662 -295 2648
-654 -295 2649
-644 -294 2640
-638 -295 2653
-629 -294 2645
-621 -294 2649
-611 -293 2640
-602 -293 2637
-593 -292 2629
-582 -291 2617
-572 -290 2609
-567 -291 2619
-561 -292 2630
-552 -291 2627
-542 -290 2614
-533 -289 2608
-525 -289 2608
-517 -289 2607
-509 -289 2607
-499 -287 2595
-490 -287 2593
-482 -287 2589
-471 -285 2572
-464 -285 2575
-457 -285 2577
-448 -284 2573
-440 -284 2572
-431 -283 2563
-425 -284 2573
-417 -284 2567
-409 -284 2567
-401 -283 2565
-391 -282 2551
-382 -281 2540
-376 -282 2550
-368 -281 2547
-361 -281 2546
-353 -281 2547
-344 -280 2536
-337 -280 2537
-329 -280 2536
-321 -279 2526
-313 -278 2523
-307 -280 2535
-298 -278 2523
-285 -273 2475
-282 -277 2513
-275 -277 2512
-267 -277 2507
-259 -276 2504
-252 -276 2504
-245 -277 2507
-237 -276 2500
-230 -277 2506
-222 -275 2497
-215 -275 2497
-207 -275 2491
-199 -274 2484
-192 -274 2486
-185 -274 2481
-177 -273 2472
-169 -272 2469
-163 -273 2473
-155 -273 2472
-148 -273 2471
-141 -273 2473
-134 -273 2472
-127 -273 2470
-119 -271 2456
-112 -272 2460
-104 -270 2447
-97 -271 2451
-91 -272 2459
-83 -271 2452
-76 -270 2447
-69 -270 2446
-61 -269 2434
-54 -269 2434
-47 -268 2429
-40 -269 2430
-33 -269 2436
-26 -268 2425
-19 -268 2423
-12 -268 2427
-5 -267 2413
1 -267 2411
8 -267 2411
15 -267 2411
22 -267 2408
29 -266 2406
36 -267 2407
42 -266 2403
49 -266 2401
56 -265 2395
63 -266 2401
70 -265 2394
77 -266 2396
84 -265 2386
91 -265 2387
97 -265 2385
104 -263 2372
111 -263 2373
118 -264 2374
125 -264 2378
131 -264 2377
138 -264 2377
145 -265 2379
152 -264 2371
158 -263 2365
165 -263 2363
172 -264 2367
179 -263 2362
185 -263 2360
191 -262 2347
198 -262 2350
205 -262 2351
211 -261 2342
219 -263 2354
226 -263 2352
232 -262 2348
238 -261 2337
244 -261 2333
252 -261 2338
258 -261 2336
264 -261 2329
271 -260 2325
277 -260 2319
284 -260 2323
290 -260 2318
297 -260 2316
305 -261 2325
310 -260 2312
318 -260 2316
323 -259 2307
331 -260 2313
337 -259 2306
343 -259 2303
348 -258 2295
355 -258 2292
363 -259 2301
367 -258 2284
375 -258 2288
382 -259 2290
389 -259 2290
395 -258 2287
400 -258 2279
413 -262 2313
419 -261 2309
424 -260 2295
433 -261 2307
437 -260 2294
448 -262 2311
462 -267 2347
461 -262 2307
466 -261 2299
477 -264 2321
477 -260 2283
485 -261 2290
492 -261 2290
497 -260 2283
505 -261 2287
510 -260 2278
516 -260 2275
521 -259 2266
530 -260 2275
539 -261 2280
542 -259 2264
545 -258 2248
555 -259 2259
564 -261 2270
571 -261 2270
578 -261 2267
583 -260 2259
589 -260 2255
596 -260 2255
606 -262 2266
610 -261 2258
615 -260 2250
616 -257 2225
625 -258 2232
635 -260 2244
650 -263 2271
657 -264 2272
660 -262 2256
666 -262 2253
667 -260 2231
675 -260 2236
692 -264 2267
688 -260 2229
688 -258 2206
684 -254 2171
691 -254 2173
696 -254 2165
697 -251 2145
700 -251 2135
719 -255 2170
718 -252 2146
729 -254 2157
733 -253 2149
737 -252 2141
754 -256 2167
741 -249 2110
771 -257 2176
768 -254 2146
772 -253 2137
769 -250 2110
779 -252 2119
792 -254 2134
810 -258 2163
805 -254 2130
814 -255 2134
815 -253 2117
825 -254 2124
830 -254 2118
836 -254 2116
843 -254 2113
849 -254 2110
856 -254 2111
865 -255 2115
872 -255 2112
875 -254 2103
883 -254 2104
892 -255 2107
897 -255 2101
904 -255 2101
909 -255 2095
914 -254 2087
925 -256 2097
930 -255 2090
937 -255 2089
944 -256 2087
949 -255 2081
950 -254 2066
947 -251 2045
982 -259 2103
1010 -265 2146
1006 -262 2121
986 -255 2061
992 -255 2058
992 -253 2042
950 -241 1939
900 -227 1824
890 -223 1789
894 -222 1783
905 -224 1791
896 -220 1759
914 -223 1782
914 -222 1767
916 -221 1757
928 -223 1768
938 -224 1772
942 -223 1767
939 -221 1747
948 -222 1752
954 -222 1750
964 -223 1756
958 -221 1731
960 -220 1722
975 -222 1735
-1327 -270 2296
-1320 -270 2300
-1304 -268 2289
-1290 -267 2281
-1285 -268 2290
-1269 -266 2278
-1256 -265 2272
-1252 -265 2281
-1234 -263 2266
-1218 -261 2253
-1210 -261 2254
-1197 -260 2248
-1192 -260 2254
-1176 -259 2241
-1166 -258 2239
-1162 -259 2248
-1140 -255 2223
-1139 -257 2238
-1125 -255 2227
-1107 -253 2208
-1103 -253 2216
-1092 -253 2211
-1085 -253 2214
-1071 -251 2203
-1058 -250 2193
-1048 -249 2189
-1042 -249 2195
-1027 -247 2180
-1022 -248 2187
-1013 -247 2186
-1000 -246 2174
-988 -244 2165
-973 -243 2150
-974 -245 2170
-995 -252 2235
-999 -255 2263
-997 -256 2277
-1000 -258 2302
-992 -258 2302
-986 -259 2307
-981 -259 2315
-979 -261 2330
-976 -262 2343
-970 -262 2348
-963 -262 2350
-968 -266 2384
-961 -266 2386
-956 -266 2393
-954 -268 2411
-945 -268 2409
-940 -268 2417
-936 -270 2429
-937 -272 2452
-939 -275 2479
-930 -274 2477
-927 -276 2493
-921 -276 2499
-916 -277 2507
-911 -278 2516
-904 -278 2521
-904 -281 2546
-895 -280 2544
-890 -281 2553
-886 -282 2567
-885 -285 2588
-876 -284 2588
-870 -285 2593
-867 -286 2609
-859 -287 2612
-855 -288 2625
-845 -287 2619
-843 -289 2641
-835 -289 2642
-825 -288 2637
-821 -290 2651
-814 -290 2657
-811 -292 2676
-801 -292 2672
-796 -293 2683
-788 -292 2682
-778 -292 2680
-763 -289 2655
-762 -292 2683
-751 -291 2672
-743 -291 2676
-721 -285 2624
-726 -290 2672
-716 -290 2667
-706 -289 2660
-697 -289 2658
-691 -289 2668
-680 -288 2655
-671 -287 2652
-664 -288 2658
-652 -286 2641
-646 -287 2652
-638 -287 2650
-629 -287 2649
-619 -286 2641
-611 -285 2639
-603 -286 2641
-592 -284 2626
-586 -285 2634
-576 -284 2626
-566 -283 2619
-562 -284 2635
-551 -283 2623
-543 -283 2619
-535 -283 2620
-527 -283 2621
-517 -281 2610
-509 -281 2609
-498 -279 2590
-489 -279 2587
-479 -277 2574
-474 -279 2591
-464 -277 2575
-458 -278 2586
-448 -277 2575
-439 -276 2567
-431 -276 2565
-423 -276 2563
-416 -276 2561
-409 -276 2569
-400 -275 2559
-391 -274 2548
-383 -274 2548
-376 -274 2547
-367 -273 2541
-359 -273 2538
-351 -272 2533
-346 -274 2547
-337 -273 2538
-328 -272 2530
-321 -272 2531
-314 -272 2531
-307 -272 2532
-302 -274 2552
-286 -267 2484
-280 -268 2493
-275 -270 2514
-267 -269 2509
-260 -270 2510
-253 -270 2518
-246 -270 2515
-238 -270 2515
-231 -270 2514
-224 -270 2517
-216 -270 2512
-207 -267 2487
-199 -266 2479
-191 -266 2476
-184 -266 2477
-177 -266 2476
-169 -265 2468
-163 -266 2473
-155 -265 2470
-148 -266 2472
-141 -266 2473
-134 -266 2473
-126 -265 2467
-119 -264 2458
-112 -265 2463
-105 -264 2457
-97 -263 2451
-91 -265 2463
-83 -264 2456
-76 -263 2445
-69 -263 2448
-61 -262 2435
-54 -262 2437
-47 -262 2433
-40 -261 2428
-33 -261 2428
-26 -261 2427
-19 -261 2426
-12 -261 2427
-5 -261 2421
1 -260 2409
8 -260 2411
15 -261 2418
22 -260 2408
29 -259 2407
36 -260 2414
43 -259 2403
49 -259 2401
56 -258 2395
63 -259 2398
70 -258 2391
77 -259 2395
84 -259 2395
90 -256 2373
97 -258 2384
104 -257 2376
111 -257 2372
118 -257 2378
125 -257 2377
131 -256 2369
139 -258 2382
146 -259 2389
152 -257 2373
159 -257 2370
165 -256 2364
172 -257 2366
179 -257 2365
185 -255 2354
192 -256 2354
198 -255 2352
205 -255 2349
211 -254 2340
219 -256 2352
226 -256 2356
232 -255 2344
239 -255 2345
245 -254 2336
251 -254 2335
259 -255 2338
265 -254 2334
272 -254 2332
278 -254 2330
285 -254 2329
291 -253 2320
297 -253 2320
304 -254 2321
311 -254 2319
318 -253 2317
323 -253 2310
331 -254 2318
337 -253 2306
343 -253 2305
350 -253 2304
357 -253 2307
363 -253 2303
369 -252 2298
374 -251 2286
382 -252 2290
388 -251 2284
395 -252 2287
401 -251 2281
409 -253 2292
419 -254 2307
425 -254 2303
433 -255 2310
439 -254 2302
446 -254 2301
455 -256 2316
463 -257 2320
471 -258 2326
473 -255 2302
481 -255 2304
489 -256 2308
490 -253 2280
498 -254 2287
503 -253 2278
509 -253 2272
515 -252 2268
521 -252 2263
527 -252 2262
535 -253 2266
553 -258 2311
549 -253 2266
559 -254 2276
562 -253 2260
566 -252 2251
573 -252 2250
579 -252 2247
587 -252 2249
596 -253 2257
603 -254 2256
603 -251 2231
609 -250 2225
622 -253 2248
632 -255 2260
641 -256 2267
645 -255 2254
649 -254 2245
661 -256 2259
664 -254 2247
670 -254 2244
668 -251 2213
673 -250 2205
682 -251 2211
687 -251 2203
693 -251 2200
696 -249 2189
700 -248 2178
711 -250 2189
701 -244 2138
721 -249 2177
733 -251 2190
729 -247 2158
733 -247 2150
738 -246 2143
758 -251 2181
750 -246 2138
752 -244 2122
769 -248 2151
774 -248 2144
787 -250 2160
781 -246 2124
801 -250 2159
804 -249 2147
800 -246 2117
813 -248 2132
820 -248 2131
825 -248 2126
832 -248 2123
839 -248 2125
844 -248 2117
851 -248 2117
856 -247 2111
864 -248 2112
869 -248 2106
876 -248 2104
883 -248 2104
889 -248 2100
896 -248 2099
901 -248 2094
911 -249 2100
919 -249 2100
923 -249 2093
927 -248 2084
935 -248 2086
941 -248 2082
949 -249 2083
955 -248 2077
952 -246 2056
977 -251 2093
1012 -258 2150
1003 -254 2115
988 -249 2066
993 -249 2061
996 -248 2050
952 -235 1944
901 -221 1824
887 -216 1782
897 -217 1789
902 -217 1785
901 -216 1769
908 -216 1770
920 -218 1779
922 -217 1770
921 -215 1755
935 -217 1767
941 -217 1766
940 -216 1750
949 -217 1754
955 -217 1752
956 -216 1740
964 -216 1742
969 -216 1738
986 -219 1756
-1328 -263 2300
-1314 -261 2291
-1306 -261 2294
-1290 -259 2282
-1271 -257 2265
-1269 -258 2279
-1252 -256 2265
-1239 -255 2258
-1227 -254 2253
-1209 -252 2237
-1211 -254 2256
-1197 -253 2249
-1192 -253 2254
-1171 -250 2232
-1164 -250 2237
-1152 -249 2229
-1142 -249 2228
-1131 -248 2223
-1117 -246 2212
-1111 -247 2218
-1092 -244 2195
-1093 -246 2215
-1076 -244 2197
-1055 -240 2171
-1066 -245 2212
-1047 -242 2189
-1035 -241 2181
-1030 -241 2187
-1012 -239 2166
-1005 -239 2169
-995 -238 2165
-990 -238 2172
-973 -236 2152
-979 -239 2182
-993 -244 2230
-1000 -248 2265
-995 -248 2273
-995 -250 2291
-989 -250 2295
-984 -251 2304
-982 -252 2319
-980 -254 2333
-978 -255 2347
-971 -255 2350
-964 -255 2353
-971 -259 2391
-963 -259 2391
-964 -261 2415
-953 -261 2409
-945 -260 2408
-949 -263 2439
-944 -264 2450
-935 -264 2449
-937 -267 2474
-931 -267 2482
-932 -270 2507
-922 -269 2502
-914 -269 2504
-911 -270 2519
-905 -271 2524
-901 -272 2538
-898 -273 2552
-895 -275 2569
-886 -275 2568
-882 -276 2581
-880 -278 2599
-872 -278 2599
-862 -277 2597
-859 -279 2612
-856 -280 2630
-846 -280 2626
-842 -281 2638
-834 -281 2642
-829 -282 2652
-821 -282 2654
-814 -283 2660
-811 -284 2675
-801 -284 2672
-797 -285 2685
-789 -285 2690
-776 -283 2672
-760 -280 2648
-761 -284 2680
-750 -283 2671
-739 -282 2662
-722 -278 2630
-726 -283 2673
-717 -282 2672
-705 -281 2657
-698 -281 2664
-689 -281 2660
-679 -280 2654
-671 -280 2655
-663 -280 2653
-653 -279 2645
-647 -280 2655
-640 -280 2659
-630 -279 2652
-620 -278 2645
-612 -278 2646
-605 -279 2649
-594 -277 2639
-583 -275 2622
-575 -276 2624
-566 -275 2619
-562 -277 2635
-552 -276 2627
-543 -275 2620
-535 -275 2624
-527 -275 2621
-519 -275 2621
-508 -273 2603
-499 -273 2601
-490 -271 2590
-482 -272 2593
-474 -271 2591
-464 -270 2578
-457 -270 2581
-449 -270 2577
-440 -269 2571
-432 -269 2571
-424 -269 2566
-416 -268 2562
-409 -269 2570
-400 -268 2558
-392 -267 2553
-385 -268 2559
-377 -267 2554
-369 -267 2553
-360 -266 2540
-352 -265 2537
-346 -266 2547
-337 -265 2539
-329 -265 2534
-321 -265 2533
-314 -265 2537
-307 -265 2536
-298 -264 2525
-291 -264 2525
-284 -264 2531
-275 -263 2519
-268 -263 2516
-260 -263 2515
-254 -264 2527
-247 -264 2529
-237 -261 2501
-231 -263 2517
-224 -263 2520
-216 -263 2517
-207 -260 2486
-199 -259 2483
-192 -259 2484
-184 -259 2480
-177 -259 2476
-170 -258 2472
-162 -258 2471
-156 -259 2480
-148 -259 2475
-141 -259 2478
-134 -258 2469
-127 -258 2472
-119 -257 2458
-112 -257 2458
-104 -256 2453
-97 -257 2456
-90 -256 2451
-83 -256 2446
-76 -257 2458
-69 -257 2452
-62 -256 2446
-54 -255 2440
-47 -255 2436
-40 -255 2433
-33 -255 2433
-26 -254 2426
-19 -254 2423
-12 -254 2424
-5 -254 2424
1 -253 2418
8 -253 2418
15 -253 2413
22 -253 2409
29 -253 2410
36 -252 2404
43 -252 2405
50 -252 2405
56 -252 2402
63 -251 2393
70 -252 2402
77 -252 2394
84 -251 2392
91 -251 2387
97 -251 2386
104 -251 2382
111 -250 2375
118 -250 2379
125 -251 2380
131 -250 2375
138 -251 2379
146 -251 2385
152 -250 2373
158 -250 2367
166 -250 2371
171 -249 2357
179 -249 2361
185 -249 2357
192 -249 2360
198 -249 2353
205 -248 2348
211 -248 2344
218 -248 2340
226 -249 2349
233 -249 2353
238 -248 2341
245 -248 2338
252 -248 2336
258 -248 2335
266 -248 2340
271 -247 2331
278 -247 2325
285 -247 2329
291 -247 2323
296 -246 2310
304 -247 2320
310 -246 2315
317 -246 2315
324 -246 2313
330 -246 2308
338 -247 2313
343 -245 2301
349 -246 2302
357 -246 2307
363 -246 2304
369 -245 2295
375 -245 2291
381 -245 2286
387 -244 2281
395 -245 2288
402 -245 2288
411 -247 2300
422 -249 2322
427 -249 2315
427 -245 2277
439 -247 2302
446 -248 2305
452 -248 2300
453 -244 2268
467 -248 2305
473 -248 2300
479 -248 2297
486 -248 2294
493 -248 2295
496 -246 2277
502 -246 2274
507 -245 2263
516 -247 2276
521 -245 2264
528 -246 2266
536 -247 2272
541 -246 2260
551 -247 2274
558 -247 2272
561 -246 2258
567 -246 2254
572 -245 2247
583 -247 2261
585 -245 2242
591 -245 2239
599 -245 2241
607 -246 2245
616 -247 2255
623 -247 2254
632 -248 2260
639 -248 2258
645 -248 2256
651 -248 2253
655 -247 2240
663 -247 2244
668 -247 2237
676 -247 2239
677 -245 2218
675 -242 2189
684 -243 2195
682 -240 2166
696 -243 2187
699 -241 2174
708 -242 2182
725 -246 2211
731 -246 2207
727 -242 2175
732 -242 2167
738 -242 2165
732 -238 2127
758 -244 2181
753 -240 2145
768 -243 2167
775 -243 2168
776 -242 2151
784 -242 2153
788 -242 2144
796 -242 2144
806 -243 2153
813 -243 2152
813 -241 2133
822 -242 2137
831 -243 2141
834 -242 2129
840 -242 2127
845 -241 2121
855 -243 2128
861 -242 2123
867 -242 2120
876 -243 2124
882 -243 2121
885 -242 2109
893 -243 2112
900 -243 2109
908 -243 2112
911 -242 2101
926 -244 2117
927 -243 2102
931 -242 2094
942 -244 2101
946 -243 2094
952 -243 2089
959 -243 2087
982 -247 2121
982 -246 2103
1017 -253 2161
1005 -248 2119
988 -242 2067
994 -242 2063
1001 -243 2062
961 -231 1963
900 -215 1824
889 -211 1788
891 -210 1777
901 -211 1784
900 -210 1767
911 -211 1776
914 -210 1768
919 -210 1764
924 -210 1760
928 -210 1756
936 -211 1758
944 -211 1759
947 -210 1750
954 -211 1750
960 -211 1748
965 -211 1744
973 -211 1746
975 -211 1737
-1323 -254 2291
-1317 -254 2297
-1299 -252 2283
-1291 -252 2286
-1280 -252 2282
-1260 -249 2264
-1246 -248 2255
-1239 -248 2259
-1228 -247 2257
-1213 -246 2245
-1203 -245 2244
-1181 -242 2218
-1171 -242 2217
-1165 -242 2221
-1161 -243 2231
-1139 -240 2206
-1127 -238 2198
-1130 -241 2221
-1112 -238 2203
-1100 -237 2195
-1095 -238 2203
-1090 -238 2209
-1065 -234 2175
-1062 -235 2187
-1050 -234 2179
-1040 -233 2175
-1029 -232 2168
-1025 -233 2178
-1008 -231 2160
-1004 -232 2167
-997 -231 2169
-982 -230 2153
-974 -230 2155
-976 -231 2175
-995 -238 2237
-1003 -241 2273
-1000 -242 2284
-997 -244 2297
-990 -244 2299
-987 -245 2311
-984 -246 2323
-980 -247 2333
-974 -247 2339
-971 -248 2352
-969 -249 2366
-964 -250 2375
-967 -253 2402
-957 -252 2399
-952 -253 2406
-948 -254 2416
-945 -255 2431
-942 -256 2445
-938 -257 2456
-939 -260 2481
-933 -260 2486
-929 -261 2500
-922 -261 2503
-918 -262 2515
-909 -262 2514
-903 -263 2521
-903 -265 2545
-896 -265 2549
-894 -267 2567
-888 -268 2575
-885 -269 2589
-877 -269 2591
-868 -269 2590
-863 -269 2599
-856 -270 2605
-852 -271 2619
-843 -271 2617
-837 -271 2624
-835 -274 2646
-826 -273 2643
-821 -274 2656
-816 -275 2665
-811 -276 2677
-803 -276 2678
-796 -276 2682
-793 -278 2702
-779 -276 2683
-758 -272 2642
-760 -275 2676
-751 -275 2675
-729 -270 2626
-725 -271 2639
-727 -275 2679
-718 -275 2677
-703 -272 2651
-699 -274 2667
-690 -273 2664
-681 -273 2663
-672 -272 2658
-662 -272 2653
-651 -270 2642
-644 -271 2645
-638 -272 2654
-628 -271 2645
-620 -270 2645
-612 -270 2646
-603 -270 2644
-597 -271 2649
-586 -269 2638
-575 -268 2623
-568 -268 2629
-560 -268 2630
-552 -268 2628
-543 -268 2624
-534 -267 2616
-528 -268 2626
-519 -267 2619
-510 -266 2614
-499 -265 2602
-489 -264 2590
-481 -263 2586
-474 -264 2589
-466 -263 2586
-457 -263 2581
-449 -263 2582
-442 -263 2581
-434 -262 2580
-427 -263 2587
-416 -261 2565
-407 -260 2558
-400 -260 2562
-394 -261 2568
-385 -260 2561
-375 -259 2547
-368 -259 2546
-361 -259 2548
-353 -259 2549
-346 -259 2548
-337 -258 2543
-329 -258 2536
-321 -257 2530
-314 -257 2534
-306 -257 2534
-299 -258 2536
-292 -257 2534
-282 -256 2517
-275 -255 2515
-267 -255 2511
-261 -256 2519
-254 -257 2527
-246 -256 2524
-238 -255 2512
-231 -255 2516
-224 -255 2516
-215 -254 2501
-207 -254 2497
-199 -252 2482
-192 -252 2485
-185 -252 2484
-177 -252 2481
-169 -251 2471
-162 -251 2471
-156 -252 2483
-148 -252 2476
-141 -251 2469
-134 -251 2470
-126 -251 2468
-119 -251 2467
-112 -250 2460
-105 -250 2461
-97 -250 2460
-90 -250 2457
-83 -250 2455
-76 -249 2453
-69 -249 2449
-61 -248 2435
-54 -248 2440
-47 -248 2440
-40 -248 2437
-33 -247 2427
-26 -248 2431
-19 -247 2424
-12 -247 2423
-5 -247 2425
1 -247 2422
8 -246 2412
15 -246 2415
22 -247 2419
29 -246 2415
36 -246 2413
43 -245 2403
49 -245 2398
56 -245 2398
63 -245 2399
70 -245 2399
77 -245 2398
84 -245 2396
91 -244 2388
97 -244 2384
104 -243 2381
111 -243 2375
118 -244 2382
124 -242 2362
131 -243 2376
138 -244 2379
145 -243 2376
152 -243 2373
159 -244 2378
165 -243 2369
172 -243 2369
179 -243 2367
186 -243 2364
192 -243 2362
199 -242 2357
205 -242 2353
212 -242 2352
219 -242 2353
226 -242 2349
233 -242 2355
239 -242 2347
245 -241 2341
252 -241 2343
258 -240 2329
265 -241 2335
272 -241 2335
278 -240 2327
285 -241 2332
290 -239 2318
298 -240 2322
305 -240 2323
311 -240 2321
317 -239 2313
323 -239 2310
331 -240 2313
338 -240 2314
343 -239 2301
351 -240 2309
356 -239 2299
363 -239 2303
370 -239 2304
375 -238 2291
382 -238 2292
388 -238 2288
394 -238 2283
400 -238 2280
412 -241 2310
422 -243 2326
429 -243 2327
435 -243 2321
430 -236 2256
446 -241 2305
449 -239 2283
455 -239 2282
457 -236 2255
485 -248 2361
483 -243 2313
490 -243 2314
493 -241 2295
498 -241 2289
501 -239 2268
512 -241 2288
515 -239 2269
520 -239 2263
529 -239 2269
533 -238 2257
542 -239 2264
548 -239 2261
554 -239 2259
561 -239 2257
566 -238 2250
573 -239 2250
581 -239 2255
584 -238 2240
596 -240 2256
601 -239 2251
611 -241 2261
619 -241 2264
628 -242 2271
634 -242 2269
636 -240 2250
645 -241 2255
651 -241 2251
659 -242 2256
665 -241 2252
669 -240 2238
676 -240 2239
673 -237 2205
682 -238 2211
681 -235 2186
689 -236 2190
695 -236 2187
697 -234 2170
702 -234 2162
701 -231 2138
717 -235 2165
721 -234 2158
729 -234 2159
738 -235 2165
738 -233 2144
740 -232 2130
748 -232 2132
762 -235 2151
771 -235 2156
777 -235 2154
786 -236 2158
779 -232 2118
793 -234 2137
804 -236 2147
802 -233 2122
816 -236 2140
807 -231 2097
832 -236 2143
834 -235 2131
835 -234 2115
835 -232 2095
844 -233 2101
857 -235 2113
867 -236 2119
874 -236 2120
880 -236 2116
888 -236 2116
891 -235 2106
897 -235 2102
906 -236 2107
910 -235 2099
924 -237 2112
924 -236 2096
930 -236 2091
939 -236 2096
945 -236 2092
969 -241 2127
957 -236 2084
968 -237 2092
980 -239 2100
1018 -246 2164
1008 -242 2126
984 -235 2060
995 -236 2066
1001 -236 2062
968 -227 1978
907 -211 1838
887 -205 1784
890 -204 1776
909 -207 1799
905 -205 1779
912 -206 1779
915 -205 1770
918 -205 1763
925 -205 1764
928 -204 1755
932 -204 1750
942 -205 1756
949 -205 1755
956 -206 1755
961 -206 1751
960 -204 1736
972 -206 1745
974 -205 1736
-1319 -246 2285
-1304 -244 2275
-1295 -244 2276
-1277 -242 2262
-1261 -241 2250
-1262 -242 2268
-1249 -241 2262
-1225 -238 2234
-1233 -241 2266
-1205 -237 2230
-1195 -236 2229
-1185 -236 2228
-1168 -234 2211
-1161 -234 2215
-1146 -233 2204
-1147 -234 2221
-1135 -233 2215
-1122 -232 2206
-1114 -232 2208
-1107 -232 2210
-1099 -232 2211
-1076 -228 2183
-1067 -228 2181
-1054 -227 2170
-1050 -227 2180
-1039 -226 2173
-1036 -227 2184
-1021 -226 2170
-1012 -225 2167
-1001 -224 2163
-996 -225 2169
-992 -225 2177
-973 -222 2152
-980 -226 2186
-994 -231 2235
-1001 -234 2268
-995 -234 2273
-994 -236 2291
-993 -237 2307
-986 -237 2309
-983 -238 2322
-976 -238 2326
-973 -239 2337
-971 -241 2352
-965 -241 2358
-964 -243 2375
-962 -244 2391
-955 -244 2395
-956 -246 2418
-948 -246 2418
-949 -249 2442
-941 -248 2443
-938 -250 2458
-935 -251 2472
-933 -252 2487
-930 -254 2502
-919 -253 2497
-914 -254 2506
-913 -256 2525
-904 -255 2524
-901 -257 2540
-898 -258 2556
-892 -259 2561
-883 -258 2559
-884 -261 2586
-875 -261 2587
-869 -261 2594
-863 -262 2602
-860 -263 2618
-850 -263 2614
-847 -264 2628
-841 -265 2638
-835 -265 2644
-830 -267 2657
-820 -266 2653
-818 -268 2673
-809 -268 2672
-806 -269 2688
-798 -269 2693
-793 -270 2704
-775 -267 2670
-761 -265 2652
-761 -268 2680
-755 -268 2689
-734 -264 2645
-726 -264 2646
-725 -266 2671
-714 -265 2662
-705 -265 2661
-697 -265 2662
-689 -265 2660
-680 -264 2657
-672 -265 2661
-665 -265 2663
-653 -263 2647
-646 -264 2653
-640 -264 2661
-630 -264 2655
-622 -264 2657
-612 -263 2649
-603 -262 2642
-594 -262 2641
-585 -261 2633
-574 -260 2621
-566 -260 2622
-562 -261 2637
-551 -260 2624
-542 -259 2620
-536 -260 2629
-525 -259 2614
-518 -259 2616
-507 -258 2603
-499 -257 2603
-489 -256 2588
-481 -256 2590
-472 -255 2582
-466 -256 2587
-458 -256 2586
-447 -254 2569
-441 -255 2578
-431 -253 2565
-425 -254 2576
-416 -253 2565
-407 -253 2559
-401 -253 2564
-391 -252 2555
-385 -253 2564
-376 -252 2554
-368 -252 2550
-362 -252 2557
-353 -252 2551
-345 -251 2543
-337 -250 2537
-329 -250 2537
-321 -250 2536
-314 -250 2533
-306 -250 2531
-298 -249 2527
-290 -249 2523
-282 -248 2515
-274 -248 2512
-267 -248 2516
-260 -248 2515
-253 -248 2517
-246 -248 2520
-238 -248 2513
-230 -247 2504
-223 -248 2510
-216 -248 2510
-207 -246 2495
-199 -245 2487
-192 -245 2489
-185 -245 2484
-177 -245 2481
-170 -245 2482
-162 -244 2473
-155 -244 2478
-148 -244 2473
-140 -243 2467
-134 -245 2486
-124 -239 2417
-119 -244 2472
-112 -243 2460
-105 -243 2464
-98 -243 2466
-90 -243 2458
-83 -243 2456
-76 -242 2454
-68 -241 2440
-61 -241 2440
-54 -242 2444
-47 -240 2427
-40 -240 2429
-33 -240 2427
-26 -240 2429
-19 -240 2427
-12 -240 2427
-5 -240 2423
1 -239 2417
8 -239 2416
15 -239 2415
22 -239 2410
29 -239 2414
36 -239 2408
43 -239 2407
50 -238 2403
57 -238 2404
63 -238 2401
70 -238 2404
77 -237 2389
84 -238 2393
91 -238 2393
98 -237 2390
104 -237 2382
111 -236 2373
118 -237 2381
125 -236 2375
131 -236 2374
139 -238 2389
146 -238 2390
153 -238 2387
159 -237 2379
166 -237 2377
172 -236 2367
179 -236 2371
186 -237 2374
193 -237 2371
199 -236 2362
206 -236 2365
212 -235 2351
219 -235 2348
227 -236 2363
233 -236 2360
240 -235 2353
246 -235 2347
253 -235 2349
259 -234 2341
265 -234 2338
273 -235 2342
278 -234 2331
286 -234 2336
291 -234 2326
