VERSION 0.7
FIELDS x y z
SIZE 4 4 4
TYPE I I I
COUNT 1 1 1
WIDTH 3595
HEIGHT 1
VIEWPOINT 0.0 0.0 0.0 1.0 0.0 0.0 0.0
POINTS 3595
DATA ascii
-491 -154 854
-479 -151 840
-476 -151 840
-468 -149 832
-478 -153 856
-470 -152 850
-469 -152 852
-480 -157 881
-466 -153 860
-488 -161 908
-503 -167 942
-573 -192 1082
-1035 -349 1970
-1085 -369 2081
-1079 -369 2085
-1070 -368 2083
-1065 -369 2090
-1051 -366 2078
-1049 -368 2090
-1040 -367 2088
-1033 -367 2090
-1021 -365 2082
-1012 -364 2081
-1006 -364 2084
-994 -363 2076
-987 -362 2078
-979 -362 2078
-962 -358 2057
-970 -363 2090
-960 -362 2085
-953 -362 2088
-948 -363 2095
-934 -360 2080
-918 -356 2061
-897 -350 2030
-900 -354 2054
-891 -353 2050
-878 -351 2038
-878 -353 2054
-875 -355 2064
-853 -348 2031
-848 -349 2036
-848 -351 2052
-846 -353 2065
-836 -352 2060
-823 -349 2044
-802 -343 2010
-807 -348 2041
-800 -348 2042
-787 -345 2026
-794 -350 2060
-768 -342 2013
-758 -340 2003
-756 -342 2018
-754 -344 2029
-743 -342 2020
-745 -346 2043
-741 -346 2050
-733 -346 2048
-719 -342 2028
-719 -345 2048
-722 -350 2075
-715 -349 2076
-710 -350 2080
-702 -349 2077
-695 -349 2076
-685 -347 2068
-681 -348 2076
-668 -345 2057
-661 -345 2057
-658 -346 2068
-648 -344 2056
-644 -345 2064
-638 -346 2069
-637 -348 2086
-628 -347 2078
-620 -346 2075
-612 -345 2069
-603 -344 2063
-598 -344 2066
-594 -346 2077
-588 -346 2079
-586 -348 2093
-573 -344 2072
-569 -346 2082
-568 -349 2100
-560 -348 2096
-554 -348 2099
-543 -345 2080
-541 -348 2100
-535 -348 2102
-523 -344 2079
-526 -350 2116
-514 -346 2095
-514 -351 2121
-501 -346 2093
-493 -345 2089
-492 -349 2113
-488 -350 2123
-523 -380 2303
-508 -374 2268
-513 -383 2321
0 0 0
0 0 0
0 0 0
-735 -579 3516
-781 -625 3793
-772 -627 3805
-777 -640 3887
-756 -632 3837
-759 -645 3917
-744 -642 3900
-738 -646 3928
-728 -647 3937
-717 -648 3945
-708 -651 3959
-688 -643 3915
-688 -654 3981
-682 -659 4012
-670 -660 4017
-660 -661 4026
-650 -663 4040
-640 -665 4050
-629 -666 4059
-612 -660 4026
-601 -661 4029
-589 -661 4032
-578 -662 4037
-565 -660 4028
-551 -658 4016
-539 -658 4016
-526 -656 4002
-518 -661 4033
-503 -656 4008
-490 -655 3997
-478 -654 3995
-468 -658 4017
-454 -654 3997
-443 -654 3996
-432 -656 4005
-420 -655 4001
-408 -655 4001
-396 -654 3996
-385 -655 4003
-372 -653 3994
-361 -654 3996
-349 -653 3991
-342 -662 4047
-339 -680 4157
-317 -659 4030
-308 -666 4072
-307 -690 4220
-327 -766 4682
-321 -783 4789
-314 -802 4902
2 1 -3
2 1 -2
2 0 0
0 -9 60
-24 -86 531
-46 -170 1045
-38 -149 916
-9 -47 292
-8 -47 292
-15 -83 513
-31 -168 1032
-33 -199 1223
-32 -210 1286
-26 -199 1219
-23 -205 1256
-20 -207 1270
-17 -219 1342
-13 -209 1282
-9 -212 1298
-5 -208 1277
-1 -199 1221
1 -206 1261
5 -207 1267
9 -208 1276
12 -197 1209
16 -215 1318
19 -203 1243
23 -209 1277
27 -208 1272
31 -208 1274
34 -206 1263
38 -207 1266
43 -215 1315
48 -221 1348
49 -208 1272
50 -198 1210
57 -209 1274
59 -202 1236
63 -203 1243
65 -200 1222
73 -214 1306
79 -220 1340
79 -209 1275
85 -215 1313
91 -221 1345
93 -215 1311
95 -213 1296
99 -211 1287
100 -206 1258
103 -205 1248
100 -192 1171
0 0 0
0 0 0
0 0 0
378 -653 3958
0 0 0
0 0 0
0 0 0
0 0 0
360 -539 3261
359 -523 3164
356 -507 3062
369 -512 3094
377 -510 3083
391 -517 3123
396 -512 3088
0 0 0
0 0 0
398 -481 2903
397 -470 2836
385 -446 2686
0 0 0
0 0 0
0 0 0
0 0 0
0 0 0
0 0 0
242 -243 1465
278 -276 1659
0 0 0
0 0 0
238 -224 1345
232 -214 1288
369 -337 2021
470 -424 2538
513 -456 2730
534 -468 2795
515 -444 2653
330 -279 1668
303 -252 1505
292 -239 1427
369 -299 1782
357 -285 1698
371 -292 1742
286 -221 1318
252 -191 1142
209 -156 933
224 -165 985
199 -144 861
0 0 0
138 -97 578
155 -107 642
148 -101 603
166 -113 672
0 0 0
97 -63 375
0 0 0
58 -35 214
0 0 0
0 0 0
1271 -817 4806
9 -2 19
1303 -820 4814
51 -29 174
35 -18 111
0 0 0
0 0 0
0 0 0
0 0 0
0 0 0
0 0 0
0 0 0
0 0 0
0 0 0
0 0 0
0 0 0
0 0 0
0 0 0
0 0 0
0 0 0
0 0 0
0 0 0
0 0 0
0 0 0
1079 -547 3151
1079 -542 3121
1069 -532 3062
0 0 0
0 0 0
0 0 0
0 0 0
1035 -494 2829
1054 -499 2853
1065 -501 2858
1080 -503 2872
1082 -500 2849
1099 -504 2870
1084 -493 2805
1077 -486 2762
1092 -489 2775
1100 -489 2771
1087 -480 2714
1085 -475 2685
1079 -469 2647
1083 -467 2633
1093 -468 2634
1087 -462 2600
1091 -460 2585
1094 -458 2571
1095 -455 2552
1094 -451 2527
1091 -447 2501
1104 -449 2510
1095 -443 2467
1091 -438 2438
1086 -433 2407
1083 -429 2382
1103 -434 2406
1081 -422 2338
1081 -420 2320
1100 -424 2342
1056 -404 2229
1079 -410 2259
1050 -397 2183
1098 -412 2265
1103 -412 2257
1107 -410 2248
1094 -403 2203
1096 -401 2190
1104 -401 2188
1106 -400 2175
1115 -401 2177
1110 -396 2151
1110 -394 2134
1114 -393 2126
1119 -392 2118
1123 -391 2110
1133 -393 2113
1128 -388 2087
1129 -386 2073
1138 -387 2074
1131 -383 2045
1141 -384 2048
1135 -380 2023
1139 -379 2015
-499 -151 856
-484 -148 837
-478 -147 833
-480 -148 842
-481 -150 850
-469 -146 834
-465 -146 834
-464 -147 838
-456 -145 829
-472 -151 866
-469 -151 867
-483 -156 899
-497 -162 932
-590 -194 1115
-1048 -347 1995
-1085 -362 2082
-1076 -361 2080
-1068 -361 2080
-1059 -360 2079
-1056 -361 2090
-1049 -361 2091
-1038 -360 2085
-1030 -359 2086
-1023 -359 2087
-1015 -358 2087
-1006 -358 2086
-994 -356 2078
-991 -357 2086
-973 -353 2066
-965 -353 2065
-969 -356 2090
-963 -357 2094
-954 -356 2091
-947 -356 2092
-937 -355 2088
-921 -351 2068
-907 -348 2054
-904 -350 2065
-880 -343 2027
-876 -343 2033
-879 -347 2058
-864 -344 2040
-855 -343 2036
-850 -343 2041
-845 -344 2046
-848 -348 2072
-829 -343 2042
-825 -343 2050
-817 -343 2048
-799 -338 2021
-808 -344 2061
-788 -339 2029
-770 -334 2000
-755 -330 1980
-755 -333 1997
-768 -341 2050
-751 -336 2023
-756 -341 2055
-750 -342 2059
-749 -344 2073
-728 -337 2034
-716 -334 2020
-720 -339 2050
-717 -341 2061
-716 -344 2079
-706 -342 2071
-707 -345 2094
-698 -344 2088
-685 -341 2069
-676 -339 2061
-662 -336 2040
-665 -340 2068
-658 -340 2067
-649 -338 2060
-643 -339 2064
-641 -341 2078
-634 -341 2078
-630 -342 2088
-614 -337 2056
-610 -338 2064
-603 -338 2064
-600 -339 2076
-597 -341 2087
-592 -342 2092
-577 -337 2062
-573 -338 2073
-573 -342 2097
-569 -343 2107
-557 -340 2086
-553 -341 2096
-547 -341 2097
-536 -338 2081
-533 -340 2094
-527 -340 2095
-516 -337 2078
-514 -340 2096
-509 -341 2103
-501 -340 2097
-497 -341 2105
-489 -341 2101
-489 -344 2126
-535 -382 2358
0 0 0
0 0 0
-558 -415 2564
-667 -503 3105
-705 -538 3326
-784 -607 3752
-773 -607 3754
-785 -626 3871
-778 -629 3892
-765 -628 3885
-764 -637 3942
-753 -638 3949
-744 -640 3964
-730 -637 3948
-721 -640 3966
-710 -641 3973
-694 -636 3945
-693 -647 4010
-684 -649 4025
-679 -656 4069
-668 -657 4076
-657 -658 4082
-646 -659 4090
-634 -659 4092
-619 -656 4073
-606 -655 4070
-595 -656 4072
-581 -653 4058
-569 -654 4064
-554 -650 4042
-542 -650 4039
-532 -652 4051
-519 -650 4041
-508 -652 4052
-493 -647 4023
-482 -648 4030
-468 -645 4013
-456 -644 4010
-444 -645 4010
-433 -645 4014
-422 -648 4030
-409 -646 4017
-397 -644 4010
-386 -647 4024
-374 -646 4022
-362 -644 4011
-349 -642 3999
-340 -647 4027
-338 -666 4145
-320 -655 4080
-305 -648 4032
-297 -656 4084
-305 -702 4373
-309 -742 4619
-308 -771 4799
-303 -796 4952
-290 -798 4967
-276 -802 4992
0 -5 37
-24 -85 538
-37 -135 848
-37 -145 906
-23 -102 639
-11 -56 356
-12 -69 437
-31 -166 1039
-33 -193 1206
-31 -205 1282
-26 -195 1221
-25 -210 1311
-21 -208 1300
-16 -198 1235
-12 -200 1251
-9 -208 1299
-5 -190 1183
-2 -206 1283
1 -197 1232
5 -208 1299
8 -200 1248
13 -212 1322
16 -200 1249
19 -197 1228
23 -199 1240
27 -204 1269
31 -209 1300
35 -209 1305
39 -212 1319
43 -209 1299
47 -212 1318
51 -210 1309
51 -197 1226
55 -199 1237
62 -211 1315
63 -200 1243
72 -216 1345
77 -222 1378
76 -208 1292
81 -209 1302
82 -204 1266
87 -207 1288
89 -203 1262
96 -209 1299
101 -212 1316
110 -223 1381
105 -206 1276
97 -182 1129
0 0 0
370 -668 4126
372 -650 4012
0 0 0
0 0 0
0 0 0
0 0 0
371 -561 3455
382 -562 3463
375 -537 3305
352 -492 3027
376 -512 3152
365 -485 2986
381 -495 3045
408 -518 3186
0 0 0
0 0 0
376 -446 2740
397 -461 2832
364 -414 2541
0 0 0
0 0 0
0 0 0
0 0 0
191 -195 1198
278 -281 1721
279 -276 1693
268 -260 1595
278 -266 1628
267 -251 1535
236 -217 1330
271 -246 1506
373 -335 2043
474 -420 2559
511 -446 2718
544 -468 2848
512 -433 2637
346 -287 1750
300 -245 1489
270 -217 1319
339 -269 1638
362 -284 1726
356 -275 1669
282 -214 1300
0 0 0
223 -164 997
220 -160 970
0 0 0
231 -164 993
169 -117 712
180 -123 749
136 -91 554
0 0 0
67 -42 258
0 0 0
0 0 0
0 0 0
0 0 0
81 -49 298
23 -11 72
15 -6 40
35 -18 117
0 0 0
0 0 0
0 0 0
0 0 0
0 0 0
0 0 0
0 0 0
0 0 0
0 0 0
0 0 0
0 0 0
0 0 0
0 0 0
0 0 0
0 0 0
0 0 0
0 0 0
0 0 0
0 0 0
0 0 0
0 0 0
0 0 0
0 0 0
0 0 0
0 0 0
0 0 0
0 0 0
0 0 0
1051 -493 2873
1068 -497 2892
1074 -496 2883
1081 -495 2873
1090 -495 2872
1094 -493 2858
1083 -484 2801
1088 -482 2790
1078 -474 2741
1069 -467 2694
1086 -471 2713
1093 -470 2706
1079 -461 2648
1095 -464 2664
1092 -459 2633
1094 -457 2616
1084 -449 2571
1095 -451 2575
1080 -441 2518
1090 -442 2521
1100 -443 2523
1081 -432 2457
1067 -424 2406
1039 -409 2322
1049 -411 2327
1050 -408 2310
1087 -420 2372
1061 -407 2295
1074 -409 2305
1092 -414 2326
1043 -392 2203
1096 -409 2296
1050 -390 2184
1108 -409 2285
1105 -405 2261
1109 -404 2251
1102 -399 2220
1099 -395 2197
1103 -394 2187
1111 -395 2187
1109 -391 2165
1121 -393 2172
1120 -391 2154
1131 -392 2159
1133 -390 2145
1128 -386 2121
1136 -387 2118
1132 -383 2096
1136 -382 2087
1141 -381 2080
1137 -378 2057
1141 -377 2049
1145 -376 2041
1146 -375 2029
-488 -145 837
-487 -146 842
-486 -146 847
-471 -143 827
-473 -144 836
-476 -146 847
-476 -147 854
-460 -143 831
-465 -145 847
-472 -148 866
-483 -153 893
-471 -150 878
-461 -147 865
-609 -197 1152
-1059 -344 2017
-1085 -355 2082
-1079 -355 2087
-1070 -355 2086
-1062 -354 2087
-1053 -353 2084
-1046 -353 2086
-1035 -352 2081
-1029 -352 2085
-1026 -353 2094
-1012 -351 2083
-1008 -352 2092
-996 -350 2081
-986 -349 2079
-965 -344 2050
-969 -348 2076
-973 -352 2101
-960 -349 2088
-954 -349 2092
-950 -350 2101
-934 -347 2083
-919 -344 2065
-897 -338 2032
-898 -341 2051
-892 -341 2055
-888 -342 2063
-871 -338 2041
-864 -338 2042
-858 -338 2043
-863 -342 2074
-844 -337 2046
-849 -342 2075
-837 -340 2064
-826 -338 2053
-814 -335 2042
-800 -332 2026
-799 -335 2041
-788 -333 2030
-762 -324 1979
-754 -324 1978
-764 -330 2021
-771 -336 2058
-764 -336 2058
-749 -332 2036
-734 -328 2016
-747 -337 2068
-731 -333 2045
-720 -330 2034
-723 -335 2061
-720 -336 2072
-713 -336 2070
-708 -336 2076
-702 -337 2080
-697 -337 2084
-688 -336 2078
-682 -336 2079
-669 -333 2061
-666 -334 2073
-660 -335 2076
-644 -330 2047
-640 -331 2055
-640 -334 2076
-639 -337 2094
-629 -335 2084
-617 -332 2068
-613 -333 2074
-606 -333 2075
-600 -333 2075
-592 -332 2072
-589 -334 2082
-581 -333 2078
-575 -333 2081
-576 -337 2107
-571 -338 2116
-561 -336 2101
-555 -336 2104
-549 -336 2104
-544 -337 2112
-532 -334 2091
-528 -335 2099
-521 -335 2100
-517 -336 2107
-508 -334 2098
-500 -333 2091
-492 -332 2086
-491 -336 2110
-489 -338 2128
-521 -365 2296
0 0 0
0 0 0
0 0 0
0 0 0
-701 -526 3312
-775 -589 3710
-799 -616 3881
-794 -621 3914
-794 -631 3976
-772 -622 3923
-765 -626 3949
-765 -636 4012
-749 -632 3990
-744 -638 4027
-731 -638 4025
-720 -638 4032
-701 -632 3989
-695 -637 4023
-689 -642 4059
-699 -663 4190
-701 -677 4280
-695 -683 4318
-684 -685 4330
-670 -684 4326
-658 -685 4332
-641 -680 4306
-627 -679 4295
-606 -670 4239
-584 -659 4171
-573 -660 4179
-560 -659 4174
-551 -663 4200
-538 -662 4192
-526 -662 4196
-504 -650 4116
-490 -648 4105
-476 -644 4085
-466 -647 4100
-452 -644 4085
-440 -644 4084
-427 -643 4075
-415 -643 4079
-403 -643 4076
-391 -642 4071
-379 -641 4067
-366 -641 4065
-356 -644 4085
-346 -646 4098
-337 -653 4145
-322 -646 4100
-309 -645 4092
-299 -649 4119
-305 -688 4363
-310 -731 4638
-308 -757 4802
-305 -786 4981
-291 -787 4989
-277 -788 4999
0 -8 58
-33 -113 723
-38 -135 860
-28 -110 706
-29 -122 778
-19 -91 586
-10 -59 383
-28 -150 955
-34 -195 1242
-28 -181 1154
-29 -208 1326
-24 -199 1265
-18 -186 1187
-16 -196 1246
-12 -197 1254
-9 -205 1301
-5 -200 1272
-1 -197 1252
1 -197 1254
5 -199 1267
9 -211 1340
12 -194 1233
15 -191 1214
20 -201 1279
22 -192 1218
27 -204 1293
32 -210 1336
33 -192 1219
38 -197 1251
42 -202 1285
49 -219 1386
47 -193 1223
56 -212 1342
60 -211 1339
60 -199 1263
65 -203 1286
67 -198 1254
73 -205 1296
76 -204 1289
82 -208 1319
85 -206 1303
91 -212 1341
96 -215 1361
94 -203 1282
102 -211 1331
103 -205 1293
102 -195 1235
109 -201 1271
0 0 0
364 -645 4058
0 0 0
0 0 0
0 0 0
0 0 0
357 -544 3414
0 0 0
0 0 0
0 0 0
368 -504 3163
361 -483 3027
367 -479 3002
378 -482 3018
384 -479 2999
0 0 0
0 0 0
371 -432 2705
394 -450 2812
389 -435 2719
0 0 0
0 0 0
189 -197 1233
205 -210 1313
225 -226 1414
265 -263 1640
278 -271 1689
281 -268 1674
297 -280 1742
259 -238 1487
272 -247 1540
296 -264 1645
382 -337 2093
478 -416 2584
501 -429 2663
534 -451 2798
513 -427 2645
353 -288 1786
275 -220 1365
258 -203 1262
338 -263 1631
344 -265 1640
352 -267 1650
254 -189 1170
240 -176 1090
226 -163 1009
0 0 0
0 0 0
202 -140 866
0 0 0
0 0 0
135 -89 551
80 -51 317
0 0 0
0 0 0
88 -54 335
0 0 0
85 -51 316
110 -66 408
18 -7 52
1270 -780 4752
1300 -789 4807
0 0 0
0 0 0
0 0 0
0 0 0
0 0 0
0 0 0
0 0 0
0 0 0
0 0 0
0 0 0
0 0 0
0 0 0
0 0 0
0 0 0
0 0 0
0 0 0
0 0 0
0 0 0
0 0 0
0 0 0
0 0 0
0 0 0
0 0 0
0 0 0
0 0 0
0 0 0
0 0 0
0 0 0
1038 -478 2839
1066 -487 2887
1073 -486 2879
1080 -485 2872
1078 -481 2841
1085 -480 2835
1088 -477 2816
1096 -478 2813
1087 -470 2765
1080 -463 2722
1071 -456 2676
1071 -452 2651
1082 -453 2656
1066 -444 2595
1080 -446 2606
1078 -442 2579
1076 -438 2552
1061 -429 2496
1095 -439 2554
1034 -412 2392
1094 -433 2508
1049 -412 2387
1107 -432 2497
1084 -420 2424
1082 -416 2400
1071 -409 2357
1075 -408 2347
1058 -399 2290
1111 -416 2386
1092 -406 2327
1106 -409 2338
1084 -398 2272
1111 -405 2311
1105 -400 2281
1116 -402 2285
1111 -397 2256
1120 -398 2258
1108 -391 2216
1105 -388 2192
1110 -387 2185
1110 -385 2169
1112 -383 2156
1129 -387 2172
1129 -384 2156
1141 -386 2163
1136 -382 2136
1126 -376 2101
1133 -376 2098
1134 -375 2084
1141 -375 2082
1133 -370 2051
1146 -372 2059
1139 -368 2032
1136 -365 2012
-489 -143 840
-483 -142 836
-481 -142 839
-479 -142 840
-480 -144 849
-474 -143 844
-468 -142 840
-472 -144 853
-465 -142 847
-472 -145 866
-483 -150 894
-482 -150 898
-489 -154 918
-624 -197 1180
-1070 -341 2040
-1083 -348 2079
-1078 -348 2086
-1071 -348 2088
-1065 -348 2092
-1055 -348 2090
-1046 -347 2088
-1038 -346 2087
-1030 -346 2088
-1023 -346 2090
-1012 -344 2084
-1003 -343 2081
-999 -344 2089
-990 -344 2088
-974 -340 2069
-970 -342 2079
-964 -342 2082
-963 -343 2095
-951 -342 2088
-946 -342 2092
-936 -341 2089
-921 -338 2072
-895 -331 2029
-897 -334 2050
-895 -336 2064
-879 -332 2042
-882 -336 2068
-863 -331 2040
-852 -329 2032
-850 -331 2044
-856 -335 2075
-836 -330 2046
-834 -332 2056
-819 -329 2038
-810 -328 2034
-801 -326 2028
-801 -329 2047
-792 -328 2042
-762 -318 1982
-726 -305 1904
-763 -324 2019
-768 -329 2053
-768 -331 2070
-751 -327 2044
-748 -328 2053
-741 -328 2055
-738 -329 2065
-720 -324 2033
-725 -329 2068
-718 -329 2067
-718 -332 2088
-705 -329 2070
-698 -328 2067
-696 -331 2083
-693 -332 2093
-678 -328 2070
-666 -325 2053
-663 -327 2065
-660 -328 2076
-646 -325 2054
-641 -325 2059
-640 -328 2077
-638 -330 2094
-626 -327 2075
-617 -326 2067
-613 -327 2076
-605 -326 2070
-602 -328 2083
-598 -329 2094
-590 -328 2087
-574 -323 2055
-575 -327 2081
-574 -330 2100
-561 -326 2079
-558 -328 2091
-554 -329 2101
-549 -330 2108
-539 -328 2093
-530 -326 2085
-525 -327 2091
-520 -328 2097
-514 -328 2097
-511 -330 2112
-503 -329 2106
-495 -327 2098
-488 -327 2097
-485 -330 2114
-481 -331 2123
-453 -316 2027
-416 -294 1888
-444 -318 2044
-453 -329 2113
0 0 0
0 0 0
-774 -586 3763
-782 -601 3860
-787 -614 3943
-747 -591 3801
-784 -630 4048
-800 -653 4199
-761 -631 4057
-756 -636 4092
-759 -650 4181
-733 -637 4101
-701 -620 3994
-697 -627 4038
-694 -636 4093
-738 -687 4426
-773 -733 4722
-766 -739 4762
-753 -740 4769
-739 -741 4773
-726 -741 4778
-708 -737 4754
-692 -735 4743
-669 -726 4680
-642 -711 4585
-627 -709 4573
-619 -715 4613
-606 -716 4621
-592 -715 4614
-571 -705 4553
-541 -685 4420
-512 -664 4285
-504 -670 4324
-488 -666 4302
-478 -670 4325
-461 -663 4285
-441 -652 4214
-429 -652 4214
-416 -651 4206
-399 -643 4153
-385 -641 4141
-378 -649 4195
-368 -652 4217
-359 -660 4264
-347 -659 4258
-333 -657 4247
-320 -654 4231
-314 -668 4318
-317 -702 4539
-314 -727 4698
-312 -753 4870
-3 -14 100
-290 -772 4990
-277 -774 5000
-5 -22 151
-35 -118 766
-33 -117 765
-39 -147 953
-44 -175 1136
-34 -147 954
-29 -138 899
-33 -172 1120
-33 -188 1219
-30 -189 1224
-27 -191 1238
-24 -196 1269
-20 -196 1270
-17 -202 1310
-12 -192 1248
-9 -199 1290
-5 -185 1198
-1 -193 1250
1 -200 1298
5 -201 1301
9 -201 1303
12 -199 1289
17 -213 1378
19 -191 1237
24 -198 1282
27 -192 1245
31 -199 1287
36 -206 1330
37 -190 1228
44 -209 1353
44 -188 1219
49 -194 1257
54 -199 1287
57 -198 1281
60 -196 1266
67 -207 1335
70 -203 1311
69 -190 1229
79 -207 1337
78 -196 1263
82 -196 1265
88 -201 1299
94 -207 1332
98 -208 1338
102 -208 1337
109 -212 1368
113 -214 1376
105 -192 1234
0 0 0
0 0 0
0 0 0
0 0 0
0 0 0
0 0 0
367 -549 3512
353 -513 3281
371 -525 3360
0 0 0
359 -483 3084
356 -467 2982
371 -475 3034
378 -473 3017
377 -461 2942
0 0 0
0 0 0
377 -431 2748
404 -452 2882
0 0 0
0 0 0
193 -201 1285
197 -201 1286
200 -200 1278
223 -220 1400
262 -255 1620
265 -253 1607
293 -275 1746
297 -274 1742
292 -265 1684
293 -262 1661
312 -274 1738
362 -314 1986
477 -408 2582
507 -427 2701
530 -439 2774
525 -429 2708
353 -282 1784
302 -237 1500
262 -203 1283
331 -254 1601
352 -265 1675
331 -246 1552
270 -197 1245
256 -184 1163
245 -174 1098
228 -160 1006
201 -138 873
230 -157 989
0 0 0
132 -86 544
196 -128 808
101 -64 405
163 -103 649
126 -78 493
127 -78 493
100 -60 380
97 -57 361
57 -32 206
1267 -772 4798
13 -4 34
3 1 -3
85 -47 299
0 0 0
0 0 0
0 0 0
0 0 0
0 0 0
0 0 0
1014 -555 3424
1029 -558 3437
1043 -560 3445
0 0 0
0 0 0
0 0 0
0 0 0
0 0 0
0 0 0
0 0 0
0 0 0
0 0 0
0 0 0
0 0 0
0 0 0
0 0 0
0 0 0
0 0 0
0 0 0
0 0 0
0 0 0
1029 -465 2815
1066 -478 2888
1066 -474 2863
1080 -477 2875
1078 -472 2841
1092 -474 2853
1104 -476 2859
1083 -463 2779
1068 -453 2718
1089 -459 2746
1065 -445 2661
1073 -445 2658
1064 -438 2613
1101 -450 2681
1040 -422 2510
1032 -415 2469
1108 -443 2630
1061 -421 2497
1110 -437 2590
1130 -442 2614
1037 -402 2378
1068 -412 2431
1055 -404 2380
1048 -398 2344
1068 -403 2371
1100 -413 2422
1085 -404 2369
1088 -403 2358
1097 -403 2357
1112 -406 2370
1110 -403 2347
1104 -398 2315
1110 -398 2310
1127 -401 2327
1110 -392 2274
1119 -393 2274
1123 -392 2264
1109 -385 2219
1098 -378 2179
1105 -379 2177
1109 -377 2167
1111 -376 2155
1127 -379 2169
1129 -377 2157
1140 -379 2161
1132 -374 2130
1136 -373 2120
1127 -368 2089
1135 -368 2087
1139 -367 2079
1136 -364 2059
1135 -362 2040
1143 -362 2040
1138 -359 2016
-495 -142 850
-486 -140 842
-481 -140 839
-480 -140 843
-473 -139 837
-468 -138 835
-469 -139 842
-470 -140 851
-452 -136 825
-476 -144 874
-498 -152 922
-478 -146 892
-482 -148 905
-648 -201 1226
-1075 -336 2050
-1086 -342 2086
-1076 -341 2083
-1070 -341 2087
-1063 -341 2089
-1054 -341 2089
-1046 -340 2089
-1036 -339 2086
-1030 -339 2088
-1024 -340 2093
-1014 -338 2088
-1006 -338 2089
-996 -337 2084
-987 -336 2082
-969 -332 2059
-971 -335 2080
-971 -337 2097
-960 -336 2092
-955 -337 2097
-945 -335 2091
-932 -333 2079
-917 -330 2064
-905 -328 2052
-896 -327 2050
-890 -327 2053
-876 -325 2037
-880 -329 2065
-862 -324 2038
-855 -324 2039
-855 -326 2057
-847 -326 2056
-839 -325 2052
-833 -325 2055
-828 -326 2062
-816 -324 2049
-814 -325 2061
-808 -326 2066
-791 -321 2039
-753 -308 1958
-738 -305 1937
-756 -315 2002
-763 -320 2038
-763 -323 2058
-741 -316 2017
-746 -321 2049
-745 -323 2066
-727 -318 2034
-724 -320 2045
-717 -319 2046
-716 -322 2063
-720 -326 2092
-705 -322 2069
-698 -322 2070
-692 -322 2071
-684 -321 2067
-678 -322 2070
-665 -318 2050
-664 -321 2068
-658 -321 2071
-643 -317 2046
-646 -321 2074
-640 -322 2078
-634 -322 2081
-624 -320 2069
-619 -321 2076
-608 -318 2059
-607 -321 2078
-601 -321 2081
-596 -322 2087
-585 -319 2070
-578 -319 2070
-575 -320 2082
-571 -322 2090
-564 -321 2090
-558 -322 2093
-551 -321 2092
-545 -321 2091
-540 -322 2099
-534 -322 2100
-524 -320 2086
-518 -320 2090
-517 -323 2111
-509 -322 2104
-503 -323 2107
-499 -324 2119
-489 -322 2104
-480 -320 2091
-450 -304 1987
-411 -281 1840
-422 -293 1917
-418 -294 1925
-406 -289 1895
-395 -285 1871
0 0 0
0 0 0
0 0 0
0 0 0
0 0 0
0 0 0
-904 -724 4743
-894 -727 4766
-868 -717 4701
-850 -713 4678
-765 -653 4282
-716 -621 4077
-699 -617 4052
-697 -626 4112
-762 -697 4575
-802 -745 4896
-795 -753 4944
-777 -749 4923
-762 -748 4919
-747 -748 4917
-734 -750 4931
-718 -748 4921
-705 -750 4930
-695 -755 4965
-674 -748 4919
2 1 -4
-650 -753 4956
-633 -750 4939
-622 -755 4967
-609 -756 4979
-594 -756 4974
-579 -755 4973
-2 -5 37
-19 -28 193
-11 -18 128
-511 -740 4873
-494 -737 4855
-481 -738 4860
-445 -704 4640
-428 -697 4594
-436 -735 4840
-425 -739 4869
-407 -732 4822
-397 -739 4872
-377 -729 4806
-362 -728 4794
-352 -734 4837
-345 -750 4939
-1 -9 66
-21 -56 375
-24 -66 441
0 -6 49
1 -1 17
-14 -47 319
-30 -99 657
-44 -152 1007
-49 -178 1177
-47 -185 1222
-42 -176 1168
-39 -177 1174
-36 -180 1189
-33 -183 1211
-33 -202 1338
-27 -188 1246
-25 -203 1344
-20 -189 1247
-16 -186 1232
-12 -189 1250
-9 -191 1265
-5 -182 1204
-1 -190 1252
1 -185 1221
5 -184 1219
9 -194 1281
12 -181 1199
16 -186 1227
19 -186 1228
23 -192 1268
27 -195 1285
31 -197 1297
34 -190 1251
39 -198 1307
45 -210 1385
48 -202 1330
52 -205 1352
56 -205 1353
58 -197 1300
63 -201 1323
65 -195 1282
73 -209 1376
73 -198 1304
74 -190 1250
78 -192 1261
82 -193 1268
89 -200 1315
91 -196 1288
100 -208 1363
101 -202 1324
109 -210 1379
113 -209 1369
109 -194 1276
0 0 0
363 -619 4046
373 -616 4021
372 -597 3896
363 -565 3687
0 0 0
0 0 0
0 0 0
365 -507 3304
0 0 0
360 -475 3096
357 -460 2993
356 -448 2915
381 -467 3042
373 -447 2908
0 0 0
0 0 0
364 -408 2653
404 -444 2883
357 -385 2497
0 0 0
0 0 0
199 -199 1297
207 -204 1328
213 -206 1338
255 -243 1574
270 -253 1642
300 -277 1793
290 -263 1701
299 -266 1720
275 -240 1556
282 -242 1567
373 -317 2048
477 -400 2581
499 -412 2654
535 -435 2801
547 -438 2819
451 -356 2289
309 -239 1537
262 -199 1282
320 -240 1546
359 -266 1709
328 -240 1540
282 -203 1303
236 -167 1072
241 -168 1079
250 -172 1105
225 -153 980
176 -117 754
181 -119 762
121 -77 498
0 0 0
0 0 0
0 0 0
0 0 0
84 -49 321
126 -75 481
74 -42 275
86 -49 316
12 -4 31
8 -1 15
15 -5 41
3 1 -3
0 0 0
0 0 0
0 0 0
0 0 0
0 0 0
0 0 0
1033 -555 3488
1017 -541 3399
1053 -555 3480
1080 -563 3533
0 0 0
0 0 0
0 0 0
0 0 0
0 0 0
0 0 0
0 0 0
0 0 0
0 0 0
0 0 0
0 0 0
0 0 0
0 0 0
0 0 0
0 0 0
0 0 0
0 0 0
1026 -455 2806
1059 -466 2870
1064 -465 2859
1082 -469 2880
1075 -462 2836
1073 -457 2804
1091 -461 2826
1060 -445 2720
1012 -421 2575
1066 -440 2688
1036 -425 2589
1034 -421 2563
1017 -411 2499
1052 -422 2561
1046 -416 2526
1089 -430 2607
1048 -411 2487
1043 -406 2454
1092 -422 2549
1058 -406 2448
1094 -417 2511
1098 -415 2498
1096 -412 2474
1093 -408 2446
1106 -410 2457
1113 -410 2452
1112 -407 2429
1108 -403 2402
1110 -401 2387
1112 -398 2370
1113 -396 2355
1111 -393 2332
1107 -389 2305
1127 -393 2327
1116 -387 2288
1117 -385 2270
1123 -385 2265
1113 -379 2229
1102 -373 2189
1106 -372 2179
1107 -370 2165
1115 -370 2163
1118 -369 2153
1131 -371 2161
1136 -370 2154
1137 -369 2140
1138 -367 2126
1141 -366 2116
1131 -360 2080
1135 -359 2072
1141 -359 2067
1145 -358 2060
1133 -352 2023
1146 -355 2031
-485 -136 834
-484 -137 838
-474 -135 827
-476 -136 836
-472 -136 836
-472 -137 842
-471 -137 846
-464 -136 839
-462 -136 843
-484 -143 889
-494 -147 916
-473 -142 883
-505 -153 950
-677 -206 1282
-1081 -332 2063
-1086 -335 2088
-1080 -336 2093
-1069 -334 2087
-1058 -333 2082
-1055 -334 2091
-1045 -333 2088
-1038 -333 2089
-1027 -332 2083
-1020 -332 2086
-1011 -331 2084
-1006 -332 2090
-993 -329 2079
-985 -329 2078
-969 -326 2061
-968 -328 2075
-966 -329 2089
-960 -329 2091
-954 -330 2096
-950 -330 2103
-926 -325 2067
-910 -321 2048
-910 -324 2066
-903 -323 2067
-883 -319 2038
-880 -320 2048
-872 -319 2046
-867 -320 2051
-853 -317 2036
-856 -320 2059
-846 -319 2054
-843 -320 2064
-828 -317 2046
-818 -316 2038
-810 -315 2034
-797 -313 2021
-807 -319 2062
-794 -316 2048
-765 -307 1990
-715 -290 1879
-736 -300 1951
-767 -316 2052
-756 -313 2039
-748 -313 2036
-747 -315 2054
-746 -317 2068
-723 -310 2026
-727 -315 2056
-727 -318 2076
-716 -315 2063
-714 -317 2077
-710 -318 2085
-702 -318 2083
-688 -314 2062
-686 -316 2075
-668 -311 2042
-663 -312 2047
-663 -314 2067
-659 -315 2075
-644 -311 2050
-641 -313 2062
-645 -318 2095
-633 -315 2078
-630 -317 2089
-615 -312 2063
-609 -313 2066
-606 -314 2075
-595 -311 2060
-599 -317 2097
-586 -313 2075
-577 -312 2066
-576 -315 2088
-572 -316 2096
-564 -315 2093
-563 -318 2111
-552 -316 2097
-544 -314 2089
-538 -315 2091
-530 -313 2084
-527 -316 2101
-520 -315 2096
-512 -314 2092
-512 -318 2120
-499 -314 2091
-491 -313 2085
-483 -312 2079
-473 -309 2062
-450 -298 1988
-405 -272 1816
-413 -281 1875
-408 -281 1879
-405 -283 1894
-403 -286 1912
-395 -284 1902
0 0 0
0 0 0
0 0 0
0 0 0
-17 -13 98
-928 -729 4873
-905 -722 4828
-887 -718 4805
-872 -718 4803
-817 -684 4574
-720 -613 4104
-700 -606 4061
-705 -621 4161
-775 -695 4653
-802 -732 4903
-792 -736 4930
-776 -735 4923
-763 -736 4932
-746 -733 4915
-732 -734 4919
-719 -735 4926
-706 -736 4939
-694 -739 4958
-676 -735 4934
-663 -737 4946
-647 -736 4937
-632 -735 4934
-620 -738 4951
-605 -737 4946
-595 -742 4983
-579 -741 4976
2 1 -4
-3 -7 54
-8 -14 100
-520 -739 4961
-505 -739 4963
-489 -737 4948
-472 -732 4917
-458 -732 4920
-444 -733 4926
-428 -731 4909
-417 -737 4951
-401 -733 4928
-389 -738 4961
1 0 6
-8 -21 151
-3 -12 89
-22 -53 366
-50 -120 816
-42 -108 733
-11 -35 244
-2 -11 84
-13 -43 298
-39 -123 836
-52 -174 1175
-51 -182 1231
-47 -179 1207
-44 -180 1214
-39 -176 1190
-38 -186 1252
-34 -184 1239
-30 -182 1229
-28 -191 1289
-23 -183 1232
-20 -190 1278
-16 -187 1262
-13 -194 1306
-9 -192 1292
-5 -186 1251
-2 -193 1302
1 -203 1365
5 -179 1204
9 -187 1262
12 -192 1294
16 -191 1287
19 -185 1246
22 -179 1208
26 -181 1220
31 -189 1273
35 -192 1294
38 -189 1271
42 -190 1277
46 -190 1279
51 -195 1309
54 -192 1292
60 -199 1339
61 -191 1285
65 -192 1287
68 -191 1281
72 -191 1282
77 -193 1295
83 -200 1340
82 -189 1268
88 -194 1304
97 -205 1376
105 -213 1424
101 -197 1317
105 -197 1319
113 -205 1370
107 -187 1254
0 0 0
0 0 0
0 0 0
0 0 0
0 0 0
0 0 0
361 -519 3454
349 -489 3251
0 0 0
0 0 0
0 0 0
354 -447 2968
355 -437 2900
383 -461 3060
393 -463 3072
0 0 0
0 0 0
366 -403 2672
394 -425 2817
0 0 0
0 0 0
186 -186 1238
192 -189 1254
202 -195 1296
204 -193 1279
259 -242 1602
277 -255 1683
278 -251 1661
297 -264 1741
307 -268 1771
273 -234 1543
310 -262 1725
387 -323 2126
478 -393 2586
502 -407 2674
540 -431 2830
541 -426 2793
453 -350 2297
292 -221 1452
262 -195 1279
332 -245 1606
368 -268 1754
350 -251 1646
255 -179 1177
250 -173 1135
246 -168 1100
246 -166 1088
232 -155 1012
241 -158 1036
194 -125 821
160 -101 664
0 0 0
138 -85 558
0 0 0
0 0 0
0 0 0
0 0 0
0 0 0
91 -51 334
22 -9 67
29 -13 94
47 -23 158
61 -32 211
0 0 0
0 0 0
0 0 0
0 0 0
0 0 0
0 0 0
0 0 0
1032 -539 3450
1048 -541 3464
0 0 0
0 0 0
0 0 0
0 0 0
0 0 0
0 0 0
0 0 0
0 0 0
0 0 0
0 0 0
0 0 0
0 0 0
0 0 0
0 0 0
0 0 0
0 0 0
0 0 0
0 0 0
1035 -451 2832
1055 -456 2862
1070 -458 2875
1079 -459 2874
1075 -453 2837
1080 -452 2824
1054 -437 2730
1054 -434 2708
1067 -436 2717
1123 -455 2834
1047 -421 2619
1039 -415 2576
1088 -431 2675
1117 -440 2722
1060 -414 2561
1070 -415 2562
1106 -426 2626
1108 -423 2609
1111 -421 2594
1099 -414 2546
1093 -409 2510
1101 -409 2508
1114 -411 2516
1109 -406 2484
1100 -400 2443
1105 -399 2436
1103 -396 2412
1107 -395 2401
1123 -398 2415
1116 -393 2381
1119 -391 2368
1121 -389 2353
1122 -387 2337
1126 -386 2326
1128 -384 2313
1137 -385 2313
1118 -376 2257
1117 -373 2236
1099 -365 2184
1111 -367 2191
1113 -365 2178
1118 -364 2170
1123 -364 2163
1129 -363 2158
1135 -363 2153
1136 -361 2138
1137 -359 2125
1135 -357 2106
1131 -353 2082
1133 -352 2070
1142 -353 2070
1134 -348 2040
1135 -347 2027
1137 -345 2016
-477 -131 821
-485 -134 840
-479 -133 835
-483 -135 850
-470 -133 834
-471 -133 841
-473 -135 850
-470 -135 851
-477 -138 870
-484 -141 891
-464 -135 859
-472 -139 882
-506 -150 952
-706 -211 1339
-1083 -326 2067
-1085 -328 2087
-1074 -327 2082
-1067 -327 2085
-1062 -328 2090
-1052 -327 2088
-1047 -327 2092
-1032 -325 2080
-1029 -326 2089
-1018 -325 2084
-1012 -325 2087
-1002 -324 2083
-997 -324 2088
-985 -322 2080
-971 -320 2066
-971 -322 2084
-967 -323 2091
-960 -323 2092
-954 -323 2096
-947 -323 2097
-936 -321 2090
-910 -315 2050
-903 -315 2051
-893 -313 2044
-880 -311 2031
-885 -315 2061
-869 -312 2040
-864 -312 2045
-849 -309 2026
-844 -309 2031
-847 -313 2057
-847 -316 2075
-839 -315 2074
-830 -314 2069
-807 -308 2028
-806 -310 2044
-798 -309 2042
-800 -312 2065
-787 -310 2050
-745 -296 1957
-757 -303 2008
-750 -302 2006
-755 -307 2039
-747 -306 2036
-738 -305 2029
-745 -311 2068
-730 -307 2044
-721 -306 2040
-718 -307 2050
-717 -310 2068
-710 -310 2067
-702 -309 2063
-701 -311 2079
-690 -309 2066
-681 -308 2060
-668 -305 2043
-662 -305 2043
-663 -308 2068
-659 -309 2075
-649 -307 2065
-640 -306 2057
-639 -309 2076
-634 -309 2082
-626 -309 2079
-620 -309 2079
-615 -309 2084
-605 -308 2075
-601 -309 2084
-594 -308 2081
-589 -309 2088
-577 -306 2069
-574 -307 2080
-568 -308 2081
-567 -311 2103
-555 -307 2082
-548 -307 2083
-549 -311 2111
-541 -310 2105
-531 -308 2090
-526 -309 2098
-517 -307 2086
-511 -307 2088
-511 -311 2116
-497 -307 2084
-496 -310 2109
-487 -308 2095
-481 -308 2097
-447 -290 1978
-399 -263 1790
-430 -287 1956
-403 -272 1856
-440 -302 2057
-421 -292 1994
-392 -277 1888
-357 -255 1742
0 0 0
0 0 0
0 0 0
-13 -10 76
-921 -709 4835
-908 -710 4843
-892 -708 4834
-880 -711 4851
-825 -677 4625
-735 -614 4192
-703 -596 4075
-713 -616 4209
-785 -690 4714
-799 -714 4882
-786 -716 4896
-771 -715 4890
-760 -719 4916
-744 -717 4903
-730 -717 4905
-711 -712 4874
-698 -714 4888
-683 -713 4882
-670 -715 4893
-658 -717 4909
-643 -716 4903
-626 -713 4882
-612 -714 4891
-598 -714 4890
-584 -714 4892
-570 -715 4900
-556 -716 4905
-542 -716 4906
-527 -715 4897
-514 -716 4909
-498 -714 4891
-484 -714 4893
-467 -711 4872
-457 -717 4912
-439 -711 4877
-426 -712 4882
-410 -710 4870
-398 -713 4889
-384 -714 4898
-374 -723 4957
-3 -10 77
-347 -725 4972
-1 -7 55
-24 -59 414
-53 -132 915
-21 -58 408
-3 -15 112
-19 -59 413
-53 -161 1113
-55 -178 1228
-52 -181 1244
-49 -183 1263
-42 -171 1177
-43 -188 1295
-41 -198 1366
-33 -176 1209
-31 -185 1275
-25 -172 1185
-22 -175 1207
-18 -171 1175
-16 -186 1282
-13 -191 1311
-9 -183 1256
-5 -186 1277
-1 -181 1248
1 -180 1240
5 -183 1258
9 -189 1301
12 -184 1262
16 -181 1246
20 -183 1258
24 -191 1309
27 -186 1279
31 -189 1297
33 -175 1205
39 -189 1300
43 -191 1313
47 -190 1304
50 -189 1293
55 -193 1324
55 -178 1222
62 -189 1297
64 -185 1266
69 -190 1305
73 -191 1308
78 -193 1322
82 -194 1331
83 -188 1286
86 -185 1263
93 -191 1308
99 -197 1348
92 -174 1192
101 -186 1268
111 -197 1348
97 -166 1137
0 0 0
0 0 0
0 0 0
0 0 0
0 0 0
0 0 0
0 0 0
0 0 0
0 0 0
0 0 0
0 0 0
0 0 0
337 -407 2759
365 -431 2918
0 0 0
0 0 0
169 -184 1248
0 0 0
372 -393 2656
243 -250 1689
161 -161 1089
165 -161 1092
186 -179 1210
192 -181 1225
200 -185 1253
223 -203 1374
242 -217 1466
243 -215 1448
255 -222 1495
262 -224 1510
241 -202 1359
260 -215 1444
311 -254 1707
430 -346 2325
478 -380 2546
498 -389 2607
521 -401 2688
427 -324 2167
285 -211 1416
253 -184 1235
308 -222 1488
322 -229 1533
345 -242 1620
288 -199 1331
251 -171 1142
240 -161 1077
245 -162 1084
245 -160 1067
216 -139 926
178 -112 751
131 -81 543
153 -93 625
0 0 0
123 -73 490
136 -80 533
112 -64 433
127 -73 486
101 -56 377
47 -24 166
25 -11 79
14 -4 37
1307 -736 4838
0 0 0
0 0 0
0 0 0
0 0 0
0 0 0
0 0 0
0 0 0
0 0 0
0 0 0
0 0 0
0 0 0
0 0 0
0 0 0
0 0 0
0 0 0
0 0 0
0 0 0
0 0 0
0 0 0
0 0 0
0 0 0
0 0 0
0 0 0
0 0 0
0 0 0
0 0 0
0 0 0
0 0 0
1054 -450 2887
1050 -445 2848
1078 -453 2899
1083 -452 2886
1077 -445 2842
1088 -447 2847
1066 -434 2764
1066 -430 2738
1072 -430 2730
1096 -436 2766
1084 -428 2713
1048 -410 2599
1103 -429 2711
1089 -420 2654
1097 -420 2652
1098 -418 2631
1100 -415 2614
1089 -408 2564
1115 -415 2606
1107 -409 2565
1114 -409 2559
1104 -402 2514
1108 -401 2504
1104 -397 2474
1107 -395 2461
1117 -396 2463
1112 -392 2432
1113 -389 2413
1116 -388 2402
1120 -386 2391
1109 -380 2349
1118 -381 2349
1124 -380 2342
1115 -375 2305
1124 -375 2306
1117 -371 2273
1124 -370 2269
1117 -366 2238
1106 -360 2198
1112 -360 2194
1115 -358 2182
1117 -357 2170
1124 -357 2167
1129 -357 2160
1133 -356 2151
1137 -355 2143
1137 -353 2126
1130 -348 2097
1133 -347 2086
1136 -346 2077
1129 -342 2049
1130 -340 2035
1142 -342 2041
1136 -338 2015
-487 -131 838
-483 -131 838
-483 -132 844
-482 -132 848
-475 -131 841
-470 -131 840
-467 -130 841
-473 -133 858
-480 -136 876
-485 -138 892
-455 -130 843
-474 -137 886
-490 -142 921
-737 -216 1398
-1088 -321 2079
-1084 -321 2086
-1075 -321 2085
-1064 -319 2079
-1062 -321 2092
-1051 -320 2086
-1042 -319 2084
-1037 -319 2090
-1026 -318 2084
-1023 -319 2093
-1011 -318 2085
-1000 -316 2079
-991 -316 2077
-983 -315 2077
-968 -312 2061
-967 -314 2075
-970 -317 2098
-958 -316 2089
-951 -315 2090
-949 -317 2102
-922 -310 2061
-918 -311 2068
-910 -311 2068
-891 -306 2042
-893 -309 2062
-887 -310 2066
-872 -306 2048
-866 -307 2050
-852 -304 2034
-854 -307 2057
-849 -308 2063
-841 -307 2061
-839 -308 2072
-822 -305 2050
-821 -307 2064
-814 -306 2065
-801 -304 2051
-793 -303 2047
-771 -297 2008
-744 -289 1956
-755 -296 2002
-738 -292 1976
-747 -297 2016
-752 -302 2050
-744 -302 2048
-734 -300 2040
-722 -298 2024
-722 -300 2043
-720 -302 2055
-717 -304 2069
-711 -304 2070
-707 -305 2078
-700 -304 2077
-689 -302 2067
-679 -301 2056
-656 -293 2006
-666 -301 2058
-658 -300 2052
-654 -301 2062
-645 -299 2054
-641 -301 2063
-637 -302 2072
-630 -301 2071
-629 -304 2088
-618 -302 2075
-612 -301 2075
-603 -300 2068
-604 -304 2093
-595 -302 2085
-585 -301 2076
-580 -301 2079
-573 -301 2079
-568 -302 2085
-567 -304 2104
-560 -304 2103
-551 -303 2095
-542 -301 2083
-540 -304 2102
-531 -302 2091
-528 -304 2105
-520 -303 2098
-515 -303 2104
-512 -305 2118
-504 -304 2112
-497 -304 2112
-491 -304 2112
-476 -299 2078
-439 -279 1942
-430 -277 1929
-416 -272 1890
-421 -278 1939
-401 -269 1877
-398 -271 1888
-408 -282 1962
0 0 0
0 0 0
0 0 0
0 0 0
-51 -38 275
-936 -706 4914
-907 -695 4843
-902 -702 4893
-881 -697 4857
-812 -653 4551
-725 -593 4138
-703 -584 4076
-719 -609 4245
-796 -685 4779
-804 -705 4916
-791 -706 4927
-778 -708 4938
-763 -707 4935
-748 -707 4934
-735 -708 4944
-718 -705 4924
-702 -703 4913
-686 -702 4904
-677 -708 4945
-658 -703 4913
-646 -706 4934
-631 -705 4926
-618 -707 4939
-608 -711 4973
-590 -707 4944
-573 -704 4925
-560 -706 4935
-547 -708 4951
-534 -710 4965
-516 -706 4935
-502 -705 4932
-488 -706 4937
-471 -702 4908
-453 -697 4878
-442 -702 4913
-427 -700 4896
-413 -701 4903
-397 -698 4883
-385 -701 4907
-372 -705 4932
0 -3 26
0 -3 28
-332 -712 4979
0 -2 24
-37 -93 657
-33 -87 618
-10 -31 227
-25 -74 527
-55 -164 1154
-53 -171 1200
-48 -163 1147
-46 -170 1194
-45 -178 1253
-42 -182 1280
-37 -177 1243
-35 -183 1287
-31 -179 1260
-26 -176 1238
-21 -166 1164
-20 -183 1285
-15 -173 1212
-13 -182 1276
-9 -190 1331
-5 -185 1297
-1 -181 1268
1 -178 1253
5 -175 1227
9 -184 1291
12 -179 1254
16 -177 1243
20 -187 1309
23 -175 1224
26 -176 1236
31 -183 1286
35 -187 1307
36 -170 1190
43 -185 1293
47 -188 1315
50 -183 1279
56 -192 1346
56 -181 1267
58 -175 1225
64 -182 1272
71 -191 1332
72 -184 1283
77 -186 1303
78 -181 1265
86 -189 1322
91 -192 1342
95 -193 1345
94 -184 1281
101 -188 1314
102 -183 1279
110 -192 1339
0 0 0
0 0 0
0 0 0
0 0 0
360 -543 3767
0 0 0
0 0 0
0 0 0
0 0 0
0 0 0
0 0 0
0 0 0
0 0 0
324 -383 2645
354 -409 2826
0 0 0
127 -138 957
127 -135 935
142 -147 1020
150 -153 1061
151 -151 1045
140 -137 948
148 -142 981
158 -149 1028
175 -162 1119
174 -158 1090
178 -159 1097
184 -161 1112
194 -167 1150
203 -172 1187
204 -170 1172
197 -161 1109
212 -171 1173
218 -173 1191
287 -225 1544
304 -235 1610
383 -293 2003
427 -322 2203
296 -218 1495
282 -205 1402
266 -190 1302
277 -196 1338
308 -215 1467
273 -187 1279
253 -171 1168
243 -162 1104
230 -151 1030
231 -150 1022
212 -135 924
237 -150 1020
212 -132 899
146 -88 604
101 -59 407
0 0 0
0 0 0
0 0 0
0 0 0
100 -55 378
96 -52 358
0 0 0
18 -7 53
24 -10 75
1307 -721 4840
1319 -720 4826
0 0 0
0 0 0
0 0 0
0 0 0
0 0 0
0 0 0
0 0 0
0 0 0
0 0 0
0 0 0
0 0 0
0 0 0
0 0 0
0 0 0
0 0 0
0 0 0
0 0 0
0 0 0
0 0 0
0 0 0
0 0 0
1011 -445 2930
1035 -452 2973
1029 -445 2925
0 0 0
0 0 0
0 0 0
1033 -432 2829
1055 -438 2863
1067 -439 2868
1081 -442 2880
1097 -445 2898
1083 -436 2834
1082 -432 2807
1077 -426 2768
1064 -418 2709
1099 -428 2775
1086 -420 2718
1087 -417 2696
1091 -416 2683
1102 -417 2687
1099 -413 2658
1108 -413 2656
1105 -409 2626
1092 -401 2574
1112 -406 2599
1099 -398 2547
1105 -397 2540
1103 -394 2513
1112 -395 2514
1112 -392 2493
1104 -386 2455
1111 -386 2451
1109 -383 2426
1111 -381 2410
1115 -380 2399
1108 -375 2366
1116 -375 2363
1119 -373 2350
1120 -372 2335
1120 -369 2317
1120 -367 2297
1121 -365 2283
1126 -364 2274
1116 -359 2237
1104 -352 2196
1109 -352 2189
1107 -349 2168
1117 -350 2170
1126 -351 2172
1130 -350 2162
1137 -350 2160
1141 -349 2151
1130 -343 2112
1132 -342 2101
1133 -341 2088
1137 -340 2079
1139 -338 2067
1137 -336 2047
1143 -336 2043
1142 -334 2027
-491 -129 845
-485 -129 841
-487 -130 851
-487 -131 858
-477 -129 846
-469 -128 838
-469 -128 844
-468 -129 848
-481 -133 879
-467 -130 860
-472 -132 876
-478 -135 893
-503 -143 947
-774 -222 1468
-1088 -314 2078
-1085 -315 2089
-1075 -314 2086
-1069 -314 2090
-1060 -314 2088
-1053 -314 2090
-1045 -313 2090
-1033 -312 2082
-1025 -311 2083
-1021 -312 2090
-1008 -310 2080
-1004 -311 2089
-990 -309 2075
-985 -309 2081
-972 -307 2070
-966 -307 2074
-967 -310 2093
-961 -310 2096
-951 -309 2091
-948 -310 2102
-925 -305 2068
-912 -303 2055
-903 -302 2053
-890 -300 2040
-885 -300 2045
-881 -301 2054
-872 -300 2049
-868 -301 2056
-851 -297 2034
-854 -301 2059
-837 -297 2034
-845 -302 2072
-831 -299 2056
-829 -301 2068
-808 -296 2033
-803 -296 2037
-801 -298 2052
-796 -298 2056
-761 -287 1983
-747 -284 1965
-730 -280 1937
-731 -283 1956
-744 -290 2010
-743 -293 2028
-735 -292 2023
-731 -293 2031
-723 -292 2026
-716 -291 2026
-717 -295 2049
-722 -299 2083
-710 -297 2069
-707 -298 2081
-703 -299 2087
-694 -298 2080
-681 -295 2062
-660 -289 2018
-664 -293 2051
-660 -294 2059
-655 -295 2066
-648 -294 2063
-638 -293 2054
-636 -295 2069
-635 -297 2086
-628 -297 2085
-615 -294 2065
-611 -295 2075
-607 -296 2081
-598 -295 2075
-595 -297 2088
-590 -297 2092
-579 -294 2076
-567 -292 2057
-568 -296 2086
-565 -297 2097
-555 -295 2085
-546 -294 2076
-545 -297 2098
-540 -297 2102
-534 -297 2104
-522 -294 2083
-520 -297 2102
-514 -297 2104
-506 -296 2098
-501 -296 2101
-495 -297 2103
-487 -295 2096
-481 -296 2101
-451 -281 1995
-427 -270 1915
-404 -258 1838
-405 -263 1870
-392 -258 1836
-377 -251 1790
-397 -268 1910
0 0 0
0 0 0
0 0 0
0 0 0
0 0 0
-123 -91 655
-96 -73 526
-48 -37 274
-92 -72 521
-757 -597 4249
-711 -570 4056
-703 -573 4080
-726 -602 4289
-801 -676 4815
-806 -692 4932
-794 -694 4947
-779 -694 4948
-765 -694 4948
-751 -694 4951
-734 -692 4935
-722 -695 4956
2 0 0
-13 -15 114
-9 -10 81
-3 -5 43
-7 -9 73
-9 -12 92
-6 -8 66
-51 -60 437
-60 -72 520
-49 -61 445
-30 -39 284
-54 -71 513
-57 -76 549
-54 -75 543
-35 -50 366
-36 -53 390
-12 -20 152
-453 -683 4877
-4 -9 76
-14 -26 194
-11 -21 159
-8 -17 131
-6 -15 116
-20 -41 299
-25 -52 379
-21 -47 347
-16 -37 275
-24 -57 412
-47 -112 805
-29 -76 553
-12 -36 265
-29 -83 604
-55 -161 1156
-53 -165 1187
-51 -172 1236
-48 -172 1237
-43 -168 1208
-43 -180 1290
-38 -177 1271
-34 -172 1237
-32 -181 1297
-27 -176 1260
-22 -169 1215
-18 -166 1191
-16 -179 1282
-12 -170 1222
-9 -176 1263
-5 -178 1276
-1 -179 1280
1 -172 1235
5 -181 1294
9 -175 1257
13 -180 1289
16 -180 1288
20 -177 1265
23 -177 1264
27 -177 1266
31 -177 1270
35 -180 1285
39 -180 1286
44 -187 1337
47 -182 1303
50 -180 1287
51 -171 1225
59 -186 1331
58 -170 1218
64 -179 1278
68 -180 1285
71 -177 1261
79 -187 1333
78 -177 1264
90 -194 1384
88 -182 1295
92 -182 1295
100 -190 1357
99 -181 1290
102 -180 1282
110 -187 1333
104 -172 1222
0 0 0
0 0 0
358 -547 3869
0 0 0
0 0 0
0 0 0
0 0 0
0 0 0
0 0 0
0 0 0
0 0 0
0 0 0
0 0 0
0 0 0
138 -150 1061
134 -142 1005
132 -137 972
135 -137 969
137 -136 962
139 -136 959
144 -137 972
144 -135 953
147 -135 954
152 -137 969
158 -140 991
158 -137 969
161 -137 969
168 -141 993
169 -140 985
171 -139 976
179 -143 1006
178 -140 983
184 -142 998
192 -146 1029
190 -143 1001
195 -144 1012
209 -152 1066
214 -153 1075
215 -152 1068
203 -141 990
209 -144 1006
225 -152 1065
230 -154 1075
225 -149 1038
222 -144 1007
219 -141 982
216 -137 954
225 -141 980
206 -127 884
175 -106 740
176 -105 732
177 -104 726
0 0 0
147 -84 585
98 -54 379
88 -48 338
83 -44 313
91 -48 338
75 -39 275
20 -8 61
7 0 11
1309 -708 4848
90 -45 314
113 -57 394
0 0 0
0 0 0
0 0 0
0 0 0
0 0 0
0 0 0
0 0 0
0 0 0
0 0 0
0 0 0
0 0 0
0 0 0
0 0 0
0 0 0
0 0 0
0 0 0
0 0 0
0 0 0
0 0 0
0 0 0
1075 -464 3120
1035 -443 2974
1052 -446 2993
983 -414 2771
0 0 0
0 0 0
1058 -434 2899
1057 -430 2869
1067 -431 2872
1075 -430 2864
1070 -425 2825
1085 -428 2841
1077 -421 2793
1086 -422 2793
1081 -416 2754
1087 -415 2746
1097 -416 2748
1089 -410 2703
1086 -406 2672
1105 -410 2695
1097 -404 2653
1095 -400 2626
1095 -397 2604
1100 -396 2594
1104 -395 2582
1109 -394 2570
1111 -392 2554
1114 -390 2540
1105 -384 2498
1115 -385 2501
1118 -383 2486
1114 -379 2458
1111 -376 2431
1111 -373 2412
1126 -376 2424
1121 -371 2394
1114 -367 2359
1110 -363 2333
1108 -360 2311
1132 -365 2342
1121 -360 2302
1122 -358 2284
1113 -353 2249
1122 -353 2250
1110 -347 2208
1108 -344 2187
1110 -343 2174
1111 -341 2159
1125 -343 2170
1127 -342 2157
1130 -341 2146
1140 -342 2148
1142 -340 2136
1140 -338 2117
1136 -335 2094
1130 -331 2066
1138 -331 2066
1139 -330 2052
1137 -327 2033
1137 -325 2018
-476 -123 820
-483 -126 839
-482 -126 842
-478 -126 843
-487 -129 864
-475 -126 850
-468 -125 843
-461 -124 837
-472 -128 864
-478 -130 880
-471 -129 874
-492 -136 920
-513 -142 966
-811 -227 1539
-1087 -307 2078
-1083 -308 2087
-1077 -308 2091
-1067 -307 2086
-1059 -307 2087
-1053 -307 2092
-1046 -307 2094
-1032 -305 2082
-1029 -306 2091
-1019 -305 2087
-1009 -304 2083
-1004 -304 2090
-993 -303 2082
-982 -302 2076
-970 -300 2067
-971 -303 2087
-966 -303 2092
-954 -301 2083
-952 -303 2095
-943 -302 2092
-931 -300 2082
-913 -296 2058
-903 -296 2054
-886 -292 2031
-888 -295 2052
-881 -295 2054
-873 -294 2052
-863 -293 2046
-858 -293 2051
-854 -294 2059
-851 -295 2069
-839 -294 2058
-834 -294 2064
-827 -294 2064
-821 -294 2067
-802 -289 2036
-806 -293 2065
-789 -289 2040
-757 -280 1974
-727 -271 1912
-724 -272 1921
-730 -277 1956
-725 -277 1959
-732 -282 1997
-738 -287 2033
-738 -289 2051
-724 -286 2031
-724 -289 2050
-726 -292 2074
-717 -291 2069
-713 -292 2077
-706 -292 2077
-701 -292 2082
-694 -292 2082
-681 -289 2063
-677 -290 2072
-669 -290 2070
-664 -290 2074
-653 -288 2059
-646 -288 2060
-640 -288 2060
-637 -289 2073
-635 -291 2089
-628 -291 2088
-617 -289 2072
-612 -289 2079
-607 -290 2085
-600 -289 2081
-597 -291 2093
-591 -291 2097
-584 -291 2097
-571 -288 2073
-571 -290 2095
-566 -291 2101
-556 -290 2090
-555 -292 2109
-546 -291 2101
-538 -290 2096
-531 -290 2095
-527 -291 2102
-519 -290 2097
-511 -289 2090
-509 -291 2108
-503 -292 2113
-496 -291 2108
-486 -289 2095
-479 -288 2092
-443 -270 1959
-433 -267 1942
-416 -261 1895
-425 -270 1962
-400 -258 1873
-384 -251 1824
-386 -256 1862
-332 -223 1626
0 0 0
0 0 0
0 0 0
-230 -164 1200
-235 -170 1245
-241 -178 1298
-221 -165 1207
0 0 0
-743 -573 4167
-707 -555 4034
-705 -562 4092
-724 -588 4276
-802 -663 4823
-808 -680 4947
-794 -680 4951
-779 -679 4948
2 1 -5
-751 -680 4955
-736 -680 4953
-720 -679 4946
-5 -6 53
-23 -24 181
-20 -22 168
-15 -17 134
-7 -9 75
-7 -9 75
-27 -31 234
-96 -110 808
-126 -146 1073
-116 -138 1013
-116 -142 1041
-106 -134 982
-105 -136 1002
-115 -153 1124
-115 -158 1158
-110 -155 1138
0 0 0
-245 -363 2653
0 0 0
-87 -139 1023
-90 -150 1099
-84 -144 1058
-86 -153 1123
-75 -139 1022
-74 -144 1058
-70 -142 1047
-61 -129 951
-56 -125 919
-46 -108 794
-43 -107 786
-20 -55 408
-28 -80 592
-54 -155 1142
-53 -162 1188
-51 -166 1218
-48 -169 1237
-45 -171 1254
-40 -164 1205
-38 -174 1279
-35 -176 1288
-31 -172 1261
-28 -176 1290
-23 -172 1260
-20 -175 1285
-16 -171 1257
-12 -168 1229
-9 -174 1273
-5 -169 1235
-1 -178 1304
1 -169 1236
5 -170 1242
9 -170 1246
12 -171 1251
16 -171 1251
20 -180 1317
24 -174 1276
27 -170 1240
30 -170 1246
34 -173 1267
37 -167 1220
43 -179 1310
47 -178 1303
49 -171 1251
54 -177 1289
56 -170 1244
62 -178 1298
66 -179 1304
68 -175 1275
74 -181 1317
77 -179 1304
81 -180 1314
84 -178 1299
87 -177 1288
91 -178 1293
95 -177 1288
102 -183 1333
102 -177 1285
112 -188 1367
116 -188 1367
0 0 0
356 -548 3964
0 0 0
0 0 0
238 -332 2404
231 -314 2268
226 -298 2153
0 0 0
0 0 0
0 0 0
0 0 0
178 -205 1481
187 -210 1515
202 -222 1601
170 -182 1314
153 -159 1153
149 -152 1097
148 -148 1068
160 -157 1133
153 -146 1057
151 -141 1022
147 -135 974
151 -136 979
148 -130 941
150 -130 937
157 -134 965
157 -131 944
165 -135 976
169 -137 984
168 -133 959
172 -135 969
173 -133 955
183 -139 998
184 -137 986
186 -136 978
182 -132 945
199 -142 1017
197 -139 992
202 -140 1000
212 -145 1034
202 -136 969
211 -140 1000
213 -140 996
217 -140 999
211 -134 957
216 -136 969
215 -133 948
228 -140 994
215 -130 924
184 -109 779
147 -85 608
143 -82 585
199 -114 811
135 -75 537
0 0 0
107 -58 413
0 0 0
90 -47 336
112 -58 418
39 -18 132
1281 -686 4800
25 -10 79
111 -55 395
0 0 0
0 0 0
0 0 0
0 0 0
0 0 0
0 0 0
0 0 0
0 0 0
0 0 0
0 0 0
0 0 0
0 0 0
0 0 0
0 0 0
0 0 0
0 0 0
0 0 0
0 0 0
0 0 0
0 0 0
0 0 0
0 0 0
1040 -436 2987
1028 -427 2925
0 0 0
0 0 0
0 0 0
1028 -413 2816
1057 -421 2871
1071 -424 2882
1074 -421 2863
1087 -423 2872
1093 -422 2862
1091 -418 2831
1095 -416 2818
1086 -410 2768
1098 -411 2775
1099 -408 2753
1092 -403 2712
1094 -400 2692
1098 -399 2681
1101 -397 2665
1094 -391 2623
1097 -390 2609
1103 -389 2601
1097 -384 2565
1097 -381 2544
1109 -383 2549
1112 -381 2536
1113 -379 2518
1110 -375 2490
1109 -372 2468
1107 -369 2443
1107 -367 2422
1107 -364 2404
1110 -363 2390
1112 -361 2377
1120 -361 2375
1114 -357 2343
1115 -355 2326
1113 -352 2304
1114 -350 2288
1124 -351 2290
1125 -349 2273
1111 -343 2229
1103 -338 2195
1104 -336 2180
1112 -337 2180
1114 -335 2166
1120 -335 2162
1127 -335 2158
1136 -336 2158
1133 -333 2137
1125 -328 2105
1125 -327 2090
1131 -326 2085
1133 -325 2072
1125 -321 2043
1116 -316 2011
1137 -321 2035
1121 -314 1991
-491 -124 846
-494 -125 857
-494 -126 864
-474 -122 835
-475 -123 843
-474 -123 848
-469 -123 844
-474 -125 860
-487 -129 890
-467 -124 860
-486 -130 903
-473 -128 884
-513 -139 968
-851 -233 1616
-1089 -301 2084
-1084 -301 2090
-1074 -301 2087
-1069 -301 2091
-1058 -300 2087
-1051 -300 2089
-1043 -299 2089
-1031 -298 2082
-1023 -297 2080
-1018 -298 2088
-1011 -298 2089
-1000 -297 2082
-990 -296 2077
-971 -292 2054
-968 -293 2065
-974 -297 2094
-968 -297 2097
-957 -296 2089
-952 -296 2096
-946 -296 2100
-934 -295 2090
-913 -290 2060
-905 -290 2059
-900 -290 2064
-885 -288 2048
-884 -289 2061
-870 -287 2046
-861 -286 2043
-858 -287 2051
-851 -287 2052
-848 -288 2062
-841 -288 2064
-839 -289 2075
-821 -286 2050
-812 -284 2045
-800 -282 2031
-798 -284 2044
-792 -284 2048
-777 -281 2027
-712 -259 1873
-746 -274 1982
-720 -267 1929
-716 -268 1936
-735 -277 2005
-724 -275 1996
-736 -282 2045
-737 -285 2068
-726 -283 2058
-725 -285 2072
-717 -285 2069
-718 -288 2093
-710 -287 2091
-699 -285 2079
-695 -286 2086
-684 -284 2074
-671 -281 2054
-671 -284 2074
-661 -282 2065
-657 -283 2074
-646 -281 2060
-641 -282 2065
-640 -284 2084
-636 -285 2093
