VERSION 0.7
FIELDS x y z
SIZE 4 4 4
TYPE I I I
COUNT 1 1 1
WIDTH 3446
HEIGHT 1
VIEWPOINT 0.0 0.0 0.0 1.0 0.0 0.0 0.0
POINTS 3446
DATA ascii
653 -1134 3165
656 -1122 3132
642 -1082 3017
638 -1059 2953
619 -1013 2822
609 -983 2735
615 -979 2724
592 -931 2587
592 -918 2551
0 0 0
0 0 0
0 0 0
0 0 0
0 0 0
0 0 0
0 0 0
103 -141 388
0 0 0
0 0 0
139 -184 507
45 -55 151
75 -95 260
1279 -1678 4614
0 0 0
0 0 0
0 0 0
0 0 0
0 0 0
0 0 0
0 0 0
0 0 0
0 0 0
0 0 0
0 0 0
0 0 0
0 0 0
0 0 0
0 0 0
0 0 0
0 0 0
0 0 0
0 0 0
1085 -1164 3142
1080 -1148 3096
1091 -1149 3096
1080 -1127 3033
1102 -1140 3065
0 0 0
0 0 0
0 0 0
1048 -1048 2804
1077 -1067 2853
1079 -1061 2832
1072 -1045 2787
1069 -1033 2752
1089 -1044 2779
1091 -1038 2758
1097 -1035 2749
1086 -1016 2695
1095 -1017 2694
1081 -996 2633
1097 -1003 2650
1084 -983 2593
1107 -997 2627
1064 -951 2502
1079 -957 2514
1070 -942 2472
1053 -920 2410
1085 -941 2463
1070 -921 2409
1097 -938 2449
1100 -934 2434
1098 -925 2408
1107 -926 2408
1130 -939 2438
1110 -915 2373
1122 -919 2378
1128 -917 2372
1118 -903 2332
1120 -899 2316
1103 -879 2262
1100 -871 2238
1110 -872 2239
1109 -866 2219
1107 -859 2197
1113 -858 2191
1105 -847 2159
1113 -847 2157
1122 -848 2156
1122 -843 2139
1134 -847 2145
1123 -834 2108
1129 -832 2101
1128 -826 2083
1137 -828 2084
1129 -817 2053
1133 -815 2045
1131 -809 2025
1147 -815 2037
1130 -798 1991
1129 -793 1975
1141 -797 1980
1140 -791 1964
1136 -784 1942
1125 -772 1908
1133 -773 1907
-751 -482 1219
-755 -488 1235
-743 -482 1224
-634 -414 1054
-511 -336 856
-500 -331 843
-483 -321 821
-493 -330 844
-481 -324 830
-482 -327 839
-472 -322 828
-470 -322 830
-462 -318 821
-465 -322 833
-463 -323 836
-460 -323 838
-463 -327 850
-479 -341 886
-461 -330 859
-536 -386 1007
-933 -676 1767
-1074 -783 2049
-1065 -781 2048
-1058 -781 2050
-1057 -785 2066
-1051 -786 2070
-1040 -783 2065
-1030 -781 2062
-1024 -781 2066
-1010 -776 2055
-1006 -778 2064
-994 -774 2055
-987 -774 2057
-975 -770 2049
-943 -750 1999
-957 -766 2045
-957 -772 2064
-951 -772 2068
-946 -774 2074
-931 -767 2058
-923 -766 2059
-899 -752 2023
-891 -750 2020
-882 -748 2018
-876 -749 2021
-864 -745 2013
-856 -743 2012
-853 -746 2020
-847 -746 2024
-837 -744 2019
-834 -747 2029
-825 -745 2027
-819 -745 2030
-815 -747 2037
-805 -744 2031
-757 -705 1927
-782 -735 2010
-767 -726 1989
-762 -728 1995
-753 -726 1991
-751 -730 2004
-750 -735 2022
-739 -730 2010
-715 -713 1965
-708 -712 1964
-723 -733 2024
-713 -730 2016
-707 -731 2020
-695 -725 2006
-694 -730 2022
-692 -735 2037
-690 -740 2053
-676 -731 2030
-664 -725 2015
-646 -712 1981
-658 -733 2041
-654 -736 2050
-650 -739 2059
-636 -730 2037
-628 -728 2032
-625 -731 2044
-617 -730 2043
-610 -729 2039
-599 -724 2027
-599 -731 2049
-593 -731 2051
-586 -731 2051
-576 -726 2040
-566 -722 2029
-564 -728 2046
-560 -731 2056
-554 -731 2058
-543 -725 2044
-545 -736 2076
-531 -726 2048
-533 -737 2081
-521 -729 2059
-511 -724 2047
-512 -734 2077
-501 -728 2061
-496 -730 2068
-488 -728 2062
-484 -731 2073
-479 -733 2079
-485 -752 2133
-518 -814 2311
-623 -992 2816
-595 -961 2730
-609 -998 2838
-627 -1042 2964
-621 -1047 2980
-618 -1057 3009
-609 -1058 3014
-604 -1065 3034
-587 -1051 2995
-601 -1093 3117
-647 -1196 3414
-598 -1123 3205
0 0 0
0 0 0
0 0 0
0 0 0
0 0 0
0 0 0
0 0 0
-528 -1141 3267
-551 -1212 3472
-554 -1244 3563
-596 -1364 3908
-607 -1417 4063
-594 -1416 4059
-580 -1410 4045
-566 -1406 4033
-556 -1411 4050
-544 -1414 4059
-533 -1416 4064
-519 -1413 4058
-508 -1414 4063
-496 -1417 4071
-483 -1414 4063
-472 -1417 4074
-463 -1429 4107
-459 -1453 4179
-448 -1460 4200
-432 -1449 4167
-424 -1465 4214
-428 -1522 4380
-22 -91 262
-46 -186 534
0 0 0
0 0 0
-261 -1099 3166
-248 -1084 3123
-240 -1091 3142
-230 -1088 3135
-221 -1090 3142
-210 -1084 3124
-198 -1070 3084
-187 -1062 3060
-180 -1073 3092
-171 -1078 3108
-164 -1092 3147
-152 -1072 3090
-143 -1079 3110
-133 -1070 3083
-124 -1074 3097
-116 -1085 3128
-107 -1083 3123
-97 -1080 3114
-89 -1093 3152
-78 -1077 3106
-69 -1083 3121
-59 -1075 3099
-50 -1070 3084
-41 -1075 3098
-31 -1069 3082
-22 -1074 3095
-13 -1083 3123
-3 -1081 3114
5 -1070 3084
14 -1071 3085
23 -1072 3090
32 -1065 3068
42 -1067 3073
51 -1061 3055
60 -1070 3082
69 -1056 3041
75 -1021 2939
84 -1021 2941
93 -1017 2927
102 -1019 2932
112 -1032 2971
119 -1021 2937
129 -1026 2952
139 -1036 2980
149 -1046 3009
155 -1022 2938
169 -1058 3041
181 -1073 3083
193 -1090 3131
205 -1103 3168
217 -1116 3204
226 -1113 3197
231 -1090 3130
240 -1089 3125
249 -1088 3123
262 -1102 3161
266 -1082 3101
282 -1107 3174
290 -1103 3161
295 -1085 3108
310 -1104 3160
311 -1077 3083
329 -1105 3164
334 -1090 3119
341 -1083 3097
351 -1084 3099
368 -1107 3164
376 -1104 3155
385 -1103 3150
398 -1113 3178
401 -1094 3121
416 -1109 3164
413 -1075 3066
425 -1084 3090
434 -1082 3082
454 -1109 3159
462 -1106 3147
477 -1117 3179
485 -1114 3169
495 -1115 3169
506 -1119 3180
518 -1123 3190
526 -1120 3179
541 -1131 3208
545 -1118 3172
558 -1126 3191
571 -1132 3208
581 -1134 3210
585 -1123 3179
592 -1118 3163
610 -1134 3205
621 -1135 3208
626 -1127 3183
649 -1150 3246
652 -1139 3213
652 -1122 3164
631 -1069 3012
665 -1111 3127
642 -1058 2976
650 -1056 2968
581 -930 2614
596 -940 2641
641 -998 2801
0 0 0
0 0 0
0 0 0
0 0 0
0 0 0
0 0 0
0 0 0
0 0 0
135 -183 512
165 -223 622
0 0 0
103 -133 371
64 -80 221
1254 -1650 4583
0 0 0
0 0 0
0 0 0
0 0 0
0 0 0
0 0 0
0 0 0
0 0 0
1051 -1254 3458
0 0 0
0 0 0
0 0 0
0 0 0
0 0 0
0 0 0
0 0 0
0 0 0
0 0 0
0 0 0
0 0 0
1069 -1136 3097
1097 -1156 3148
1078 -1126 3062
1100 -1139 3094
0 0 0
0 0 0
0 0 0
0 0 0
1071 -1061 2868
1067 -1048 2830
1076 -1049 2827
1107 -1069 2880
1093 -1047 2818
1069 -1016 2731
1094 -1032 2769
1081 -1012 2712
1099 -1020 2732
1089 -1003 2681
1088 -994 2654
1108 -1005 2680
1109 -998 2658
1072 -957 2546
1074 -951 2527
1057 -929 2465
1069 -933 2473
1076 -932 2468
1098 -944 2494
1125 -960 2535
1100 -932 2456
1109 -933 2457
1115 -931 2448
1113 -923 2424
1117 -920 2411
1110 -907 2375
1126 -915 2391
1127 -909 2372
1094 -876 2284
1125 -895 2329
1130 -893 2320
1088 -854 2216
1114 -869 2251
1110 -860 2224
1113 -857 2213
1099 -840 2165
1099 -835 2150
1109 -837 2151
1117 -837 2149
1123 -836 2143
1127 -834 2134
1140 -838 2141
1126 -823 2100
1134 -824 2097
1125 -812 2064
1146 -822 2086
1139 -813 2058
1130 -801 2026
1131 -797 2011
1126 -789 1986
1126 -784 1971
1124 -778 1953
1110 -764 1914
1109 -759 1898
1130 -769 1919
1124 -760 1894
-761 -484 1237
-740 -474 1212
-729 -470 1204
-596 -386 992
-503 -328 842
-507 -332 856
-489 -322 832
-493 -327 846
-480 -320 828
-480 -322 835
-482 -326 846
-473 -321 837
-470 -322 838
-472 -324 847
-464 -321 839
-483 -336 881
-475 -333 874
-470 -331 871
-462 -328 863
-556 -397 1046
-995 -714 1886
-1075 -776 2053
-1068 -776 2056
-1062 -777 2061
-1051 -774 2057
-1045 -775 2061
-1038 -775 2064
-1031 -775 2066
-1019 -771 2060
-1013 -772 2064
-998 -765 2050
-995 -768 2060
-987 -767 2061
-972 -760 2045
-950 -749 2016
-958 -761 2051
-953 -762 2058
-950 -765 2067
-942 -764 2067
-925 -756 2047
-906 -745 2022
-898 -744 2022
-890 -743 2022
-881 -741 2018
-873 -740 2017
-862 -736 2010
-860 -740 2022
-853 -739 2023
-843 -737 2018
-827 -728 1996
-826 -733 2013
-827 -740 2033
-815 -735 2022
-806 -733 2018
-787 -721 1988
-772 -714 1969
-766 -714 1972
-761 -715 1977
-752 -712 1971
-756 -722 2001
-752 -724 2007
-752 -730 2027
-737 -722 2007
-701 -693 1927
-724 -721 2008
-718 -723 2014
-710 -720 2010
-707 -724 2021
-697 -720 2013
-694 -724 2024
-689 -725 2030
-682 -725 2030
-679 -728 2042
-667 -723 2028
-645 -705 1980
-653 -721 2027
-656 -731 2057
-653 -736 2071
-638 -726 2045
-624 -716 2020
-621 -721 2034
-619 -726 2049
-612 -725 2049
-603 -722 2041
-599 -725 2051
-588 -719 2037
-588 -727 2059
-570 -712 2021
-572 -723 2051
-572 -731 2077
-559 -723 2054
-557 -728 2071
-547 -724 2059
-536 -718 2044
-533 -722 2056
-529 -726 2068
-523 -726 2071
-518 -727 2076
-508 -723 2064
-503 -724 2069
-494 -721 2060
-490 -724 2070
-484 -724 2073
-482 -731 2093
-515 -791 2267
-554 -863 2474
-604 -954 2737
-623 -998 2862
-611 -992 2846
-626 -1031 2961
-594 -993 2854
-605 -1027 2951
-604 -1039 2989
-600 -1049 3018
-595 -1057 3043
-572 -1032 2971
-594 -1088 3135
-593 -1104 3181
0 0 0
0 0 0
0 0 0
0 0 0
0 0 0
0 0 0
0 0 0
-538 -1153 3331
-551 -1203 3477
-553 -1230 3558
-590 -1338 3870
-615 -1423 4119
-594 -1404 4064
-581 -1402 4061
-568 -1400 4055
-555 -1397 4046
-544 -1401 4060
-534 -1406 4076
-520 -1402 4065
-507 -1400 4061
-497 -1405 4077
-482 -1398 4055
-471 -1401 4067
-461 -1411 4095
-452 -1421 4125
-455 -1470 4269
-458 -1522 4420
0 0 0
-118 -424 1233
-143 -527 1532
-128 -490 1424
-236 -924 2685
-270 -1088 3164
-256 -1072 3116
-247 -1071 3115
-236 -1067 3104
-228 -1072 3118
-217 -1063 3091
-204 -1046 3043
-200 -1070 3114
-189 -1061 3087
-182 -1075 3127
-171 -1069 3111
-162 -1072 3119
-153 -1068 3109
-142 -1060 3086
-135 -1073 3124
-124 -1067 3105
-116 -1079 3140
-105 -1064 3096
-96 -1065 3099
-88 -1079 3141
-79 -1077 3136
-69 -1074 3127
-60 -1087 3165
-50 -1075 3130
-41 -1082 3150
-31 -1073 3122
-22 -1069 3111
-13 -1076 3132
-3 -1061 3087
5 -1069 3111
14 -1063 3093
24 -1077 3134
33 -1073 3122
42 -1067 3103
52 -1073 3121
61 -1065 3097
70 -1072 3118
80 -1074 3122
89 -1075 3125
99 -1077 3131
108 -1079 3135
118 -1078 3132
127 -1076 3125
135 -1065 3092
145 -1071 3111
155 -1074 3119
163 -1069 3103
177 -1096 3181
185 -1090 3163
194 -1087 3153
205 -1095 3176
214 -1090 3159
225 -1099 3186
234 -1094 3170
245 -1104 3197
251 -1089 3154
265 -1106 3202
275 -1106 3201
284 -1107 3203
297 -1120 3240
305 -1110 3212
317 -1119 3234
325 -1115 3222
334 -1113 3217
348 -1128 3257
354 -1115 3219
364 -1115 3220
374 -1116 3222
387 -1126 3249
396 -1124 3240
400 -1109 3196
404 -1091 3144
406 -1073 3090
414 -1069 3077
420 -1061 3053
441 -1090 3136
455 -1101 3167
468 -1109 3189
473 -1098 3155
484 -1103 3167
493 -1100 3158
508 -1113 3195
512 -1101 3157
522 -1102 3158
538 -1114 3192
544 -1108 3172
557 -1114 3189
564 -1110 3174
579 -1119 3199
586 -1115 3185
598 -1118 3194
609 -1121 3201
617 -1118 3191
629 -1122 3198
638 -1122 3197
646 -1118 3183
639 -1089 3101
644 -1081 3075
628 -1040 2956
631 -1031 2928
618 -994 2822
630 -1001 2839
595 -931 2641
0 0 0
0 0 0
0 0 0
0 0 0
0 0 0
0 0 0
0 0 0
0 0 0
0 0 0
0 0 0
0 0 0
0 0 0
129 -167 470
59 -73 205
29 -33 92
0 0 0
0 0 0
0 0 0
0 0 0
0 0 0
0 0 0
0 0 0
1071 -1280 3566
1058 -1252 3486
1084 -1270 3531
0 0 0
0 0 0
0 0 0
0 0 0
0 0 0
0 0 0
0 0 0
0 0 0
0 0 0
0 0 0
0 0 0
0 0 0
0 0 0
0 0 0
0 0 0
0 0 0
0 0 0
0 0 0
1045 -1027 2801
1067 -1039 2833
1084 -1047 2849
1096 -1050 2856
1081 -1027 2789
1087 -1025 2780
1077 -1006 2727
1099 -1020 2760
1102 -1014 2741
1085 -991 2674
1083 -981 2645
1051 -945 2544
1049 -935 2516
1063 -941 2528
1044 -917 2459
1064 -927 2484
1097 -949 2539
1087 -933 2495
1085 -925 2468
1105 -935 2492
1085 -912 2427
1116 -930 2473
1108 -918 2436
1098 -903 2394
1113 -908 2405
1106 -896 2369
1116 -899 2372
1090 -872 2298
1100 -873 2299
1110 -875 2300
1117 -875 2296
1056 -822 2153
1110 -858 2245
1141 -876 2288
1125 -858 2239
1110 -841 2190
1100 -828 2152
1107 -828 2150
1119 -832 2156
1119 -827 2139
1124 -825 2131
1137 -829 2139
1136 -823 2119
1140 -821 2111
1134 -812 2083
1139 -810 2076
1124 -794 2032
1123 -789 2014
1118 -781 1991
1133 -787 2002
1109 -765 1944
1126 -773 1959
1124 -767 1941
1117 -758 1914
1146 -773 1948
1140 -764 1924
-761 -480 1239
-754 -479 1237
-739 -472 1222
-560 -360 933
-511 -330 857
-492 -319 831
-497 -325 847
-484 -318 830
-477 -315 825
-477 -317 831
-472 -316 828
-473 -318 837
-467 -316 833
-461 -314 829
-459 -315 832
-486 -335 888
-479 -332 881
-461 -322 854
-473 -333 885
-588 -416 1107
-1035 -737 1965
-1077 -771 2060
-1064 -767 2051
-1060 -769 2059
-1051 -767 2059
-1045 -768 2063
-1035 -766 2060
-1028 -766 2062
-1018 -763 2059
-1009 -762 2058
-1003 -762 2061
-992 -759 2057
-984 -758 2056
-969 -752 2043
-947 -740 2013
-960 -755 2056
-953 -755 2059
-945 -754 2059
-945 -759 2076
-926 -750 2052
-912 -744 2038
-896 -736 2020
-894 -740 2033
-884 -737 2028
-873 -734 2020
-861 -729 2008
-867 -740 2041
-846 -727 2009
-852 -738 2041
-843 -736 2037
-836 -735 2038
-823 -730 2026
-813 -727 2019
-799 -720 2002
-779 -708 1970
-762 -698 1944
-775 -715 1996
-774 -720 2012
-753 -707 1975
-758 -717 2008
-743 -709 1986
-750 -722 2026
-730 -709 1991
-710 -696 1955
-720 -712 2002
-713 -711 2002
-710 -714 2012
-702 -713 2009
-706 -723 2041
-686 -709 2003
-680 -709 2006
-685 -722 2042
-675 -718 2033
-680 -729 2067
-659 -714 2026
-663 -726 2060
-654 -723 2054
-645 -720 2048
-634 -715 2035
-627 -714 2034
-619 -712 2028
-613 -712 2032
-607 -713 2036
-603 -716 2045
-601 -721 2062
-594 -721 2062
-582 -714 2043
-567 -703 2014
-570 -714 2046
-569 -721 2067
-566 -725 2080
-555 -719 2066
-545 -714 2052
-542 -720 2069
-537 -722 2076
-530 -721 2075
-522 -718 2068
-510 -710 2046
-508 -716 2064
-500 -713 2058
-495 -715 2065
-487 -713 2060
-485 -720 2081
-481 -724 2093
-518 -790 2286
-586 -905 2620
-615 -962 2787
-621 -985 2853
-620 -999 2895
-629 -1027 2977
-618 -1024 2972
-603 -1014 2943
-606 -1035 3005
-593 -1027 2985
-570 -1003 2914
-581 -1038 3019
-586 -1065 3097
0 0 0
0 0 0
0 0 0
0 0 0
0 0 0
0 0 0
0 0 0
-486 -1013 2955
-532 -1129 3296
-551 -1192 3480
-551 -1214 3547
-602 -1354 3955
-609 -1398 4085
-594 -1391 4067
-579 -1385 4050
-570 -1391 4068
-556 -1389 4064
-545 -1391 4070
-533 -1391 4071
-521 -1392 4075
-506 -1387 4060
-494 -1386 4058
-482 -1388 4065
-469 -1386 4061
-457 -1384 4056
-447 -1391 4078
-447 -1431 4197
-445 -1467 4302
-437 -1482 4348
0 0 0
0 0 0
0 0 0
-236 -916 2687
-269 -1077 3160
-256 -1060 3113
-247 -1064 3125
-235 -1052 3090
-225 -1051 3086
-219 -1065 3129
-207 -1050 3084
-198 -1054 3095
-192 -1069 3141
-181 -1063 3123
-171 -1056 3102
-162 -1059 3112
-153 -1062 3121
-143 -1061 3118
-135 -1065 3131
-126 -1072 3152
-115 -1062 3120
-107 -1068 3139
-96 -1057 3105
-87 -1057 3105
-78 -1059 3112
-69 -1064 3127
-59 -1053 3094
-50 -1058 3110
-40 -1043 3066
-32 -1068 3137
-22 -1062 3119
-13 -1064 3125
-3 -1064 3126
5 -1061 3118
14 -1052 3090
24 -1062 3120
33 -1055 3098
42 -1059 3109
52 -1076 3158
62 -1072 3146
71 -1066 3129
81 -1075 3157
89 -1063 3120
99 -1066 3127
109 -1071 3143
118 -1073 3148
128 -1074 3151
137 -1070 3138
148 -1082 3173
155 -1064 3119
167 -1085 3179
176 -1080 3165
184 -1070 3135
192 -1066 3122
204 -1076 3151
215 -1085 3177
226 -1093 3198
233 -1081 3164
244 -1088 3183
255 -1095 3202
263 -1090 3186
275 -1097 3205
284 -1093 3195
294 -1098 3209
302 -1092 3189
315 -1104 3223
327 -1110 3239
331 -1092 3185
345 -1105 3222
351 -1095 3193
363 -1101 3208
370 -1095 3191
383 -1103 3214
397 -1117 3251
405 -1110 3232
414 -1110 3230
425 -1113 3236
424 -1086 3156
0 0 0
431 -1056 3067
446 -1069 3105
465 -1092 3169
477 -1097 3182
477 -1076 3118
496 -1099 3184
498 -1081 3132
514 -1096 3173
521 -1089 3151
532 -1092 3159
545 -1100 3181
555 -1100 3178
562 -1096 3165
570 -1093 3154
576 -1086 3134
577 -1070 3086
586 -1069 3080
592 -1064 3064
609 -1077 3101
620 -1080 3108
625 -1072 3082
603 -1019 2929
596 -992 2848
616 -1011 2902
599 -970 2781
630 -1005 2881
605 -951 2726
0 0 0
0 0 0
0 0 0
0 0 0
0 0 0
0 0 0
0 0 0
0 0 0
0 0 0
104 -139 395
142 -189 538
0 0 0
0 0 0
0 0 0
33 -38 109
30 -34 97
0 0 0
0 0 0
0 0 0
0 0 0
0 0 0
0 0 0
0 0 0
1066 -1263 3554
1080 -1267 3562
1070 -1243 3489
0 0 0
0 0 0
0 0 0
0 0 0
0 0 0
0 0 0
0 0 0
0 0 0
0 0 0
0 0 0
0 0 0
0 0 0
0 0 0
0 0 0
0 0 0
0 0 0
0 0 0
0 0 0
1054 -1027 2829
1065 -1029 2831
1085 -1039 2856
1085 -1030 2830
1104 -1039 2851
1095 -1023 2802
1105 -1024 2803
1089 -1001 2737
1085 -989 2700
1099 -994 2710
1066 -957 2605
1096 -976 2654
1077 -952 2585
1087 -954 2587
1081 -941 2548
1103 -953 2580
1108 -950 2567
1104 -940 2537
1104 -933 2514
1109 -931 2505
1111 -925 2487
1107 -915 2457
1118 -918 2460
1114 -908 2430
1123 -909 2429
1095 -880 2348
1081 -863 2300
1117 -886 2357
1079 -849 2257
1146 -896 2377
1097 -852 2257
1096 -845 2236
1085 -831 2196
1103 -840 2215
1117 -844 2224
1114 -837 2201
1093 -815 2141
1111 -824 2159
1115 -821 2150
1123 -822 2147
1127 -820 2139
1131 -817 2129
1131 -813 2113
1144 -817 2121
1126 -799 2071
1123 -792 2049
1118 -784 2024
1124 -783 2020
1115 -772 1987
1124 -773 1987
1130 -773 1983
1112 -756 1936
1132 -766 1957
1147 -771 1967
1154 -772 1965
1139 -757 1924
-757 -473 1234
-753 -474 1237
-722 -457 1195
-535 -341 892
-503 -322 845
-499 -321 845
-492 -319 840
-477 -311 820
-487 -319 843
-483 -318 843
-475 -315 836
-464 -309 822
-462 -310 826
-465 -314 837
-456 -310 826
-472 -323 863
-462 -318 851
-492 -340 912
-480 -334 897
-623 -437 1175
-1057 -746 2008
-1074 -762 2057
-1065 -761 2056
-1058 -760 2058
-1053 -762 2066
-1042 -759 2061
-1036 -760 2065
-1028 -759 2065
-1017 -756 2060
-1012 -757 2066
-1005 -757 2068
-991 -752 2058
-982 -750 2055
-972 -748 2051
-944 -731 2009
-962 -750 2064
-953 -749 2062
-951 -752 2075
-940 -749 2069
-932 -748 2068
-911 -736 2037
-905 -737 2042
-894 -734 2035
-867 -717 1991
-869 -724 2013
-869 -729 2030
-856 -724 2017
-841 -717 2000
-838 -719 2009
-836 -723 2023
-827 -721 2018
-822 -723 2025
-822 -728 2044
-807 -721 2025
-766 -690 1940
-768 -697 1963
-766 -701 1976
-758 -699 1972
-738 -687 1940
-745 -699 1977
-746 -706 1997
-745 -711 2013
-740 -712 2019
-712 -692 1963
-709 -695 1974
-718 -709 2016
-714 -712 2026
-702 -706 2011
-707 -718 2046
-690 -707 2017
-689 -713 2035
-685 -715 2042
-672 -708 2025
-665 -708 2026
-661 -710 2033
-661 -717 2056
-653 -716 2054
-646 -714 2051
-633 -707 2032
-628 -709 2040
-623 -710 2045
-618 -712 2051
-610 -710 2047
-602 -708 2042
-595 -707 2041
-593 -712 2057
-583 -708 2047
-576 -707 2046
-576 -715 2070
-570 -716 2074
-559 -711 2060
-552 -709 2056
-548 -712 2066
-539 -709 2058
-533 -710 2062
-524 -707 2054
-518 -707 2056
-514 -710 2067
-509 -711 2072
-504 -714 2079
-498 -714 2080
-493 -716 2088
-485 -714 2085
-486 -724 2115
-529 -800 2337
-591 -904 2643
-603 -936 2736
-608 -957 2799
-634 -1012 2961
-620 -1003 2938
-605 -994 2911
-618 -1031 3021
-610 -1032 3025
-593 -1019 2989
-577 -1007 2954
-607 -1076 3158
-618 -1113 3269
0 0 0
0 0 0
0 0 0
0 0 0
0 0 0
0 0 0
0 0 0
0 0 0
-541 -1139 3355
-552 -1183 3488
-560 -1225 3611
-604 -1347 3974
-610 -1388 4095
-591 -1372 4049
-581 -1378 4068
-569 -1378 4069
-556 -1376 4063
-545 -1380 4077
-530 -1371 4053
-518 -1374 4061
-504 -1369 4049
-495 -1377 4073
-480 -1370 4053
-470 -1375 4067
-458 -1378 4077
-446 -1378 4080
-435 -1380 4086
-428 -1397 4136
-412 -1388 4109
-399 -1384 4099
-363 -1301 3854
-294 -1089 3228
-276 -1060 3140
-264 -1048 3107
-253 -1040 3084
-246 -1050 3113
-237 -1052 3120
-225 -1041 3087
-215 -1038 3079
-209 -1052 3120
-198 -1045 3099
-190 -1048 3109
-179 -1041 3088
-172 -1053 3124
-163 -1055 3130
-153 -1054 3128
-142 -1039 3084
-136 -1068 3169
-123 -1039 3083
-116 -1054 3127
-107 -1064 3157
-98 -1064 3158
-87 -1047 3106
-77 -1036 3075
-68 -1045 3101
-59 -1045 3101
-49 -1038 3079
-40 -1044 3096
-31 -1055 3130
-22 -1041 3087
-13 -1065 3160
-3 -1063 3153
5 -1046 3103
14 -1045 3099
24 -1053 3124
33 -1060 3143
43 -1062 3149
52 -1064 3155
62 -1063 3152
71 -1061 3144
80 -1054 3124
90 -1065 3155
99 -1056 3130
108 -1059 3138
119 -1072 3174
128 -1068 3162
136 -1052 3116
147 -1065 3152
155 -1057 3130
166 -1066 3154
175 -1064 3147
186 -1075 3180
193 -1062 3141
204 -1069 3161
214 -1070 3163
225 -1079 3189
235 -1081 3193
244 -1076 3179
256 -1090 3217
263 -1077 3180
273 -1080 3187
282 -1079 3185
293 -1083 3194
300 -1074 3166
312 -1083 3193
323 -1087 3205
333 -1089 3208
342 -1088 3204
352 -1089 3205
363 -1092 3214
371 -1088 3202
382 -1092 3211
392 -1092 3209
403 -1096 3220
413 -1097 3223
416 -1080 3171
452 -1147 3366
0 0 0
428 -1040 3050
451 -1071 3140
453 -1054 3087
471 -1074 3147
485 -1085 3176
489 -1072 3138
508 -1094 3199
512 -1081 3161
525 -1088 3180
529 -1077 3146
540 -1080 3153
557 -1094 3191
560 -1081 3153
551 -1047 3051
408 -761 2216
281 -512 1492
288 -518 1506
324 -574 1671
383 -670 1946
410 -706 2051
350 -593 1720
384 -641 1861
433 -713 2068
466 -756 2190
497 -795 2303
0 0 0
0 0 0
0 0 0
0 0 0
0 0 0
0 0 0
0 0 0
0 0 0
0 0 0
110 -150 432
94 -126 362
75 -98 282
83 -107 308
93 -120 344
100 -128 366
80 -100 287
40 -47 133
51 -61 175
0 0 0
0 0 0
0 0 0
0 0 0
0 0 0
0 0 0
0 0 0
1071 -1259 3575
1068 -1241 3523
1107 -1274 3611
0 0 0
0 0 0
0 0 0
0 0 0
0 0 0
0 0 0
0 0 0
0 0 0
0 0 0
0 0 0
0 0 0
0 0 0
0 0 0
0 0 0
0 0 0
0 0 0
0 0 0
0 0 0
1053 -1016 2828
1071 -1025 2848
1079 -1024 2843
1087 -1023 2836
1093 -1020 2825
1100 -1018 2817
1095 -1005 2778
1085 -989 2729
1098 -992 2735
1087 -975 2684
1094 -973 2677
1042 -920 2526
1083 -949 2603
1094 -951 2607
1102 -951 2601
1087 -931 2543
1095 -930 2539
1100 -928 2530
1112 -931 2535
1100 -915 2486
1104 -911 2474
1116 -914 2479
1101 -896 2425
1087 -878 2373
1096 -879 2373
1084 -863 2327
1073 -849 2285
1084 -851 2289
1088 -849 2278
1093 -847 2271
1100 -846 2265
1100 -841 2248
1120 -851 2270
1133 -855 2278
1114 -835 2220
1116 -831 2208
1108 -820 2174
1114 -819 2167
1115 -814 2153
1117 -810 2139
1122 -809 2131
1136 -814 2141
1126 -802 2106
1133 -802 2102
1127 -793 2074
1126 -787 2056
1116 -776 2023
1133 -783 2038
1133 -778 2022
1132 -772 2004
1137 -771 1998
1129 -761 1969
1137 -762 1967
1136 -757 1951
1142 -756 1945
1140 -751 1927
-766 -475 1251
-759 -473 1249
-718 -450 1190
-524 -330 874
-493 -313 829
-488 -312 828
-487 -313 832
-481 -310 827
-488 -317 847
-480 -314 839
-479 -315 844
-471 -311 835
-470 -313 840
-458 -307 826
-467 -315 848
-467 -316 855
-481 -328 887
-499 -342 927
-488 -337 915
-678 -471 1280
-1070 -748 2034
-1075 -756 2061
-1064 -753 2055
-1055 -752 2055
-1049 -753 2060
-1045 -755 2069
-1036 -753 2066
-1028 -752 2068
-1015 -748 2059
-1011 -750 2067
-1000 -746 2060
-992 -746 2062
-983 -744 2060
-963 -734 2034
-967 -742 2059
-958 -741 2058
-959 -747 2077
-948 -743 2070
-941 -743 2072
-927 -737 2058
-905 -725 2027
-890 -718 2010
-882 -717 2011
-881 -722 2025
-879 -725 2037
-864 -718 2020
-868 -727 2048
-846 -714 2013
-838 -713 2013
-844 -723 2044
-831 -718 2030
-830 -723 2047
-815 -716 2028
-801 -709 2012
-776 -693 1967
-744 -669 1902
-760 -689 1962
-750 -686 1955
-741 -684 1949
-752 -699 1996
-749 -702 2007
-744 -704 2014
-720 -687 1967
-714 -687 1968
-706 -685 1966
-713 -699 2006
-717 -708 2035
-716 -714 2053
-704 -709 2040
-694 -705 2032
-690 -707 2040
-683 -707 2041
-675 -705 2037
-658 -694 2006
-655 -698 2019
-665 -715 2069
-651 -707 2049
-644 -706 2047
-635 -703 2042
-629 -704 2044
-621 -702 2040
-614 -701 2039
-608 -701 2042
-602 -702 2045
-596 -702 2048
-592 -705 2058
-582 -701 2046
-574 -699 2043
-573 -706 2063
-571 -711 2079
-561 -707 2068
-558 -710 2080
-548 -706 2069
-543 -708 2077
-535 -705 2070
-529 -707 2075
-521 -704 2069
-513 -702 2064
-508 -704 2070
-498 -699 2056
-497 -706 2077
-490 -706 2079
-481 -702 2070
-487 -720 2122
-531 -795 2347
-602 -914 2697
-612 -941 2778
-622 -971 2868
-624 -987 2917
-642 -1029 3044
-619 -1008 2982
-629 -1040 3078
-602 -1010 2990
-588 -1002 2969
-587 -1015 3007
-596 -1048 3107
-617 -1101 3267
0 0 0
0 0 0
0 0 0
0 0 0
0 0 0
0 0 0
0 0 0
-497 -1018 3028
-540 -1126 3351
-560 -1189 3541
-572 -1239 3689
-610 -1348 4016
-612 -1380 4112
-593 -1364 4066
-578 -1357 4046
-567 -1360 4056
-557 -1366 4074
-545 -1366 4076
-530 -1360 4059
-520 -1365 4076
-506 -1360 4061
-494 -1362 4067
-481 -1361 4065
-469 -1360 4064
-455 -1356 4053
-445 -1361 4068
-433 -1361 4070
-419 -1357 4059
-410 -1368 4092
-398 -1367 4090
-363 -1288 3853
-297 -1090 3261
-271 -1029 3078
-264 -1038 3107
-250 -1021 3057
-245 -1039 3110
-234 -1032 3089
-230 -1053 3152
-216 -1031 3087
-206 -1029 3082
-199 -1042 3121
-188 -1032 3092
-180 -1040 3114
-171 -1037 3107
-160 -1031 3090
-151 -1032 3091
-140 -1018 3049
-132 -1027 3078
-123 -1033 3095
-116 -1048 3139
-105 -1037 3108
-97 -1042 3124
-87 -1038 3109
-77 -1029 3083
-68 -1027 3079
-58 -1024 3069
-50 -1046 3133
-41 -1042 3121
-31 -1030 3086
-22 -1032 3091
-13 -1043 3125
-3 -1039 3113
5 -1035 3101
14 -1034 3096
24 -1039 3112
33 -1045 3129
42 -1042 3121
52 -1057 3165
61 -1045 3128
70 -1043 3122
80 -1047 3133
89 -1043 3120
99 -1053 3151
108 -1043 3119
118 -1054 3151
129 -1063 3180
137 -1050 3138
147 -1054 3151
157 -1059 3165
166 -1061 3170
175 -1056 3154
184 -1052 3142
195 -1062 3172
203 -1052 3141
215 -1064 3176
226 -1071 3197
234 -1066 3182
244 -1068 3186
250 -1053 3140
260 -1057 3150
271 -1063 3168
280 -1060 3158
291 -1067 3177
303 -1073 3195
313 -1075 3200
325 -1084 3224
330 -1069 3181
340 -1069 3180
352 -1078 3206
361 -1075 3196
372 -1079 3206
383 -1083 3217
394 -1088 3231
400 -1078 3200
413 -1087 3225
422 -1085 3219
435 -1093 3240
0 0 0
428 -1029 3048
442 -1041 3082
449 -1037 3067
471 -1064 3147
478 -1060 3135
492 -1070 3162
504 -1074 3172
517 -1083 3197
525 -1078 3181
535 -1079 3183
542 -1075 3169
548 -1068 3147
559 -1070 3150
521 -981 2887
256 -470 1384
228 -411 1209
230 -409 1202
231 -404 1187
238 -410 1204
242 -411 1205
247 -413 1211
253 -417 1221
256 -415 1215
266 -426 1247
273 -430 1259
299 -465 1361
0 0 0
0 0 0
0 0 0
0 0 0
0 0 0
0 0 0
0 0 0
0 0 0
33 -41 120
106 -141 409
63 -81 235
66 -84 244
84 -106 308
56 -68 197
75 -93 269
51 -61 177
41 -47 137
0 0 0
0 0 0
0 0 0
0 0 0
0 0 0
0 0 0
0 0 0
1109 -1291 3703
0 0 0
0 0 0
0 0 0
0 0 0
0 0 0
0 0 0
0 0 0
0 0 0
0 0 0
0 0 0
0 0 0
0 0 0
0 0 0
0 0 0
0 0 0
0 0 0
0 0 0
0 0 0
0 0 0
0 0 0
1050 -1004 2822
1072 -1017 2854
1066 -1003 2811
1091 -1018 2851
1091 -1009 2823
1097 -1007 2814
1114 -1014 2831
1119 -1010 2816
1043 -934 2601
1077 -957 2662
1062 -937 2602
1100 -962 2669
1085 -942 2609
1078 -929 2570
1103 -944 2607
1102 -936 2582
1099 -925 2551
1102 -921 2536
1116 -927 2548
1086 -895 2457
1090 -892 2444
1100 -893 2446
1101 -888 2428
1093 -875 2388
1079 -857 2338
1069 -844 2298
1093 -857 2330
1097 -854 2318
1094 -846 2293
1116 -857 2319
1107 -844 2282
1114 -844 2277
1124 -846 2281
1119 -837 2251
1130 -839 2255
1123 -829 2223
1110 -814 2180
1105 -805 2152
1111 -804 2148
1113 -801 2134
1122 -802 2134
1128 -801 2129
1131 -798 2118
1125 -789 2089
1118 -779 2061
1124 -779 2056
1118 -770 2027
1133 -776 2040
1132 -770 2021
1137 -769 2016
1144 -769 2012
1130 -755 1973
1140 -757 1975
1132 -748 1946
1151 -756 1964
1140 -745 1930
-758 -466 1239
-757 -467 1246
-684 -425 1135
-513 -320 857
-496 -312 836
-493 -311 836
-499 -317 853
-470 -300 809
-477 -307 829
-471 -305 824
-464 -302 818
-468 -306 831
-469 -309 840
-466 -309 841
-454 -303 825
-474 -318 868
-475 -321 877
-475 -323 885
-504 -345 946
-746 -514 1410
-1073 -743 2043
-1067 -744 2049
-1065 -747 2061
-1054 -744 2056
-1050 -746 2063
-1038 -743 2057
-1034 -744 2064
-1029 -746 2073
-1018 -743 2067
-1009 -742 2065
-1002 -741 2067
-989 -736 2056
-978 -733 2051
-965 -729 2041
-959 -729 2044
-959 -734 2061
-957 -738 2075
-950 -738 2077
-939 -734 2069
-928 -731 2063
-902 -716 2023
-894 -715 2021
-898 -723 2048
-877 -711 2017
-868 -710 2014
-857 -706 2007
-863 -716 2038
-855 -715 2037
-836 -705 2010
-837 -711 2029
-832 -712 2035
-813 -701 2006
-814 -708 2027
-799 -700 2007
-760 -672 1928
-789 -703 2019
-777 -698 2008
-749 -679 1955
-739 -675 1945
-745 -686 1979
-753 -699 2019
-733 -687 1985
-725 -686 1983
-689 -657 1903
-709 -682 1977
-720 -699 2028
-707 -692 2009
-705 -696 2023
-699 -697 2027
-702 -706 2055
-691 -702 2045
-684 -701 2044
-674 -698 2036
-657 -687 2005
-665 -702 2051
-658 -701 2050
-656 -706 2066
-645 -701 2054
-630 -692 2028
-620 -688 2017
-622 -697 2045
-615 -696 2044
-612 -700 2058
-597 -690 2029
-596 -696 2050
-594 -702 2067
-583 -696 2051
-578 -698 2058
-572 -698 2061
-564 -695 2054
-557 -695 2054
-553 -698 2064
-546 -697 2063
-540 -698 2068
-535 -699 2071
-526 -696 2065
-521 -697 2069
-512 -694 2059
-504 -692 2054
-498 -693 2059
-493 -695 2066
-485 -691 2057
-485 -700 2085
-488 -715 2130
-546 -810 2413
-613 -921 2745
-633 -965 2878
-631 -975 2910
-622 -975 2910
-623 -991 2959
-619 -999 2984
-621 -1016 3038
-615 -1021 3055
-588 -993 2971
-609 -1044 3127
-626 -1090 3263
-643 -1138 3408
0 0 0
0 0 0
0 0 0
0 0 0
0 0 0
0 0 0
0 0 0
-489 -993 2984
-549 -1135 3411
-557 -1173 3526
-575 -1236 3717
-614 -1345 4045
-607 -1357 4083
-594 -1355 4078
-579 -1348 4058
-567 -1348 4059
-555 -1350 4068
-542 -1348 4061
-529 -1344 4052
-517 -1347 4062
-506 -1351 4073
-494 -1350 4073
-481 -1348 4065
-469 -1347 4066
-457 -1349 4072
-445 -1351 4078
-433 -1351 4079
-421 -1351 4079
-408 -1350 4077
-396 -1349 4075
-377 -1326 4007
-335 -1217 3679
-283 -1064 3215
-266 -1036 3131
-255 -1029 3110
-242 -1017 3074
-236 -1028 3109
-225 -1024 3097
-218 -1032 3120
-208 -1027 3107
-200 -1035 3132
-188 -1024 3098
-179 -1024 3097
-170 -1027 3108
-162 -1031 3120
-152 -1030 3117
-142 -1023 3096
-133 -1024 3100
-123 -1020 3086
-114 -1024 3099
-105 -1025 3102
-97 -1040 3149
-85 -1012 3063
-77 -1027 3109
-68 -1032 3124
-59 -1030 3115
-50 -1032 3124
-40 -1032 3124
-31 -1029 3112
-21 -1018 3080
-12 -1021 3089
-3 -1030 3117
5 -1035 3131
14 -1022 3090
24 -1033 3123
33 -1022 3090
42 -1032 3120
52 -1044 3155
61 -1037 3134
71 -1041 3148
80 -1035 3127
90 -1037 3135
100 -1052 3178
109 -1043 3151
117 -1036 3128
128 -1045 3156
137 -1043 3149
145 -1033 3117
156 -1041 3142
165 -1044 3150
176 -1049 3163
186 -1052 3174
193 -1039 3134
202 -1039 3132
216 -1064 3206
223 -1049 3161
230 -1037 3125
242 -1049 3158
251 -1049 3160
260 -1044 3144
271 -1052 3166
282 -1057 3179
291 -1058 3181
302 -1062 3193
311 -1061 3189
325 -1075 3232
331 -1062 3190
345 -1077 3235
352 -1067 3205
361 -1067 3204
372 -1071 3215
382 -1073 3216
390 -1068 3203
400 -1069 3204
407 -1061 3178
417 -1062 3180
422 -1051 3146
0 0 0
438 -1045 3126
452 -1055 3154
450 -1028 3071
469 -1050 3136
480 -1055 3148
491 -1058 3158
504 -1064 3175
513 -1064 3173
521 -1061 3162
535 -1069 3183
538 -1057 3148
546 -1054 3136
563 -1068 3177
410 -763 2267
240 -437 1298
225 -401 1192
222 -391 1160
228 -395 1172
234 -398 1181
239 -401 1189
241 -398 1179
246 -400 1185
249 -400 1182
258 -408 1206
258 -404 1192
266 -410 1209
256 -389 1148
0 0 0
0 0 0
0 0 0
0 0 0
0 0 0
33 -41 121
52 -68 199
77 -101 297
59 -76 223
80 -103 301
58 -72 211
73 -91 267
89 -111 324
116 -145 424
29 -32 93
29 -32 93
1227 -1527 4450
0 0 0
0 0 0
0 0 0
0 0 0
0 0 0
0 0 0
0 0 0
0 0 0
0 0 0
0 0 0
0 0 0
0 0 0
0 0 0
0 0 0
0 0 0
0 0 0
0 0 0
0 0 0
0 0 0
0 0 0
0 0 0
0 0 0
0 0 0
0 0 0
0 0 0
0 0 0
0 0 0
1059 -1003 2848
1057 -994 2818
1074 -1001 2836
1080 -998 2823
1098 -1007 2844
1084 -986 2782
1061 -957 2697
1068 -955 2690
1058 -939 2640
1047 -922 2591
1101 -962 2699
1095 -950 2661
1083 -932 2608
1091 -932 2604
1104 -935 2610
1102 -927 2585
1108 -925 2575
1115 -924 2569
1085 -892 2478
1103 -901 2497
1086 -881 2439
1112 -895 2476
1046 -836 2308
1095 -869 2396
1072 -845 2326
1077 -843 2318
1104 -858 2356
1107 -854 2343
1105 -847 2319
1113 -847 2317
1122 -848 2316
1116 -838 2285
1120 -835 2273
1127 -835 2271
1124 -827 2245
1131 -827 2241
1109 -806 2179
1116 -806 2176
1109 -796 2146
1113 -793 2136
1119 -793 2131
1124 -791 2122
1126 -788 2111
1119 -778 2080
1127 -778 2078
1120 -769 2049
1131 -772 2054
1127 -764 2030
1139 -768 2037
1131 -758 2007
1134 -756 1997
1139 -754 1990
1140 -750 1976
1137 -744 1956
1143 -744 1952
1137 -736 1928
-760 -462 1243
-743 -455 1225
-659 -406 1095
-503 -311 842
-493 -307 832
-483 -302 820
-490 -309 838
-482 -305 831
-472 -301 820
-471 -302 824
-469 -303 828
-477 -310 849
-463 -303 830
-472 -310 853
-457 -302 832
-456 -304 837
-480 -322 888
-469 -316 874
-515 -349 968
-840 -573 1589
-1069 -734 2038
-1070 -739 2056
-1060 -737 2054
-1057 -740 2064
-1053 -742 2072
-1039 -736 2061
-1033 -737 2065
-1023 -735 2063
-1016 -735 2064
-1009 -734 2066
-1001 -734 2068
-989 -730 2060
-978 -726 2052
-957 -716 2025
-966 -728 2062
-963 -731 2073
-952 -727 2065
-947 -729 2072
-934 -724 2062
-919 -718 2045
-904 -711 2030
-892 -706 2018
-887 -708 2025
-876 -705 2018
-872 -707 2027
-867 -708 2032
-857 -705 2025
-838 -695 1999
-832 -695 2001
-845 -712 2052
-828 -702 2027
-826 -706 2040
-809 -697 2017
-797 -693 2006
-761 -667 1932
-766 -677 1964
-769 -685 1990
-749 -673 1956
-746 -676 1967
-750 -685 1995
-748 -688 2008
-744 -691 2016
-728 -682 1993
-706 -667 1951
-713 -680 1989
-704 -677 1984
-707 -686 2011
-709 -694 2037
-703 -694 2040
-697 -695 2044
-687 -692 2035
-682 -692 2039
-666 -683 2013
-654 -677 1997
-658 -688 2031
-657 -693 2048
-651 -694 2053
-643 -693 2050
-634 -690 2042
-630 -692 2050
-623 -692 2051
-610 -684 2031
-604 -684 2032
-604 -691 2055
-598 -692 2057
-595 -695 2070
-578 -683 2035
-575 -687 2049
-577 -698 2081
-563 -688 2053
-562 -694 2073
-553 -691 2066
-545 -690 2062
-543 -695 2078
-534 -692 2073
-527 -691 2070
-519 -689 2064
-512 -688 2064
-506 -689 2067
-497 -685 2057
-497 -693 2082
-489 -692 2079
-482 -691 2077
-488 -708 2131
-563 -827 2490
-613 -913 2748
-631 -953 2871
-623 -955 2877
-625 -970 2925
-617 -972 2933
-609 -974 2939
-616 -1000 3020
-614 -1012 3056
-580 -971 2934
-602 -1022 3090
-626 -1080 3266
-651 -1141 3454
0 0 0
0 0 0
0 0 0
0 0 0
0 0 0
0 0 0
0 0 0
0 0 0
-529 -1085 3293
-561 -1172 3560
-588 -1251 3801
-611 -1327 4031
-609 -1348 4097
-597 -1349 4101
-579 -1337 4065
-566 -1335 4061
-555 -1337 4069
-540 -1331 4050
-530 -1337 4071
-518 -1337 4072
-503 -1329 4049
-493 -1335 4068
-481 -1336 4070
-468 -1334 4065
-455 -1332 4059
-443 -1332 4060
-433 -1338 4080
-420 -1337 4077
-408 -1336 4077
-394 -1333 4066
-381 -1327 4050
-380 -1370 4181
-308 -1148 3505
-268 -1036 3163
-254 -1018 3109
-242 -1007 3075
-235 -1015 3098
-225 -1011 3088
-214 -1003 3062
-204 -999 3053
-195 -1000 3055
-188 -1011 3089
-181 -1023 3126
-167 -998 3051
-163 -1032 3154
-150 -1008 3082
-141 -1006 3074
-131 -1001 3058
-124 -1022 3122
-113 -1006 3074
-105 -1017 3108
-96 -1014 3098
-85 -1004 3069
-77 -1016 3106
-69 -1025 3132
-58 -1003 3066
-50 -1022 3122
-40 -1003 3066
-31 -1028 3141
-21 -1008 3081
-12 -1015 3102
-3 -1019 3112
5 -1018 3109
15 -1023 3125
24 -1026 3133
33 -1019 3112
42 -1018 3108
51 -1006 3072
61 -1020 3116
70 -1020 3112
80 -1028 3139
89 -1020 3113
99 -1027 3135
108 -1024 3125
119 -1036 3160
127 -1026 3129
136 -1022 3118
146 -1027 3131
155 -1025 3124
165 -1034 3151
176 -1043 3179
183 -1030 3136
195 -1044 3180
204 -1041 3169
212 -1031 3140
222 -1035 3150
232 -1038 3159
242 -1041 3166
250 -1035 3147
262 -1044 3176
271 -1042 3167
280 -1040 3159
294 -1057 3210
300 -1043 3169
311 -1051 3189
322 -1055 3203
336 -1069 3243
338 -1046 3172
350 -1053 3194
359 -1052 3187
372 -1061 3214
379 -1054 3193
390 -1057 3200
400 -1058 3203
406 -1049 3175
415 -1048 3170
434 -1072 3239
0 0 0
429 -1014 3063
445 -1029 3106
449 -1018 3072
466 -1035 3122
477 -1037 3127
491 -1047 3154
501 -1049 3161
508 -1043 3142
519 -1046 3148
528 -1045 3143
542 -1055 3172
546 -1044 3137
555 -1043 3133
341 -627 1882
226 -408 1223
220 -389 1166
224 -390 1169
227 -389 1165
234 -395 1182
239 -397 1189
236 -387 1158
242 -391 1169
246 -392 1171
257 -404 1205
254 -393 1173
256 -390 1163
265 -398 1188
0 0 0
0 0 0
0 0 0
0 0 0
0 0 0
87 -117 346
81 -107 317
87 -115 340
80 -104 308
63 -79 235
64 -79 234
62 -77 226
59 -71 209
27 -30 88
31 -35 103
59 -69 202
0 0 0
0 0 0
0 0 0
0 0 0
0 0 0
0 0 0
0 0 0
0 0 0
0 0 0
0 0 0
0 0 0
0 0 0
0 0 0
0 0 0
0 0 0
0 0 0
0 0 0
0 0 0
0 0 0
0 0 0
0 0 0
0 0 0
1009 -998 2880
1004 -985 2838
0 0 0
0 0 0
0 0 0
0 0 0
1036 -973 2790
1065 -992 2840
1075 -993 2841
1079 -989 2825
1093 -993 2833
1086 -979 2791
1051 -940 2676
1093 -970 2758
1083 -953 2706
1093 -954 2707
1092 -946 2680
1110 -954 2701
1113 -949 2683
1088 -921 2599
1096 -921 2596
1101 -918 2585
1086 -898 2526
1082 -888 2495
1085 -884 2480
1103 -892 2499
1043 -838 2344
1088 -867 2423
1092 -865 2413
1062 -834 2325
1098 -857 2385
1099 -852 2367
1106 -852 2363
1109 -848 2349
1116 -847 2344
1107 -835 2306
1122 -841 2319
1122 -835 2299
1129 -835 2295
1128 -828 2274
1119 -816 2237
1117 -809 2215
1116 -803 2195
1111 -795 2169
1109 -788 2148
1116 -788 2144
1113 -781 2122
1123 -783 2123
1114 -772 2090
1129 -778 2102
1117 -765 2063
1132 -770 2074
1122 -759 2040
1132 -761 2042
1134 -758 2031
1132 -752 2011
1139 -752 2009
1139 -748 1992
1143 -746 1985
1143 -741 1969
1146 -739 1959
1144 -733 1941
-766 -462 1255
-744 -451 1228
-615 -375 1023
-501 -307 839
-487 -300 822
-482 -299 820
-495 -309 848
-478 -300 826
-474 -300 825
-473 -301 830
-475 -304 839
-464 -298 825
-461 -299 828
-459 -299 831
-461 -302 841
-485 -319 890
-472 -313 873
-470 -314 877
-529 -355 994
-921 -622 1743
-1077 -732 2056
-1071 -733 2060
-1062 -731 2059
-1053 -730 2059
-1047 -731 2063
-1045 -734 2076
-1031 -729 2064
-1025 -730 2069
-1016 -728 2066
-1007 -727 2065
-996 -723 2059
-991 -725 2067
-981 -722 2062
-955 -708 2025
-963 -719 2058
-960 -722 2068
-953 -722 2071
-945 -721 2071
-936 -719 2069
-921 -712 2051
-904 -705 2031
-902 -708 2043
-891 -705 2037
-867 -691 1999
-877 -704 2040
-868 -702 2036
-867 -707 2052
-839 -689 2002
-845 -699 2035
-839 -700 2038
-830 -698 2034
-817 -692 2020
-808 -690 2017
-791 -681 1992
-755 -656 1920
-750 -656 1924
-778 -687 2016
-759 -675 1984
-753 -676 1987
-758 -686 2018
-749 -684 2014
-743 -683 2015
-720 -668 1973
-696 -652 1926
-720 -680 2012
-710 -676 2002
-709 -681 2018
-709 -688 2040
-700 -685 2033
-688 -680 2019
-676 -674 2004
-680 -684 2036
-664 -675 2009
-662 -679 2023
-662 -686 2047
-662 -693 2068
-651 -687 2053
-644 -687 2053
-633 -682 2039
-629 -685 2050
-623 -685 2053
-614 -682 2046
-607 -681 2044
-599 -680 2042
-595 -682 2049
-591 -685 2059
-583 -684 2057
-573 -679 2045
-571 -684 2060
-564 -684 2061
-558 -683 2060
-550 -681 2056
-548 -687 2074
-540 -685 2069
-534 -686 2074
-525 -683 2065
-517 -680 2060
-513 -682 2067
-506 -683 2069
-499 -682 2068
-495 -685 2077
-481 -674 2046
-483 -685 2080
-487 -700 2128
-572 -832 2531
-633 -934 2842
-600 -897 2731
-631 -958 2917
-631 -971 2959
-616 -962 2932
-608 -964 2939
-613 -986 3008
-620 -1012 3087
-606 -1004 3065
-605 -1019 3111
-634 -1083 3310
-641 -1113 3402
0 0 0
0 0 0
0 0 0
0 0 0
0 0 0
0 0 0
0 0 0
0 0 0
-516 -1047 3212
-565 -1169 3586
-595 -1254 3847
-616 -1324 4064
-608 -1334 4096
-598 -1339 4113
-580 -1327 4077
-564 -1318 4051
-555 -1325 4071
-542 -1324 4070
-528 -1320 4059
-515 -1318 4052
-503 -1318 4054
-493 -1324 4074
-481 -1323 4071
-469 -1325 4078
-456 -1322 4071
-443 -1321 4069
-433 -1327 4086
-420 -1324 4078
-407 -1321 4069
-397 -1328 4091
-384 -1328 4094
-392 -1399 4313
-370 -1366 4211
-267 -1022 3151
-252 -1001 3087
-244 -1004 3097
-235 -1007 3106
-226 -1010 3116
-214 -994 3068
-204 -994 3066
-196 -999 3083
-187 -1000 3086
-179 -1006 3106
-170 -1009 3113
-158 -993 3066
-152 -1011 3122
-143 -1012 3123
-130 -984 3037
-122 -998 3081
-114 -1004 3098
-105 -1007 3108
-97 -1016 3137
-86 -997 3077
-77 -1009 3116
-67 -998 3082
-58 -1005 3102
-50 -1010 3119
-40 -1006 3105
-30 -993 3064
-21 -1005 3100
-12 -1004 3100
-3 -1000 3087
5 -1000 3086
15 -1010 3117
24 -1015 3130
33 -1012 3123
42 -1008 3109
52 -1011 3118
60 -1001 3085
70 -1002 3090
79 -1007 3105
90 -1018 3138
98 -1005 3096
109 -1028 3167
118 -1021 3145
128 -1022 3149
137 -1027 3162
146 -1023 3149
155 -1019 3138
164 -1018 3135
174 -1022 3144
184 -1023 3147
195 -1032 3174
203 -1026 3155
212 -1020 3138
221 -1021 3139
231 -1022 3141
243 -1034 3177
249 -1018 3129
261 -1032 3169
271 -1034 3174
283 -1044 3204
291 -1036 3178
302 -1040 3191
308 -1031 3161
320 -1037 3180
333 -1049 3216
337 -1033 3165
351 -1046 3202
362 -1050 3213
377 -1066 3262
377 -1039 3178
388 -1041 3183
401 -1051 3213
410 -1048 3203
418 -1047 3197
415 -1015 3098
0 0 0
443 -1036 3160
438 -1004 3063
452 -1015 3095
465 -1023 3116
475 -1025 3120
486 -1028 3129
496 -1030 3133
514 -1047 3185
518 -1035 3146
529 -1038 3152
534 -1030 3129
547 -1036 3145
535 -996 3022
303 -553 1676
228 -406 1230
221 -388 1175
225 -389 1177
223 -379 1146
229 -383 1159
238 -393 1187
236 -383 1157
245 -392 1185
245 -386 1164
249 -386 1166
254 -389 1174
254 -383 1154
262 -390 1174
0 0 0
0 0 0
0 0 0
0 0 0
0 0 0
0 0 0
67 -87 262
84 -109 328
68 -86 258
80 -101 303
56 -68 204
43 -51 153
28 -30 91
0 0 0
24 -25 74
58 -67 200
1236 -1510 4488
0 0 0
0 0 0
0 0 0
0 0 0
0 0 0
0 0 0
0 0 0
0 0 0
0 0 0
0 0 0
0 0 0
0 0 0
0 0 0
0 0 0
0 0 0
0 0 0
0 0 0
0 0 0
0 0 0
0 0 0
0 0 0
0 0 0
1056 -1027 2989
1050 -1012 2942
1042 -995 2890
0 0 0
0 0 0
1050 -978 2831
1068 -986 2851
1084 -992 2866
1082 -982 2834
1091 -982 2831
1098 -981 2824
1070 -947 2725
1079 -948 2723
1093 -953 2735
1097 -949 2720
1091 -936 2679
1109 -945 2701
1101 -931 2657
1115 -935 2667
1081 -899 2561
1079 -891 2535
1098 -900 2557
1099 -894 2537
1081 -873 2474
1059 -849 2402
1064 -847 2393
1096 -866 2445
1083 -850 2394
1126 -877 2469
1108 -857 2410
1100 -845 2371
1122 -856 2399
1115 -844 2363
1117 -840 2348
1114 -832 2322
1119 -831 2315
1119 -825 2295
1105 -809 2248
1114 -810 2248
1114 -805 2230
1099 -789 2182
1114 -795 2194
1109 -786 2167
1113 -784 2157
1110 -777 2135
1126 -783 2147
1134 -784 2147
1126 -773 2114
1129 -771 2104
1131 -767 2091
1127 -760 2068
1139 -764 2074
1149 -765 2075
1148 -760 2057
1143 -752 2033
1140 -746 2012
1138 -740 1993
1139 -737 1980
1139 -732 1963
1140 -728 1950
1143 -726 1942
-766 -458 1256
-739 -444 1221
-579 -350 965
-497 -302 833
-480 -293 811
-484 -298 824
-481 -297 825
-475 -295 820
-481 -301 837
-483 -304 848
-472 -299 834
-471 -300 839
-466 -299 837
-470 -303 851
-475 -308 866
-491 -321 903
-465 -306 862
-469 -310 876
-553 -368 1040
-985 -659 1868
-1081 -728 2065
-1070 -726 2061
-1061 -724 2059
-1055 -725 2065
-1046 -723 2064
-1040 -724 2067
-1028 -720 2060
-1024 -722 2069
-1019 -724 2076
-1008 -721 2070
-997 -717 2063
-990 -718 2067
-977 -713 2056
-953 -700 2021
-956 -707 2044
-958 -714 2066
-950 -713 2066
-946 -714 2074
-940 -716 2079
-913 -699 2035
-897 -693 2018
-900 -700 2041
-895 -701 2047
-885 -698 2042
-873 -694 2032
-865 -693 2030
-861 -695 2039
-838 -682 2002
-840 -689 2024
-839 -693 2041
-832 -693 2043
-820 -688 2030
-805 -681 2012
-782 -667 1971
-751 -646 1912
-778 -675 1999
-763 -667 1978
-746 -658 1952
-766 -681 2023
-757 -679 2018
-745 -674 2005
-736 -671 1999
-721 -663 1977
-703 -652 1946
-733 -686 2051
-708 -668 1999
-713 -679 2033
-712 -684 2050
-707 -686 2056
-684 -670 2010
-682 -674 2024
-680 -678 2037
-672 -677 2036
-668 -679 2045
-664 -682 2055
-661 -685 2065
-654 -684 2065
-642 -679 2051
-630 -672 2033
-625 -674 2038
-620 -676 2046
-612 -674 2040
-605 -672 2038
-605 -680 2062
-591 -672 2039
-589 -676 2055
-579 -672 2043
-575 -675 2052
-569 -676 2056
-568 -682 2077
-564 -685 2086
-553 -678 2069
-540 -671 2048
-536 -674 2059
-533 -678 2072
-527 -679 2075
-520 -678 2074
-514 -678 2075
-505 -675 2067
-499 -676 2070
-492 -674 2067
-487 -676 2073
-487 -685 2101
-488 -695 2135
-599 -864 2655
-623 -911 2799
-620 -919 2825
-627 -942 2899
-626 -954 2936
-624 -965 2971
-618 -970 2987
-610 -972 2996
-604 -977 3011
-584 -960 2960
-613 -1022 3152
-623 -1055 3257
-662 -1138 3515
0 0 0
0 0 0
0 0 0
0 0 0
0 0 0
0 0 0
0 0 0
0 0 0
-526 -1059 3280
-567 -1163 3605
-605 -1264 3917
-614 -1308 4056
-606 -1318 4089
-595 -1320 4094
-580 -1314 4077
-564 -1307 4055
-553 -1309 4063
-542 -1311 4070
-529 -1310 4070
-515 -1305 4056
-504 -1309 4068
-494 -1313 4081
-479 -1307 4064
-468 -1311 4076
-456 -1309 4072
-444 -1311 4079
-432 -1310 4077
-420 -1313 4085
-407 -1311 4079
-397 -1318 4101
-392 -1341 4175
-387 -1368 4259
-380 -1390 4328
-280 -1064 3314
-257 -1011 3150
-242 -989 3081
-235 -996 3104
-224 -991 3089
-213 -984 3066
-207 -998 3111
-196 -989 3083
-187 -991 3090
-178 -989 3083
-165 -969 3022
-158 -984 3068
-150 -992 3093
-142 -999 3114
-131 -986 3074
-123 -991 3091
-113 -984 3069
-104 -986 3075
-96 -1003 3127
-85 -981 3060
-76 -984 3068
-67 -984 3067
-58 -986 3073
-49 -986 3074
-40 -998 3110
-31 -1003 3126
-22 -1003 3125
-12 -997 3107
-3 -997 3107
5 -1000 3116
15 -1001 3121
24 -992 3092
33 -988 3078
42 -994 3095
52 -1001 3120
61 -1004 3128
71 -1005 3130
80 -1001 3118
88 -993 3093
98 -999 3110
107 -1000 3111
117 -1005 3129
128 -1017 3164
135 -998 3106
147 -1019 3169
155 -1010 3140
165 -1014 3153
173 -1005 3123
184 -1016 3156
193 -1010 3138
203 -1014 3149
212 -1011 3140
222 -1015 3153
232 -1017 3156
241 -1016 3154
248 -1008 3128
263 -1029 3190
272 -1027 3183
281 -1025 3178
292 -1029 3190
297 -1015 3146
314 -1040 3221
323 -1037 3210
328 -1023 3166
340 -1033 3196
349 -1031 3189
359 -1031 3188
370 -1037 3204
381 -1038 3209
390 -1037 3203
398 -1033 3189
408 -1034 3192
410 -1015 3133
426 -1031 3181
0 0 0
407 -943 2907
448 -1016 3131
455 -1010 3111
465 -1012 3115
477 -1018 3131
490 -1027 3157
493 -1014 3116
504 -1015 3120
516 -1022 3138
522 -1014 3112
532 -1016 3117
528 -990 3036
0 0 0
234 -421 1291
218 -384 1177
219 -380 1162
223 -382 1167
221 -372 1136
227 -376 1147
232 -379 1157
235 -377 1151
240 -381 1162
245 -382 1166
244 -375 1143
247 -375 1142
257 -384 1169
248 -366 1114
0 0 0
0 0 0
0 0 0
0 0 0
0 0 0
0 0 0
92 -121 366
82 -105 319
79 -100 302
75 -94 284
63 -77 233
60 -72 219
39 -45 135
77 -91 275
13 -12 35
23 -24 72
0 0 0
0 0 0
0 0 0
0 0 0
0 0 0
0 0 0
0 0 0
0 0 0
0 0 0
0 0 0
0 0 0
0 0 0
0 0 0
0 0 0
0 0 0
0 0 0
0 0 0
0 0 0
0 0 0
0 0 0
0 0 0
0 0 0
0 0 0
0 0 0
1060 -1012 2973
0 0 0
0 0 0
0 0 0
1027 -947 2771
1048 -959 2801
1070 -970 2831
1083 -974 2840
1093 -975 2839
1065 -942 2740
1083 -951 2763
1079 -939 2725
1102 -952 2760
1085 -930 2692
1088 -925 2676
1112 -938 2709
1106 -926 2671
1113 -924 2663
1050 -865 2490
1092 -894 2568
1056 -858 2462
1059 -853 2446
1072 -858 2455
1101 -874 2499
1108 -874 2495
1089 -853 2431
1097 -853 2429
1114 -860 2446
1111 -852 2418
1112 -846 2399
1105 -835 2364
1104 -829 2344
1124 -838 2365
1117 -827 2332
1116 -821 2311
1099 -803 2258
1101 -799 2243
1114 -803 2250
1100 -788 2205
1096 -780 2179
1089 -770 2147
1112 -781 2176
1117 -780 2168
1116 -774 2149
1115 -768 2129
1130 -774 2142
1123 -764 2111
1133 -766 2113
1126 -757 2085
1139 -761 2092
1138 -756 2074
1146 -757 2072
1140 -748 2046
1147 -748 2041
1135 -736 2005
1137 -733 1993
1139 -730 1982
1122 -715 1938
1134 -718 1943
1127 -709 1916
-761 -450 1249
-732 -436 1211
-550 -329 916
-498 -300 836
-495 -300 838
-489 -298 833
-490 -300 842
-487 -300 844
-482 -299 841
-481 -300 846
-478 -300 846
-468 -295 835
-462 -294 831
-456 -291 826
-464 -298 847
-481 -311 885
-460 -299 853
-468 -306 874
-566 -373 1067
-1029 -682 1953
-1069 -714 2046
-1068 -717 2059
-1059 -716 2057
-1057 -719 2071
-1046 -716 2066
-1038 -716 2066
-1032 -716 2070
-1020 -713 2063
-1012 -711 2063
-1006 -712 2067
-996 -710 2065
-990 -711 2069
-977 -706 2058
-952 -693 2022
-964 -707 2065
-958 -707 2068
-952 -707 2072
-944 -707 2073
-937 -706 2075
-920 -698 2053
-899 -688 2025
-890 -686 2021
-898 -697 2057
-883 -691 2040
-864 -681 2013
-867 -688 2037
-845 -676 2005
-837 -675 2003
-829 -674 2002
-830 -680 2021
-826 -682 2029
-824 -685 2043
-803 -673 2008
-786 -664 1985
-761 -649 1940
-777 -668 1999
-765 -662 1984
-749 -654 1962
-755 -665 1995
-745 -662 1988
-738 -661 1988
-727 -656 1976
-735 -670 2019
-702 -645 1946
-700 -649 1959
-706 -660 1995
-706 -666 2014
-703 -670 2027
-699 -672 2035
-695 -674 2044
-687 -672 2040
-682 -674 2047
-671 -669 2034
-659 -663 2018
-669 -680 2070
-657 -674 2054
-654 -678 2067
-639 -669 2042
-631 -667 2037
-623 -665 2034
-621 -670 2050
-616 -672 2056
-611 -673 2061
-603 -672 2059
-599 -674 2067
-594 -676 2075
-575 -662 2032
-575 -669 2055
-573 -674 2073
-563 -670 2060
-559 -672 2068
-555 -674 2078
-544 -669 2063
-542 -675 2081
-529 -666 2056
-529 -674 2083
-518 -669 2067
-513 -670 2072
-508 -672 2080
-500 -670 2073
-491 -667 2066
-485 -666 2065
-479 -668 2071
-497 -702 2177
-632 -904 2804
-621 -900 2793
-627 -921 2860
-612 -911 2832
-615 -928 2887
-629 -963 2996
-602 -936 2912
-596 -940 2927
-604 -967 3012
-591 -961 2994
-570 -943 2938
-634 -1064 3317
0 0 0
0 0 0
0 0 0
0 0 0
0 0 0
0 0 0
0 0 0
0 0 0
0 0 0
-520 -1037 3245
-579 -1177 3684
-611 -1266 3963
-618 -1304 4085
-607 -1307 4096
-594 -1306 4093
-578 -1298 4070
-567 -1299 4074
-555 -1301 4079
-542 -1300 4078
-527 -1293 4059
-518 -1301 4082
-505 -1299 4079
-492 -1297 4072
-482 -1302 4088
-468 -1299 4081
-454 -1294 4066
-446 -1305 4101
-432 -1299 4083
-420 -1300 4086
-408 -1301 4092
-398 -1307 4111
-388 -1316 4138
-396 -1386 4358
-390 -1412 4441
-353 -1324 4167
-256 -997 3137
-242 -979 3082
-230 -969 3050
-219 -962 3028
-215 -981 3087
-204 -975 3071
-195 -976 3072
-186 -974 3067
-178 -983 3094
-171 -996 3136
-157 -965 3039
-149 -973 3064
-141 -985 3101
-132 -987 3108
-123 -988 3111
-112 -973 3065
-103 -971 3058
-95 -980 3086
-85 -975 3070
-76 -978 3079
-68 -985 3102
