VERSION 0.7
FIELDS x y z
SIZE 4 4 4
TYPE I I I
COUNT 1 1 1
WIDTH 3291
HEIGHT 1
VIEWPOINT 0.0 0.0 0.0 1.0 0.0 0.0 0.0
POINTS 3291
DATA ascii
-1274 -183 2262
-1264 -183 2260
-1264 -184 2278
-1247 -183 2264
-1234 -182 2257
-1221 -181 2250
-1217 -181 2259
-1203 -180 2250
-1195 -180 2252
-1182 -179 2243
-1173 -179 2243
-1157 -178 2230
-1153 -179 2239
-1135 -177 2220
-1131 -177 2229
-1116 -176 2217
-1101 -175 2205
-1091 -174 2202
-1092 -176 2221
-1069 -173 2191
-1065 -174 2199
-1059 -174 2205
-1047 -173 2196
-1038 -173 2194
-1024 -172 2181
-1020 -172 2190
-1009 -171 2184
-1000 -171 2182
-982 -169 2160
-972 -169 2156
-984 -172 2200
-996 -175 2244
-1001 -178 2275
-992 -177 2273
-997 -180 2303
-989 -179 2304
-984 -180 2310
-983 -181 2328
-978 -182 2336
-972 -182 2342
-967 -182 2349
-970 -184 2375
-967 -185 2389
-957 -185 2385
-954 -185 2397
-951 -186 2412
-944 -187 2415
-940 -187 2426
-934 -187 2431
-935 -189 2456
-929 -190 2461
-923 -190 2467
-925 -192 2495
-918 -192 2498
-914 -193 2510
-905 -193 2508
-900 -193 2520
-897 -194 2535
-896 -196 2555
-888 -196 2555
-882 -196 2562
-882 -198 2586
-870 -197 2578
-869 -199 2600
-864 -200 2611
-855 -199 2607
-850 -200 2619
-846 -201 2633
-839 -201 2636
-831 -201 2640
-825 -202 2646
-820 -203 2659
-813 -203 2662
-808 -204 2675
-804 -205 2690
-798 -205 2696
-790 -205 2701
-780 -205 2694
-762 -202 2662
-747 -200 2637
-751 -204 2683
-740 -203 2674
-732 -203 2675
-722 -202 2669
-710 -201 2652
-707 -202 2672
-688 -199 2632
-688 -202 2663
-701 -208 2748
-668 -201 2651
-662 -201 2660
-653 -201 2654
-644 -200 2650
-638 -201 2659
-629 -201 2657
-617 -199 2638
-611 -200 2647
-600 -199 2636
-592 -199 2637
-583 -199 2631
-575 -198 2630
-567 -198 2631
-558 -198 2624
-551 -198 2629
-542 -198 2625
-532 -197 2617
-525 -198 2621
-516 -197 2615
-507 -196 2607
-500 -197 2612
-492 -197 2609
-483 -196 2602
-474 -196 2599
-468 -196 2609
-457 -195 2590
-448 -194 2582
-442 -195 2590
-434 -195 2588
-424 -194 2574
-416 -194 2574
-409 -194 2577
-400 -193 2568
-391 -193 2560
-386 -194 2572
-377 -193 2563
-369 -193 2560
-361 -192 2558
-354 -193 2559
-346 -192 2556
-338 -192 2552
-330 -192 2554
-322 -191 2545
-315 -192 2549
-306 -191 2541
-299 -191 2539
-292 -191 2544
-284 -191 2536
-275 -190 2527
-268 -190 2527
-260 -190 2520
-252 -189 2518
-245 -190 2519
-237 -189 2514
-231 -190 2522
-223 -189 2516
-215 -189 2511
-207 -189 2506
-200 -188 2501
-192 -188 2500
-185 -189 2504
-178 -188 2497
-170 -188 2493
-162 -187 2483
-156 -188 2490
-148 -187 2484
-141 -187 2481
-133 -186 2471
-126 -187 2475
-119 -187 2479
-111 -186 2470
-104 -186 2468
-97 -187 2474
-90 -186 2468
-83 -186 2465
-76 -186 2459
-68 -186 2460
-61 -186 2456
-54 -186 2458
-47 -186 2457
-40 -185 2450
-33 -185 2447
-26 -185 2447
-19 -185 2443
-12 -185 2447
-5 -184 2434
1 -184 2437
8 -184 2434
15 -184 2430
22 -184 2427
29 -184 2424
36 -184 2426
43 -183 2417
50 -184 2421
57 -183 2415
64 -183 2413
71 -183 2415
78 -183 2410
85 -182 2402
92 -183 2407
98 -183 2403
105 -183 2403
112 -183 2400
119 -182 2390
125 -182 2389
132 -181 2378
140 -182 2393
145 -181 2374
152 -181 2378
159 -181 2378
167 -182 2386
173 -182 2380
180 -182 2377
187 -182 2376
193 -181 2366
199 -181 2362
207 -181 2371
214 -181 2370
220 -181 2361
227 -181 2362
234 -181 2361
239 -180 2350
247 -181 2357
253 -180 2351
261 -181 2357
266 -180 2341
273 -180 2344
280 -180 2342
287 -180 2343
292 -180 2333
300 -180 2339
306 -180 2332
312 -180 2329
318 -179 2323
326 -180 2328
332 -180 2326
338 -179 2320
345 -179 2318
352 -180 2322
358 -179 2314
365 -179 2315
371 -179 2312
377 -179 2305
384 -179 2303
390 -179 2301
397 -179 2304
403 -178 2296
409 -178 2293
416 -178 2291
423 -179 2295
429 -178 2289
436 -178 2287
441 -178 2282
448 -178 2283
454 -178 2275
461 -178 2276
469 -178 2281
473 -178 2271
482 -179 2279
488 -178 2274
493 -178 2266
499 -177 2260
504 -177 2255
511 -177 2252
519 -178 2259
526 -178 2257
531 -177 2251
538 -178 2252
546 -178 2255
551 -178 2249
556 -177 2242
564 -178 2246
569 -177 2239
577 -178 2240
582 -177 2233
588 -177 2230
594 -177 2226
602 -177 2229
606 -177 2219
615 -177 2225
620 -177 2220
627 -177 2219
632 -177 2211
638 -177 2210
646 -177 2212
651 -177 2207
658 -177 2207
663 -177 2199
669 -176 2194
676 -177 2197
685 -177 2201
694 -178 2206
703 -179 2213
708 -178 2207
715 -178 2207
721 -178 2204
726 -178 2197
732 -178 2192
740 -178 2195
748 -179 2196
753 -178 2190
762 -179 2196
765 -178 2183
769 -178 2176
777 -178 2178
785 -178 2178
794 -179 2184
799 -178 2176
798 -177 2155
806 -177 2157
811 -177 2152
814 -176 2140
822 -177 2142
827 -176 2136
836 -177 2139
843 -177 2139
847 -177 2130
857 -177 2135
862 -177 2131
869 -177 2129
873 -177 2121
879 -177 2118
888 -177 2122
896 -178 2123
903 -178 2120
907 -177 2113
912 -177 2107
920 -177 2108
927 -178 2107
932 -177 2101
940 -178 2102
947 -178 2099
944 -176 2075
952 -176 2076
970 -179 2100
983 -180 2110
1020 -185 2173
1024 -185 2165
999 -179 2094
995 -177 2069
1002 -177 2068
984 -173 2016
916 -160 1861
886 -154 1786
891 -154 1781
907 -156 1801
898 -153 1769
907 -154 1773
908 -153 1761
915 -153 1762
923 -154 1763
931 -154 1766
941 -155 1770
939 -154 1753
944 -154 1750
953 -154 1753
958 -154 1750
962 -154 1743
968 -154 1741
969 -153 1731
-1312 -178 2280
-1300 -177 2276
-1287 -177 2269
-1277 -176 2268
-1269 -176 2271
-1260 -176 2272
-1244 -175 2258
-1235 -175 2258
-1220 -174 2248
-1204 -172 2235
-1194 -172 2233
-1186 -172 2236
-1177 -172 2234
-1173 -172 2244
-1152 -170 2221
-1143 -170 2219
-1129 -169 2209
-1132 -170 2231
-1105 -167 2196
-1105 -169 2214
-1087 -167 2194
-1080 -167 2196
-1069 -166 2191
-1063 -167 2196
-1046 -165 2178
-1042 -165 2187
-1026 -164 2170
-1022 -165 2179
-1006 -163 2162
-1007 -164 2180
-1000 -164 2182
-980 -162 2157
-970 -162 2152
-983 -165 2199
-995 -168 2244
-998 -170 2269
-998 -171 2286
-994 -172 2295
-988 -172 2302
-987 -173 2319
-977 -173 2314
-976 -174 2331
-972 -175 2342
-969 -175 2354
-965 -176 2363
-965 -177 2385
-957 -177 2386
-952 -178 2394
-949 -179 2405
-946 -179 2419
-942 -180 2430
-935 -180 2434
-935 -182 2457
-928 -182 2458
-924 -183 2472
-915 -183 2470
-913 -183 2485
-912 -185 2506
-908 -186 2518
-897 -185 2510
-895 -186 2529
-896 -188 2554
-890 -188 2561
-880 -188 2557
-878 -190 2578
-878 -191 2601
-871 -191 2607
-864 -192 2610
-856 -192 2613
-853 -193 2627
-844 -193 2628
-839 -193 2639
-835 -194 2653
-823 -193 2642
-823 -195 2667
-813 -195 2664
-802 -194 2656
-803 -196 2686
-795 -196 2688
-789 -197 2698
-770 -194 2660
-756 -193 2643
-740 -191 2616
-741 -193 2648
-742 -195 2681
-733 -195 2677
-724 -195 2676
-703 -191 2629
-705 -194 2665
-699 -195 2673
-678 -191 2626
-678 -193 2658
-661 -191 2623
-663 -193 2662
-654 -193 2659
-646 -193 2661
-636 -193 2655
-628 -193 2653
-620 -192 2651
-609 -192 2640
-602 -192 2645
-593 -192 2640
-585 -192 2641
-576 -191 2636
-567 -191 2631
-558 -191 2628
-550 -190 2628
-542 -190 2626
-533 -190 2622
-524 -189 2614
-517 -190 2618
-507 -189 2609
-499 -189 2609
-491 -189 2606
-483 -189 2607
-475 -188 2603
-467 -188 2604
-458 -188 2595
-449 -187 2585
-441 -187 2585
-434 -188 2592
-426 -187 2587
-418 -187 2584
-410 -187 2583
-401 -186 2577
-393 -186 2569
-387 -187 2583
-378 -186 2574
-371 -186 2575
-362 -186 2567
-354 -185 2562
-346 -185 2561
-338 -185 2555
-331 -185 2557
-323 -185 2553
-314 -184 2544
-307 -184 2546
-299 -184 2543
-291 -184 2541
-283 -183 2529
-276 -184 2538
-269 -184 2537
-262 -184 2538
-253 -183 2531
-246 -183 2533
-238 -183 2527
-230 -182 2517
-222 -182 2513
-215 -182 2513
-208 -182 2520
-201 -182 2515
-193 -182 2507
-186 -182 2508
-178 -182 2507
-171 -182 2507
-163 -181 2502
-156 -181 2499
-149 -181 2496
-142 -181 2498
-134 -181 2491
-126 -180 2483
-119 -180 2484
-112 -180 2476
-104 -179 2473
-98 -180 2482
-90 -179 2469
-83 -179 2468
-76 -179 2471
-69 -179 2471
-62 -180 2471
-54 -179 2465
-47 -179 2464
-40 -179 2458
-33 -178 2451
-26 -178 2454
-19 -178 2452
-12 -178 2450
-5 -177 2439
1 -178 2446
8 -178 2438
16 -178 2442
23 -178 2443
30 -178 2439
37 -177 2434
43 -177 2427
50 -177 2426
57 -177 2426
64 -177 2429
71 -177 2425
78 -177 2422
85 -177 2418
92 -176 2411
99 -176 2407
105 -176 2401
112 -176 2400
120 -176 2409
126 -176 2400
133 -176 2402
140 -175 2395
147 -176 2395
154 -176 2397
160 -175 2389
167 -175 2385
174 -175 2384
180 -175 2384
187 -175 2382
194 -175 2378
201 -175 2377
208 -175 2377
214 -174 2368
221 -174 2369
227 -174 2365
235 -175 2373
240 -174 2359
247 -174 2362
255 -175 2365
261 -174 2356
267 -174 2353
273 -173 2345
281 -174 2351
287 -174 2344
294 -174 2349
300 -173 2339
307 -173 2339
314 -174 2340
321 -174 2342
327 -173 2336
334 -174 2336
340 -173 2329
347 -173 2331
353 -173 2326
360 -173 2326
366 -173 2324
372 -173 2315
379 -173 2319
384 -172 2308
391 -172 2306
397 -172 2303
404 -172 2302
410 -172 2296
417 -172 2296
425 -173 2302
430 -172 2294
437 -172 2293
444 -172 2296
449 -172 2285
455 -172 2283
463 -172 2286
468 -172 2278
476 -172 2283
483 -172 2283
490 -173 2286
496 -172 2281
501 -172 2271
508 -172 2270
513 -171 2263
522 -172 2271
527 -172 2265
533 -172 2262
539 -171 2257
545 -171 2254
553 -171 2255
559 -172 2254
565 -171 2248
569 -171 2239
578 -171 2246
583 -171 2236
590 -171 2238
596 -171 2232
603 -171 2233
608 -171 2226
614 -171 2224
622 -171 2228
628 -171 2223
633 -171 2218
641 -171 2219
648 -171 2219
653 -171 2213
658 -170 2206
664 -170 2203
671 -170 2203
678 -170 2201
686 -171 2205
691 -171 2198
701 -172 2209
696 -169 2169
686 -165 2118
680 -162 2077
682 -161 2064
702 -164 2104
715 -166 2122
732 -168 2151
747 -170 2174
756 -171 2178
765 -171 2184
770 -171 2179
779 -172 2181
789 -173 2190
795 -172 2187
805 -173 2194
806 -172 2176
811 -172 2171
814 -171 2159
819 -171 2153
825 -171 2148
831 -171 2146
839 -171 2146
844 -171 2141
851 -171 2139
857 -171 2137
863 -171 2133
870 -171 2131
878 -171 2134
885 -171 2133
892 -171 2131
898 -171 2127
904 -171 2123
909 -171 2117
913 -171 2110
922 -171 2112
927 -171 2106
934 -171 2106
941 -171 2104
947 -171 2101
956 -172 2102
947 -169 2067
966 -171 2092
982 -173 2110
1023 -179 2180
1026 -179 2170
999 -173 2094
1002 -172 2086
1006 -172 2076
987 -167 2023
913 -154 1854
890 -149 1793
885 -147 1770
900 -149 1786
903 -148 1778
903 -147 1765
913 -148 1771
917 -148 1765
920 -147 1757
934 -149 1770
930 -147 1751
945 -149 1765
947 -148 1756
955 -149 1757
958 -148 1749
962 -148 1745
968 -148 1742
976 -149 1743
-1317 -171 2288
-1305 -171 2285
-1283 -169 2263
-1266 -167 2249
-1276 -170 2284
-1249 -167 2252
-1248 -168 2267
-1219 -165 2231
-1212 -165 2233
-1212 -166 2250
-1183 -163 2213
-1183 -164 2229
-1174 -164 2230
-1155 -162 2210
-1148 -162 2213
-1147 -163 2229
-1127 -162 2207
-1110 -160 2189
-1105 -161 2197
-1094 -160 2192
-1087 -160 2194
-1073 -159 2183
-1066 -159 2186
-1060 -159 2191
-1037 -157 2159
-1034 -157 2170
-1031 -158 2181
-1020 -157 2174
-1009 -157 2168
-1001 -157 2169
-981 -155 2143
-976 -155 2148
-972 -155 2157
-985 -159 2203
-998 -162 2250
-997 -163 2266
-998 -164 2287
-994 -165 2296
-987 -165 2299
-983 -165 2309
-982 -166 2326
-975 -167 2328
-972 -167 2342
-966 -168 2347
-966 -169 2367
-965 -170 2385
-957 -170 2387
-954 -171 2399
-947 -171 2403
-943 -172 2414
-940 -172 2425
-940 -174 2447
-935 -174 2457
-932 -175 2470
-923 -175 2470
-918 -175 2477
-916 -177 2496
-911 -177 2505
-910 -179 2525
-901 -178 2524
-897 -179 2534
-891 -179 2541
-888 -180 2556
-880 -180 2557
-877 -182 2575
-873 -182 2586
-867 -183 2596
-863 -184 2608
-857 -184 2615
-849 -184 2618
-842 -184 2622
-839 -185 2637
-831 -185 2640
-824 -186 2643
-818 -186 2654
-812 -187 2661
-805 -187 2665
-806 -189 2696
-794 -188 2685
-789 -189 2699
-775 -187 2677
-752 -184 2627
-739 -183 2611
-739 -185 2641
-737 -186 2663
-729 -186 2663
-724 -187 2676
-716 -187 2676
-706 -187 2672
-700 -187 2680
-692 -187 2680
-680 -186 2668
-673 -186 2673
-664 -186 2666
-656 -186 2667
-645 -185 2655
-638 -185 2660
-628 -185 2653
-621 -185 2657
-611 -185 2652
-601 -184 2641
-593 -184 2643
-584 -183 2635
-573 -183 2624
-569 -184 2640
-559 -183 2631
-552 -183 2635
-542 -183 2628
-535 -183 2631
-527 -183 2629
-517 -182 2621
-508 -182 2615
-501 -182 2616
-493 -182 2618
-484 -181 2613
-475 -181 2602
-467 -181 2604
-460 -181 2609
-451 -181 2600
-443 -181 2600
-435 -180 2597
-426 -180 2590
-419 -180 2595
-411 -180 2589
-403 -180 2589
-396 -180 2590
-387 -179 2585
-379 -179 2579
-372 -179 2581
-364 -179 2579
-355 -178 2568
-346 -178 2563
-340 -178 2568
-332 -178 2570
-324 -178 2565
-317 -178 2564
-309 -178 2564
-301 -177 2557
-293 -177 2553
-286 -177 2555
-277 -177 2548
-270 -177 2549
-262 -176 2541
-255 -177 2545
-246 -176 2533
-240 -177 2543
-232 -176 2534
-224 -176 2533
-216 -175 2525
-209 -175 2523
-201 -175 2521
-194 -175 2519
-186 -175 2520
-179 -175 2513
-171 -174 2508
-164 -174 2507
-157 -174 2507
-149 -174 2501
-141 -173 2493
-134 -174 2494
-127 -174 2493
-119 -173 2487
-112 -173 2481
-105 -173 2484
-97 -172 2475
-90 -173 2481
-83 -173 2487
-76 -173 2481
-69 -172 2471
-62 -173 2476
-54 -172 2467
-47 -172 2469
-40 -172 2465
-33 -172 2458
-26 -172 2465
-19 -172 2459
-12 -171 2454
-5 -171 2449
2 -171 2450
9 -172 2458
16 -172 2453
23 -171 2444
30 -171 2437
37 -171 2437
44 -171 2440
50 -170 2425
57 -170 2420
65 -170 2431
72 -170 2430
78 -170 2418
85 -170 2419
92 -170 2418
99 -169 2412
106 -169 2407
112 -168 2393
119 -169 2405
126 -169 2405
133 -169 2398
140 -169 2406
147 -169 2405
154 -169 2400
161 -169 2396
167 -169 2395
175 -169 2398
180 -168 2381
188 -169 2389
194 -168 2385
201 -168 2383
208 -169 2385
215 -169 2386
222 -168 2380
228 -168 2374
234 -168 2367
241 -168 2371
248 -168 2366
255 -168 2369
261 -168 2361
267 -167 2355
274 -167 2356
281 -167 2357
288 -167 2355
294 -167 2348
301 -167 2346
307 -167 2345
315 -167 2347
321 -167 2344
327 -167 2337
333 -167 2334
341 -167 2336
347 -167 2332
354 -167 2332
361 -167 2331
367 -167 2328
373 -166 2323
379 -166 2320
385 -166 2310
391 -166 2310
397 -165 2304
403 -165 2299
411 -166 2304
418 -166 2305
425 -166 2303
431 -166 2298
436 -165 2291
443 -165 2293
450 -165 2291
457 -165 2289
463 -166 2289
469 -165 2282
476 -165 2286
484 -166 2287
489 -165 2281
496 -166 2281
502 -165 2275
509 -165 2275
514 -165 2270
520 -165 2265
528 -165 2268
535 -165 2267
541 -165 2264
547 -165 2259
552 -165 2253
559 -165 2255
566 -165 2253
572 -165 2248
575 -164 2233
581 -164 2232
588 -164 2230
594 -164 2228
603 -164 2235
609 -164 2230
616 -165 2232
622 -164 2228
629 -164 2226
633 -164 2218
643 -165 2227
648 -164 2220
654 -164 2216
660 -164 2213
666 -164 2211
673 -164 2210
680 -164 2208
685 -164 2203
692 -164 2200
699 -164 2202
691 -161 2154
646 -149 1992
571 -130 1744
554 -125 1672
612 -137 1831
665 -148 1972
692 -153 2033
698 -153 2029
699 -152 2014
690 -148 1969
689 -147 1948
722 -153 2023
752 -158 2086
735 -153 2021
751 -155 2046
799 -164 2157
812 -165 2174
813 -164 2157
820 -164 2156
823 -164 2144
833 -165 2152
841 -165 2151
844 -164 2142
852 -165 2143
858 -164 2139
866 -165 2140
870 -164 2133
876 -164 2130
882 -164 2125
890 -165 2127
898 -165 2127
903 -165 2123
914 -166 2130
917 -165 2119
923 -165 2116
929 -165 2112
936 -165 2109
941 -165 2104
948 -165 2102
958 -165 2107
964 -165 2104
968 -165 2096
982 -166 2110
1022 -172 2179
1024 -171 2165
1002 -166 2101
1004 -166 2089
1007 -165 2079
992 -162 2032
913 -148 1856
883 -142 1780
884 -141 1768
901 -143 1789
898 -142 1769
910 -143 1778
912 -142 1770
922 -143 1776
922 -142 1762
929 -142 1762
937 -143 1763
936 -142 1749
945 -142 1752
948 -142 1744
959 -143 1752
961 -142 1743
967 -142 1740
975 -143 1742
-1300 -161 2259
-1289 -161 2257
-1279 -161 2257
-1264 -160 2247
-1250 -159 2237
-1248 -160 2250
-1242 -160 2256
-1223 -159 2239
-1222 -159 2254
-1200 -157 2229
-1187 -157 2222
-1173 -156 2211
-1164 -156 2212
-1155 -155 2210
-1140 -154 2198
-1135 -155 2206
-1129 -155 2211
-1112 -154 2195
-1095 -152 2177
-1100 -154 2204
-1091 -154 2203
-1071 -152 2179
-1065 -152 2184
-1054 -151 2179
-1039 -150 2165
-1033 -150 2167
-1027 -151 2174
-1015 -150 2164
-1008 -150 2167
-996 -149 2158
-994 -150 2170
-977 -148 2151
-972 -149 2156
-984 -152 2201
-1002 -155 2259
-1000 -156 2273
-997 -157 2286
-989 -157 2286
-987 -158 2300
-984 -158 2312
-982 -159 2326
-971 -159 2321
-972 -160 2342
-967 -161 2350
-965 -161 2365
-962 -162 2377
-960 -163 2394
-952 -163 2394
-947 -164 2403
-946 -165 2420
-941 -165 2429
-937 -166 2441
-930 -166 2444
-927 -167 2458
-923 -168 2470
-918 -168 2478
-917 -169 2499
-911 -170 2504
-905 -170 2510
-904 -171 2531
-901 -172 2546
-890 -172 2540
-888 -173 2559
-882 -173 2563
-876 -173 2571
-875 -175 2594
-866 -175 2593
-863 -176 2609
-852 -175 2602
-854 -177 2631
-842 -176 2623
-835 -177 2628
-835 -178 2652
-825 -178 2650
-822 -179 2665
-815 -179 2672
-809 -180 2681
-802 -180 2685
-789 -179 2669
-790 -181 2703
-770 -178 2663
-752 -176 2627
-738 -175 2608
-735 -176 2626
-736 -178 2660
-729 -178 2666
-727 -180 2686
-718 -180 2686
-711 -180 2689
-698 -179 2673
-692 -179 2680
-682 -179 2676
-675 -179 2678
-666 -179 2676
-656 -178 2670
-649 -178 2673
-637 -177 2659
-628 -177 2654
-622 -178 2662
-613 -177 2659
-603 -177 2653
-594 -177 2649
-586 -176 2647
-577 -176 2641
-569 -176 2643
-560 -176 2639
-554 -176 2645
-542 -175 2628
-534 -175 2625
-528 -175 2636
-517 -174 2620
-510 -175 2623
-501 -174 2620
-493 -174 2617
-485 -174 2619
-477 -174 2614
-470 -174 2618
-461 -174 2616
-453 -174 2609
-443 -173 2598
-437 -173 2607
-428 -173 2601
-420 -173 2599
-413 -173 2604
-403 -172 2588
-396 -173 2596
-388 -172 2589
-380 -172 2587
-372 -172 2586
-364 -172 2584
-355 -171 2575
-349 -172 2581
-340 -171 2571
-331 -171 2564
-326 -172 2583
-317 -171 2567
-310 -171 2573
-301 -170 2556
-294 -171 2567
-287 -171 2564
-278 -170 2551
-270 -169 2548
-263 -170 2554
-255 -170 2552
-248 -170 2549
-240 -170 2549
-231 -168 2531
-225 -169 2539
-217 -169 2535
-209 -168 2526
-202 -169 2534
-193 -168 2516
-186 -168 2519
-179 -168 2521
-172 -168 2522
-164 -167 2512
-156 -167 2506
-150 -168 2513
-142 -167 2502
-134 -167 2501
-127 -166 2494
-119 -166 2483
-112 -166 2481
-104 -165 2474
-97 -166 2479
-90 -165 2474
-84 -166 2493
-76 -166 2486
-69 -165 2472
-62 -166 2479
-55 -166 2478
-47 -165 2470
-40 -165 2474
-33 -165 2466
-26 -165 2472
-19 -165 2471
-12 -165 2458
-5 -165 2456
2 -165 2459
9 -165 2459
16 -165 2455
23 -164 2447
30 -164 2442
37 -164 2438
44 -164 2440
51 -163 2433
58 -163 2433
65 -164 2438
72 -163 2429
78 -163 2422
85 -163 2425
92 -162 2412
99 -162 2403
106 -162 2409
112 -161 2396
119 -162 2400
126 -162 2398
133 -162 2396
140 -162 2404
147 -162 2398
154 -162 2401
160 -162 2392
167 -162 2391
175 -162 2400
182 -162 2400
188 -162 2397
195 -162 2388
202 -162 2389
209 -162 2389
215 -161 2378
222 -162 2386
229 -162 2380
235 -161 2376
242 -161 2373
248 -161 2367
255 -161 2369
262 -161 2368
268 -161 2362
274 -160 2355
280 -160 2343
288 -160 2352
295 -160 2352
301 -160 2350
309 -161 2354
315 -161 2352
321 -160 2342
328 -160 2343
334 -160 2340
341 -160 2340
348 -160 2336
355 -160 2339
361 -160 2333
367 -160 2328
373 -159 2320
380 -160 2323
384 -159 2309
389 -158 2297
396 -158 2298
404 -159 2301
410 -158 2298
418 -159 2306
425 -159 2303
431 -159 2302
438 -159 2299
445 -159 2301
452 -159 2300
459 -159 2300
464 -159 2295
471 -159 2292
477 -159 2288
485 -159 2293
490 -159 2287
496 -159 2280
502 -159 2277
509 -159 2277
516 -159 2275
522 -159 2272
529 -159 2272
537 -159 2277
540 -158 2260
548 -159 2265
555 -159 2263
561 -159 2260
565 -158 2251
571 -158 2245
574 -157 2231
582 -157 2235
587 -157 2226
595 -157 2229
602 -157 2230
608 -158 2229
616 -158 2233
622 -158 2226
629 -158 2226
636 -158 2226
643 -158 2226
650 -158 2226
656 -158 2222
662 -158 2219
670 -158 2222
673 -158 2209
680 -158 2209
686 -158 2207
692 -158 2203
704 -159 2218
703 -157 2192
637 -141 1967
561 -123 1711
517 -112 1561
553 -119 1653
580 -124 1719
658 -139 1934
710 -149 2067
698 -145 2010
617 -127 1761
588 -120 1660
597 -121 1672
659 -133 1828
618 -123 1698
622 -123 1693
755 -149 2039
811 -159 2170
818 -159 2171
826 -159 2173
826 -158 2153
835 -158 2156
841 -158 2153
843 -157 2140
852 -158 2143
860 -158 2145
867 -158 2144
873 -158 2139
881 -159 2140
886 -158 2136
889 -158 2125
899 -159 2131
906 -159 2129
913 -159 2127
922 -159 2131
927 -159 2126
931 -159 2117
940 -159 2120
945 -159 2114
949 -158 2105
956 -159 2105
961 -158 2097
967 -158 2094
988 -161 2123
1026 -166 2187
1025 -165 2169
1003 -160 2103
1003 -159 2088
1008 -159 2082
985 -154 2018
910 -141 1848
891 -137 1796
891 -137 1783
898 -137 1782
906 -137 1784
908 -137 1775
908 -136 1762
918 -137 1769
926 -137 1769
925 -136 1755
931 -136 1752
943 -137 1762
945 -137 1753
952 -137 1752
962 -138 1758
959 -136 1739
969 -137 1745
973 -137 1738
-1298 -154 2257
-1290 -154 2259
-1274 -153 2248
-1265 -153 2248
-1248 -152 2235
-1259 -154 2271
-1227 -151 2230
-1221 -151 2236
-1209 -150 2230
-1213 -152 2253
-1167 -147 2184
-1175 -149 2216
-1161 -148 2206
-1158 -149 2218
-1145 -148 2209
-1146 -149 2227
-1122 -147 2197
-1116 -147 2203
-1102 -146 2193
-1091 -146 2187
-1086 -146 2194
-1072 -145 2181
-1070 -146 2196
-1056 -145 2183
-1046 -144 2180
-1042 -145 2187
-1036 -145 2192
-1020 -144 2175
-1017 -144 2187
-1002 -143 2171
-1002 -144 2189
-978 -142 2154
-968 -141 2149
-988 -145 2211
-1000 -148 2257
-1000 -149 2275
-995 -150 2281
-989 -150 2287
-985 -150 2296
-983 -151 2310
-978 -152 2317
-975 -152 2330
-972 -153 2343
-970 -154 2357
-967 -155 2370
-961 -155 2376
-956 -155 2384
-953 -156 2397
-948 -156 2406
-944 -157 2415
-943 -158 2435
-932 -158 2428
-935 -159 2458
-927 -159 2459
-923 -160 2469
-921 -161 2488
-917 -162 2500
-908 -161 2496
-906 -163 2514
-897 -162 2512
-893 -163 2524
-894 -165 2552
-885 -164 2550
-879 -165 2557
-877 -166 2576
-870 -166 2579
-868 -167 2598
-861 -168 2603
-857 -168 2617
-851 -169 2625
-844 -169 2628
-838 -169 2637
-832 -170 2645
-827 -170 2655
-824 -172 2673
-816 -172 2676
-809 -172 2681
-801 -172 2682
-797 -173 2698
-794 -174 2716
-771 -171 2667
-753 -168 2632
-737 -167 2604
-733 -167 2618
-736 -170 2662
-733 -171 2680
-730 -172 2698
-719 -172 2690
-709 -172 2685
-701 -171 2685
-692 -171 2681
-685 -171 2686
-673 -170 2672
-668 -171 2684
-657 -171 2675
-647 -170 2666
-638 -170 2664
-631 -170 2669
-622 -170 2664
-614 -170 2663
-604 -169 2658
-596 -169 2654
-588 -169 2658
-578 -168 2646
-569 -168 2643
-562 -169 2650
-552 -168 2638
-543 -168 2635
-537 -168 2640
-527 -167 2630
-520 -168 2635
-513 -168 2643
-502 -167 2625
-494 -167 2622
-487 -167 2629
-478 -167 2622
-468 -166 2612
-462 -167 2620
-451 -165 2602
-445 -166 2613
-437 -166 2610
-429 -166 2606
-420 -165 2602
-413 -166 2607
-403 -165 2592
-397 -165 2600
-388 -165 2592
-381 -165 2598
-372 -164 2586
-366 -165 2597
-356 -164 2580
-350 -165 2588
-341 -164 2584
-333 -164 2576
-327 -165 2588
-317 -164 2573
-310 -164 2575
-302 -163 2568
-294 -163 2565
-286 -163 2559
-279 -163 2561
-271 -163 2558
-263 -163 2554
-256 -163 2559
-248 -162 2552
-240 -162 2544
-232 -162 2545
-224 -161 2534
-217 -161 2532
-209 -161 2530
-202 -162 2537
-194 -161 2527
-187 -161 2525
-179 -161 2525
-172 -161 2530
-165 -161 2528
-157 -160 2512
-150 -161 2522
-142 -160 2512
-135 -160 2507
-127 -160 2503
-119 -159 2491
-111 -158 2469
-104 -157 2466
-97 -158 2472
-90 -158 2477
-83 -158 2476
-76 -159 2481
-69 -159 2482
-62 -158 2478
-55 -159 2482
-47 -158 2476
-40 -158 2475
-33 -159 2479
-26 -158 2463
-19 -158 2469
-12 -158 2463
-4 -158 2462
2 -158 2464
9 -158 2457
16 -158 2458
23 -158 2457
30 -157 2449
37 -157 2450
44 -157 2442
51 -157 2439
58 -157 2436
65 -157 2439
72 -156 2428
79 -156 2427
86 -156 2431
92 -156 2424
99 -155 2409
105 -155 2399
112 -154 2394
119 -155 2398
126 -155 2399
133 -155 2400
140 -155 2406
148 -156 2409
154 -155 2402
161 -155 2397
168 -155 2401
174 -155 2390
181 -154 2386
188 -155 2395
195 -155 2394
202 -155 2391
208 -155 2383
216 -155 2389
223 -155 2390
229 -155 2382
235 -155 2378
243 -155 2381
249 -154 2373
256 -155 2377
262 -154 2367
269 -154 2370
276 -155 2370
282 -154 2366
289 -154 2365
295 -154 2352
303 -154 2362
307 -153 2344
315 -154 2350
320 -153 2337
328 -153 2342
334 -153 2338
342 -154 2349
347 -153 2336
355 -154 2340
361 -153 2336
368 -153 2333
375 -154 2335
381 -153 2329
386 -153 2319
391 -152 2309
396 -151 2297
403 -152 2300
411 -152 2306
418 -152 2301
424 -152 2300
432 -152 2303
439 -153 2306
445 -153 2302
452 -153 2301
459 -153 2300
465 -152 2295
471 -152 2292
478 -153 2294
484 -152 2290
490 -152 2286
497 -152 2285
505 -153 2290
510 -152 2281
517 -153 2283
524 -153 2282
530 -153 2278
537 -153 2276
542 -152 2270
549 -152 2268
555 -152 2263
562 -152 2264
567 -152 2255
572 -152 2251
578 -151 2246
582 -151 2233
588 -151 2232
596 -151 2234
604 -151 2239
609 -151 2233
617 -151 2236
623 -151 2233
630 -152 2232
636 -151 2228
643 -151 2227
650 -152 2226
656 -152 2224
663 -152 2225
670 -152 2222
676 -152 2221
682 -152 2216
688 -151 2212
696 -152 2214
706 -153 2225
719 -154 2242
626 -133 1931
555 -116 1695
508 -105 1534
553 -114 1655
585 -119 1733
663 -135 1948
725 -146 2111
727 -145 2095
699 -138 1997
612 -120 1728
595 -115 1664
580 -111 1606
570 -109 1564
592 -112 1611
653 -123 1761
768 -144 2055
808 -150 2142
829 -153 2179
830 -152 2162
836 -152 2160
841 -152 2152
849 -152 2155
855 -152 2150
863 -152 2152
867 -152 2144
874 -152 2142
883 -152 2147
887 -152 2138
896 -152 2140
901 -152 2136
907 -152 2132
913 -152 2127
920 -152 2126
926 -152 2122
932 -152 2119
939 -152 2118
947 -153 2118
951 -152 2110
959 -152 2111
963 -152 2103
972 -152 2104
989 -154 2124
1023 -159 2181
1030 -159 2180
1003 -153 2104
1005 -153 2092
1015 -153 2097
991 -149 2031
909 -135 1848
890 -132 1794
887 -130 1775
899 -131 1784
895 -130 1763
905 -131 1770
912 -131 1770
916 -131 1764
919 -131 1757
931 -131 1765
936 -131 1763
941 -131 1758
942 -131 1747
949 -131 1748
959 -132 1753
958 -131 1737
968 -131 1742
969 -131 1732
-1304 -147 2269
-1284 -146 2250
-1284 -147 2266
-1273 -146 2263
-1268 -147 2271
-1239 -144 2235
-1239 -145 2252
-1230 -145 2253
-1229 -146 2267
-1217 -145 2261
-1189 -143 2227
-1183 -143 2232
-1177 -143 2237
-1157 -142 2216
-1158 -143 2235
-1145 -142 2226
-1137 -142 2227
-1127 -141 2224
-1110 -140 2208
-1105 -141 2215
-1095 -140 2211
-1096 -141 2230
-1085 -141 2227
-1070 -140 2212
-1053 -139 2195
-1050 -139 2204
-1038 -138 2197
-1029 -138 2196
-1016 -137 2186
-1010 -138 2190
-992 -136 2168
-981 -135 2161
-975 -136 2164
-983 -138 2201
-998 -141 2252
-1000 -142 2276
-994 -142 2280
-993 -143 2296
-988 -144 2303
-985 -144 2315
-977 -144 2317
-977 -145 2335
-970 -145 2339
-966 -146 2350
-965 -147 2367
-962 -148 2379
-958 -148 2390
-954 -149 2400
-950 -149 2410
-944 -150 2416
-940 -150 2429
-935 -151 2436
-933 -152 2453
-929 -152 2464
-925 -153 2476
-921 -153 2487
-915 -154 2494
-911 -154 2506
-905 -155 2511
-900 -155 2522
-896 -156 2533
-891 -156 2543
-885 -157 2551
-881 -158 2564
-874 -158 2568
-873 -159 2588
-866 -159 2594
-858 -159 2595
-854 -160 2609
-849 -160 2618
-846 -161 2634
-841 -162 2646
-830 -162 2639
-828 -163 2660
-821 -163 2663
-813 -163 2665
-811 -164 2689
-803 -164 2688
-795 -164 2691
-790 -165 2703
-773 -163 2674
-754 -161 2637
-737 -159 2604
-729 -159 2606
-734 -162 2655
-735 -164 2686
-729 -164 2698
-720 -164 2694
-709 -164 2685
-703 -164 2693
-693 -164 2686
-685 -164 2687
-674 -163 2677
-666 -163 2677
-659 -163 2684
-646 -162 2664
-640 -162 2670
-632 -162 2673
-623 -162 2668
-613 -162 2661
-605 -162 2663
-596 -161 2657
-589 -162 2660
-580 -161 2659
-572 -161 2657
-563 -161 2654
-555 -161 2652
-545 -161 2645
-536 -160 2640
-529 -160 2641
-519 -160 2633
-513 -160 2639
-504 -160 2637
-495 -160 2630
-487 -159 2629
-478 -159 2621
-469 -159 2617
-462 -159 2619
-455 -159 2622
-445 -159 2614
-438 -159 2614
-429 -158 2610
-422 -158 2610
-412 -158 2601
-405 -158 2600
-397 -158 2604
-390 -158 2605
-382 -158 2604
-373 -157 2595
-366 -158 2598
-357 -157 2586
-349 -157 2582
-342 -157 2588
-334 -157 2588
-325 -156 2577
-318 -157 2580
-310 -156 2575
-303 -156 2576
-295 -156 2575
-287 -156 2569
-280 -156 2571
-272 -156 2567
-263 -155 2560
-256 -155 2560
-249 -156 2562
-241 -155 2558
-234 -156 2564
-225 -154 2541
-218 -155 2551
-210 -155 2544
-203 -155 2543
-195 -154 2538
-187 -154 2534
-180 -154 2533
-172 -154 2526
-164 -153 2518
-157 -153 2522
-150 -153 2521
-142 -153 2508
-135 -153 2508
-127 -152 2495
-119 -151 2486
-112 -151 2483
-104 -151 2479
-97 -151 2481
-90 -151 2479
-83 -152 2484
-76 -151 2480
-69 -152 2486
-62 -152 2493
-54 -151 2480
-47 -151 2479
-40 -151 2476
-33 -152 2483
-26 -151 2471
-19 -151 2477
-12 -151 2462
-4 -151 2470
2 -151 2467
9 -151 2467
16 -151 2458
23 -150 2455
30 -150 2448
37 -150 2452
44 -150 2448
51 -150 2444
58 -150 2441
65 -150 2442
72 -150 2439
79 -150 2437
86 -149 2431
93 -149 2427
99 -148 2410
105 -148 2401
113 -148 2404
119 -147 2394
127 -148 2406
134 -149 2410
141 -149 2409
148 -149 2412
155 -149 2411
162 -149 2410
168 -149 2409
175 -149 2404
182 -148 2397
189 -149 2406
195 -148 2396
202 -148 2393
209 -148 2395
216 -148 2392
223 -149 2397
229 -148 2389
235 -148 2377
243 -148 2382
249 -148 2373
257 -148 2382
264 -148 2384
270 -148 2375
276 -147 2367
283 -148 2369
289 -147 2365
296 -147 2361
303 -148 2363
309 -147 2360
317 -148 2367
323 -147 2355
330 -148 2358
336 -147 2350
342 -147 2348
349 -147 2347
356 -147 2346
362 -147 2344
369 -147 2340
375 -147 2335
381 -147 2332
387 -146 2321
391 -145 2309
397 -145 2300
403 -145 2297
411 -145 2302
418 -145 2304
426 -146 2310
432 -146 2307
441 -147 2315
447 -146 2311
453 -146 2307
459 -146 2302
466 -146 2303
473 -146 2302
479 -146 2298
486 -146 2297
492 -146 2296
499 -146 2295
505 -146 2288
512 -146 2290
518 -146 2285
525 -146 2288
531 -146 2284
536 -146 2275
546 -146 2284
550 -146 2273
556 -146 2271
563 -146 2269
569 -146 2264
573 -145 2253
577 -144 2241
580 -144 2228
588 -144 2232
596 -144 2233
604 -145 2240
610 -145 2235
618 -145 2240
628 -146 2249
632 -145 2238
639 -145 2237
645 -145 2235
651 -145 2232
659 -146 2235
662 -145 2221
671 -145 2227
678 -145 2226
684 -145 2223
690 -145 2218
698 -146 2223
710 -147 2238
714 -146 2226
641 -130 1977
536 -107 1634
528 -105 1593
578 -114 1729
631 -123 1872
685 -133 2011
750 -145 2183
765 -146 2207
799 -152 2283
748 -141 2116
684 -127 1916
653 -120 1811
609 -111 1674
596 -108 1621
633 -114 1707
631 -113 1686
737 -131 1953
810 -143 2129
835 -146 2176
838 -146 2165
842 -145 2157
852 -146 2163
854 -145 2148
866 -146 2160
870 -146 2151
876 -146 2147
883 -146 2145
889 -146 2142
895 -146 2139
901 -146 2134
910 -146 2138
917 -146 2137
921 -146 2129
927 -146 2126
933 -146 2122
944 -146 2128
948 -146 2122
952 -146 2113
962 -146 2118
966 -146 2110
972 -146 2105
993 -148 2133
1023 -152 2181
1029 -152 2177
1005 -147 2109
1011 -147 2104
1011 -146 2089
994 -143 2037
916 -131 1862
889 -126 1792
892 -126 1785
899 -126 1786
909 -126 1791
902 -125 1764
906 -124 1758
922 -126 1777
921 -125 1760
927 -125 1759
932 -125 1755
939 -125 1756
943 -125 1750
947 -125 1744
957 -126 1749
963 -126 1747
970 -126 1746
975 -126 1742
-1317 -141 2292
-1288 -139 2257
-1286 -140 2271
-1267 -138 2252
-1257 -138 2252
-1257 -139 2269
-1250 -139 2272
-1236 -138 2263
-1225 -138 2261
-1211 -137 2250
-1204 -137 2255
-1189 -136 2243
-1187 -137 2257
-1166 -136 2234
-1160 -136 2239
-1149 -135 2234
-1133 -134 2221
-1128 -135 2227
-1116 -134 2221
-1111 -134 2227
-1098 -134 2219
-1086 -133 2211
-1081 -133 2219
-1063 -132 2199
-1058 -132 2205
-1050 -132 2205
-1034 -131 2188
-1029 -131 2196
-1026 -132 2208
-1009 -131 2187
-994 -130 2171
-977 -128 2152
-974 -129 2164
-985 -131 2205
-996 -134 2248
-996 -135 2267
-992 -135 2275
-989 -136 2287
-987 -136 2302
-980 -137 2305
-979 -137 2322
-971 -137 2322
-970 -138 2338
-968 -139 2354
-964 -140 2364
-964 -141 2384
-959 -141 2394
-955 -142 2404
-947 -142 2405
-945 -142 2420
-937 -142 2420
-935 -143 2436
-930 -144 2446
-929 -145 2465
-926 -145 2478
-920 -146 2485
-912 -146 2487
-914 -147 2514
-907 -148 2519
-898 -147 2518
-893 -148 2526
-891 -149 2545
-885 -149 2552
-884 -150 2572
-876 -150 2573
-873 -151 2590
-868 -152 2600
-861 -152 2605
-856 -153 2615
-848 -152 2615
-843 -153 2627
-836 -153 2631
-832 -154 2646
-828 -155 2659
-820 -155 2660
-811 -155 2659
-811 -156 2687
-803 -156 2688
-794 -156 2686
-789 -157 2699
-775 -156 2682
-753 -153 2634
-736 -151 2602
-731 -152 2615
-738 -155 2667
-738 -156 2697
-731 -157 2704
-722 -157 2703
-714 -157 2705
-703 -156 2694
-693 -156 2686
-686 -156 2691
-678 -156 2691
-667 -155 2684
-659 -155 2684
-650 -155 2681
-640 -155 2673
-633 -155 2676
-625 -155 2678
-615 -154 2672
-605 -154 2662
-595 -153 2653
-588 -154 2660
-579 -153 2653
-572 -154 2660
-564 -154 2660
-556 -153 2656
-547 -153 2655
-539 -153 2651
-531 -153 2652
-521 -153 2643
-513 -153 2645
-504 -152 2634
-496 -152 2634
-488 -152 2635
-479 -152 2629
-471 -152 2625
-462 -151 2622
-455 -152 2626
-446 -151 2619
-438 -151 2617
-431 -151 2619
-422 -151 2615
-415 -151 2620
-406 -151 2609
-399 -151 2616
-389 -150 2601
-382 -150 2606
-374 -150 2601
-367 -150 2604
-358 -150 2599
-351 -150 2600
-344 -150 2602
-335 -150 2594
-328 -150 2595
-319 -149 2587
-311 -149 2583
-304 -149 2584
-295 -149 2578
-288 -149 2576
-280 -149 2574
-272 -148 2568
-265 -149 2571
-256 -148 2560
-249 -148 2562
-242 -148 2565
-233 -148 2556
-226 -148 2556
-218 -147 2546
-210 -147 2546
-203 -147 2547
-196 -148 2548
-188 -147 2540
-180 -147 2537
-172 -146 2525
-165 -146 2525
-158 -147 2530
-149 -146 2515
-142 -146 2518
-135 -146 2515
-127 -145 2503
-119 -144 2490
-111 -143 2465
-104 -144 2479
-97 -144 2481
-90 -144 2486
-83 -144 2476
-76 -145 2489
-69 -145 2488
-62 -145 2485
-55 -145 2487
-48 -145 2492
-40 -145 2483
-33 -145 2484
-26 -144 2477
-19 -144 2479
-12 -144 2473
-4 -144 2469
2 -144 2471
9 -144 2466
16 -144 2464
23 -144 2465
30 -144 2458
37 -144 2461
44 -144 2456
51 -143 2451
58 -143 2444
65 -143 2452
72 -143 2440
79 -143 2442
86 -143 2433
93 -142 2430
99 -141 2408
106 -141 2405
112 -140 2390
120 -141 2407
127 -141 2407
134 -141 2408
141 -142 2408
147 -141 2405
155 -142 2409
162 -142 2409
169 -142 2409
176 -142 2412
182 -141 2399
189 -142 2401
196 -142 2399
202 -141 2395
209 -141 2394
216 -142 2395
223 -141 2391
230 -142 2393
236 -141 2383
243 -141 2384
250 -141 2384
256 -141 2381
263 -141 2373
270 -141 2377
276 -141 2367
283 -141 2372
291 -141 2380
295 -140 2357
302 -140 2357
310 -141 2361
316 -140 2355
323 -141 2359
331 -141 2362
336 -140 2353
343 -140 2352
350 -140 2350
356 -140 2348
363 -140 2344
369 -140 2338
375 -140 2337
383 -140 2342
386 -139 2321
391 -138 2305
396 -138 2297
405 -139 2307
413 -139 2313
419 -139 2309
427 -139 2314
433 -139 2313
440 -139 2311
447 -139 2309
454 -140 2310
460 -140 2308
466 -140 2305
473 -139 2301
479 -139 2297
486 -140 2300
493 -140 2298
499 -139 2295
505 -139 2291
511 -139 2287
518 -139 2287
525 -139 2285
532 -139 2286
536 -139 2273
545 -140 2283
549 -139 2271
556 -139 2269
564 -139 2272
568 -139 2262
573 -138 2255
576 -138 2239
579 -137 2222
587 -137 2226
594 -137 2229
604 -138 2238
612 -139 2244
620 -139 2246
626 -139 2243
633 -139 2242
639 -139 2238
646 -139 2237
654 -139 2242
658 -139 2231
666 -139 2235
671 -139 2225
679 -139 2231
683 -139 2221
693 -139 2229
705 -140 2244
714 -141 2251
727 -142 2267
639 -124 1972
624 -120 1907
563 -107 1703
643 -121 1924
715 -134 2123
749 -139 2203
739 -136 2153
739 -135 2130
789 -143 2254
760 -136 2151
764 -136 2143
715 -126 1985
648 -113 1782
638 -110 1738
695 -120 1877
652 -111 1743
623 -105 1651
735 -124 1932
819 -137 2134
840 -139 2170
846 -139 2167
855 -140 2171
859 -139 2162
865 -139 2158
872 -139 2157
880 -140 2157
884 -139 2149
890 -139 2146
899 -140 2148
904 -140 2143
912 -140 2143
916 -139 2135
924 -140 2136
929 -139 2129
939 -140 2135
944 -140 2129
948 -140 2121
955 -140 2119
962 -140 2118
967 -140 2112
977 -140 2118
998 -142 2144
1031 -146 2199
1026 -144 2171
1009 -141 2117
1007 -140 2097
1015 -140 2097
997 -137 2045
912 -124 1854
886 -120 1786
886 -119 1774
892 -119 1772
902 -120 1777
908 -120 1776
913 -120 1771
912 -119 1756
924 -120 1767
926 -120 1758
935 -120 1762
941 -120 1758
949 -120 1761
946 -119 1742
957 -120 1749
970 -121 1759
962 -119 1733
970 -120 1735
-1323 -135 2303
-1304 -133 2286
-1296 -133 2289
-1277 -132 2271
-1269 -132 2274
-1265 -133 2283
-1250 -132 2273
-1238 -131 2267
-1226 -131 2264
-1215 -130 2259
-1204 -130 2256
-1188 -129 2242
-1183 -129 2249
-1175 -129 2252
-1160 -129 2239
-1145 -128 2227
-1137 -128 2229
-1128 -128 2228
-1115 -127 2220
-1102 -126 2210
-1098 -127 2219
-1086 -126 2212
-1081 -126 2220
-1070 -126 2214
-1058 -125 2206
-1043 -124 2191
-1039 -125 2201
-1027 -124 2192
-1013 -123 2180
-1004 -123 2178
-999 -123 2183
-983 -122 2166
-974 -122 2164
-986 -124 2207
-1000 -127 2257
-995 -128 2265
-992 -128 2277
-992 -129 2295
-990 -130 2309
-979 -129 2304
-979 -130 2321
-972 -130 2325
-971 -131 2341
-969 -132 2357
-961 -132 2358
-957 -132 2368
-959 -134 2393
-951 -134 2393
-947 -134 2404
-943 -135 2415
-936 -135 2419
-939 -137 2449
-929 -136 2443
-927 -137 2461
-921 -137 2466
-918 -138 2481
-914 -139 2492
-914 -140 2516
-902 -139 2504
-897 -140 2514
-894 -140 2529
-890 -141 2541
-885 -141 2551
-877 -142 2553
-874 -142 2570
-868 -143 2576
-865 -143 2591
-860 -144 2603
-854 -144 2610
-849 -145 2620
-842 -145 2623
-835 -145 2630
-830 -146 2641
-827 -147 2658
-825 -148 2678
-815 -147 2672
-811 -148 2690
-803 -148 2689
-795 -148 2691
-788 -149 2696
-779 -149 2697
-763 -147 2670
-741 -144 2622
-737 -145 2636
-750 -149 2713
-742 -149 2714
-731 -149 2706
-723 -149 2707
-715 -149 2708
-705 -149 2703
-695 -148 2696
-686 -148 2691
-676 -147 2684
-670 -148 2693
-664 -148 2703
-651 -147 2683
-642 -147 2681
-634 -147 2680
-622 -146 2668
-618 -147 2682
-608 -147 2674
-598 -146 2667
-590 -146 2666
-583 -147 2671
-574 -146 2670
-565 -146 2665
-557 -146 2666
-547 -146 2654
-538 -145 2647
-531 -145 2652
-523 -145 2652
-514 -145 2648
-506 -145 2645
-496 -145 2638
-488 -144 2634
-479 -144 2630
-472 -144 2632
-464 -144 2634
-455 -144 2624
-448 -144 2629
-438 -143 2618
-430 -143 2617
-422 -143 2615
-414 -143 2612
-406 -143 2613
-399 -143 2616
-391 -143 2613
-383 -143 2612
-374 -143 2601
-366 -142 2597
-358 -142 2595
-349 -142 2588
-343 -142 2596
-336 -143 2599
-327 -142 2588
-319 -142 2590
-311 -142 2583
-304 -142 2589
-294 -141 2569
-286 -141 2566
-280 -141 2577
-271 -141 2567
-264 -141 2563
-256 -141 2564
-249 -141 2563
-240 -140 2545
-234 -141 2560
-225 -140 2544
-218 -140 2547
-210 -140 2541
-202 -140 2538
-195 -139 2537
-187 -139 2534
-180 -139 2532
-172 -139 2534
-164 -139 2522
-157 -138 2514
-150 -139 2518
-142 -139 2521
-134 -138 2507
-128 -139 2514
-119 -137 2488
-111 -136 2460
-104 -136 2470
-97 -137 2482
-91 -138 2494
-83 -138 2491
-76 -137 2489
-69 -138 2490
-62 -138 2489
-54 -137 2483
-47 -137 2483
-40 -137 2485
-33 -137 2476
-26 -137 2474
-19 -137 2473
-11 -137 2471
-4 -137 2476
2 -137 2467
9 -137 2464
16 -137 2466
23 -136 2457
30 -136 2459
37 -136 2449
44 -137 2463
51 -136 2452
58 -136 2446
65 -136 2443
72 -136 2445
79 -136 2438
86 -136 2436
93 -135 2428
99 -135 2418
105 -134 2396
112 -133 2391
119 -134 2401
126 -134 2403
134 -135 2415
141 -135 2409
147 -134 2403
154 -134 2401
160 -134 2392
168 -135 2404
175 -135 2402
182 -135 2401
189 -135 2399
196 -134 2397
202 -134 2391
209 -135 2396
215 -134 2383
222 -134 2386
229 -134 2384
237 -135 2391
242 -134 2377
249 -134 2378
256 -134 2376
263 -134 2374
270 -134 2378
276 -134 2373
283 -134 2370
290 -134 2368
296 -134 2360
302 -134 2359
309 -133 2354
315 -133 2351
322 -133 2351
329 -134 2353
335 -133 2346
342 -133 2347
349 -133 2347
355 -133 2343
362 -133 2342
369 -133 2338
375 -133 2335
381 -133 2331
386 -132 2320
391 -132 2305
397 -132 2303
403 -131 2294
412 -132 2310
419 -132 2312
426 -133 2313
434 -133 2314
441 -133 2315
447 -133 2310
452 -132 2304
459 -133 2304
466 -133 2303
473 -133 2302
479 -133 2298
484 -132 2291
494 -133 2305
498 -133 2292
506 -133 2292
510 -132 2279
517 -132 2282
526 -133 2290
532 -133 2284
537 -132 2279
543 -132 2272
550 -132 2275
557 -133 2275
562 -132 2265
570 -132 2268
575 -132 2263
576 -131 2238
581 -130 2229
589 -131 2234
595 -131 2231
605 -132 2242
611 -132 2240
619 -132 2241
627 -132 2246
634 -132 2245
640 -132 2242
646 -132 2238
652 -132 2235
657 -132 2229
662 -132 2220
672 -132 2229
676 -132 2220
685 -132 2225
692 -133 2227
705 -134 2243
718 -135 2264
728 -136 2272
691 -127 2134
631 -115 1929
577 -104 1743
628 -113 1881
632 -112 1876
603 -106 1770
593 -103 1723
592 -102 1705
670 -115 1914
705 -120 1993
735 -124 2060
678 -114 1881
623 -103 1713
671 -111 1828
714 -117 1928
713 -116 1907
705 -114 1870
662 -106 1739
774 -123 2017
834 -132 2156
842 -132 2157
853 -133 2166
858 -133 2160
864 -133 2156
872 -133 2156
876 -132 2148
885 -133 2151
890 -133 2146
897 -133 2145
904 -133 2143
910 -133 2140
917 -133 2137
923 -133 2134
929 -133 2131
938 -133 2134
947 -134 2137
947 -133 2120
958 -133 2126
967 -134 2129
967 -133 2112
979 -134 2122
999 -136 2148
1030 -139 2196
1035 -139 2190
1006 -134 2112
1009 -134 2101
1014 -133 2096
997 -130 2045
919 -119 1869
891 -115 1797
889 -114 1779
894 -114 1776
901 -114 1777
909 -114 1778
907 -113 1761
916 -114 1764
919 -114 1758
929 -114 1762
935 -114 1762
935 -114 1748
943 -114 1749
953 -115 1756
956 -114 1747
960 -114 1741
969 -115 1745
973 -114 1739
-1314 -126 2288
-1317 -127 2309
-1291 -125 2279
-1278 -125 2274
-1267 -125 2271
-1264 -125 2282
-1246 -124 2267
-1235 -124 2264
-1224 -123 2259
-1214 -123 2257
-1203 -123 2255
-1195 -123 2256
-1185 -123 2253
-1169 -122 2240
-1158 -121 2237
-1149 -121 2236
-1136 -121 2227
-1133 -121 2239
-1121 -120 2231
-1110 -120 2227
-1099 -120 2221
-1087 -119 2214
-1076 -119 2208
-1068 -119 2209
-1057 -118 2204
-1049 -118 2203
-1039 -118 2201
-1024 -117 2186
-1012 -117 2178
-1006 -117 2183
-995 -116 2174
-981 -115 2163
-972 -115 2160
-985 -118 2206
-1002 -121 2263
-997 -121 2269
-994 -121 2282
-987 -121 2285
-990 -123 2310
-986 -123 2320
-979 -123 2323
-977 -124 2338
-974 -124 2349
-968 -125 2355
-962 -125 2362
-963 -126 2382
-957 -126 2388
-956 -127 2406
-950 -127 2412
-943 -127 2415
-936 -128 2419
-934 -128 2434
-931 -129 2448
-928 -130 2463
-923 -130 2472
-917 -130 2478
-913 -131 2490
-908 -131 2500
-903 -132 2509
-902 -133 2529
-895 -133 2534
-886 -133 2532
-884 -134 2549
-876 -134 2550
-874 -135 2570
-868 -135 2577
-869 -136 2603
-859 -136 2598
-853 -136 2607
-850 -137 2622
-844 -137 2630
-836 -138 2633
-832 -138 2647
-829 -139 2663
-822 -139 2670
-817 -140 2679
-811 -140 2687
-802 -140 2689
-795 -140 2693
-788 -141 2698
-779 -141 2697
-769 -140 2692
-748 -138 2645
-739 -138 2643
-754 -142 2728
-742 -141 2717
-734 -141 2716
-726 -142 2719
-715 -141 2709
-705 -141 2704
-696 -140 2701
-687 -140 2698
-681 -141 2706
-666 -139 2681
-661 -140 2692
-651 -140 2686
-642 -139 2683
-633 -139 2677
-628 -140 2693
-619 -140 2687
-608 -139 2678
-600 -139 2676
-589 -138 2665
-582 -138 2667
-574 -138 2667
-563 -138 2655
-557 -138 2663
-546 -138 2650
-536 -137 2641
-529 -137 2646
-521 -137 2645
-513 -137 2643
-505 -137 2641
-496 -137 2639
-490 -137 2648
-478 -136 2626
-471 -137 2632
-463 -136 2629
-455 -136 2625
-445 -135 2612
-439 -136 2622
-430 -136 2616
-422 -136 2612
-414 -136 2613
-405 -135 2605
-398 -135 2611
-389 -135 2600
-383 -135 2608
-374 -135 2601
-365 -135 2592
-358 -135 2598
-350 -135 2593
-341 -134 2582
-334 -135 2591
-326 -134 2583
-318 -134 2583
-310 -134 2575
-302 -134 2573
-294 -133 2565
-287 -133 2568
-279 -134 2569
-271 -133 2564
-263 -133 2559
-255 -133 2552
-247 -133 2550
-240 -133 2551
-232 -132 2545
-224 -132 2538
-217 -132 2542
-210 -132 2540
-202 -132 2535
-194 -132 2532
-187 -132 2529
-179 -132 2530
-172 -132 2526
-164 -131 2519
-157 -131 2514
-149 -131 2514
-142 -132 2521
-135 -131 2515
-127 -131 2509
-119 -130 2496
-112 -130 2489
-104 -129 2478
-96 -129 2463
-90 -130 2488
-83 -130 2493
-76 -130 2482
-69 -130 2485
-62 -130 2483
-54 -130 2474
-47 -130 2480
-40 -130 2475
-33 -129 2469
-26 -130 2474
-18 -129 2468
-11 -130 2472
-4 -129 2458
2 -129 2459
9 -129 2457
16 -129 2462
23 -129 2457
30 -129 2457
37 -129 2447
44 -129 2451
51 -129 2450
58 -128 2436
65 -129 2444
72 -129 2437
79 -128 2435
86 -129 2437
93 -128 2430
100 -128 2428
106 -127 2403
112 -126 2391
120 -127 2403
127 -128 2419
135 -128 2424
141 -128 2408
147 -127 2400
155 -128 2410
162 -128 2408
168 -128 2405
175 -128 2402
181 -127 2393
188 -127 2395
195 -127 2392
202 -127 2387
209 -128 2395
216 -127 2388
222 -127 2387
229 -127 2387
236 -127 2384
243 -127 2381
248 -127 2370
256 -127 2374
264 -128 2384
270 -127 2380
277 -127 2379
283 -127 2367
289 -127 2362
295 -126 2353
302 -127 2357
309 -126 2354
316 -127 2361
323 -127 2358
329 -127 2353
337 -127 2358
342 -126 2346
349 -127 2348
356 -127 2348
362 -126 2340
368 -126 2334
375 -126 2333
382 -126 2334
389 -126 2334
393 -126 2321
398 -125 2307
404 -125 2305
412 -126 2311
420 -126 2313
426 -126 2308
433 -126 2310
440 -126 2312
446 -126 2305
453 -126 2306
459 -126 2301
467 -126 2309
472 -126 2298
479 -126 2299
487 -126 2303
493 -126 2299
500 -126 2299
503 -125 2283
509 -125 2275
518 -126 2287
525 -126 2288
530 -126 2280
537 -126 2276
542 -125 2271
550 -126 2274
556 -126 2270
564 -126 2274
568 -125 2263
577 -126 2269
578 -125 2246
586 -125 2251
587 -124 2228
597 -125 2240
603 -125 2237
613 -125 2246
621 -126 2249
625 -125 2240
634 -126 2245
640 -126 2242
646 -125 2238
653 -126 2238
656 -125 2224
665 -126 2231
670 -125 2224
677 -125 2222
684 -126 2224
695 -126 2236
706 -127 2249
727 -130 2292
732 -129 2284
629 -110 1941
617 -107 1884
581 -100 1756
555 -94 1661
542 -91 1605
525 -87 1541
503 -83 1460
494 -81 1422
511 -83 1455
534 -86 1508
576 -92 1612
598 -95 1659
640 -101 1760
648 -101 1764
671 -104 1811
668 -103 1786
727 -111 1927
708 -108 1861
759 -115 1978
827 -124 2138
841 -125 2155
851 -126 2160
858 -126 2160
864 -126 2157
872 -126 2157
880 -126 2158
885 -126 2152
892 -126 2150
897 -126 2146
905 -126 2145
911 -126 2141
917 -126 2138
922 -126 2133
932 -127 2138
935 -126 2127
946 -127 2135
952 -127 2130
958 -127 2126
962 -127 2119
966 -126 2111
977 -127 2117
1002 -129 2154
1032 -132 2202
1032 -132 2185
1005 -127 2110
1010 -127 2104
1016 -127 2099
1002 -125 2054
918 -113 1868
889 -109 1794
887 -108 1777
893 -108 1774
896 -108 1767
906 -108 1772
912 -108 1771
912 -108 1757
925 -109 1769
920 -107 1746
931 -108 1754
933 -108 1745
939 -108 1743
952 -109 1754
955 -108 1746
957 -108 1737
966 -109 1739
972 -109 1738
-1313 -119 2286
-1303 -118 2285
-1294 -118 2287
-1280 -118 2278
-1265 -117 2267
-1258 -117 2272
-1247 -117 2269
-1239 -117 2271
-1221 -116 2254
-1210 -116 2251
-1200 -115 2249
-1187 -115 2242
-1187 -116 2258
-1173 -115 2249
-1156 -114 2233
-1146 -114 2230
-1143 -114 2241
-1128 -113 2228
-1116 -113 2221
-1103 -112 2213
-1098 -113 2221
-1082 -112 2205
-1073 -112 2204
-1062 -111 2199
-1057 -111 2204
-1046 -111 2198
-1035 -111 2192
-1029 -111 2198
-1015 -110 2185
-1008 -110 2186
-996 -109 2177
-979 -108 2159
-970 -108 2155
-987 -111 2211
-1000 -113 2258
-999 -114 2273
-991 -114 2274
-991 -115 2293
-981 -114 2289
-981 -115 2308
-979 -116 2323
-975 -117 2334
-973 -117 2347
-969 -118 2358
-964 -118 2367
-958 -118 2370
-958 -119 2392
-955 -120 2405
-944 -119 2398
-946 -120 2424
-942 -121 2436
-931 -121 2429
-929 -121 2445
-927 -122 2461
-926 -123 2479
-913 -122 2469
-913 -123 2491
-909 -124 2501
-905 -124 2514
-898 -124 2517
-894 -125 2529
-888 -125 2536
-882 -126 2543
-877 -126 2555
-872 -127 2564
-871 -128 2585
-865 -128 2592
-857 -128 2593
-853 -129 2606
-849 -129 2621
-842 -129 2624
-839 -130 2642
-836 -131 2660
-828 -131 2662
-823 -132 2672
-814 -131 2672
-810 -132 2687
-802 -132 2688
-795 -132 2692
-790 -133 2706
-783 -133 2711
-774 -133 2709
-750 -130 2653
-740 -130 2647
-757 -134 2737
-750 -135 2745
-733 -133 2714
-725 -133 2714
-715 -133 2709
-708 -133 2714
-697 -133 2706
-688 -132 2701
-679 -132 2698
-671 -132 2699
-661 -132 2692
-654 -132 2697
-643 -132 2688
-637 -132 2694
-627 -132 2689
-612 -130 2660
-598 -129 2631
-585 -128 2612
-586 -130 2651
-582 -131 2671
-573 -130 2664
-565 -130 2665
-556 -130 2660
-548 -130 2660
-539 -130 2655
-531 -130 2656
-522 -130 2651
-514 -130 2649
-505 -129 2645
-496 -129 2637
-490 -130 2646
-479 -129 2631
-472 -129 2633
-463 -129 2628
-455 -129 2629
-445 -128 2616
-440 -129 2630
-430 -128 2617
-422 -128 2614
-414 -128 2615
-404 -127 2600
-397 -128 2606
