VERSION 0.7
FIELDS x y z
SIZE 4 4 4
TYPE I I I
COUNT 1 1 1
WIDTH 3291
HEIGHT 1
VIEWPOINT 0.0 0.0 0.0 1.0 0.0 0.0 0.0
POINTS 3291
DATA ascii
-571 -579 2796
-563 -579 2797
-553 -578 2793
-544 -578 2791
-533 -575 2777
-524 -573 2771
-517 -574 2778
-507 -573 2774
-498 -572 2769
-488 -570 2758
-480 -570 2759
-470 -568 2752
-460 -565 2738
-452 -565 2739
-443 -564 2734
-434 -563 2731
-424 -561 2722
-417 -562 2724
-405 -556 2700
-397 -557 2702
-389 -557 2704
-379 -554 2690
-371 -553 2686
-362 -552 2682
-354 -551 2678
-346 -552 2681
-337 -550 2675
-328 -548 2665
-321 -550 2675
-312 -548 2664
-304 -547 2659
-295 -545 2652
-287 -545 2649
-279 -544 2646
-271 -544 2645
-263 -543 2642
-254 -541 2634
-246 -540 2630
-239 -542 2636
-231 -541 2632
-222 -538 2618
-214 -538 2617
-207 -539 2622
-199 -539 2622
-191 -537 2617
-183 -535 2607
-176 -537 2613
-167 -535 2606
-159 -532 2591
-152 -535 2604
-144 -535 2604
-136 -533 2594
-129 -533 2598
-121 -532 2591
-113 -530 2579
-105 -530 2578
-98 -530 2580
-90 -530 2583
-83 -529 2578
-75 -529 2576
-67 -528 2569
-60 -527 2564
-52 -528 2571
-45 -527 2565
-37 -526 2559
-30 -527 2566
-22 -526 2558
-15 -526 2557
-7 -524 2552
0 -523 2545
7 -524 2551
14 -524 2550
21 -525 2551
29 -523 2542
36 -523 2543
44 -522 2538
51 -525 2551
58 -521 2533
66 -522 2536
73 -520 2524
80 -520 2526
87 -519 2519
95 -519 2522
102 -520 2523
110 -520 2525
117 -519 2521
124 -518 2512
131 -517 2508
139 -518 2512
146 -517 2508
153 -516 2501
160 -518 2509
168 -517 2505
175 -517 2505
182 -516 2501
189 -516 2499
196 -515 2493
203 -515 2493
211 -516 2497
217 -514 2485
224 -513 2482
233 -516 2493
239 -513 2478
246 -513 2480
253 -513 2479
260 -513 2474
268 -513 2478
276 -516 2487
283 -514 2479
289 -513 2474
296 -512 2465
303 -512 2466
309 -509 2452
316 -510 2453
322 -507 2440
329 -507 2437
336 -507 2438
342 -505 2427
349 -506 2428
356 -505 2423
363 -506 2427
370 -505 2425
377 -504 2418
385 -506 2423
391 -504 2416
397 -503 2409
406 -505 2418
412 -504 2410
419 -504 2412
427 -506 2417
434 -505 2411
440 -504 2405
448 -505 2408
453 -502 2395
460 -503 2396
468 -504 2401
475 -504 2399
483 -505 2402
489 -503 2394
495 -503 2389
502 -503 2388
510 -504 2391
524 -509 2417
540 -519 2459
561 -532 2521
576 -539 2552
582 -538 2545
580 -529 2502
574 -517 2442
573 -510 2407
578 -507 2394
582 -505 2382
591 -506 2387
599 -507 2387
606 -507 2387
612 -506 2381
619 -506 2378
625 -505 2372
632 -505 2372
637 -503 2361
647 -505 2369
652 -504 2359
661 -506 2366
667 -505 2360
675 -506 2364
679 -503 2349
688 -505 2356
694 -504 2350
701 -504 2347
707 -503 2341
717 -505 2349
723 -505 2344
730 -505 2341
735 -503 2333
742 -503 2330
749 -503 2330
756 -503 2327
765 -505 2331
772 -504 2328
780 -505 2328
787 -505 2328
795 -506 2329
801 -505 2323
805 -503 2311
812 -503 2310
818 -503 2304
829 -505 2314
835 -504 2307
842 -504 2304
847 -503 2298
857 -505 2304
863 -505 2299
871 -505 2299
879 -506 2300
887 -507 2300
889 -504 2284
898 -505 2286
904 -504 2279
911 -504 2279
923 -507 2288
928 -506 2281
934 -505 2276
939 -504 2266
947 -505 2266
951 -503 2257
961 -505 2261
966 -504 2254
975 -505 2257
983 -505 2256
985 -503 2240
991 -502 2236
1022 -514 2286
1011 -505 2243
1011 -502 2225
1004 -495 2192
1021 -500 2210
1038 -505 2229
1045 -505 2227
1051 -504 2220
1057 -504 2215
1062 -503 2207
1062 -500 2191
990 -463 2026
915 -424 1856
895 -413 1801
892 -408 1780
897 -408 1776
911 -412 1792
910 -409 1776
919 -411 1778
922 -409 1771
931 -411 1775
936 -410 1769
937 -408 1758
947 -411 1764
955 -411 1765
964 -413 1768
960 -409 1747
970 -411 1753
972 -409 1743
980 -410 1744
985 -410 1740
996 -412 1746
-1347 -517 2289
-1335 -515 2286
-1323 -513 2282
-1298 -507 2255
-1296 -509 2269
-1277 -504 2252
-1262 -502 2243
-1254 -501 2245
-1243 -500 2242
-1232 -498 2239
-1228 -500 2249
-1211 -496 2234
-1199 -494 2229
-1189 -493 2227
-1177 -491 2221
-1166 -489 2218
-1160 -490 2223
-1151 -489 2222
-1141 -488 2220
-1125 -484 2207
-1116 -483 2205
-1103 -481 2196
-1094 -480 2196
-1074 -474 2174
-1072 -476 2185
-1064 -476 2187
-1050 -473 2176
-1042 -473 2177
-1034 -472 2176
-1026 -472 2178
-1015 -470 2171
-1009 -470 2175
-1006 -472 2186
-992 -469 2174
-979 -466 2163
-984 -471 2191
-995 -480 2234
-1000 -486 2264
-999 -489 2282
-995 -491 2292
-993 -493 2307
-989 -495 2317
-981 -495 2317
-979 -497 2332
-978 -501 2350
-974 -503 2361
-973 -506 2379
-967 -506 2384
-962 -508 2393
-959 -510 2405
-954 -512 2416
-954 -516 2437
-950 -518 2448
-944 -518 2453
-943 -522 2475
-939 -524 2487
-932 -525 2490
-933 -529 2515
-925 -529 2517
-923 -533 2535
-917 -534 2541
-919 -540 2573
-921 -545 2602
-924 -552 2635
-932 -562 2684
-923 -561 2685
-911 -559 2674
-891 -552 2643
-878 -549 2630
-861 -543 2605
-856 -545 2616
-851 -547 2626
-848 -550 2643
-864 -566 2722
-869 -575 2765
-875 -585 2815
-889 -600 2890
-887 -604 2913
-876 -603 2910
-866 -602 2906
-859 -603 2914
-846 -600 2901
-836 -599 2898
-827 -600 2902
-817 -598 2896
-807 -598 2895
-795 -595 2885
-786 -595 2887
-777 -594 2885
-765 -592 2873
-754 -590 2869
-743 -588 2858
-733 -587 2856
-720 -584 2841
-714 -586 2852
-703 -584 2844
-684 -575 2802
-670 -570 2781
-668 -576 2808
-661 -577 2816
-652 -577 2814
-642 -575 2807
-631 -573 2798
-622 -572 2796
-613 -572 2796
-602 -569 2783
-593 -568 2779
-584 -567 2777
-572 -564 2763
-564 -564 2761
-553 -561 2751
-544 -561 2749
-535 -560 2746
-525 -558 2738
-517 -557 2735
-507 -555 2726
-497 -554 2720
-488 -553 2715
-479 -551 2708
-468 -548 2694
-461 -549 2701
-451 -546 2687
-443 -547 2691
-436 -548 2696
-425 -544 2676
-420 -547 2693
-408 -543 2671
-399 -540 2661
-391 -541 2663
-382 -539 2654
-375 -540 2661
-367 -539 2659
-358 -539 2656
-350 -538 2651
-342 -537 2649
-334 -537 2651
-326 -537 2650
-317 -535 2641
-310 -536 2644
-301 -533 2633
-293 -534 2633
-284 -532 2627
-277 -534 2634
-268 -531 2622
-262 -533 2631
-253 -531 2620
-247 -534 2637
-237 -530 2617
-230 -531 2625
-222 -529 2615
-215 -532 2628
-206 -528 2608
-198 -527 2604
-190 -528 2609
-182 -525 2597
-174 -525 2597
-167 -525 2597
-159 -524 2588
-151 -524 2588
-143 -524 2590
-136 -523 2587
-128 -523 2585
-120 -521 2576
-113 -524 2587
-105 -521 2577
-98 -522 2578
-90 -522 2579
-82 -521 2576
-74 -518 2559
-67 -519 2565
-59 -517 2556
-52 -518 2559
-44 -516 2549
-37 -518 2558
-30 -518 2559
-22 -517 2552
-15 -517 2554
-7 -515 2541
0 -516 2550
7 -516 2546
14 -514 2538
21 -516 2545
29 -514 2536
36 -515 2542
43 -513 2531
51 -514 2534
58 -512 2526
65 -510 2516
73 -512 2524
80 -512 2525
87 -511 2520
95 -512 2522
102 -510 2512
109 -511 2517
117 -511 2516
124 -511 2514
131 -509 2504
138 -510 2511
145 -508 2499
153 -509 2502
160 -510 2507
168 -510 2510
174 -508 2499
181 -507 2494
189 -507 2492
196 -507 2488
202 -505 2482
210 -506 2486
217 -505 2480
224 -505 2477
231 -505 2479
239 -507 2485
246 -505 2477
253 -505 2476
260 -505 2475
267 -505 2473
275 -506 2477
283 -506 2478
289 -505 2470
296 -504 2467
303 -505 2467
307 -498 2436
311 -494 2415
318 -494 2414
326 -495 2416
334 -497 2425
340 -495 2414
348 -496 2420
354 -495 2414
361 -495 2410
366 -492 2395
376 -497 2416
382 -495 2406
389 -494 2402
395 -494 2400
402 -494 2398
410 -494 2399
418 -495 2403
425 -496 2404
433 -496 2405
436 -492 2386
446 -495 2397
453 -495 2398
460 -495 2394
468 -496 2399
473 -494 2389
478 -492 2376
488 -495 2388
493 -493 2377
500 -493 2378
510 -496 2388
515 -494 2379
526 -497 2393
543 -507 2439
556 -513 2465
557 -507 2435
557 -500 2399
557 -494 2369
564 -494 2369
571 -494 2366
583 -499 2387
588 -497 2377
593 -495 2367
600 -495 2363
611 -498 2376
618 -498 2376
624 -497 2371
631 -497 2369
637 -496 2361
644 -496 2361
651 -496 2358
661 -498 2367
665 -496 2353
672 -496 2353
679 -496 2351
686 -496 2350
692 -496 2344
701 -497 2349
705 -495 2337
714 -496 2340
719 -495 2332
727 -496 2334
735 -496 2334
739 -494 2323
747 -495 2325
754 -495 2323
761 -495 2321
770 -496 2323
773 -494 2310
783 -496 2317
790 -495 2314
795 -494 2307
803 -495 2307
809 -494 2301
820 -497 2311
827 -497 2308
833 -496 2304
839 -496 2298
844 -495 2291
853 -495 2293
861 -496 2294
870 -497 2295
875 -496 2289
881 -496 2283
890 -497 2286
897 -497 2284
905 -497 2284
910 -496 2275
919 -497 2278
924 -496 2270
930 -496 2267
938 -496 2265
947 -497 2268
954 -497 2265
958 -496 2255
967 -497 2256
972 -496 2250
980 -496 2249
989 -497 2250
994 -497 2244
985 -489 2204
1011 -498 2244
1039 -509 2288
1015 -493 2218
1009 -487 2186
1036 -497 2226
1041 -496 2219
1053 -498 2225
1057 -497 2217
1061 -495 2207
1065 -494 2197
1003 -462 2052
909 -416 1844
897 -408 1806
898 -405 1794
897 -403 1778
910 -406 1789
909 -403 1773
911 -401 1764
926 -406 1780
925 -402 1764
942 -407 1782
940 -404 1765
953 -407 1777
948 -403 1754
958 -404 1758
965 -405 1759
967 -404 1748
979 -406 1757
987 -407 1758
982 -403 1735
995 -406 1746
-1345 -509 2288
-1322 -503 2266
-1314 -502 2268
-1298 -499 2257
-1290 -499 2260
-1282 -499 2262
-1263 -494 2246
-1250 -492 2240
-1246 -493 2248
-1233 -491 2241
-1222 -490 2240
-1215 -490 2244
-1203 -488 2238
-1191 -486 2232
-1177 -484 2223
-1161 -480 2210
-1154 -480 2214
-1139 -477 2201
-1136 -478 2211
-1119 -475 2197
-1111 -474 2198
-1110 -477 2212
-1092 -472 2194
-1088 -473 2203
-1079 -473 2202
-1065 -469 2190
-1059 -470 2196
-1047 -468 2188
-1040 -468 2191
-1022 -463 2170
-1014 -462 2170
-1003 -461 2165
-994 -460 2163
-985 -458 2159
-978 -459 2163
-985 -465 2196
-999 -475 2245
-1003 -481 2273
-1001 -483 2287
-995 -484 2293
-988 -484 2296
-990 -488 2319
-985 -489 2328
-981 -491 2339
-976 -492 2347
-974 -495 2361
-972 -498 2376
-963 -497 2376
-964 -502 2400
-958 -502 2406
-955 -505 2419
-954 -508 2438
-948 -509 2443
-944 -511 2456
-940 -513 2467
-937 -516 2483
-933 -518 2495
-927 -518 2500
-921 -519 2508
-921 -524 2532
-915 -525 2540
-903 -523 2529
-906 -529 2562
-904 -532 2579
-899 -534 2590
-895 -537 2605
-891 -539 2617
-884 -540 2625
-876 -540 2626
-861 -535 2608
-854 -536 2612
-846 -536 2614
-844 -539 2632
-845 -545 2663
-838 -546 2669
-845 -556 2721
-876 -582 2848
-888 -596 2917
-878 -596 2918
-869 -595 2918
-861 -596 2922
-848 -593 2911
-834 -590 2895
-825 -589 2894
-817 -590 2900
-805 -587 2889
-794 -585 2881
-785 -586 2884
-773 -583 2874
-765 -584 2878
-751 -580 2859
-732 -571 2817
-719 -567 2802
-708 -565 2793
-699 -565 2794
-687 -562 2780
-669 -555 2744
-662 -555 2746
-657 -558 2761
-647 -556 2755
-637 -555 2751
-628 -554 2748
-616 -551 2733
-607 -551 2732
-599 -550 2731
-588 -548 2719
-579 -547 2716
-570 -546 2714
-563 -547 2717
-556 -548 2725
-544 -545 2709
-535 -543 2704
-524 -540 2690
-516 -541 2693
-507 -539 2686
-502 -542 2701
-490 -538 2681
-482 -538 2684
-473 -537 2678
-465 -537 2677
-457 -536 2676
-447 -534 2665
-439 -534 2666
-433 -536 2680
-424 -535 2672
-415 -533 2666
-407 -533 2664
-399 -533 2667
-390 -531 2655
-382 -532 2660
-374 -531 2658
-364 -528 2640
-357 -529 2647
-349 -529 2645
-341 -529 2649
-332 -526 2634
-325 -527 2640
-316 -526 2634
-307 -524 2624
-300 -524 2627
-292 -525 2631
-284 -524 2627
-274 -520 2605
-268 -523 2620
-260 -521 2613
-252 -521 2613
-244 -521 2613
-236 -521 2611
-229 -521 2611
-221 -519 2605
-213 -519 2603
-205 -519 2603
-197 -518 2596
-190 -521 2611
-181 -516 2588
-174 -516 2589
-166 -517 2592
-159 -517 2593
-151 -516 2587
-143 -513 2575
-135 -513 2574
-128 -515 2586
-120 -513 2575
-112 -513 2574
-105 -513 2572
-97 -510 2557
-89 -510 2560
-82 -512 2566
-75 -511 2565
-67 -509 2555
-60 -511 2563
-52 -511 2564
-44 -509 2552
-37 -508 2546
-30 -509 2554
-22 -508 2545
-15 -507 2541
-7 -507 2542
0 -504 2525
7 -506 2536
14 -507 2538
21 -506 2537
29 -503 2522
36 -505 2529
43 -505 2528
51 -505 2531
58 -503 2519
66 -504 2525
73 -504 2520
80 -502 2513
87 -502 2513
94 -501 2506
101 -500 2501
109 -502 2509
117 -503 2515
123 -500 2500
130 -499 2492
138 -501 2503
145 -499 2491
152 -500 2495
159 -499 2493
165 -496 2474
173 -497 2480
181 -499 2488
188 -497 2478
195 -497 2480
202 -497 2479
209 -497 2476
216 -495 2467
223 -496 2472
230 -494 2461
237 -494 2460
244 -495 2462
252 -495 2463
258 -494 2458
266 -495 2459
273 -495 2458
280 -495 2459
287 -494 2454
295 -496 2461
300 -493 2445
305 -488 2421
307 -481 2383
314 -480 2379
323 -483 2395
331 -485 2402
338 -485 2402
346 -487 2410
353 -486 2405
358 -484 2393
366 -486 2399
373 -484 2392
379 -484 2391
387 -485 2393
394 -485 2393
400 -483 2384
409 -486 2393
416 -486 2392
421 -484 2383
429 -485 2385
435 -484 2381
443 -485 2383
450 -485 2383
458 -486 2388
465 -486 2384
471 -485 2378
477 -484 2374
483 -483 2368
492 -485 2373
498 -484 2367
506 -485 2370
512 -484 2365
522 -487 2379
528 -486 2373
536 -487 2376
536 -480 2341
538 -476 2321
548 -479 2334
559 -482 2346
565 -481 2340
574 -483 2348
582 -484 2352
591 -486 2360
600 -488 2365
608 -489 2368
614 -488 2361
621 -487 2359
627 -487 2353
634 -487 2353
642 -487 2353
650 -488 2355
654 -486 2344
662 -487 2345
671 -488 2351
676 -487 2342
683 -487 2340
691 -488 2342
697 -487 2334
702 -486 2328
709 -486 2326
717 -486 2327
723 -486 2322
730 -486 2321
739 -487 2325
744 -486 2316
752 -487 2318
761 -488 2321
768 -488 2320
772 -486 2308
780 -487 2309
787 -486 2306
796 -488 2310
804 -488 2311
806 -486 2296
816 -487 2301
823 -487 2298
830 -487 2295
838 -488 2298
843 -487 2288
852 -488 2293
859 -488 2289
864 -487 2282
872 -487 2282
880 -488 2281
885 -487 2275
893 -487 2274
902 -489 2277
906 -487 2268
916 -489 2272
922 -488 2266
928 -488 2263
939 -490 2268
946 -490 2267
952 -489 2261
955 -487 2250
963 -488 2248
973 -490 2254
979 -489 2247
986 -489 2246
993 -489 2242
1004 -491 2250
990 -481 2200
1025 -494 2257
1013 -485 2214
1029 -490 2230
1037 -490 2228
1044 -490 2226
1052 -491 2226
1058 -490 2220
1062 -489 2211
1065 -487 2199
1008 -458 2064
914 -412 1856
886 -397 1785
892 -397 1783
907 -401 1800
901 -396 1773
913 -399 1783
917 -398 1776
920 -397 1768
921 -395 1757
932 -397 1764
937 -397 1760
951 -401 1774
947 -397 1753
948 -395 1741
962 -398 1754
964 -397 1744
965 -395 1732
976 -397 1739
986 -399 1744
981 -394 1722
-1341 -499 2283
-1323 -495 2268
-1313 -495 2268
-1308 -496 2276
-1287 -491 2256
-1278 -490 2256
-1266 -488 2253
-1257 -488 2254
-1240 -484 2240
-1233 -484 2243
-1220 -482 2237
-1208 -480 2231
-1196 -478 2226
-1185 -477 2222
-1179 -477 2228
-1166 -475 2221
-1153 -473 2212
-1142 -471 2209
-1133 -470 2209
-1118 -467 2196
-1107 -465 2191
-1111 -470 2216
-1086 -462 2182
-1091 -468 2211
-1068 -461 2182
-1069 -464 2200
-1052 -460 2183
-1041 -458 2176
-1031 -457 2173
-1021 -455 2169
-1010 -454 2164
-1004 -454 2167
-995 -453 2165
-987 -453 2166
-978 -452 2164
-985 -458 2197
-1002 -469 2254
-1002 -473 2271
-1000 -475 2287
-997 -477 2298
-995 -480 2313
-989 -481 2320
-985 -482 2329
-983 -485 2345
-978 -486 2353
-976 -489 2368
-969 -489 2372
-961 -488 2371
-961 -492 2393
-959 -495 2410
-952 -496 2413
-949 -498 2426
-946 -500 2440
-940 -501 2448
-938 -504 2465
-933 -506 2473
-931 -509 2490
-922 -508 2490
-923 -513 2516
-918 -514 2525
-913 -516 2534
-908 -518 2544
-904 -520 2557
-899 -522 2569
-893 -523 2576
-893 -527 2599
-885 -527 2601
-882 -530 2618
-871 -529 2612
-870 -533 2636
-859 -531 2629
-853 -532 2636
-851 -536 2656
-844 -536 2660
-839 -539 2674
-843 -547 2714
-877 -574 2852
-887 -586 2916
-876 -585 2912
-867 -585 2911
-858 -585 2914
-848 -584 2912
-836 -582 2902
-825 -581 2897
-814 -579 2891
-805 -579 2891
-794 -577 2883
-784 -576 2881
-777 -577 2887
-761 -572 2863
-741 -563 2821
-716 -551 2760
-705 -548 2750
-694 -547 2743
-685 -545 2738
-674 -544 2731
-664 -542 2723
-653 -540 2714
-648 -542 2725
-638 -540 2719
-629 -540 2719
-618 -537 2706
-608 -536 2699
-603 -539 2714
-594 -538 2711
-584 -536 2705
-575 -535 2699
-568 -536 2706
-559 -535 2701
-549 -533 2693
-542 -534 2699
-532 -533 2692
-524 -532 2690
-514 -530 2682
-507 -532 2690
-498 -530 2684
-489 -529 2679
-482 -530 2682
-472 -528 2673
-465 -529 2678
-456 -527 2671
-446 -525 2663
-440 -528 2675
-430 -525 2662
-423 -525 2665
-413 -523 2652
-404 -521 2646
-397 -523 2653
-388 -522 2648
-380 -521 2648
-372 -520 2643
-364 -521 2645
-355 -519 2638
-348 -520 2644
-340 -519 2639
-331 -518 2632
-323 -517 2631
-314 -515 2620
-306 -514 2614
-298 -515 2618
-292 -516 2627
-284 -516 2623
-276 -516 2624
-267 -514 2614
-259 -513 2610
-251 -513 2611
-243 -512 2606
-236 -512 2604
-227 -509 2592
-219 -508 2587
-212 -509 2591
-204 -509 2594
-195 -505 2574
-188 -507 2584
-181 -508 2587
-172 -505 2574
-165 -507 2582
-158 -506 2578
-150 -504 2569
-142 -505 2570
-134 -503 2565
-127 -502 2559
-119 -502 2559
-111 -501 2551
-104 -500 2549
-96 -501 2554
-89 -502 2558
-81 -499 2543
-74 -499 2544
-67 -500 2548
-59 -499 2541
-52 -499 2540
-44 -500 2547
-37 -498 2536
-29 -496 2525
-22 -496 2526
-14 -498 2532
-7 -494 2514
0 -496 2523
7 -495 2520
14 -494 2514
21 -493 2510
29 -493 2509
36 -493 2505
43 -493 2508
50 -492 2501
58 -492 2502
65 -491 2496
72 -492 2501
79 -492 2498
87 -491 2492
94 -492 2497
101 -491 2492
108 -489 2483
115 -488 2478
122 -489 2481
130 -490 2488
137 -488 2475
144 -488 2473
150 -486 2462
158 -488 2472
165 -487 2466
171 -485 2455
179 -486 2464
185 -484 2450
193 -485 2457
200 -485 2455
207 -485 2455
213 -482 2439
221 -483 2440
228 -483 2443
235 -483 2442
243 -485 2449
249 -483 2437
256 -482 2431
264 -484 2443
270 -483 2436
277 -482 2429
284 -482 2428
291 -481 2426
298 -482 2427
303 -479 2411
307 -474 2385
313 -472 2376
319 -470 2363
328 -473 2380
336 -475 2386
343 -475 2387
351 -477 2393
358 -477 2392
365 -476 2390
371 -476 2385
379 -476 2388
386 -477 2388
393 -476 2386
400 -476 2383
407 -476 2383
414 -477 2385
420 -476 2379
427 -475 2375
434 -475 2373
442 -476 2377
449 -477 2380
456 -476 2374
463 -476 2374
469 -476 2370
477 -477 2374
482 -475 2362
492 -477 2373
497 -476 2364
505 -477 2367
510 -475 2359
516 -475 2354
524 -475 2353
529 -473 2343
535 -473 2340
542 -473 2338
548 -472 2333
558 -474 2343
564 -474 2338
571 -473 2336
577 -473 2331
585 -474 2336
594 -476 2342
599 -474 2332
608 -476 2339
614 -475 2335
622 -476 2335
631 -477 2341
637 -476 2335
640 -474 2320
651 -476 2332
658 -477 2332
666 -478 2334
672 -477 2328
676 -475 2316
684 -476 2319
690 -475 2312
699 -476 2318
706 -476 2316
712 -476 2313
721 -478 2318
731 -479 2324
733 -476 2307
740 -476 2304
749 -477 2308
753 -475 2297
762 -477 2303
771 -478 2306
777 -478 2302
785 -478 2301
793 -479 2301
798 -478 2295
804 -477 2291
811 -477 2289
819 -478 2288
827 -478 2289
833 -478 2283
843 -480 2289
848 -478 2281
853 -478 2275
861 -478 2275
871 -480 2281
875 -478 2270
881 -478 2265
892 -480 2272
899 -480 2271
902 -478 2258
912 -479 2263
919 -479 2261
926 -480 2259
933 -480 2256
940 -480 2253
947 -480 2252
956 -481 2252
961 -480 2246
969 -480 2244
976 -480 2242
984 -481 2243
991 -481 2238
998 -481 2236
1016 -486 2258
1019 -484 2245
1022 -482 2234
1034 -485 2241
1033 -481 2223
1041 -482 2221
1052 -484 2227
1060 -484 2225
1062 -482 2213
1060 -478 2191
1012 -453 2074
919 -408 1868
892 -394 1799
895 -393 1790
898 -391 1781
910 -394 1792
912 -393 1781
916 -392 1775
918 -390 1766
923 -390 1763
928 -390 1758
933 -390 1754
939 -390 1752
950 -392 1759
956 -392 1758
968 -395 1766
960 -389 1738
966 -389 1736
982 -394 1752
985 -393 1744
980 -388 1722
-1330 -488 2265
-1325 -489 2273
-1316 -488 2275
-1298 -485 2261
-1285 -482 2254
-1273 -481 2251
-1262 -479 2247
-1258 -481 2257
-1241 -477 2243
-1236 -478 2250
-1222 -475 2242
-1211 -474 2239
-1192 -469 2221
-1189 -471 2231
-1176 -469 2224
-1168 -469 2226
-1159 -468 2226
-1146 -465 2217
-1131 -462 2205
-1128 -464 2216
-1111 -460 2199
-1099 -458 2193
-1089 -457 2190
-1079 -456 2188
-1072 -456 2190
-1057 -452 2177
-1048 -451 2175
-1041 -451 2178
-1029 -449 2171
-1023 -450 2176
-1012 -448 2169
-1012 -451 2187
-1006 -451 2190
-982 -444 2157
-975 -443 2158
-986 -452 2200
-998 -461 2247
-1004 -467 2279
-999 -467 2285
-991 -467 2286
-993 -472 2310
-987 -473 2317
-982 -473 2323
-979 -476 2337
-976 -478 2349
-971 -479 2359
-970 -482 2376
-962 -482 2377
-964 -487 2402
-954 -485 2398
-955 -489 2421
-954 -493 2441
-948 -494 2447
-940 -494 2449
-936 -496 2460
-930 -496 2467
-934 -503 2500
-924 -501 2495
-923 -505 2515
-916 -506 2520
-911 -507 2529
-907 -509 2542
-907 -514 2567
-896 -512 2562
-894 -516 2581
-890 -518 2594
-886 -520 2605
-878 -520 2610
-873 -522 2618
-871 -525 2639
-862 -525 2638
-858 -528 2654
-851 -528 2659
-844 -529 2664
-838 -530 2672
-848 -542 2731
-872 -563 2840
-881 -574 2898
-873 -575 2903
-863 -574 2902
-856 -575 2909
-845 -573 2902
-836 -573 2905
-823 -570 2891
-813 -569 2888
-804 -570 2890
-795 -569 2888
-784 -568 2883
-775 -567 2882
-760 -563 2862
-731 -547 2785
-709 -537 2733
-699 -535 2727
-688 -534 2720
-684 -536 2735
-674 -535 2731
-662 -533 2717
-653 -531 2713
-641 -529 2700
-638 -532 2720
-625 -528 2700
-618 -529 2707
-608 -528 2702
-598 -526 2693
-591 -527 2699
-583 -527 2700
-573 -525 2692
-565 -525 2691
-554 -522 2679
-546 -522 2679
-539 -523 2686
-531 -524 2689
-521 -521 2677
-512 -521 2674
-503 -520 2670
-496 -520 2673
-487 -519 2670
-479 -518 2666
-472 -520 2677
-462 -518 2665
-454 -518 2666
-446 -517 2661
-437 -516 2658
-428 -515 2652
-420 -514 2650
-411 -513 2646
-404 -514 2648
-396 -514 2648
-387 -512 2639
-378 -511 2636
-369 -508 2623
-362 -509 2629
-353 -507 2619
-346 -510 2630
-338 -508 2625
-329 -506 2613
-323 -508 2626
-313 -506 2615
-306 -506 2616
-297 -505 2608
-288 -503 2599
-281 -503 2599
-273 -502 2596
-265 -501 2592
-257 -502 2594
-249 -501 2591
-241 -499 2582
-234 -500 2588
-225 -498 2576
-218 -499 2580
-210 -497 2569
-202 -497 2573
-195 -497 2571
-186 -495 2562
-179 -496 2564
-171 -493 2551
-164 -494 2556
-156 -493 2553
-148 -493 2552
-142 -495 2563
-133 -493 2550
-125 -490 2535
-118 -491 2541
-111 -492 2544
-104 -492 2546
-96 -490 2533
-88 -491 2538
-81 -489 2530
-74 -491 2541
-66 -488 2523
-58 -487 2518
-51 -488 2525
-44 -488 2525
-36 -485 2509
-29 -487 2520
-22 -486 2511
-14 -485 2508
-7 -486 2512
0 -485 2507
7 -483 2495
14 -485 2504
21 -485 2506
28 -484 2498
36 -483 2492
43 -481 2483
50 -481 2484
57 -483 2491
65 -483 2491
72 -482 2485
79 -479 2470
86 -481 2480
93 -480 2476
101 -481 2479
108 -480 2473
115 -479 2468
122 -479 2470
129 -479 2470
135 -477 2455
142 -476 2451
150 -476 2452
157 -478 2462
164 -478 2458
172 -479 2463
178 -475 2445
185 -475 2444
192 -476 2446
199 -475 2443
206 -474 2435
214 -476 2443
220 -475 2437
227 -475 2438
235 -475 2437
241 -473 2425
248 -473 2423
255 -473 2426
262 -473 2423
269 -473 2425
276 -472 2419
283 -472 2417
290 -473 2419
298 -474 2424
302 -469 2400
308 -467 2390
314 -466 2381
319 -463 2366
324 -461 2355
331 -461 2355
340 -463 2364
348 -466 2376
357 -468 2384
362 -466 2375
370 -467 2380
377 -467 2379
384 -467 2378
391 -467 2374
398 -467 2375
406 -468 2377
413 -468 2377
419 -467 2369
426 -467 2368
432 -466 2364
439 -466 2361
446 -466 2362
452 -466 2357
460 -466 2358
467 -467 2359
474 -466 2357
480 -466 2352
488 -467 2357
494 -466 2350
499 -465 2342
508 -466 2348
514 -466 2345
521 -465 2341
526 -464 2333
533 -463 2329
541 -465 2336
549 -466 2339
556 -466 2336
563 -466 2335
570 -466 2334
576 -465 2328
580 -463 2315
588 -464 2318
592 -462 2308
600 -463 2310
610 -465 2320
617 -465 2316
623 -465 2314
630 -464 2312
635 -463 2304
645 -465 2312
652 -465 2310
659 -466 2311
665 -465 2304
672 -465 2304
680 -466 2307
687 -466 2304
693 -465 2298
700 -465 2297
706 -465 2292
712 -464 2289
719 -465 2288
725 -464 2281
733 -465 2283
741 -465 2285
746 -464 2278
754 -465 2277
761 -465 2277
768 -465 2274
775 -465 2274
784 -466 2277
789 -465 2270
797 -466 2271
807 -468 2276
812 -467 2269
822 -469 2276
828 -468 2272
836 -469 2272
843 -469 2270
847 -467 2260
856 -468 2262
863 -469 2261
873 -470 2266
878 -469 2259
885 -469 2257
892 -469 2255
901 -470 2257
906 -469 2250
914 -470 2249
921 -470 2248
931 -471 2252
937 -471 2246
943 -471 2243
950 -471 2239
960 -472 2244
965 -471 2238
977 -474 2245
980 -472 2234
986 -472 2230
994 -472 2228
1011 -477 2249
1014 -475 2237
1027 -478 2247
1022 -472 2217
1037 -476 2231
1043 -475 2226
1048 -475 2220
1056 -475 2219
1063 -475 2215
1065 -473 2202
1013 -447 2077
922 -403 1874
896 -390 1807
894 -386 1790
907 -390 1802
905 -386 1783
902 -383 1764
917 -387 1779
924 -387 1778
929 -387 1774
929 -385 1762
941 -387 1770
942 -385 1758
952 -387 1764
948 -383 1743
952 -382 1737
968 -387 1754
973 -386 1749
980 -387 1749
983 -386 1741
982 -383 1726
-1330 -480 2267
-1322 -480 2270
-1318 -482 2280
-1301 -478 2267
-1289 -476 2262
-1272 -473 2249
-1264 -473 2253
-1262 -475 2266
-1232 -466 2227
-1235 -470 2250
-1216 -466 2232
-1208 -466 2235
-1200 -465 2238
-1183 -462 2223
-1166 -458 2207
-1157 -457 2206
-1147 -456 2204
-1137 -455 2202
-1136 -457 2218
-1123 -455 2208
-1102 -449 2185
-1108 -454 2212
-1085 -448 2183
-1080 -449 2192
-1072 -449 2192
-1064 -448 2192
-1047 -444 2176
-1041 -445 2180
-1039 -447 2193
-1033 -447 2197
-1013 -441 2172
-1012 -444 2187
-1000 -442 2180
-986 -439 2167
-979 -438 2168
-985 -444 2199
-1004 -456 2260
-1004 -460 2280
-1000 -461 2289
-993 -461 2293
-988 -462 2300
-987 -465 2317
-985 -468 2333
-979 -468 2339
-974 -469 2346
-972 -472 2361
-972 -475 2381
-969 -478 2394
-958 -476 2389
-958 -480 2409
-958 -484 2431
-954 -485 2441
-950 -487 2453
-948 -490 2472
-936 -488 2462
-933 -491 2476
-929 -492 2488
-922 -493 2493
-918 -495 2504
-912 -496 2512
-909 -498 2526
-909 -503 2550
-903 -504 2558
-898 -505 2568
-892 -507 2576
-888 -509 2590
-884 -511 2602
-877 -512 2608
-872 -513 2618
-867 -515 2630
-863 -517 2643
-855 -518 2645
-847 -518 2648
-845 -522 2669
-841 -524 2683
-839 -528 2706
-847 -538 2758
-854 -548 2813
-853 -553 2839
-857 -561 2881
-848 -561 2883
-841 -562 2890
-833 -563 2897
-823 -562 2892
-817 -563 2902
-805 -561 2892
-791 -558 2877
-779 -555 2866
-769 -554 2863
-751 -548 2829
-721 -532 2749
-706 -527 2725
-697 -526 2722
-684 -523 2706
-676 -523 2708
-669 -524 2713
-655 -519 2691
-650 -521 2703
-643 -522 2711
-632 -520 2698
-624 -520 2698
-614 -518 2691
-607 -519 2695
-597 -518 2692
-589 -517 2691
-581 -518 2694
-573 -517 2692
-560 -513 2672
-553 -514 2676
-545 -514 2676
-536 -512 2670
-528 -512 2671
-518 -511 2664
-510 -511 2666
-501 -509 2658
-492 -508 2654
-485 -509 2661
-474 -506 2642
-471 -511 2668
-459 -506 2646
-450 -505 2642
-442 -505 2642
-435 -506 2646
-426 -504 2638
-418 -504 2638
-409 -502 2631
-401 -502 2631
-394 -504 2638
-386 -503 2633
-375 -499 2616
-370 -502 2631
-360 -499 2615
-351 -497 2606
-344 -498 2612
-336 -498 2610
-329 -499 2618
-319 -495 2599
-311 -495 2599
-304 -495 2599
-295 -494 2591
-288 -495 2597
-280 -494 2593
-272 -492 2586
-265 -493 2591
-256 -491 2579
-249 -492 2584
-241 -491 2580
-233 -490 2576
-226 -492 2582
-217 -489 2570
-210 -490 2576
-202 -489 2571
-194 -488 2565
-186 -487 2559
-178 -485 2550
-172 -489 2571
-163 -486 2555
-156 -488 2563
-148 -486 2552
-141 -486 2553
-134 -486 2553
-126 -486 2552
-118 -483 2537
-111 -483 2539
-103 -483 2539
-96 -484 2541
-88 -482 2532
-81 -481 2529
-73 -483 2536
-66 -482 2533
-59 -482 2531
-51 -480 2523
-44 -479 2516
-36 -481 2524
-29 -480 2521
-22 -479 2513
-14 -478 2510
-7 -480 2518
0 -477 2501
7 -477 2506
14 -477 2503
21 -477 2504
29 -477 2502
36 -476 2498
43 -476 2498
50 -477 2501
58 -478 2506
65 -474 2484
72 -473 2477
79 -474 2485
86 -474 2483
94 -476 2492
101 -473 2477
108 -473 2476
115 -473 2476
122 -471 2467
129 -473 2477
136 -473 2473
143 -472 2468
150 -469 2455
157 -470 2459
165 -472 2470
171 -469 2451
179 -470 2457
186 -471 2458
193 -470 2455
200 -470 2456
207 -469 2446
213 -468 2441
220 -468 2440
228 -468 2441
234 -466 2427
243 -470 2447
249 -467 2435
255 -466 2428
263 -468 2437
269 -467 2428
276 -466 2426
285 -469 2437
290 -466 2423
297 -466 2421
305 -467 2426
312 -467 2425
314 -460 2386
319 -457 2370
324 -453 2351
330 -453 2349
337 -453 2347
345 -454 2352
353 -456 2362
362 -458 2369
369 -458 2370
375 -457 2365
382 -458 2365
389 -457 2363
396 -458 2366
403 -458 2362
410 -457 2359
416 -457 2357
423 -457 2354
430 -457 2354
437 -457 2351
443 -457 2349
450 -457 2348
458 -457 2351
463 -456 2341
471 -457 2347
478 -457 2345
486 -458 2350
491 -456 2335
499 -457 2342
507 -458 2346
510 -455 2327
517 -455 2324
526 -457 2332
535 -458 2340
539 -456 2325
547 -457 2330
554 -457 2328
561 -457 2329
569 -458 2330
573 -456 2318
581 -457 2321
585 -455 2308
592 -455 2308
595 -452 2292
605 -454 2301
615 -457 2312
625 -459 2321
631 -458 2317
637 -458 2313
645 -458 2313
652 -458 2312
657 -457 2303
666 -459 2309
671 -457 2299
679 -458 2303
686 -458 2302
690 -456 2291
698 -457 2293
704 -457 2289
713 -458 2291
715 -455 2275
728 -459 2293
730 -456 2275
737 -456 2274
747 -458 2280
752 -457 2274
758 -456 2268
766 -457 2270
774 -457 2270
781 -458 2270
786 -457 2263
796 -458 2268
800 -457 2258
807 -457 2257
812 -456 2250
821 -457 2254
829 -458 2255
836 -458 2253
841 -457 2245
851 -459 2251
856 -457 2242
863 -458 2242
870 -458 2240
880 -459 2244
889 -461 2248
889 -457 2229
900 -459 2236
906 -459 2232
913 -459 2229
921 -459 2228
927 -459 2224
936 -460 2227
946 -461 2230
953 -462 2229
958 -461 2221
969 -463 2228
972 -461 2216
982 -462 2221
994 -465 2229
1004 -467 2234
1016 -469 2243
1022 -468 2237
1031 -469 2237
1034 -468 2227
1040 -467 2221
1049 -468 2222
1050 -465 2207
1064 -468 2218
1058 -463 2188
1015 -441 2083
927 -400 1886
894 -383 1804
891 -379 1785
903 -382 1794
904 -380 1781
904 -378 1768
921 -382 1787
914 -377 1760
926 -380 1769
928 -378 1760
937 -380 1764
939 -378 1754
948 -380 1757
953 -380 1754
963 -381 1759
966 -380 1751
969 -379 1744
979 -381 1747
984 -381 1744
987 -379 1735
-1325 -471 2260
-1323 -473 2273
-1311 -471 2269
-1296 -469 2259
-1286 -468 2260
-1288 -472 2280
-1265 -466 2255
-1265 -468 2272
-1243 -463 2250
-1227 -460 2237
-1221 -460 2243
-1211 -459 2242
-1192 -455 2223
-1183 -454 2223
-1171 -452 2217
-1161 -451 2215
-1152 -451 2215
-1153 -454 2233
-1127 -447 2201
-1119 -446 2202
-1115 -447 2210
-1107 -447 2211
-1093 -444 2201
-1087 -445 2206
-1076 -443 2202
-1065 -442 2197
-1062 -443 2206
-1051 -442 2202
-1038 -439 2191
-1034 -440 2201
-1019 -437 2187
-1013 -437 2191
-1008 -438 2197
-989 -433 2175
-975 -430 2161
-990 -440 2212
-1000 -447 2253
-1000 -451 2272
-998 -453 2285
-992 -453 2291
-990 -456 2306
-990 -459 2325
-984 -460 2330
-986 -464 2356
-978 -464 2357
-979 -468 2380
-967 -466 2370
-965 -469 2388
-959 -469 2394
-960 -473 2415
-956 -475 2426
-949 -476 2431
-946 -478 2446
-944 -481 2462
-939 -482 2472
-935 -484 2482
-931 -486 2495
-926 -487 2505
-918 -487 2507
-915 -490 2520
-910 -491 2531
-907 -494 2548
-898 -493 2545
-898 -498 2570
-888 -496 2565
-883 -498 2577
-878 -499 2585
-878 -504 2611
-873 -506 2623
-866 -507 2628
-860 -507 2634
-851 -507 2634
-844 -508 2639
-845 -513 2668
-835 -512 2665
-833 -516 2687
-830 -519 2707
-825 -521 2719
-823 -525 2740
-824 -531 2775
-825 -537 2808
-825 -543 2837
-822 -546 2858
-820 -551 2882
-810 -550 2880
-801 -550 2880
-789 -548 2872
-768 -539 2827
-749 -532 2791
-730 -524 2752
-713 -517 2718
-703 -517 2715
-691 -514 2701
-680 -511 2690
-672 -511 2690
-664 -511 2692
-657 -512 2699
-644 -508 2679
-635 -507 2676
-627 -507 2676
-619 -507 2677
-611 -508 2680
-603 -507 2680
-595 -507 2680
-585 -506 2672
-577 -506 2674
-568 -505 2670
-560 -505 2672
-551 -504 2667
-543 -504 2668
-533 -502 2661
-526 -503 2666
-517 -502 2661
-508 -501 2657
-501 -501 2657
-493 -501 2659
-483 -500 2651
-475 -499 2650
-467 -499 2649
-459 -498 2647
-448 -495 2630
-441 -497 2639
-432 -494 2628
-425 -496 2636
-418 -496 2638
-409 -495 2635
-401 -495 2634
-392 -494 2627
-384 -492 2621
-376 -493 2625
-368 -492 2619
-360 -491 2617
-353 -492 2623
-345 -492 2621
-334 -488 2599
-330 -493 2626
-320 -490 2610
-312 -489 2608
-305 -489 2609
-296 -488 2605
-289 -489 2606
-281 -487 2600
-273 -488 2604
-265 -487 2597
-257 -485 2589
-248 -484 2584
-241 -485 2590
-233 -484 2583
-226 -484 2584
-218 -484 2582
-209 -482 2571
-202 -483 2576
-195 -483 2579
-187 -482 2575
-180 -483 2580
-172 -481 2567
-164 -481 2566
-157 -482 2575
-148 -476 2541
-142 -481 2571
-134 -479 2556
-126 -477 2547
-119 -481 2571
-111 -478 2555
-103 -476 2541
-96 -477 2549
-88 -476 2542
-81 -475 2538
-73 -474 2530
-66 -475 2537
-58 -473 2523
-51 -472 2521
-44 -474 2528
-36 -475 2533
-29 -472 2521
-21 -470 2507
-14 -472 2517
-7 -473 2524
0 -472 2518
7 -472 2514
14 -469 2502
21 -470 2506
29 -471 2510
36 -470 2504
43 -469 2497
50 -470 2503
58 -469 2496
65 -471 2507
72 -470 2503
79 -465 2476
86 -467 2487
94 -467 2484
101 -466 2480
108 -466 2481
115 -468 2487
122 -466 2477
129 -464 2468
136 -464 2465
143 -464 2467
151 -466 2475
157 -463 2458
164 -463 2456
172 -463 2461
179 -464 2463
186 -464 2462
193 -463 2456
200 -462 2450
207 -462 2450
214 -462 2449
220 -460 2436
227 -460 2438
236 -463 2451
243 -463 2450
249 -461 2438
256 -461 2438
263 -460 2434
271 -461 2439
277 -460 2432
285 -462 2440
291 -460 2427
297 -459 2423
305 -459 2425
312 -459 2423
318 -458 2415
323 -455 2400
327 -451 2375
331 -447 2353
336 -445 2341
343 -444 2338
349 -443 2332
358 -446 2344
365 -446 2345
373 -447 2350
380 -448 2354
389 -451 2364
393 -448 2348
401 -449 2352
406 -447 2342
415 -449 2351
423 -450 2354
429 -449 2350
435 -448 2345
442 -448 2342
447 -447 2334
457 -449 2346
463 -448 2338
470 -449 2341
475 -447 2329
483 -448 2334
490 -448 2333
498 -449 2335
503 -448 2329
508 -446 2317
517 -448 2328
523 -447 2322
530 -447 2320
536 -447 2317
544 -448 2320
549 -446 2309
559 -448 2319
565 -448 2315
572 -448 2314
579 -448 2315
583 -446 2299
592 -448 2307
594 -444 2287
601 -444 2288
611 -447 2297
621 -449 2309
633 -453 2326
636 -450 2309
643 -450 2309
652 -452 2314
659 -452 2313
667 -452 2312
671 -450 2301
682 -453 2313
685 -451 2300
696 -453 2310
700 -452 2301
707 -451 2298
712 -450 2290
720 -451 2292
724 -449 2280
732 -450 2281
742 -452 2289
747 -451 2283
756 -452 2285
763 -452 2284
766 -450 2270
771 -449 2265
779 -450 2266
786 -450 2264
794 -450 2264
800 -450 2260
805 -449 2252
813 -450 2254
821 -450 2255
828 -450 2253
833 -449 2245
840 -450 2244
847 -450 2242
856 -451 2245
861 -450 2236
866 -449 2229
874 -449 2231
881 -450 2229
887 -449 2225
895 -450 2224
907 -453 2236
911 -451 2226
915 -449 2215
922 -450 2214
933 -452 2220
938 -451 2215
946 -452 2214
953 -452 2212
959 -451 2207
974 -455 2222
978 -453 2212
986 -454 2212
1002 -458 2230
995 -452 2197
1022 -461 2238
1034 -463 2245
1034 -460 2228
1039 -460 2221
1049 -461 2223
1053 -460 2215
1057 -458 2205
1052 -453 2178
1011 -433 2076
921 -391 1875
892 -376 1801
889 -373 1781
901 -376 1792
903 -374 1781
909 -374 1780
904 -370 1755
916 -372 1765
926 -374 1770
929 -373 1763
937 -374 1764
936 -371 1749
942 -372 1748
956 -375 1761
961 -375 1755
971 -376 1761
970 -374 1746
973 -373 1737
981 -373 1738
988 -374 1739
-1337 -468 2281
-1335 -470 2296
-1319 -467 2285
-1297 -462 2263
-1296 -464 2278
-1282 -462 2271
-1251 -453 2233
-1261 -460 2267
-1237 -454 2241
-1227 -452 2238
-1204 -447 2214
-1211 -452 2244
-1199 -450 2237
-1176 -445 2212
-1182 -450 2240
-1166 -446 2227
-1154 -444 2220
-1140 -442 2210
-1132 -441 2211
-1122 -441 2210
-1121 -443 2225
-1117 -444 2233
-1096 -439 2210
-1094 -441 2223
-1077 -437 2204
-1070 -437 2208
-1060 -435 2204
-1048 -433 2196
-1045 -435 2208
-1028 -431 2190
-1021 -431 2191
-1013 -431 2193
-1000 -428 2183
-988 -426 2173
-976 -424 2165
-991 -433 2216
-1007 -443 2271
-1003 -445 2281
-998 -446 2289
-997 -449 2304
-991 -449 2310
-993 -453 2334
-977 -449 2316
-983 -456 2350
-973 -455 2347
-975 -459 2371
-969 -459 2377
-966 -462 2390
-960 -462 2397
-954 -463 2402
-955 -467 2427
-949 -468 2432
-947 -471 2449
-941 -471 2454
-936 -473 2463
-934 -476 2482
-929 -477 2491
-923 -478 2497
-920 -480 2512
-917 -483 2528
-908 -482 2526
-904 -485 2540
-901 -487 2554
-894 -487 2558
-892 -491 2579
-883 -490 2578
-879 -492 2591
-870 -492 2588
-868 -495 2609
-868 -500 2634
-861 -501 2641
-851 -499 2634
-845 -501 2645
-843 -504 2663
-833 -503 2662
-831 -506 2680
-830 -511 2706
-819 -509 2699
-816 -513 2718
-811 -515 2731
-809 -519 2755
-802 -520 2761
-802 -525 2790
-799 -529 2812
-795 -532 2829
-794 -537 2857
-781 -534 2844
-749 -517 2758
-728 -509 2714
-716 -506 2700
-708 -506 2703
-695 -502 2684
-689 -504 2694
-681 -504 2696
-676 -507 2710
-664 -503 2694
-656 -504 2698
-645 -501 2683
-640 -504 2699
-634 -505 2708
-619 -500 2680
-610 -499 2676
-602 -499 2679
-593 -498 2674
-584 -497 2671
-577 -498 2678
-564 -494 2654
-562 -499 2683
-551 -496 2670
-541 -494 2660
-533 -494 2658
-528 -497 2676
-517 -494 2660
-507 -492 2653
-500 -493 2657
-493 -494 2662
-484 -493 2657
-476 -493 2658
-466 -490 2647
-458 -490 2647
-452 -492 2656
-443 -491 2651
-433 -488 2637
-425 -488 2639
-415 -485 2621
-411 -490 2649
-402 -488 2637
-393 -487 2632
-384 -486 2628
-378 -487 2637
-371 -488 2641
-363 -488 2641
-354 -486 2631
-346 -486 2631
-337 -484 2620
-329 -483 2617
-322 -485 2627
-314 -484 2621
-304 -480 2603
-297 -482 2614
-288 -479 2599
-281 -480 2604
-273 -481 2606
-265 -479 2599
-257 -479 2597
-250 -480 2601
-241 -478 2592
-234 -477 2589
-224 -474 2572
-217 -474 2570
-210 -476 2581
-202 -475 2576
-194 -474 2571
-187 -474 2572
-180 -475 2577
-172 -473 2568
-164 -473 2567
-156 -471 2557
-148 -471 2555
-140 -469 2546
-133 -471 2556
-125 -469 2546
-118 -468 2539
-111 -470 2552
-103 -469 2544
-95 -468 2536
-88 -468 2538
-81 -467 2534
-73 -466 2527
-66 -467 2533
-58 -466 2527
-51 -466 2529
-43 -464 2517
-36 -464 2514
-29 -466 2525
-21 -465 2519
-14 -465 2523
-7 -462 2507
0 -463 2511
7 -462 2504
14 -462 2503
21 -462 2502
29 -460 2489
36 -463 2508
43 -460 2491
50 -461 2495
58 -461 2496
65 -461 2493
72 -459 2482
79 -459 2485
86 -460 2487
93 -457 2472
101 -459 2481
108 -459 2483
115 -457 2472
122 -459 2480
129 -458 2475
136 -455 2456
143 -457 2466
151 -457 2470
158 -457 2468
164 -454 2453
172 -457 2465
179 -455 2455
185 -454 2450
193 -455 2454
199 -454 2444
207 -456 2454
214 -455 2451
221 -454 2447
228 -454 2443
234 -453 2438
242 -453 2438
249 -454 2441
257 -456 2452
263 -453 2436
269 -452 2429
276 -452 2427
283 -452 2426
290 -451 2422
296 -450 2414
305 -453 2427
311 -450 2413
318 -451 2414
323 -448 2402
328 -446 2386
334 -443 2373
337 -439 2351
343 -437 2337
349 -436 2331
353 -434 2317
363 -437 2332
370 -438 2336
377 -438 2336
385 -439 2343
392 -439 2342
398 -439 2337
407 -440 2345
413 -440 2340
421 -440 2342
426 -439 2336
434 -440 2337
439 -439 2329
448 -441 2339
455 -440 2335
460 -438 2325
469 -441 2335
475 -440 2331
480 -438 2320
487 -439 2321
497 -441 2332
501 -439 2319
507 -438 2315
518 -441 2329
521 -439 2314
529 -439 2315
536 -440 2315
542 -439 2311
548 -438 2304
554 -438 2301
562 -439 2304
569 -439 2304
575 -438 2298
582 -438 2297
589 -439 2298
595 -438 2292
604 -439 2298
611 -440 2298
615 -438 2287
626 -440 2298
635 -443 2308
642 -442 2304
652 -444 2314
658 -444 2308
665 -444 2307
673 -445 2310
678 -444 2302
687 -445 2308
692 -444 2300
700 -444 2300
704 -443 2291
712 -443 2291
722 -445 2299
724 -442 2281
733 -444 2287
740 -443 2283
746 -443 2279
753 -443 2279
762 -444 2282
766 -443 2272
774 -443 2272
776 -441 2257
787 -443 2267
792 -442 2261
800 -443 2260
809 -444 2264
813 -442 2253
820 -442 2251
828 -443 2254
839 -446 2263
841 -443 2247
849 -443 2246
854 -443 2241
860 -442 2235
868 -443 2237
876 -443 2237
883 -444 2235
890 -444 2233
895 -443 2226
905 -445 2232
908 -443 2219
917 -444 2222
922 -443 2215
929 -443 2212
942 -446 2224
942 -443 2206
951 -444 2208
957 -443 2202
964 -443 2200
974 -445 2206
982 -445 2206
997 -449 2220
1006 -450 2222
1020 -453 2235
1011 -446 2197
1029 -451 2218
1039 -453 2222
1048 -453 2223
1050 -451 2209
1054 -450 2200
1048 -444 2169
1010 -426 2075
931 -389 1896
889 -369 1797
889 -367 1781
897 -368 1784
906 -370 1789
912 -370 1787
916 -369 1780
918 -367 1770
929 -370 1778
931 -368 1768
934 -367 1759
947 -370 1772
949 -369 1762
957 -369 1762
955 -366 1745
960 -366 1741
972 -369 1751
973 -367 1739
979 -367 1737
989 -369 1741
-1345 -463 2297
-1321 -458 2273
-1311 -457 2272
-1304 -457 2276
-1299 -458 2284
-1258 -446 2230
-1250 -446 2231
-1251 -449 2249
-1235 -446 2239
-1228 -446 2242
-1214 -443 2234
-1212 -445 2247
-1204 -445 2248
-1192 -443 2243
-1186 -444 2248
-1168 -440 2232
-1161 -440 2234
-1155 -440 2240
-1140 -437 2228
-1134 -438 2233
-1117 -434 2217
-1111 -435 2223
-1106 -436 2231
-1091 -432 2217
-1082 -432 2217
-1070 -430 2208
-1064 -430 2214
-1053 -429 2210
-1040 -426 2199
-1032 -426 2200
-1021 -424 2194
-1013 -424 2195
-1003 -422 2189
-986 -418 2170
-982 -419 2180
-995 -428 2225
-1004 -435 2264
-1006 -439 2289
-1000 -440 2294
-991 -439 2292
-991 -442 2311
-990 -445 2328
-986 -447 2340
-985 -449 2356
-973 -447 2348
-974 -451 2370
-965 -450 2369
-967 -455 2395
-962 -456 2403
-954 -456 2404
-951 -458 2417
-949 -461 2434
-943 -461 2439
-943 -465 2463
-935 -465 2463
-931 -467 2476
-930 -470 2494
-925 -471 2503
-920 -473 2515
-915 -474 2524
-908 -475 2528
-903 -476 2539
-902 -480 2559
-894 -480 2561
-891 -483 2578
-883 -482 2578
-881 -486 2598
-868 -483 2586
-866 -486 2605
-861 -488 2616
-858 -490 2631
-853 -492 2643
-845 -493 2646
-839 -494 2654
-834 -495 2665
-831 -499 2683
-818 -495 2669
-818 -501 2698
-818 -506 2726
-808 -504 2721
-799 -504 2721
-792 -505 2727
-792 -510 2758
-784 -510 2759
-786 -517 2800
-779 -518 2806
-764 -514 2783
-742 -504 2734
-725 -499 2705
-717 -499 2707
-715 -503 2731
-699 -497 2702
-697 -501 2725
-680 -495 2692
-678 -500 2718
-664 -496 2697
-655 -495 2695
-645 -494 2688
-636 -492 2682
-631 -495 2698
-619 -492 2681
-613 -493 2689
-606 -494 2696
-598 -494 2699
-586 -491 2683
-577 -490 2676
-567 -489 2671
-558 -487 2665
-556 -492 2692
-539 -484 2651
-536 -489 2677
-524 -486 2659
-517 -486 2664
-508 -485 2658
-500 -485 2658
-494 -486 2667
-482 -483 2647
-475 -484 2652
-469 -485 2661
-457 -481 2641
-450 -482 2646
-442 -482 2646
-431 -478 2627
-425 -480 2638
-415 -478 2626
-409 -480 2639
-400 -478 2627
-393 -479 2631
-383 -477 2622
-379 -481 2643
-367 -475 2615
-359 -475 2613
-351 -474 2610
-343 -475 2612
-336 -475 2614
-328 -475 2616
-320 -475 2613
-313 -475 2616
-303 -471 2596
-296 -473 2604
-288 -472 2601
-280 -472 2600
-271 -469 2585
-264 -470 2588
-257 -470 2593
-248 -469 2583
-240 -468 2578
-233 -470 2589
-225 -467 2576
-216 -466 2568
-210 -468 2579
-200 -463 2555
-195 -467 2577
-186 -464 2561
-178 -464 2560
-171 -464 2559
-163 -464 2557
-155 -463 2553
-148 -463 2553
-140 -461 2541
-133 -462 2549
-125 -462 2546
-118 -463 2552
-110 -460 2539
-102 -459 2529
-95 -460 2535
-88 -461 2541
-80 -459 2531
-73 -459 2532
-65 -458 2523
-58 -456 2513
-51 -456 2512
-43 -456 2515
-36 -456 2516
-29 -454 2504
-21 -455 2510
-14 -455 2509
-7 -454 2500
0 -457 2515
7 -454 2499
14 -453 2494
21 -452 2490
29 -452 2487
36 -453 2493
43 -453 2495
51 -455 2502
57 -450 2478
65 -452 2486
72 -450 2474
79 -451 2483
86 -449 2468
93 -450 2476
100 -449 2469
108 -450 2472
114 -448 2460
122 -449 2468
128 -447 2455
136 -450 2472
142 -446 2451
150 -447 2455
157 -446 2450
164 -448 2457
171 -447 2450
178 -448 2455
186 -448 2453
192 -446 2444
199 -446 2442
206 -446 2443
213 -445 2438
221 -447 2444
227 -445 2434
235 -447 2444
240 -443 2422
248 -445 2430
255 -445 2430
262 -445 2430
270 -445 2432
276 -445 2427
283 -444 2421
290 -443 2417
297 -444 2420
303 -442 2408
308 -440 2397
316 -441 2404
321 -438 2387
329 -439 2390
332 -434 2363
339 -434 2359
342 -430 2336
349 -430 2334
354 -427 2320
358 -425 2304
367 -426 2313
374 -427 2313
382 -428 2321
390 -430 2331
398 -431 2332
402 -429 2320
411 -431 2330
417 -429 2322
424 -430 2321
431 -430 2324
437 -429 2317
444 -429 2317
450 -429 2314
458 -430 2319
465 -430 2317
472 -430 2315
479 -430 2315
485 -430 2311
491 -429 2305
498 -429 2305
505 -430 2305
513 -431 2309
519 -430 2303
527 -431 2310
533 -430 2303
538 -429 2295
543 -428 2287
553 -430 2299
560 -430 2297
566 -429 2291
573 -430 2292
580 -430 2289
586 -429 2284
593 -430 2285
599 -429 2282
606 -429 2281
613 -429 2279
616 -426 2262
622 -426 2260
636 -431 2285
650 -436 2308
656 -436 2304
664 -437 2307
673 -438 2311
678 -436 2302
683 -435 2295
693 -437 2302
699 -437 2298
707 -437 2299
710 -435 2284
721 -438 2296
725 -436 2286
735 -438 2293
741 -437 2289
747 -437 2284
753 -437 2281
756 -434 2265
767 -437 2277
772 -436 2269
780 -436 2271
787 -436 2268
794 -436 2266
801 -437 2265
807 -436 2260
810 -434 2248
819 -435 2252
827 -436 2251
835 -436 2253
840 -436 2246
848 -436 2247
852 -435 2236
864 -437 2246
870 -437 2243
877 -437 2241
885 -438 2241
889 -436 2230
900 -438 2239
900 -435 2219
908 -436 2220
918 -437 2226
922 -436 2216
931 -437 2218
936 -436 2211
947 -438 2219
954 -438 2215
960 -438 2211
967 -438 2210
970 -436 2197
979 -437 2199
992 -440 2211
1003 -441 2215
1011 -442 2215
1029 -447 2237
1029 -444 2220
1038 -445 2221
1048 -446 2225
1051 -445 2213
1050 -441 2194
1053 -439 2181
1023 -424 2103
930 -383 1895
896 -366 1810
889 -361 1783
902 -364 1794
910 -365 1797
902 -360 1767
908 -360 1765
917 -361 1770
924 -362 1769
931 -362 1768
936 -362 1765
934 -359 1748
943 -361 1752
953 -362 1756
958 -362 1752
966 -363 1753
978 -365 1762
970 -360 1735
984 -363 1747
980 -360 1727
-1323 -448 2261
-1306 -445 2249
-1315 -451 2281
-1292 -445 2257
-1274 -442 2242
-1278 -446 2266
-1269 -445 2267
-1252 -442 2253
-1249 -443 2265
-1229 -439 2244
-1223 -439 2252
-1212 -438 2249
-1209 -440 2259
-1197 -438 2255
-1180 -435 2240
-1181 -437 2258
-1162 -433 2238
-1155 -433 2243
-1141 -431 2233
-1136 -432 2240
-1124 -430 2234
-1111 -427 2224
-1099 -426 2217
-1089 -424 2214
-1084 -426 2223
-1067 -421 2204
-1054 -419 2195
-1041 -417 2186
-1042 -420 2204
-1029 -417 2194
-1022 -418 2198
-1013 -417 2196
-997 -413 2178
-984 -410 2167
-978 -411 2172
-991 -419 2219
-1005 -428 2269
-998 -429 2272
-997 -431 2288
-992 -432 2295
-993 -435 2316
-988 -437 2325
-983 -438 2333
-979 -439 2343
-975 -441 2354
-970 -442 2362
-967 -444 2376
-959 -444 2376
-964 -449 2409
-957 -450 2414
-955 -452 2429
-951 -454 2439
-944 -454 2444
-934 -453 2441
-934 -457 2463
-931 -459 2475
-927 -461 2489
-922 -462 2498
-912 -461 2493
-911 -464 2513
-911 -469 2538
-903 -468 2539
-897 -469 2545
-895 -472 2564
-887 -472 2566
-883 -474 2580
-879 -476 2592
-873 -477 2599
-873 -482 2626
-860 -480 2615
-857 -482 2630
-851 -483 2638
-848 -486 2655
-842 -488 2666
-831 -486 2658
-826 -488 2670
-818 -487 2669
-815 -491 2691
-809 -492 2699
-808 -497 2725
-801 -497 2731
-792 -496 2727
-788 -500 2746
-784 -502 2763
-781 -506 2782
-772 -505 2781
-757 -501 2759
-740 -495 2728
-729 -493 2718
-717 -491 2708
-709 -491 2709
-702 -491 2713
-692 -490 2707
-684 -490 2710
-674 -489 2703
-664 -487 2698
-657 -488 2701
-648 -488 2702
-636 -484 2683
-631 -487 2700
-618 -483 2677
-613 -486 2694
-600 -481 2671
-591 -480 2668
-585 -482 2677
-576 -481 2673
-572 -484 2692
-562 -483 2686
-548 -478 2659
-542 -480 2668
-531 -477 2654
-526 -480 2670
-515 -477 2655
-508 -477 2656
-498 -475 2649
-494 -479 2671
-484 -477 2659
-474 -474 2646
-467 -476 2655
-457 -473 2639
-451 -475 2651
-441 -472 2638
-433 -473 2641
-425 -472 2636
-415 -470 2628
-406 -469 2621
-400 -470 2630
-391 -469 2623
-384 -470 2630
-374 -467 2611
-367 -468 2620
-360 -468 2620
-350 -466 2606
-344 -468 2618
-336 -467 2616
-329 -469 2625
-318 -464 2598
-311 -465 2602
-306 -468 2622
-294 -463 2592
-286 -462 2586
-279 -463 2592
-269 -459 2571
-263 -460 2579
-255 -460 2577
-248 -461 2582
-239 -459 2573
-231 -458 2567
-224 -458 2568
-215 -455 2553
-209 -458 2566
-201 -457 2561
-193 -456 2558
-184 -453 2538
-177 -453 2542
-170 -455 2549
-162 -454 2547
-154 -452 2534
-147 -453 2543
-139 -451 2528
-132 -452 2536
-125 -452 2532
-117 -451 2528
-110 -450 2525
-102 -450 2525
-95 -450 2524
-88 -451 2531
-80 -451 2530
-72 -447 2508
-65 -449 2515
-58 -447 2504
-51 -450 2525
-43 -447 2504
-36 -446 2501
-28 -446 2499
-21 -447 2505
-14 -446 2497
-7 -446 2498
0 -447 2505
7 -447 2503
14 -446 2498
21 -445 2492
29 -444 2487
36 -445 2490
43 -446 2495
50 -445 2491
57 -444 2483
65 -444 2486
72 -442 2473
79 -441 2467
86 -442 2469
93 -442 2472
100 -440 2459
107 -441 2463
114 -441 2465
122 -441 2464
128 -440 2458
135 -438 2448
143 -440 2454
150 -441 2460
157 -439 2450
164 -440 2453
172 -441 2460
178 -439 2449
185 -439 2445
192 -439 2447
199 -438 2442
205 -437 2432
212 -436 2427
219 -436 2425
227 -438 2434
234 -437 2429
240 -436 2425
248 -437 2428
253 -435 2414
262 -436 2424
268 -435 2413
276 -437 2425
282 -435 2414
288 -434 2406
296 -435 2410
302 -433 2400
309 -434 2404
316 -433 2398
321 -431 2383
326 -429 2374
333 -429 2373
340 -429 2370
344 -425 2349
348 -422 2329
354 -421 2324
360 -420 2318
