VERSION 0.7
FIELDS x y z
SIZE 4 4 4
TYPE I I I
COUNT 1 1 1
WIDTH 3994
HEIGHT 1
VIEWPOINT 0.0 0.0 0.0 1.0 0.0 0.0 0.0
POINTS 3994
DATA ascii
80 101 400
86 107 421
85 105 413
88 107 421
87 104 408
87 103 403
90 104 409
88 100 395
89 100 392
89 99 386
98 108 424
96 104 410
94 100 393
108 114 449
93 97 381
93 96 374
97 99 387
103 104 407
97 96 376
103 101 396
102 99 387
109 105 410
104 99 384
110 103 400
107 99 385
109 100 389
117 106 413
114 102 397
115 102 396
121 107 414
118 103 398
116 100 388
120 102 395
126 106 410
133 111 432
109 90 347
122 100 386
121 98 377
74 59 222
73 58 219
74 58 220
75 58 219
62 47 177
62 47 177
61 46 171
67 50 188
45 33 119
33 24 85
52 38 139
41 29 104
44 31 111
48 34 122
44 31 111
61 43 157
106 74 278
113 78 293
128 87 331
132 90 339
164 110 419
148 99 374
160 106 402
173 114 432
156 101 384
186 120 455
185 119 449
176 112 423
180 114 430
197 124 468
197 123 464
176 109 409
202 124 465
185 113 423
197 119 448
175 105 392
187 111 417
184 109 407
170 100 371
193 112 418
205 118 442
216 124 462
212 121 450
205 116 430
203 114 424
208 116 431
208 115 427
208 115 424
196 108 396
217 118 436
201 109 399
215 115 424
226 120 443
225 119 438
195 103 375
225 118 430
237 123 451
226 117 426
220 113 412
213 109 394
238 121 438
236 119 431
242 121 440
240 120 433
250 124 447
240 118 426
265 129 467
231 112 403
226 109 392
265 127 457
252 120 430
231 110 391
-2371 1155 4010
-2422 1186 4128
-2380 1172 4086
-2425 1201 4194
-287 145 500
-493 249 866
-521 265 923
-552 282 984
-640 328 1150
-653 337 1182
-689 357 1257
-731 381 1343
-736 386 1364
-708 374 1322
-709 377 1334
-667 357 1265
-685 368 1309
-675 365 1299
-651 355 1264
-645 353 1260
-643 355 1268
-637 353 1265
-600 335 1200
-492 277 994
-365 208 743
-258 149 530
-175 102 362
-132 78 276
-110 67 233
-91 56 194
-79 49 170
-87 54 188
-110 68 241
-188 115 413
-280 171 618
-447 273 994
-569 349 1276
-573 354 1297
-549 342 1253
-557 349 1281
-572 361 1328
-577 366 1350
-576 368 1359
-565 364 1346
-564 367 1355
-552 361 1337
-558 368 1364
-555 369 1369
-548 367 1363
-546 368 1371
-545 370 1379
-539 369 1377
-538 371 1386
-534 372 1388
-528 370 1386
-528 373 1398
-522 373 1397
-523 376 1411
-519 376 1413
-513 375 1410
-508 375 1411
-506 377 1419
-504 378 1428
-498 377 1424
-492 376 1421
-493 380 1438
-493 383 1451
-485 380 1442
-483 383 1452
-480 384 1458
-473 381 1450
-472 384 1461
-469 385 1466
-463 384 1463
-457 382 1460
-454 384 1467
-449 383 1465
-449 387 1481
-446 388 1487
-443 389 1492
-440 391 1500
-433 389 1493
-429 389 1497
-429 393 1511
-421 390 1503
-418 392 1509
-412 390 1505
-410 392 1514
-406 393 1519
-398 390 1505
-396 393 1518
-393 394 1524
-388 393 1522
-388 398 1541
-381 395 1533
-375 394 1530
-369 392 1523
-362 390 1515
-351 382 1487
-327 361 1406
-217 244 947
-164 189 730
-164 191 740
-160 189 732
-154 184 714
-155 188 729
-145 178 691
-148 185 720
-142 180 698
-140 180 699
-138 180 700
-133 177 689
-134 181 703
-135 184 718
-133 185 722
-129 183 713
-126 181 705
-125 183 713
-119 178 694
-122 184 719
-119 183 714
-118 186 726
-117 186 729
-110 180 702
-111 185 723
-109 184 720
-108 186 730
-104 182 715
-102 184 722
-103 189 740
-100 187 735
-98 188 738
-93 183 718
-93 186 730
-93 191 751
-91 190 749
-88 189 745
-89 197 775
-80 181 713
-72 170 667
-62 150 589
-50 127 496
-44 115 452
-44 120 469
-40 112 439
-35 101 396
-32 96 375
-28 90 350
-26 87 337
-26 90 352
-26 93 362
-24 89 346
-24 92 357
-20 84 325
-20 85 329
-19 85 333
-19 89 347
-18 89 348
-17 89 346
-15 87 340
-15 92 360
-13 88 343
-12 88 343
-12 91 355
-11 94 368
-10 94 366
-10 99 390
-8 95 371
-7 94 367
-6 96 374
-5 102 399
-4 105 414
-3 109 429
-3 119 467
-1 118 466
0 109 428
1 110 433
2 112 440
3 118 465
5 118 467
6 114 449
7 113 446
8 106 418
9 102 399
10 102 402
11 101 395
12 95 371
13 97 379
14 95 371
15 92 362
16 91 356
17 92 360
19 96 375
20 95 372
22 102 400
23 100 392
25 105 413
27 106 418
32 123 484
34 124 489
34 118 464
36 122 482
36 116 457
32 100 391
39 118 463
38 111 437
41 115 452
42 115 451
46 122 482
48 123 484
49 121 476
45 107 421
49 114 447
49 112 439
49 108 423
51 110 432
53 111 437
52 107 421
55 110 431
55 108 424
57 110 431
57 107 419
60 110 432
61 109 426
62 110 430
63 108 422
64 107 420
66 109 427
65 105 412
70 111 436
71 111 433
70 107 419
70 105 411
71 105 410
72 104 408
73 105 410
74 104 405
77 107 416
74 100 391
75 101 393
77 102 398
73 95 368
73 94 364
86 109 423
88 109 425
90 110 427
87 105 410
88 105 407
88 103 400
91 105 407
90 103 399
92 103 401
87 97 375
108 119 461
97 105 407
97 104 401
111 117 454
100 105 405
96 99 382
98 100 386
99 100 384
100 100 384
102 100 387
107 104 402
107 103 396
104 98 379
110 103 396
114 106 409
113 104 400
102 92 354
120 108 413
118 105 404
129 113 435
126 110 421
123 106 406
112 95 363
118 99 379
115 96 367
101 84 318
103 85 321
77 62 233
75 60 223
73 58 216
54 42 154
59 45 167
68 52 193
53 40 147
51 38 139
47 35 125
54 40 145
48 35 126
37 27 94
42 30 106
54 39 140
92 65 242
108 76 284
108 76 282
95 66 245
136 94 351
134 92 343
146 99 373
153 103 385
146 97 364
147 97 364
185 122 457
185 121 454
175 114 424
178 115 428
190 122 454
166 105 392
175 110 408
168 105 388
182 113 419
180 111 412
180 110 407
181 110 405
189 114 422
182 109 401
182 108 398
208 122 451
215 126 463
220 128 470
213 123 452
199 114 418
201 115 419
213 120 441
205 115 421
218 122 444
216 119 436
207 114 415
193 106 383
204 111 402
209 113 409
234 125 455
223 119 429
235 125 450
219 116 416
216 113 406
236 123 442
218 112 403
238 122 439
234 119 428
240 122 435
225 113 403
244 122 436
221 110 391
222 110 390
248 122 434
242 118 419
225 109 386
243 118 415
269 129 457
-2433 1198 4111
-2413 1196 4109
-2394 1193 4107
-2415 1210 4173
-354 180 616
-503 257 882
-548 281 969
-582 301 1037
-564 293 1013
-651 339 1176
-660 346 1203
-686 362 1260
-710 377 1314
-707 377 1318
-705 379 1324
-692 374 1310
-667 363 1274
-645 353 1241
-644 355 1248
-640 355 1251
-641 357 1261
-620 348 1231
-599 339 1199
-497 283 1002
-373 215 759
-264 154 541
-183 108 378
-130 78 271
-112 68 235
-98 60 208
-81 51 175
-85 53 184
-95 60 208
-151 94 331
-232 144 514
-373 231 830
-554 344 1241
-566 354 1280
-571 360 1303
-582 369 1338
-582 371 1349
-578 371 1351
-576 373 1358
-574 374 1365
-578 379 1386
-572 379 1385
-561 374 1370
-559 376 1378
-557 377 1385
-550 376 1380
-549 378 1390
-541 375 1381
-540 377 1391
-536 377 1392
-534 379 1402
-533 382 1413
-524 378 1401
-520 378 1403
-518 380 1411
-514 381 1414
-512 382 1422
-509 383 1425
-505 384 1430
-505 387 1443
-500 386 1442
-494 385 1438
-491 386 1446
-484 384 1439
-483 386 1449
-482 389 1461
-476 389 1460
-470 387 1454
-471 391 1472
-465 390 1470
-459 389 1465
-455 389 1468
-454 392 1481
-452 394 1489
-447 394 1490
-443 394 1491
-438 394 1493
-432 393 1489
-431 396 1502
-426 395 1502
-421 395 1501
-418 396 1509
-410 393 1496
-411 398 1517
-405 397 1513
-400 396 1511
-398 399 1523
-394 399 1525
-390 400 1529
-385 399 1529
-378 397 1521
-376 400 1532
-371 399 1530
-366 398 1530
-350 386 1482
-326 364 1399
-238 271 1039
-175 203 776
-166 195 747
-163 194 744
-158 192 735
-155 191 730
-157 196 750
-148 187 716
-137 176 675
-143 186 716
-140 185 710
-137 183 705
-132 180 692
-133 184 709
-129 182 701
-127 182 699
-126 183 704
-122 181 698
-120 181 696
-122 186 718
-121 188 726
-115 183 708
-117 189 729
-116 191 739
-112 188 729
-110 188 728
-107 186 722
-106 188 729
-103 188 727
-105 194 752
-100 189 732
-99 193 747
-96 190 739
-96 194 754
-96 199 772
-91 194 753
-90 195 759
-89 199 774
-86 197 765
-79 185 721
-59 144 558
-48 123 474
-42 112 432
-39 108 418
-36 104 399
-37 108 417
-30 92 353
-30 97 372
-26 89 340
-25 87 333
-25 92 352
-25 93 359
-23 92 352
-21 89 341
-21 92 355
-20 92 355
-17 84 324
-16 82 313
-17 93 358
-15 86 333
-15 91 352
-14 91 351
-13 93 358
-12 94 362
-11 93 357
-10 96 373
-9 96 370
-8 93 361
-7 96 372
-6 96 372
-5 98 378
-4 101 393
-3 102 397
-2 106 413
-1 108 421
0 108 417
1 102 394
2 108 420
3 121 473
5 127 494
6 128 498
7 117 455
8 102 396
9 102 396
10 99 383
11 98 381
12 93 362
13 96 370
14 97 374
15 92 357
16 90 349
17 95 366
18 95 367
19 93 359
21 96 373
23 99 385
24 101 393
26 102 397
28 107 417
31 113 441
31 110 427
36 123 481
37 122 474
33 105 405
32 97 377
35 100 389
45 127 496
42 115 445
45 119 463
47 122 473
53 133 517
60 147 574
52 123 476
54 125 485
49 111 429
52 114 442
52 111 431
54 113 439
54 110 425
56 111 429
58 111 432
59 111 430
60 111 428
61 110 426
63 112 433
64 111 428
64 109 421
66 111 430
67 110 424
68 110 424
71 112 432
70 108 419
71 108 418
72 108 417
72 106 408
74 106 410
72 102 394
75 104 401
74 101 390
75 102 392
74 98 376
73 96 368
76 98 378
76 97 373
79 99 380
86 106 407
86 105 403
87 105 402
91 108 415
91 106 406
92 107 409
91 104 397
93 104 400
90 100 382
91 99 379
95 102 390
93 99 379
98 103 394
93 97 369
93 96 365
99 100 382
100 101 383
103 103 391
99 98 371
114 111 421
112 108 410
113 107 408
99 93 351
107 99 375
113 104 394
107 97 368
124 111 422
115 102 388
108 95 358
120 104 394
116 100 379
105 89 336
90 76 283
82 69 256
78 64 237
79 65 240
70 57 208
50 40 144
65 51 187
53 41 148
47 36 129
31 23 80
43 33 116
45 34 119
54 41 146
51 38 135
55 40 145
48 35 124
79 58 210
92 66 244
104 74 274
122 87 321
138 97 361
133 93 344
150 104 385
157 108 402
164 112 414
151 102 377
169 114 421
168 112 413
188 125 461
171 112 413
174 113 417
184 119 438
189 121 447
168 107 393
178 112 413
188 118 432
190 118 433
209 130 475
176 108 394
193 118 429
195 118 430
202 121 443
198 118 430
195 116 421
208 122 444
212 124 449
214 124 450
199 115 415
174 99 357
207 118 425
211 119 429
239 134 484
189 105 377
228 126 454
236 130 466
212 116 414
220 119 426
211 114 405
212 114 405
212 113 401
228 121 429
234 123 436
230 120 426
232 120 426
218 113 398
252 130 458
236 120 424
241 122 429
234 118 415
235 118 412
219 109 381
233 115 403
248 122 426
252 123 430
258 126 437
-2426 1209 4096
-2372 1189 4035
-2339 1179 4009
-2371 1201 4093
-221 115 384
-554 286 972
-579 301 1023
-593 309 1055
-533 280 955
-641 338 1158
-673 357 1226
-700 373 1284
-716 384 1324
-676 365 1259
-687 373 1291
-655 358 1239
-657 362 1253
-650 360 1249
-647 360 1252
-640 359 1250
-649 366 1277
-633 360 1256
-604 345 1207
-523 301 1054
-402 234 818
-292 172 599
-199 118 411
-133 81 278
-115 71 242
-95 60 203
-79 51 171
-80 51 174
-93 60 203
-138 87 304
-230 144 508
-345 216 767
-546 343 1223
-580 366 1310
-583 371 1329
-583 374 1339
-587 379 1360
-586 381 1369
-582 381 1373
-579 382 1376
-580 385 1391
-572 383 1383
-569 384 1389
-563 383 1387
-558 383 1387
-554 383 1389
-548 381 1386
-549 385 1400
-544 384 1400
-538 384 1399
-535 384 1402
-532 385 1409
-533 389 1424
-522 385 1408
-521 386 1417
-519 388 1425
-512 387 1421
-512 390 1434
-507 389 1433
-504 390 1439
-505 394 1454
-500 394 1455
-494 393 1452
-488 392 1449
-487 394 1461
-479 392 1452
-476 393 1458
-475 395 1469
-470 395 1470
-464 394 1467
-464 398 1482
-459 397 1479
-454 396 1479
-451 398 1487
-445 397 1483
-443 398 1490
-437 398 1490
-432 397 1487
-424 394 1478
-427 400 1503
-420 398 1496
-415 398 1497
-413 400 1506
-409 401 1508
-403 399 1504
-399 400 1507
-399 404 1526
-391 401 1516
-386 401 1515
-384 403 1524
-381 404 1530
-377 405 1533
-371 404 1531
-365 403 1528
-346 387 1467
-327 370 1405
-259 298 1129
-182 214 809
-161 192 725
-162 195 738
-160 196 740
-158 196 744
-157 197 747
-149 190 719
-152 197 747
-142 187 708
-138 185 701
-136 184 699
-136 188 714
-134 188 714
-132 187 712
-130 187 713
-128 189 718
-125 187 713
-128 194 740
-121 187 711
-124 195 744
-123 197 752
-118 193 736
-115 192 733
-114 192 736
-113 196 749
-110 194 741
-106 192 733
-106 195 745
-101 190 728
-103 197 754
-100 195 749
-98 196 753
-95 195 750
-89 188 721
-94 202 777
-91 200 768
-88 200 768
-83 194 745
-76 183 702
-63 155 595
-45 117 445
-42 113 432
-38 106 403
-37 106 406
-35 106 404
-32 100 379
-29 93 355
-28 93 355
-25 87 330
-25 92 348
-23 89 340
-21 87 328
-21 88 335
-20 87 330
-19 89 339
-17 84 321
-16 86 326
-16 87 332
-16 92 349
-14 89 339
-14 94 358
-12 89 337
-11 90 343
-10 90 345
-9 90 342
-9 95 364
-8 97 372
-6 92 349
-5 92 349
-4 95 362
-3 92 353
-2 93 356
-1 92 353
0 87 332
0 87 332
1 93 355
2 96 367
3 109 418
5 114 439
6 107 412
7 104 399
8 99 380
9 96 368
10 95 363
11 99 380
12 93 356
13 92 353
13 90 344
14 86 326
15 88 337
17 91 349
18 95 364
19 92 351
21 96 365
22 97 372
24 102 390
26 104 398
27 105 402
32 118 453
29 101 388
31 107 410
38 126 483
34 107 411
34 104 400
36 105 404
37 106 406
42 118 453
48 129 497
46 120 461
49 125 480
52 129 495
51 123 472
55 128 493
51 116 446
54 119 458
52 111 426
54 113 432
55 112 431
55 110 421
58 113 433
58 111 423
60 112 428
62 115 438
61 110 419
65 114 437
66 115 439
67 113 430
66 109 418
68 110 421
71 114 437
71 111 425
70 108 413
74 112 428
74 110 418
74 108 413
72 103 393
74 105 399
75 104 395
77 105 401
76 103 390
77 103 390
77 100 381
77 100 378
77 98 371
80 99 376
81 100 377
86 105 398
90 108 410
88 104 393
94 109 414
92 105 399
93 105 398
92 104 392
99 110 416
110 121 457
94 101 383
97 104 390
98 103 390
107 112 421
96 99 372
100 102 383
99 99 372
104 103 387
107 105 393
106 103 387
104 99 373
110 105 393
113 106 398
113 105 394
123 113 425
117 107 399
125 113 423
120 107 399
110 97 361
96 84 311
92 79 293
88 75 276
60 51 183
74 62 225
77 63 232
77 63 230
57 46 166
56 44 159
50 39 139
52 41 146
45 35 121
45 34 120
43 33 114
49 37 131
37 27 94
75 56 201
64 47 168
93 68 248
90 66 238
125 91 332
135 97 355
148 105 387
154 109 399
160 112 412
151 105 385
168 116 424
170 117 427
174 118 432
179 121 441
180 121 440
185 123 449
182 120 437
197 129 471
186 121 440
197 127 461
193 123 447
173 110 396
178 112 405
190 119 429
188 117 422
206 127 458
178 109 392
209 127 457
210 127 456
199 119 428
206 123 440
183 108 386
195 114 408
201 117 419
216 125 446
198 114 405
212 121 432
211 120 426
238 134 477
220 123 437
209 116 412
214 119 419
218 120 422
207 113 398
196 106 372
227 122 431
193 103 361
211 112 392
227 120 421
239 125 439
222 116 404
233 121 421
233 120 418
225 115 401
240 122 424
253 128 445
235 118 409
239 120 414
242 121 416
253 125 431
225 111 380
-2396 1207 4042
-2368 1200 4025
-2312 1179 3959
-2355 1207 4063
-64 36 111
-492 257 862
-502 264 887
-514 272 914
-558 297 1000
-613 327 1106
-669 359 1218
-666 359 1220
-687 373 1269
-703 384 1309
-711 390 1333
-641 355 1212
-652 363 1242
-641 359 1230
-638 360 1235
-661 375 1290
-641 366 1260
-654 375 1295
-605 350 1208
-526 306 1059
-421 247 855
-303 180 620
-199 120 411
-146 90 305
-110 68 231
-95 60 202
-80 51 171
-85 55 184
-96 62 210
-156 99 342
-245 155 540
-367 233 816
-543 345 1216
-571 365 1289
-578 372 1315
-582 377 1337
-587 383 1360
-583 383 1362
-580 384 1367
-583 389 1384
-575 386 1377
-571 387 1381
-571 390 1393
-569 392 1401
-561 389 1393
-557 389 1394
-555 391 1403
-550 390 1402
-544 389 1400
-537 387 1396
-536 390 1405
-536 393 1418
-531 392 1419
-529 394 1426
-522 392 1421
-522 395 1432
-515 394 1429
-515 396 1441
-511 397 1445
-504 395 1438
-502 397 1446
-497 396 1446
-491 395 1443
-492 400 1461
-486 398 1457
-483 399 1462
-480 400 1468
-475 400 1470
-470 399 1467
-464 398 1464
-461 400 1471
-459 402 1479
-453 400 1475
-453 404 1491
-445 401 1481
-445 405 1499
-438 403 1492
-432 402 1488
-428 402 1491
-423 402 1490
-420 403 1494
-415 403 1496
-417 409 1520
-407 403 1500
-404 405 1506
-400 405 1510
-396 406 1512
-394 409 1525
-391 410 1532
-385 409 1529
-378 407 1520
-377 410 1532
-366 403 1508
-361 402 1507
-351 396 1485
-330 377 1415
-279 324 1215
-191 227 847
-171 205 768
-169 206 770
-162 201 751
-167 209 784
-156 198 742
-158 204 764
-159 208 780
-144 191 717
-143 193 724
-145 199 748
-140 195 734
-139 197 742
-137 197 742
-134 197 739
-129 193 724
-127 191 721
-127 195 736
-122 192 722
-123 195 737
-122 198 745
-117 193 729
-117 197 744
-113 194 733
-113 197 745
-114 202 765
-108 196 743
-106 196 742
-104 198 749
-99 191 724
-99 196 743
-97 198 749
-94 194 736
-92 196 742
-89 193 732
-88 197 749
-85 194 738
-78 185 701
-74 180 683
-61 154 582
-46 122 459
-41 112 420
-39 109 410
-34 101 380
-35 105 395
-32 101 380
-29 97 363
-27 92 344
-25 91 341
-24 90 338
-22 88 329
-22 89 334
-22 92 344
-20 89 334
-20 92 347
-19 93 349
-17 89 335
-16 88 330
-15 88 331
-14 90 339
-13 89 333
-12 89 335
-12 94 355
-10 87 328
-9 91 341
-8 90 339
-7 92 348
-6 94 353
-5 89 335
-4 95 357
-3 91 344
-2 91 344
-1 86 325
0 89 336
0 88 330
1 91 345
2 101 382
3 112 426
5 117 445
6 110 418
7 99 375
7 91 345
9 95 360
10 94 355
10 92 348
12 96 363
12 92 348
13 91 344
15 95 357
16 93 350
16 91 343
17 88 331
18 88 333
20 93 350
21 95 360
23 99 373
25 101 382
27 106 402
28 106 403
35 129 490
35 120 455
36 119 453
36 115 436
32 99 375
34 100 380
36 103 390
40 113 429
46 127 482
43 114 430
49 126 479
48 120 454
51 124 469
54 128 485
56 129 488
55 124 469
55 119 452
54 114 431
57 118 445
58 117 443
57 113 427
59 115 436
59 112 425
61 113 426
62 113 427
63 113 425
65 113 428
66 113 426
66 111 419
68 112 422
69 111 418
70 111 418
70 110 413
72 111 418
75 113 424
75 111 416
75 109 409
74 105 396
75 105 394
76 105 396
75 103 385
77 103 388
75 99 371
78 102 381
80 102 384
79 99 371
85 106 397
76 94 350
84 102 381
92 110 412
92 109 407
95 110 413
95 109 407
95 108 404
94 105 391
102 113 421
95 104 387
91 98 364
95 101 377
96 101 377
102 107 396
107 110 408
102 104 384
104 104 387
101 101 373
103 101 376
112 109 403
116 112 414
113 107 396
102 96 355
115 107 396
119 109 404
99 90 332
108 97 358
111 99 363
82 72 261
75 65 238
87 75 272
70 60 216
60 50 181
56 46 165
65 53 192
69 56 201
46 37 130
46 37 128
43 34 119
47 36 127
50 39 135
51 39 136
63 48 170
71 54 191
87 65 235
97 73 262
115 86 311
121 89 323
129 94 341
136 99 357
158 114 414
166 119 430
165 117 424
158 111 403
181 126 458
175 122 440
165 114 410
178 121 438
176 119 430
165 111 398
186 124 446
175 116 415
172 113 405
174 113 405
194 126 451
172 110 394
192 122 437
191 121 431
199 125 445
196 122 435
175 108 384
190 117 416
184 113 399
187 113 400
176 106 374
177 106 374
189 112 395
218 128 453
203 119 418
207 121 425
201 116 409
222 128 448
203 116 406
209 118 414
211 119 415
211 118 411
205 114 396
224 123 430
198 109 376
220 120 417
212 115 397
224 120 417
218 117 403
214 114 391
238 126 433
239 126 433
215 112 385
229 119 407
230 119 406
228 117 399
235 120 409
232 118 401
219 110 374
225 113 383
231 115 389
-2390 1218 4028
-2352 1205 3994
-2310 1191 3953
-2321 1203 4001
-2447 1276 4250
-574 303 1005
-606 322 1069
-546 292 971
-528 284 945
-558 302 1007
-605 329 1100
-632 345 1157
-647 356 1195
-645 356 1199
-657 365 1232
-647 362 1223
-615 346 1171
-639 362 1227
-643 366 1244
-640 367 1248
-645 372 1268
-652 379 1291
-602 352 1202
-520 306 1046
-421 250 855
-293 176 600
-198 121 408
-130 81 271
-98 62 207
-90 58 192
-81 52 173
-81 53 175
-95 62 207
-153 99 336
-259 166 571
-381 244 845
-536 345 1200
-568 367 1282
-579 377 1317
-586 384 1344
-586 387 1357
-584 389 1363
-583 390 1372
-584 394 1386
-577 392 1382
-575 394 1388
-572 395 1395
-568 395 1396
-565 396 1402
-560 396 1403
-549 391 1387
-546 392 1392
-547 396 1407
-542 395 1407
-541 397 1416
-534 395 1411
-528 394 1408
-527 397 1419
-522 396 1419
-519 398 1425
-517 399 1432
-509 396 1423
-507 398 1432
-504 400 1438
-500 400 1440
-498 401 1447
-491 400 1442
-492 404 1459
-485 402 1454
-481 403 1457
-478 403 1461
-474 404 1464
-473 406 1475
-464 403 1463
-463 406 1476
-454 401 1461
-453 405 1474
-451 407 1485
-445 406 1481
-441 407 1485
-437 407 1487
-433 407 1491
-428 407 1490
-427 410 1502
-425 412 1511
-415 407 1493
-415 411 1510
-406 408 1498
-405 411 1511
-398 408 1502
-398 412 1519
-390 409 1507
-386 409 1510
-385 414 1527
-374 407 1503
-375 413 1526
-368 410 1518
-364 411 1520
-351 401 1487
-331 383 1419
-301 353 1309
-203 243 899
-167 204 753
-171 211 778
-153 191 706
-170 216 799
-162 208 770
-155 203 750
-156 206 764
-153 205 760
-146 199 739
-142 197 732
-133 188 697
-140 201 745
-136 197 734
-134 198 736
-133 200 745
-131 200 743
-128 199 741
-124 197 732
-123 198 738
-121 198 738
-123 205 763
-116 198 737
-116 201 752
-111 196 730
-112 203 757
-111 205 766
-105 197 735
-102 196 734
-99 194 725
-95 190 711
-93 190 712
-92 194 727
-92 197 737
-81 178 667
-77 175 656
-79 183 687
-73 174 653
-64 159 593
-56 143 534
-44 118 441
-39 109 406
-38 109 405
-35 104 387
-32 97 362
-31 100 371
-29 96 356
-27 95 352
-24 86 319
-23 89 328
-23 89 332
-23 93 345
-20 88 326
-18 82 305
-18 88 327
-17 88 325
-17 92 342
-15 87 322
-15 88 329
-14 90 336
-13 90 334
-12 89 332
-11 89 331
-10 93 347
-10 97 360
-8 90 335
-7 90 333
-6 87 322
-5 92 342
-4 89 333
-3 88 326
-2 89 330
-1 86 319
0 92 344
0 89 331
1 87 325
2 90 334
3 92 341
4 89 332
5 86 320
6 88 328
7 92 342
8 93 349
10 96 357
10 93 347
11 93 347
13 96 357
14 97 361
14 92 344
15 91 341
15 85 316
17 88 326
18 89 332
20 92 343
21 96 358
23 97 362
24 97 361
26 101 377
28 105 394
29 106 397
29 99 371
36 120 450
36 116 434
36 113 422
36 108 405
34 97 364
31 87 325
46 127 476
49 132 497
53 138 519
49 125 467
54 134 501
52 123 461
56 131 490
55 124 466
54 118 443
59 128 480
53 111 416
56 115 430
59 118 443
58 113 422
58 112 418
61 114 426
63 115 430
64 115 429
64 114 423
67 116 433
66 113 421
67 112 417
67 110 410
71 114 424
72 114 423
74 114 424
71 108 402
73 109 404
73 107 398
74 107 398
75 107 398
75 106 392
76 105 389
77 104 385
78 104 387
79 105 387
79 103 380
81 103 381
78 98 361
83 103 380
83 102 377
76 92 340
86 103 381
95 112 414
96 112 414
95 109 403
94 106 392
95 106 390
96 106 390
93 101 372
91 98 360
94 100 365
100 105 387
100 104 381
114 117 432
106 107 394
103 103 377
100 99 363
106 104 379
114 111 407
111 106 389
108 103 376
115 108 396
103 96 348
93 85 310
100 91 330
88 79 287
78 69 248
71 63 224
59 51 179
66 57 202
61 52 184
48 40 138
53 44 155
47 39 134
46 37 129
55 45 156
54 43 151
44 34 118
36 28 95
60 47 165
65 50 176
81 62 220
98 75 267
112 85 304
101 76 271
139 104 374
149 111 397
151 111 399
138 101 360
160 116 416
159 114 407
168 120 429
170 120 429
159 112 398
176 123 437
176 122 434
168 115 409
168 114 406
167 112 399
160 107 378
166 110 390
176 116 409
187 122 432
187 121 429
190 122 432
184 118 416
182 115 406
178 113 395
181 114 399
199 123 433
206 127 446
199 122 427
209 127 446
219 133 464
199 120 417
214 128 445
199 118 410
215 127 441
182 106 368
202 117 406
205 118 410
214 122 423
205 117 402
205 116 398
170 96 327
221 123 424
219 121 417
214 118 403
223 122 418
224 122 417
243 132 450
226 121 414
234 125 426
239 127 431
243 128 435
226 119 401
222 116 390
209 108 365
230 119 400
231 118 397
223 114 382
239 121 406
257 129 434
-2374 1224 3999
-2370 1228 4022
-2314 1206 3956
-2345 1229 4039
-2397 1264 4160
-555 296 970
-576 309 1014
-423 229 751
-520 282 929
-487 267 878
-532 292 966
-614 339 1124
-595 331 1098
-650 363 1208
-624 351 1169
-651 368 1229
-607 346 1155
-609 349 1168
-633 365 1223
-649 376 1264
-646 377 1269
-626 368 1238
-587 347 1171
-519 309 1043
-406 244 823
-257 157 526
-174 107 358
-121 76 252
-102 65 215
-92 59 194
-78 51 166
-79 52 171
-91 60 198
-156 101 341
-244 158 537
-361 234 801
-523 340 1170
-573 375 1292
-581 383 1321
-583 386 1336
-584 390 1350
-585 393 1363
-586 397 1378
-580 396 1376
-575 395 1376
-569 394 1374
-571 399 1391
-567 398 1392
-559 396 1385
-559 399 1397
-555 399 1400
-548 398 1397
-544 398 1398
-541 399 1403
-541 402 1415
-536 401 1415
-536 405 1428
-529 403 1424
-525 403 1427
-520 402 1425
-516 403 1427
-509 401 1422
-507 403 1431
-505 404 1438
-500 404 1440
-496 405 1443
-496 408 1455
-488 405 1447
-484 406 1450
-483 408 1461
-476 407 1456
-474 408 1462
-465 405 1451
-466 409 1468
-463 410 1474
-457 409 1472
-454 410 1476
-448 409 1474
-449 414 1492
-439 409 1477
-438 412 1490
-431 410 1481
-431 414 1499
-426 414 1499
-418 410 1487
-415 412 1494
-410 412 1494
-412 418 1518
-402 412 1499
-398 412 1500
-398 417 1520
-392 416 1514
-388 416 1517
-385 418 1525
-381 419 1530
-373 415 1517
-373 420 1536
-370 421 1542
-354 409 1496
-335 392 1435
-311 369 1352
-212 256 935
-178 219 798
-167 209 762
-165 209 764
-164 210 769
-160 208 760
-158 209 766
-154 206 753
-145 198 725
-148 205 750
-145 203 743
-136 195 713
-138 200 735
-141 208 763
-136 203 746
-135 205 754
-130 201 738
-132 208 764
-125 200 736
-125 203 748
-120 198 730
-121 204 754
-117 201 740
-115 202 746
-106 190 701
-110 201 744
-101 188 694
-96 184 678
-94 183 677
-93 185 683
-88 180 666
-85 178 656
-82 175 648
-81 178 656
-75 168 621
-67 154 569
-62 147 542
-61 149 550
-58 145 535
-55 141 521
-42 115 423
-40 113 416
-36 106 389
-36 107 394
-34 105 386
-29 94 344
-29 96 354
-27 94 345
-24 89 328
-23 90 329
-23 90 331
-21 88 323
-19 84 308
-19 90 328
-18 88 322
-17 87 321
-16 88 324
-15 87 317
-14 88 322
-14 90 329
-12 86 316
-12 90 329
-11 89 328
-9 88 321
-9 89 327
-8 91 333
-7 90 332
-6 92 339
-5 87 319
-4 88 323
-3 89 329
-2 90 331
-1 88 322
0 90 331
0 88 322
1 85 312
2 84 309
3 85 312
4 84 308
5 84 310
6 86 316
7 90 330
8 92 338
9 96 352
10 94 347
11 92 337
12 92 338
14 97 358
15 95 349
15 87 320
17 95 349
17 91 336
18 90 330
19 92 337
21 95 351
22 96 355
24 97 359
26 103 381
28 106 392
29 108 398
29 102 376
35 120 444
39 128 476
37 118 437
40 123 456
32 94 347
38 108 400
38 105 388
44 120 443
45 119 440
48 122 451
49 121 447
52 125 461
52 121 447
52 120 442
59 131 486
54 117 431
58 124 459
58 121 448
58 117 433
60 119 441
59 114 422
61 115 425
63 117 432
63 115 423
64 115 422
64 112 414
67 115 423
69 116 427
69 114 420
70 114 419
70 111 410
70 110 403
74 114 420
73 111 407
74 111 406
73 107 394
77 111 406
77 109 400
75 105 385
76 104 381
79 106 390
81 108 396
81 106 387
78 101 369
82 105 384
83 104 381
88 110 401
74 90 328
80 96 351
82 98 356
93 110 400
90 104 379
95 108 395
94 107 389
98 110 400
94 103 375
91 99 359
96 103 374
95 101 368
93 97 353
99 103 373
104 107 388
107 109 395
102 102 369
104 103 372
103 101 365
109 106 381
112 108 389
106 100 361
105 99 356
99 92 329
87 80 286
97 88 316
78 70 247
82 73 260
69 60 212
75 65 230
56 48 168
49 42 143
49 41 142
58 48 168
53 44 150
47 38 131
51 41 141
38 30 101
46 36 123
70 55 192
77 61 212
110 86 303
118 91 323
122 94 332
127 97 342
135 103 363
152 114 404
145 108 383
148 109 385
159 117 413
149 108 381
162 117 413
168 120 424
168 119 421
183 129 454
158 110 387
169 117 412
170 116 409
174 119 417
182 123 433
179 120 420
170 113 396
180 119 417
165 109 378
179 117 406
191 124 431
180 115 401
184 117 407
179 113 393
193 121 420
180 112 389
166 103 355
190 117 405
210 128 443
204 124 427
211 127 438
181 108 371
199 118 406
207 122 419
209 123 420
201 117 400
197 114 390
231 133 455
212 121 412
221 125 427
191 108 365
199 111 377
219 122 413
211 117 395
214 118 397
214 117 395
223 121 407
217 117 394
236 127 426
221 118 395
224 119 397
237 125 418
228 120 399
233 121 405
238 123 410
248 128 425
227 116 385
235 119 395
-2390 1246 4023
-2332 1222 3954
-2341 1234 3998
-2325 1232 4001
-2431 1296 4215
-529 286 925
-469 255 826
-532 290 943
-494 272 883
-497 275 895
0 0 0
-481 269 880
-534 300 984
-601 340 1116
-569 324 1065
-621 355 1171
-612 352 1164
-620 359 1188
-623 363 1202
-634 372 1233
-608 359 1193
-629 373 1243
-580 347 1156
-511 308 1026
-381 232 771
-248 153 506
-158 99 325
-117 75 245
-97 63 203
-91 59 192
-79 53 170
-82 55 178
-89 59 193
-145 96 318
-226 148 497
-329 216 730
-498 327 1111
-560 370 1260
-577 384 1310
-582 390 1333
-586 396 1354
-586 399 1366
-582 399 1369
-581 401 1378
-581 404 1390
-575 403 1387
-569 402 1385
-565 402 1388
-557 399 1379
-558 403 1396
-553 402 1394
-551 404 1401
-552 408 1417
-543 405 1407
-538 405 1408
-536 406 1415
-534 408 1424
-530 408 1425
-523 406 1418
-523 410 1434
-515 407 1425
-508 405 1420
-510 410 1440
-505 409 1438
-498 407 1431
-500 412 1451
-492 409 1443
-487 409 1444
-484 410 1449
-483 413 1460
-477 412 1457
-473 412 1460
-467 410 1455
-467 414 1471
-462 414 1472
-459 415 1475
-456 417 1484
-452 417 1484
-446 416 1482
-443 417 1487
-436 415 1482
-437 420 1501
-429 417 1490
-425 417 1492
-423 420 1504
-420 421 1510
-411 417 1495
-409 419 1506
-406 421 1513
-400 420 1510
-395 419 1507
-392 421 1516
-387 420 1515
-380 418 1507
-377 420 1514
-375 422 1524
-368 419 1514
-362 418 1511
-349 408 1475
-330 390 1412
-309 371 1342
-220 269 971
-181 225 814
-169 213 768
-165 212 764
-165 214 774
-168 220 797
-158 212 765
-150 204 737
-146 201 729
-148 207 749
-138 197 712
-144 207 751
-139 204 741
-133 198 719
-134 202 734
-131 202 733
-131 205 744
-128 203 740
-128 207 755
-123 203 739
-113 190 692
-111 191 694
-106 185 674
-105 186 679
-99 181 658
-99 184 669
-92 174 635
-83 161 586
-78 154 562
-80 162 591
-75 155 565
-69 147 534
-66 144 524
-68 152 554
-66 150 548
-63 147 535
-61 146 533
-58 143 522
-56 142 520
-52 137 498
-43 118 431
-40 112 408
-39 113 410
-34 104 377
-33 105 381
-32 103 376
-29 97 352
-27 97 350
-26 96 349
-24 94 341
-23 92 332
-21 89 322
-20 89 323
-18 86 312
-18 89 322
-17 87 316
-16 88 318
-16 91 331
-15 93 337
-14 90 328
-12 87 317
-11 90 325
-11 90 327
-9 88 319
-9 91 330
-7 88 319
-6 88 321
-6 98 356
-5 92 336
-4 90 327
-3 89 322
-2 88 318
-1 91 330
0 88 322
0 91 331
1 88 320
2 90 328
3 87 318
4 85 309
5 87 315
6 85 309
7 86 312
8 92 336
9 94 342
10 95 344
11 95 347
12 91 329
14 96 351
14 93 338
15 89 322
16 89 322
16 86 312
18 90 329
19 89 324
19 88 320
21 92 335
23 98 357
26 102 374
27 105 383
29 108 393
26 90 327
30 104 378
37 123 452
36 114 417
47 146 538
36 106 388
40 116 424
35 98 356
43 117 428
43 115 420
49 125 459
52 129 474
48 118 430
54 128 469
53 122 445
59 133 485
56 123 451
57 122 446
56 118 432
62 128 467
58 116 425
59 116 424
62 119 432
62 117 425
62 115 418
64 115 418
65 115 420
66 114 414
67 115 417
69 115 418
69 112 409
70 112 409
70 111 404
72 112 406
73 111 404
73 110 400
76 112 406
76 111 402
76 109 394
78 110 399
78 108 393
80 109 394
82 110 400
80 106 385
81 106 384
81 104 376
84 107 387
82 102 369
86 106 381
83 101 364
85 102 369
77 91 326
78 91 328
100 116 416
97 111 400
97 110 395
89 99 357
94 104 372
94 102 365
94 101 363
101 107 384
94 99 354
100 104 372
105 107 385
103 104 374
106 106 380
104 103 370
103 101 362
104 101 359
100 96 343
107 102 362
93 87 310
77 71 251
73 67 236
78 71 250
71 64 222
53 46 159
49 42 144
55 47 162
49 42 141
54 46 157
33 27 89
30 25 81
64 53 182
53 44 148
63 51 176
79 64 220
89 71 247
111 88 309
116 92 321
113 89 310
126 98 344
120 93 323
138 106 370
144 109 382
161 121 425
153 114 400
146 108 378
163 119 417
151 110 384
159 115 399
147 106 367
162 115 401
170 120 417
177 124 431
178 124 430
182 125 435
167 114 396
168 114 394
177 119 413
177 119 410
182 121 417
180 118 407
189 124 426
185 120 413
190 122 421
193 124 424
173 110 376
194 123 420
184 115 393
203 127 432
211 131 446
196 120 409
199 122 414
202 122 415
191 115 389
192 115 388
195 116 390
192 113 382
169 99 332
218 127 428
209 121 407
192 110 369
219 125 420
212 120 402
201 113 378
206 115 385
219 122 406
216 119 397
204 112 373
233 127 422
210 114 377
212 115 379
233 125 413
202 108 354
229 121 399
220 116 381
239 125 412
218 113 371
255 132 433
216 111 362
-2414 1272 4059
-2385 1263 4040
-2358 1256 4024
-2350 1259 4040
-2417 1302 4187
-346 190 604
-464 255 815
-435 241 770
-402 224 718
-279 157 502
-297 168 540
-415 236 759
-461 263 850
-504 289 936
-522 301 977
-565 327 1064
-584 340 1110
-596 349 1142
-563 332 1086
-589 349 1145
-601 359 1178
-583 350 1151
-557 337 1109
-483 295 971
-356 219 721
-234 146 478
-148 94 304
-115 74 239
-102 66 213
-95 63 202
-77 52 166
-78 53 169
-89 60 192
-127 85 277
-205 136 452
-288 192 639
-458 304 1022
-555 371 1249
-576 388 1308
-579 392 1325
-580 396 1338
-578 397 1345
-582 403 1367
-577 402 1366
-580 407 1385
-578 409 1394
-573 409 1393
-570 409 1397
-557 404 1379
-555 405 1385
-554 407 1395
-547 406 1391
-547 409 1404
-540 407 1397
-538 409 1406
-539 413 1421
-533 411 1419
-525 408 1410
-524 411 1422
-519 411 1422
-520 415 1438
-513 413 1432
-512 415 1442
-507 415 1443
-502 415 1442
-493 411 1429
-491 413 1439
-489 415 1447
-491 420 1468
-479 414 1448
-477 416 1456
-480 423 1480
-466 414 1451
-462 414 1453
-460 417 1462
-457 418 1470
-451 417 1467
-449 419 1476
-445 420 1479
-441 420 1480
-440 423 1492
-431 419 1480
-426 419 1480
-423 420 1486
-421 422 1495
-414 420 1490
-413 423 1501
-409 424 1504
-403 423 1501
-399 423 1503
-397 426 1515
-388 421 1497
-382 419 1492
-380 422 1504
-370 416 1485
-362 412 1471
-356 410 1464
-341 397 1420
-334 395 1412
-303 363 1298
-270 328 1172
-223 276 985
-179 225 802
-165 211 751
-163 211 752
-167 218 780
-161 214 763
-157 212 758
-149 204 730
-152 212 758
-141 199 714
-137 197 706
-140 204 729
-138 204 731
-131 198 709
-135 206 738
-126 196 705
-119 189 677
-119 191 686
-112 184 662
-110 184 660
-106 180 646
-100 175 627
-86 154 552
-83 151 540
-82 152 545
-76 144 516
-77 149 534
-73 144 516
-72 145 519
-68 140 501
-69 146 524
-64 139 500
-63 138 498
-61 139 501
-60 140 502
-61 144 519
-57 140 505
-54 136 490
-55 142 510
-48 128 460
-40 111 398
-40 113 407
-37 110 393
-36 109 392
-32 103 371
-32 105 376
-29 100 360
-28 100 360
-24 92 328
-22 87 311
-23 92 330
-21 90 322
-21 92 329
-20 93 333
-18 88 317
-17 91 325
-16 90 323
-15 91 325
-15 93 335
-13 90 323
-12 88 315
-11 89 319
-10 87 312
-9 90 321
-8 90 322
-8 92 331
-6 89 319
-6 91 328
-5 92 329
-4 91 327
-3 90 325
-2 88 315
-1 87 313
0 90 323
0 91 326
1 86 310
2 93 334
3 85 306
4 88 315
5 88 315
6 89 318
7 85 306
8 93 333
9 95 342
10 93 336
11 90 325
12 95 340
13 92 332
14 94 337
15 94 340
16 92 331
17 90 325
17 88 315
18 88 317
20 93 336
21 93 336
22 93 336
25 99 356
26 103 370
29 107 387
30 109 393
33 114 411
39 130 472
37 120 435
41 129 468
38 113 409
41 121 437
39 111 403
40 109 392
35 93 333
47 122 441
54 137 498
51 127 459
52 124 449
52 121 436
57 130 470
58 130 471
62 134 485
62 131 474
57 117 423
59 120 433
61 120 434
61 119 428
62 117 422
63 118 426
63 115 415
65 116 419
65 114 412
67 116 416
69 117 422
69 115 413
72 117 421
71 113 408
71 112 401
74 114 409
74 112 401
75 113 404
74 109 391
77 112 400
77 110 393
77 108 387
80 110 394
80 109 389
81 109 390
84 111 395
81 106 378
83 107 381
85 108 385
84 105 376
84 103 366
84 102 362
87 104 371
91 108 384
86 101 357
96 110 393
89 101 360
92 104 369
92 102 363
90 99 349
94 102 361
92 99 349
95 101 356
98 103 363
102 105 373
104 107 379
89 90 315
99 100 351
101 101 354
96 94 332
97 94 331
91 88 307
76 72 251
82 77 268
71 66 229
66 60 208
59 53 182
59 53 181
48 42 143
45 40 133
40 34 113
41 35 116
52 44 148
36 30 97
60 50 170
62 51 173
89 73 253
90 74 255
102 83 288
125 101 350
134 107 373
139 111 384
133 104 361
140 109 378
157 121 421
157 120 417
157 120 415
157 118 409
164 123 424
152 113 389
140 103 353
152 111 382
156 113 388
142 102 349
158 112 386
154 109 373
164 115 394
160 111 381
171 118 404
170 116 398
176 120 408
180 122 416
178 120 408
198 132 451
187 124 422
196 128 437
180 117 397
180 116 394
210 135 459
219 140 474
194 123 415
196 123 415
190 119 400
187 116 390
183 113 379
187 114 383
184 112 374
183 111 369
164 98 327
196 117 389
194 115 383
188 111 368
195 114 377
202 117 389
200 115 381
199 114 377
199 113 373
214 121 400
210 118 389
210 117 386
221 123 404
213 118 386
200 110 359
229 125 409
220 119 389
229 124 403
216 116 376
208 111 359
239 126 410
232 122 396
232 122 394
222 116 373
-2400 1278 4031
-2402 1286 4065
-2364 1273 4031
-2330 1262 4003
-2391 1302 4138
-166 94 290
0 0 0
-347 195 615
-265 150 473
-326 185 586
-238 137 431
-348 200 635
-343 198 631
-454 263 841
-491 286 917
-503 295 947
-525 310 997
-544 323 1041
-536 320 1033
-581 348 1129
-552 333 1082
-550 334 1086
-525 321 1044
-489 301 982
-353 220 714
-222 140 453
-160 103 330
-114 75 238
-96 64 202
-87 59 185
-78 53 168
-77 53 167
-80 55 173
-122 83 266
-194 131 428
-277 186 614
-434 292 967
-548 370 1232
-561 382 1273
-575 394 1315
-571 394 1318
-573 398 1333
-571 400 1340
-578 408 1368
-580 412 1384
-574 411 1383
-578 417 1404
-565 411 1385
-562 411 1390
-560 413 1398
-557 414 1403
-549 412 1396
-552 417 1416
-547 417 1416
-538 413 1405
-537 415 1415
-532 415 1415
-529 416 1420
-522 414 1416
-522 418 1428
-517 417 1429
-512 417 1428
-508 417 1430
-504 417 1433
-501 419 1439
-494 417 1433
-491 417 1437
-488 419 1443
-485 420 1449
-484 423 1460
-478 422 1459
-477 424 1468
-469 421 1460
-462 419 1453
-457 419 1453
-458 424 1472
-456 426 1482
-448 422 1470
-447 426 1485
-438 422 1470
-438 426 1486
-431 424 1479
-425 422 1475
-421 422 1477
-418 424 1486
-407 417 1462
-405 420 1473
-395 414 1454
-388 411 1444
-383 411 1444
-378 410 1441
-366 401 1412
-358 398 1400
-350 393 1385
-348 396 1396
-335 386 1362
-326 380 1342
-325 383 1354
-318 381 1345
-295 358 1265
-274 337 1190
-239 298 1054
-185 235 829
-164 212 748
-169 221 779
-163 216 764
-156 210 743
-157 215 759
-144 200 707
-147 207 733
-142 203 717
-134 194 688
-136 200 709
-124 187 661
-115 176 623
-110 172 608
-106 169 597
-97 157 555
-95 156 551
-92 154 547
-85 146 516
-83 145 513
-83 146 519
-80 145 513
-78 144 510
-79 149 527
-71 137 484
-72 141 501
-70 141 499
-66 135 481
-67 140 498
-65 139 494
-66 144 511
-60 135 478
-63 143 511
-58 136 483
-55 133 474
-57 141 500
-56 143 508
-50 131 467
-46 125 445
-44 123 436
-46 131 465
-37 111 393
-36 113 400
-34 108 384
-31 104 369
-30 104 369
-27 96 341
-26 97 345
-23 93 328
-22 93 328
-22 93 330
-20 91 323
-19 92 325
-17 88 313
-17 92 327
-15 88 311
-15 88 311
-14 91 321
-12 85 301
-12 90 318
-11 90 318
-10 89 315
-9 90 321
-9 93 330
-8 95 336
-7 91 323
-6 92 326
-4 88 312
-4 91 322
-3 89 315
-2 90 319
-1 87 309
0 88 313
0 91 325
1 90 321
2 88 313
3 91 324
4 89 315
5 88 311
6 87 310
7 91 323
8 90 322
9 92 329
10 93 330
11 96 342
12 94 335
13 95 337
15 98 348
15 95 339
16 92 326
16 86 305
17 87 310
18 87 309
20 92 327
22 97 345
22 93 332
24 96 341
26 101 360
27 103 368
30 108 384
32 111 396
35 117 417
35 114 406
40 125 449
42 128 457
44 130 467
40 114 406
36 100 355
40 109 387
41 108 385
48 123 441
50 123 441
53 129 460
54 127 453
55 127 456
58 130 466
53 117 416
59 127 455
62 130 465
60 122 435
60 119 426
60 118 422
64 124 441
64 121 431
64 118 419
65 117 417
66 118 419
66 115 407
67 114 406
67 113 401
69 114 403
70 114 404
70 111 393
73 114 403
74 114 404
74 112 396
77 115 407
77 113 402
76 109 387
77 110 388
81 114 403
82 113 400
83 112 397
81 108 381
84 111 391
83 107 378
84 108 380
85 107 376
84 105 369
88 108 381
89 108 379
96 115 404
94 111 392
95 111 391
85 98 344
89 102 356
91 103 360
92 102 358
96 105 369
94 102 356
100 107 374
100 106 369
98 102 357
92 95 331
84 86 298
76 76 264
90 91 314
88 87 303
84 82 284
73 71 243
58 55 187
57 53 180
52 48 163
51 47 159
42 38 127
34 30 97
45 40 131
47 42 138
44 38 126
45 39 129
47 40 134
52 44 148
72 61 205
77 65 221
83 70 236
114 94 323
110 90 309
125 102 350
131 106 363
125 100 342
140 112 382
126 99 338
146 115 392
155 120 411
141 109 371
157 120 409
155 118 401
147 111 377
154 115 391
156 115 391
164 120 410
149 108 366
153 110 374
163 116 394
181 129 436
167 117 397
176 123 418
161 112 376
172 119 400
185 127 428
174 118 397
180 121 408
192 128 431
202 134 451
194 128 430
191 125 418
191 124 416
184 119 397
184 118 392
174 111 368
177 112 371
186 116 387
178 111 368
186 115 381
201 124 410
199 122 403
182 110 364
182 110 361
199 119 392
205 122 402
209 124 407
195 114 374
211 123 404
198 115 374
197 114 370
209 119 389
206 117 382
206 117 379
213 119 387
194 108 349
219 121 393
224 123 399
218 120 386
223 121 391
210 114 366
216 116 372
205 110 351
222 118 377
225 119 380
230 121 387
-2389 1286 4010
-2390 1293 4041
-2348 1278 4000
-2334 1278 4006
-2398 1320 4146
-59 36 104
-337 190 591
-376 213 666
-255 146 454
-145 85 260
-224 131 407
-240 140 438
-234 138 431
-423 248 784
-516 303 963
-535 316 1006
-539 321 1021
-536 321 1024
-526 317 1013
-567 344 1101
-552 337 1080
-553 340 1091
-530 327 1053
-471 293 943
-362 228 732
-232 148 473
-153 99 314
-117 77 243
-101 67 212
-89 60 187
-82 56 176
-75 52 161
-83 57 179
-116 79 253
-191 130 420
-291 197 643
-425 289 947
-545 372 1224
-560 385 1270
-579 401 1322
-571 398 1316
-576 405 1340
-579 410 1359
-578 412 1367
-574 412 1369
-563 407 1355
-572 417 1389
-565 415 1385
-565 418 1397
-561 418 1398
-558 419 1403
-549 416 1394
-547 418 1402
-541 417 1400
-534 415 1394
-540 423 1423
-535 422 1421
-530 421 1421
-523 419 1416
-515 417 1409
-514 419 1418
-513 422 1430
-508 422 1430
-505 423 1435
-500 423 1436
-497 423 1440
-489 421 1432
-485 420 1433
-489 428 1459
-477 421 1439
-478 426 1458
-471 423 1449
-468 425 1455
-464 426 1459
-454 420 1441
-452 422 1451
-448 423 1455
-446 426 1464
-440 423 1458
-432 421 1450
-424 417 1437
-418 416 1434
-410 412 1423
-407 413 1428
-396 407 1407
-394 408 1413
-384 402 1394
-373 396 1372
-364 390 1354
-366 397 1379
-354 388 1349
-353 392 1363
-346 388 1350
-346 394 1371
-343 394 1373
-341 397 1385
-336 396 1383
-330 393 1374
-320 387 1351
-292 358 1249
-251 312 1089
-207 262 913
-167 215 750
-151 198 689
-140 186 649
-134 181 631
-133 182 635
-138 191 667
-123 174 606
-109 156 545
-109 159 553
-111 164 573
-101 152 530
-102 155 542
-97 151 526
-91 144 503
-84 136 475
-88 144 503
-83 138 483
-80 137 477
-80 139 487
-78 138 481
-79 142 495
-73 133 466
-77 143 500
-70 134 469
-69 135 472
-65 130 456
-68 137 481
-66 137 482
-62 131 458
-64 138 485
-63 140 490
-60 137 481
-61 141 497
-58 138 484
-58 141 498
-55 137 484
-54 138 486
-55 144 509
-52 141 496
-40 115 403
-38 110 387
-38 114 402
-37 117 411
-35 112 394
-32 108 379
-30 105 368
-29 105 368
-24 94 329
-24 95 331
-23 96 337
-20 89 313
-19 87 304
-19 92 324
-18 92 323
-18 94 328
-15 88 309
-15 91 320
-14 89 312
-13 88 308
-12 90 314
-12 93 327
-11 94 328
-9 89 312
-9 92 325
-8 98 346
-6 90 315
-5 91 320
-5 95 333
-3 87 306
-3 92 324
-1 88 308
0 86 301
0 89 312
0 91 321
1 90 317
2 88 309
3 90 316
4 90 315
5 87 307
6 90 316
7 92 323
8 91 320
9 94 331
10 97 340
11 94 330
12 96 338
13 94 332
15 99 349
16 100 353
16 95 335
16 88 310
17 89 313
19 96 339
19 89 312
21 93 327
22 95 332
24 100 352
25 99 350
28 105 372
29 104 367
31 110 390
34 117 414
36 119 420
42 134 476
40 124 437
42 124 439
40 116 411
40 111 393
46 127 448
43 113 398
44 113 398
46 116 410
48 117 414
51 121 428
53 124 437
54 123 434
56 124 437
59 127 450
61 129 455
56 116 410
59 120 422
61 120 424
63 122 429
66 126 443
64 120 423
66 121 425
64 114 401
68 120 423
67 115 405
69 116 408
70 117 411
69 113 398
72 116 408
72 114 399
74 114 401
74 114 398
76 115 402
77 114 401
83 121 425
84 120 421
79 112 392
82 114 398
81 112 390
82 110 385
84 112 392
84 110 385
85 111 386
87 110 385
84 106 368
87 108 378
91 112 388
89 108 374
67 80 276
85 100 346
84 98 338
86 99 341
86 98 337
94 106 365
98 109 377
94 103 357
99 108 373
90 96 332
81 85 292
73 76 260
69 71 241
69 70 239
79 80 274
74 74 252
48 46 155
52 50 167
51 49 162
43 40 132
49 46 153
50 47 154
41 38 124
40 37 119
46 42 137
52 46 153
41 36 116
46 40 132
54 47 155
49 42 138
74 63 211
86 73 246
109 92 313
114 95 323
117 97 329
119 98 331
135 111 375
133 108 365
146 118 399
133 106 359
132 104 352
144 113 381
143 111 375
158 121 411
153 117 394
143 108 365
155 116 392
164 123 413
164 122 409
166 122 410
154 112 377
175 127 426
163 117 392
170 121 406
162 114 381
194 136 456
201 140 468
205 142 473
162 111 368
186 126 421
183 124 410
179 120 398
175 117 386
172 114 375
168 110 364
174 113 373
169 109 360
169 109 358
169 108 353
198 126 413
167 105 343
199 125 408
172 107 347
174 107 350
188 115 375
185 113 367
203 123 399
212 127 414
191 114 369
196 116 376
205 121 391
213 125 404
212 124 399
202 117 376
206 119 381
210 120 386
194 110 352
209 118 378
198 111 354
206 115 367
216 120 382
213 117 372
208 114 362
225 123 389
226 122 387
239 129 407
206 110 347
227 121 381
-2384 1297 3998
-2375 1299 4012
-2352 1294 4004
-2335 1292 4004
-2394 1332 4137
-2426 1358 4224
-317 181 555
-306 176 542
-312 180 556
-230 134 413
-254 149 460
-201 119 367
-235 140 432
-389 231 721
-454 270 847
-486 291 913
-496 299 941
-530 321 1011
-536 326 1031
-557 341 1081
-548 338 1072
-588 365 1159
-525 328 1043
-488 307 977
-370 235 747
-245 158 499
-168 110 345
-118 78 244
-98 66 205
-87 60 184
-87 60 185
-75 52 161
-79 56 173
-109 76 237
-181 125 398
-286 196 632
-422 290 939
-548 378 1231
-559 389 1266
-562 393 1284
-572 403 1318
-571 405 1326
-573 410 1342
-580 418 1371
-574 417 1368
-576 421 1386
-570 420 1384
-564 419 1381
-562 421 1389
-559 421 1392
-552 420 1389
-548 420 1390
-548 423 1404
-550 428 1421
-543 426 1416
-532 421 1401
-533 425 1415
-526 423 1411
-525 426 1422
-518 423 1414
-515 425 1422
-507 421 1411
-506 424 1422
-504 426 1430
-499 425 1430
-495 426 1434
-487 423 1425
-484 424 1429
-477 422 1423
-475 424 1431
-470 424 1432
-465 423 1431
-461 423 1433
-451 418 1416
-443 414 1406
-437 413 1403
-432 413 1402
-430 415 1410
-416 405 1380
-405 399 1359
-398 395 1348
-395 397 1353
-389 394 1347
-383 393 1344
-383 398 1360
-379 397 1359
-384 406 1393
-370 397 1361
-371 402 1380
-366 401 1377
-363 403 1384
-354 397 1365
-345 391 1346
-324 372 1282
-289 336 1158
-246 290 999
-212 254 873
-190 231 794
-164 203 697
-135 170 584
-120 154 526
-119 154 527
-104 138 470
-112 149 512
-109 147 505
-100 137 469
-103 143 492
-98 138 475
-95 137 469
-93 135 464
-94 140 480
-93 140 482
-89 136 469
-86 134 460
-83 131 450
-83 134 460
-83 136 468
-79 131 451
-83 140 485
-80 138 477
-83 144 500
-80 142 492
-75 137 474
-74 136 471
-74 139 482
-69 133 461
-71 140 486
-70 141 489
-69 142 493
-62 130 450
-66 141 488
-63 138 478
-61 136 472
-58 133 462
-59 139 482
-60 144 502
-58 144 501
-52 133 463
-54 141 490
-51 136 473
-48 132 460
-47 132 461
-44 129 451
-41 124 432
-34 107 371
-35 115 399
-33 112 389
-30 105 364
-28 104 362
-26 101 348
-24 96 334
-22 94 326
-22 98 341
-21 95 330
-19 92 318
-19 96 333
-16 89 308
-16 92 320
-15 91 317
-14 90 312
-13 91 316
-12 92 317
-11 90 312
-10 89 308
-9 91 316
-9 97 338
-7 92 321
-7 95 330
-5 92 319
-5 93 322
-3 90 314
-2 85 295
-2 93 322
-1 90 311
0 87 302
0 92 318
1 92 319
2 90 312
3 91 315
4 88 305
5 86 298
6 91 314
7 87 302
8 88 307
9 92 320
10 95 332
11 93 325
12 94 327
13 97 336
14 95 330
16 101 352
17 98 342
17 96 333
18 94 327
18 91 317
20 93 324
20 90 311
22 93 323
23 94 327
24 95 329
27 102 356
29 109 379
31 109 379
32 110 385
32 106 371
42 135 473
44 138 483
41 125 436
42 124 432
41 117 408
43 117 409
47 127 444
42 108 377
44 111 387
48 119 415
51 122 427
55 129 452
59 137 478
57 127 444
59 128 448
57 121 421
61 128 448
58 118 412
60 120 418
63 123 427
65 126 438
64 120 417
66 122 425
70 126 439
67 119 415
71 123 429
68 116 401
68 115 398
70 116 403
70 113 394
75 119 415
74 116 400
74 115 398
74 113 390
79 117 407
83 123 426
88 128 444
83 119 411
81 114 393
83 115 398
83 113 392
84 114 392
87 116 399
83 108 373
88 114 392
84 107 368
88 111 381
91 113 388
77 94 321
88 107 366
87 104 356
85 100 341
84 97 333
84 96 328
89 101 345
93 104 356
95 105 359
84 91 311
75 81 274
67 71 240
63 66 221
43 44 145
55 57 189
66 67 224
55 55 182
43 42 138
53 51 170
41 39 128
56 53 177
40 38 123
36 33 106
34 31 99
44 40 130
44 40 129
34 31 97
39 34 110
54 48 156
51 45 145
47 41 131
84 73 241
90 78 260
105 90 300
111 94 315
124 104 349
121 101 339
124 103 344
138 113 380
128 104 348
146 118 395
149 119 399
152 121 404
162 127 425
172 134 449
156 121 403
165 127 423
148 113 375
179 135 451
135 101 335
163 121 402
166 122 405
170 125 413
171 124 411
169 122 403
169 121 399
166 118 389
171 120 397
166 116 380
165 115 376
165 113 371
161 110 360
167 113 371
160 108 352
161 107 349
168 111 363
166 110 357
156 102 330
156 101 329
156 101 325
182 117 379
195 124 403
180 114 368
193 121 391
193 120 388
176 109 350
194 120 385
196 120 385
189 115 368
203 123 394
195 117 375
202 121 385
196 116 371
195 115 365
197 115 366
209 121 386
189 109 346
209 120 381
222 127 402
188 106 335
226 128 403
199 112 351
198 110 345
221 122 384
213 117 368
217 119 371
210 114 356
207 112 348
236 127 395
-2386 1311 3997
-2377 1314 4013
-2341 1301 3980
-2343 1310 4014
-2340 1315 4039
-48 30 84
-302 174 529
-224 131 396
-320 187 570
-236 139 423
-195 116 353
-305 181 555
