VERSION 0.7
FIELDS x y z
SIZE 4 4 4
TYPE I I I
COUNT 1 1 1
WIDTH 3260
HEIGHT 1
VIEWPOINT 0.0 0.0 0.0 1.0 0.0 0.0 0.0
POINTS 3260
DATA ascii
-1465 -938 3122
-1451 -936 3118
-1437 -933 3112
-1424 -931 3110
-1409 -928 3104
-1392 -924 3091
-1380 -922 3090
-1366 -919 3085
-1356 -919 3087
-1341 -916 3079
-1327 -913 3074
-1317 -913 3078
-1302 -910 3069
-1287 -906 3060
-1277 -905 3062
-1262 -902 3053
-1251 -901 3053
-1234 -896 3039
-1225 -896 3042
-1211 -893 3035
-1199 -891 3032
-1189 -891 3035
-1174 -886 3022
-1160 -883 3013
-1153 -885 3024
-1138 -881 3012
-1127 -879 3010
-1114 -876 3003
-1104 -876 3004
-1091 -874 2999
-1078 -871 2992
-1066 -868 2986
-1056 -868 2987
-1041 -863 2974
-1032 -863 2975
-1020 -861 2971
-1010 -860 2971
-994 -854 2952
-986 -855 2959
-963 -843 2918
-925 -818 2833
-836 -746 2586
-770 -694 2409
-808 -736 2554
-890 -818 2842
-906 -841 2924
-898 -842 2930
-884 -837 2914
-875 -837 2918
-867 -838 2921
-854 -834 2911
-844 -833 2907
-832 -830 2899
-822 -829 2898
-815 -831 2906
-804 -828 2900
-791 -825 2888
-781 -823 2885
-769 -820 2876
-761 -820 2878
-750 -818 2873
-741 -818 2872
-730 -815 2864
-719 -812 2856
-711 -813 2862
-700 -811 2856
-694 -814 2867
-678 -806 2839
-673 -810 2855
-661 -806 2843
-653 -807 2847
-643 -805 2841
-633 -803 2836
-624 -802 2835
-614 -800 2828
-604 -799 2826
-595 -798 2825
-586 -797 2821
-576 -795 2815
-569 -798 2826
-558 -794 2815
-549 -793 2812
-540 -793 2812
-530 -790 2805
-520 -788 2798
-511 -786 2793
-503 -787 2796
-494 -786 2795
-484 -783 2783
-476 -784 2788
-466 -782 2781
-457 -781 2778
-448 -779 2774
-439 -778 2769
-431 -778 2770
-422 -776 2766
-413 -776 2764
-404 -774 2758
-394 -770 2746
-388 -775 2766
-376 -768 2741
-369 -771 2750
-360 -769 2744
-352 -768 2743
-342 -765 2733
-335 -768 2741
-325 -763 2726
-317 -764 2728
-308 -760 2716
-301 -764 2731
-292 -762 2724
-283 -760 2716
-275 -759 2714
-266 -756 2704
-259 -759 2716
-250 -757 2706
-242 -757 2709
-233 -753 2696
-225 -755 2700
-217 -755 2701
-209 -753 2694
-200 -751 2688
-192 -750 2684
-183 -748 2677
-176 -749 2683
-168 -749 2681
-160 -748 2677
-151 -746 2672
-143 -746 2670
-135 -744 2664
-127 -743 2660
-120 -745 2667
-111 -743 2662
-103 -742 2656
-96 -743 2661
-88 -741 2654
-79 -739 2647
-72 -738 2642
-64 -739 2645
-56 -738 2643
-48 -735 2633
-40 -736 2635
-32 -736 2634
-25 -733 2625
-17 -732 2621
-9 -733 2625
-1 -731 2615
6 -732 2621
13 -731 2618
21 -730 2611
29 -731 2615
36 -726 2596
44 -728 2604
52 -728 2605
59 -728 2603
67 -725 2592
74 -724 2589
82 -724 2590
89 -721 2577
97 -723 2583
105 -722 2579
112 -723 2583
120 -722 2577
127 -720 2573
135 -719 2567
142 -718 2562
150 -721 2572
157 -718 2561
164 -717 2558
172 -716 2552
180 -718 2559
187 -717 2556
194 -715 2547
201 -714 2543
210 -718 2557
216 -713 2538
224 -713 2538
231 -712 2534
238 -711 2530
245 -710 2527
252 -708 2519
260 -710 2524
267 -709 2519
274 -709 2517
282 -708 2514
288 -704 2501
296 -707 2509
303 -705 2500
311 -706 2502
318 -706 2503
326 -707 2507
333 -706 2501
339 -704 2493
348 -706 2498
354 -703 2487
362 -704 2490
369 -703 2486
376 -702 2482
382 -701 2476
390 -703 2480
398 -702 2478
404 -701 2472
412 -701 2472
420 -703 2476
423 -696 2452
434 -701 2469
440 -699 2459
446 -698 2454
453 -696 2447
461 -699 2454
468 -697 2446
474 -696 2442
480 -693 2431
489 -697 2442
495 -694 2432
502 -694 2431
510 -695 2431
519 -697 2436
525 -695 2428
530 -692 2417
538 -693 2420
544 -692 2414
552 -693 2416
558 -691 2407
565 -691 2407
576 -695 2419
579 -690 2399
585 -689 2395
594 -691 2399
602 -692 2400
607 -689 2390
615 -691 2393
622 -690 2387
631 -692 2393
636 -690 2385
642 -688 2377
650 -690 2380
659 -692 2385
665 -690 2378
672 -689 2372
679 -689 2370
684 -688 2363
693 -689 2365
702 -690 2369
707 -689 2361
714 -688 2357
721 -688 2355
727 -687 2349
736 -689 2353
743 -688 2350
747 -686 2340
753 -685 2333
762 -686 2336
770 -687 2338
776 -686 2330
781 -684 2323
792 -688 2333
798 -686 2325
806 -688 2327
816 -690 2332
822 -688 2325
827 -687 2319
836 -689 2321
843 -689 2319
847 -686 2306
854 -685 2303
864 -688 2309
872 -689 2309
877 -687 2301
885 -687 2299
890 -686 2293
899 -687 2293
906 -687 2290
911 -686 2284
920 -687 2286
925 -686 2278
933 -686 2277
945 -690 2285
945 -685 2266
956 -687 2272
964 -688 2270
973 -689 2272
976 -686 2259
980 -684 2251
988 -685 2248
994 -684 2243
978 -668 2189
1016 -689 2254
1010 -680 2222
1022 -684 2230
1026 -682 2221
1043 -688 2239
1046 -686 2227
1059 -689 2236
1063 -688 2227
1070 -687 2223
1061 -677 2187
990 -627 2023
920 -579 1865
889 -556 1786
901 -559 1795
912 -563 1804
916 -561 1797
917 -559 1785
920 -557 1777
925 -556 1772
928 -555 1764
939 -558 1772
943 -557 1765
946 -556 1758
949 -554 1750
955 -554 1746
966 -557 1754
974 -558 1755
974 -555 1742
982 -556 1742
986 -555 1735
992 -556 1734
995 -554 1726
1007 -557 1733
-1844 -956 3070
-1742 -909 2921
-1680 -882 2839
-1733 -915 2951
-1807 -959 3099
-1835 -980 3171
-1844 -990 3211
-1841 -995 3231
-1813 -985 3205
-1780 -973 3170
-1783 -981 3200
-1793 -992 3242
-1780 -991 3243
-1760 -986 3232
-1743 -982 3225
-1726 -979 3219
-1708 -975 3209
-1690 -970 3200
-1683 -972 3211
-1664 -967 3200
-1647 -964 3192
-1630 -960 3184
-1615 -957 3180
-1602 -956 3178
-1586 -953 3173
-1566 -947 3157
-1555 -946 3160
-1538 -942 3150
-1518 -936 3134
-1511 -938 3146
-1491 -932 3129
-1482 -933 3135
-1461 -926 3117
-1448 -924 3113
-1437 -924 3117
-1419 -918 3103
-1405 -915 3097
-1392 -914 3094
-1376 -910 3085
-1362 -907 3078
-1349 -905 3076
-1339 -904 3077
-1326 -903 3075
-1313 -901 3071
-1300 -898 3066
-1286 -895 3060
-1277 -896 3064
-1258 -889 3045
-1249 -890 3051
-1238 -889 3051
-1223 -885 3040
-1211 -883 3038
-1196 -879 3026
-1187 -879 3030
-1172 -876 3021
-1165 -878 3031
-1150 -873 3018
-1134 -868 3004
-1123 -867 3002
-1110 -865 2996
-1104 -867 3009
-1088 -862 2992
-1078 -861 2993
-1064 -858 2984
-1053 -856 2980
-1042 -854 2977
-1033 -855 2981
-1015 -848 2959
-1012 -853 2979
-998 -848 2966
-982 -843 2950
-971 -841 2945
-947 -829 2904
-918 -810 2842
-865 -771 2707
-816 -735 2582
-860 -782 2748
-899 -825 2902
-896 -831 2926
-887 -831 2926
-876 -829 2923
-862 -825 2909
-854 -826 2914
-839 -820 2895
-833 -822 2906
-823 -821 2903
-808 -815 2885
-803 -819 2899
-791 -816 2889
-779 -813 2881
-774 -816 2895
-762 -812 2883
-751 -811 2879
-743 -812 2885
-730 -807 2870
-723 -808 2875
-711 -805 2864
-703 -805 2868
-692 -803 2861
-680 -799 2849
-671 -798 2847
-660 -796 2839
-651 -795 2838
-642 -794 2838
-631 -792 2829
-621 -790 2824
-612 -790 2826
-605 -791 2831
-595 -789 2824
-587 -791 2832
-574 -784 2810
-567 -786 2818
-557 -784 2810
-551 -787 2822
-539 -782 2807
-529 -779 2798
-520 -779 2796
-512 -779 2800
-501 -776 2789
-494 -777 2794
-485 -777 2794
-473 -772 2776
-465 -772 2778
-457 -772 2777
-448 -771 2777
-438 -768 2766
-429 -766 2761
-421 -768 2766
-413 -768 2769
-403 -764 2756
-394 -763 2752
-385 -762 2747
-377 -762 2748
-368 -760 2742
-360 -760 2744
-352 -761 2748
-343 -758 2736
-334 -757 2733
-325 -756 2731
-317 -755 2728
-308 -754 2725
-300 -754 2726
-292 -755 2728
-283 -751 2714
-275 -752 2718
-267 -751 2717
-258 -749 2710
-250 -749 2709
-242 -749 2708
-232 -744 2693
-225 -746 2700
-216 -743 2690
-209 -745 2696
-200 -743 2690
-192 -743 2690
-184 -742 2686
-176 -741 2683
-168 -740 2679
-160 -740 2679
-151 -737 2668
-144 -738 2675
-136 -738 2673
-127 -736 2666
-119 -735 2661
-111 -735 2661
-103 -733 2654
-95 -730 2644
-87 -731 2648
-79 -730 2645
-72 -732 2652
-64 -728 2638
-56 -733 2653
-48 -727 2632
-40 -727 2633
-32 -725 2627
-25 -729 2639
-17 -725 2625
-9 -726 2627
-1 -726 2627
6 -723 2616
13 -723 2618
21 -721 2611
29 -720 2607
36 -723 2616
44 -717 2596
52 -722 2613
59 -719 2602
67 -719 2600
75 -718 2595
82 -715 2584
90 -717 2591
97 -714 2580
105 -716 2587
112 -714 2579
120 -713 2576
127 -714 2578
135 -712 2571
142 -712 2570
150 -711 2568
157 -712 2569
165 -711 2563
172 -708 2552
179 -709 2555
187 -708 2551
195 -709 2556
202 -710 2557
208 -704 2537
216 -705 2540
224 -707 2544
231 -706 2540
238 -704 2533
246 -706 2538
254 -706 2539
260 -703 2526
267 -701 2518
274 -699 2511
282 -701 2518
290 -703 2522
295 -696 2498
302 -696 2498
310 -697 2500
318 -698 2502
326 -699 2505
332 -697 2498
340 -697 2495
346 -695 2486
354 -696 2489
360 -693 2480
367 -693 2479
375 -694 2479
382 -693 2476
390 -694 2478
397 -694 2475
404 -693 2471
410 -691 2464
417 -691 2461
426 -693 2468
432 -691 2458
439 -690 2456
447 -691 2457
453 -690 2453
460 -690 2450
470 -692 2458
474 -688 2443
482 -690 2446
489 -688 2440
497 -690 2444
502 -686 2429
508 -685 2424
516 -685 2423
522 -684 2417
531 -687 2425
538 -686 2422
545 -686 2420
551 -684 2412
559 -686 2416
563 -681 2399
573 -684 2408
579 -683 2402
585 -682 2397
592 -681 2392
601 -684 2399
607 -682 2391
615 -683 2394
621 -682 2386
630 -683 2391
637 -683 2387
642 -682 2381
651 -683 2383
658 -683 2381
665 -682 2377
671 -681 2371
679 -682 2373
684 -680 2363
691 -680 2362
700 -681 2365
706 -680 2358
709 -676 2342
722 -682 2359
728 -681 2355
733 -678 2345
739 -678 2340
748 -679 2343
755 -680 2342
762 -679 2339
769 -679 2336
774 -677 2326
785 -681 2337
792 -680 2333
798 -679 2326
806 -680 2328
813 -680 2325
819 -679 2319
825 -678 2315
834 -680 2318
839 -678 2309
848 -679 2310
855 -679 2308
861 -678 2301
868 -678 2300
876 -679 2300
881 -678 2292
890 -679 2293
897 -678 2290
904 -678 2287
914 -680 2292
918 -678 2282
928 -681 2287
934 -679 2280
940 -679 2276
949 -680 2277
952 -678 2265
966 -682 2277
970 -680 2266
974 -678 2258
981 -678 2254
994 -682 2265
986 -671 2227
1001 -677 2242
1009 -677 2241
1021 -681 2249
1013 -671 2213
1027 -675 2225
1042 -680 2238
1048 -679 2232
1055 -679 2229
1068 -683 2238
1070 -680 2224
1063 -671 2193
998 -625 2040
911 -567 1848
887 -549 1785
895 -550 1787
908 -554 1797
901 -547 1770
911 -549 1775
920 -551 1779
926 -551 1776
927 -548 1764
934 -549 1764
934 -546 1750
954 -554 1775
954 -551 1760
956 -549 1750
961 -548 1745
971 -551 1751
977 -551 1749
979 -549 1739
987 -550 1739
993 -550 1736
997 -549 1730
1005 -551 1732
-1681 -862 2801
-1648 -850 2766
-1647 -855 2786
-1668 -871 2843
-1685 -885 2894
-1705 -900 2949
-1744 -927 3040
-1747 -934 3068
-1722 -926 3046
-1703 -921 3036
-1748 -951 3139
-1782 -975 3226
-1767 -973 3223
-1755 -972 3226
-1737 -968 3217
-1728 -969 3224
-1713 -967 3221
-1691 -960 3205
-1681 -960 3210
-1659 -954 3194
-1645 -952 3190
-1629 -949 3184
-1612 -945 3177
-1601 -945 3179
-1574 -935 3152
-1566 -936 3160
-1554 -936 3162
-1538 -932 3153
-1524 -929 3149
-1505 -924 3136
-1492 -922 3133
-1478 -920 3130
-1459 -914 3114
-1449 -915 3119
-1430 -909 3104
-1416 -906 3098
-1408 -908 3107
-1393 -904 3098
-1380 -903 3097
-1363 -898 3084
-1348 -895 3076
-1335 -893 3073
-1324 -892 3073
-1313 -891 3074
-1301 -889 3071
-1285 -885 3061
-1273 -884 3059
-1263 -883 3059
-1253 -883 3062
-1234 -876 3043
-1224 -876 3044
-1209 -872 3034
-1197 -870 3032
-1180 -865 3015
-1173 -867 3025
-1162 -866 3024
-1148 -862 3015
-1132 -857 3000
-1123 -858 3006
-1111 -856 3001
-1096 -852 2989
-1089 -853 2997
-1076 -851 2990
-1063 -847 2981
-1052 -846 2980
-1038 -842 2969
-1026 -840 2962
-1018 -841 2971
-1004 -837 2957
-994 -836 2957
-984 -836 2959
-971 -833 2950
-959 -830 2943
-940 -821 2912
-916 -808 2868
-858 -764 2716
-820 -738 2625
-884 -803 2857
-894 -820 2920
-885 -820 2924
-871 -816 2909
-862 -816 2911
-852 -815 2908
-842 -814 2907
-832 -812 2904
-822 -812 2904
-813 -811 2905
-801 -808 2895
-790 -806 2889
-780 -805 2886
-770 -804 2884
-762 -804 2887
-750 -801 2878
-740 -799 2872
-730 -798 2871
-721 -798 2872
-710 -795 2861
-701 -794 2862
-690 -792 2856
-678 -788 2841
-672 -791 2855
-662 -789 2849
-651 -786 2840
-642 -786 2841
-632 -785 2837
-623 -784 2835
-612 -781 2827
-605 -783 2835
-593 -779 2820
-585 -779 2824
-575 -777 2815
-565 -775 2810
-557 -775 2812
-545 -771 2799
-539 -774 2811
-527 -769 2793
-518 -767 2787
-511 -770 2800
-501 -767 2788
-492 -766 2784
-485 -768 2793
-474 -764 2781
-464 -761 2771
-457 -764 2780
-447 -761 2770
-438 -759 2766
-430 -760 2768
-422 -760 2771
-413 -759 2768
-404 -758 2763
-395 -757 2763
-385 -753 2748
-376 -752 2743
-368 -752 2747
-360 -752 2746
-350 -748 2732
-343 -751 2745
-335 -750 2740
-326 -749 2738
-317 -747 2731
-308 -746 2727
-299 -742 2714
-291 -742 2713
-282 -741 2710
-275 -743 2716
-265 -739 2703
-258 -741 2713
-250 -740 2708
-242 -740 2709
-233 -738 2701
-225 -737 2697
-216 -736 2693
-208 -736 2693
-200 -735 2691
-192 -734 2687
-183 -732 2680
-176 -732 2682
-167 -731 2679
-160 -732 2683
-151 -730 2674
-144 -732 2680
-135 -728 2666
-127 -728 2667
-119 -728 2667
-111 -724 2654
-103 -727 2662
-95 -721 2642
-87 -725 2657
-79 -722 2646
-71 -718 2632
-64 -721 2642
-56 -721 2642
-48 -721 2641
-40 -718 2632
-32 -718 2629
-24 -718 2629
-17 -720 2637
-9 -717 2624
-1 -715 2619
6 -715 2617
13 -714 2614
21 -714 2613
29 -712 2608
36 -711 2602
44 -711 2603
52 -713 2609
59 -709 2595
67 -710 2599
74 -709 2592
82 -707 2585
90 -711 2598
97 -705 2577
105 -707 2585
112 -707 2584
119 -702 2566
127 -705 2576
134 -702 2566
142 -704 2570
150 -702 2564
157 -702 2563
164 -700 2553
171 -698 2547
179 -700 2552
187 -700 2553
193 -697 2540
202 -699 2548
209 -699 2548
217 -699 2548
223 -695 2530
231 -697 2539
237 -694 2525
245 -694 2524
252 -694 2523
260 -694 2525
266 -690 2508
275 -694 2522
282 -693 2518
288 -691 2509
296 -691 2510
303 -690 2503
309 -688 2496
318 -691 2507
325 -690 2501
333 -690 2501
339 -687 2489
346 -688 2492
354 -688 2490
360 -686 2481
368 -687 2483
374 -686 2477
383 -687 2482
388 -684 2470
396 -685 2472
403 -683 2464
410 -684 2465
417 -682 2460
426 -686 2470
432 -683 2460
439 -683 2459
445 -681 2450
454 -683 2456
460 -682 2450
467 -681 2445
474 -681 2444
481 -680 2438
487 -679 2434
495 -680 2435
504 -682 2442
509 -679 2430
517 -679 2429
523 -678 2425
529 -676 2416
537 -677 2419
545 -678 2420
552 -678 2416
557 -675 2404
564 -675 2405
571 -675 2400
578 -675 2401
586 -676 2401
594 -677 2403
601 -677 2401
608 -676 2397
614 -675 2392
622 -676 2393
631 -677 2395
636 -675 2387
642 -674 2381
647 -671 2370
656 -674 2377
664 -674 2377
670 -673 2369
679 -674 2373
686 -674 2371
690 -672 2361
697 -672 2358
704 -671 2354
713 -673 2358
722 -674 2362
725 -671 2347
735 -673 2352
739 -671 2343
747 -671 2341
757 -673 2347
762 -672 2340
768 -671 2333
774 -670 2328
784 -673 2336
790 -672 2330
800 -674 2335
803 -671 2322
812 -672 2325
820 -672 2324
824 -670 2313
834 -672 2319
841 -672 2316
846 -671 2308
856 -673 2313
861 -671 2304
869 -672 2303
874 -670 2296
885 -673 2303
892 -673 2300
896 -671 2290
905 -672 2292
913 -673 2292
920 -673 2289
925 -671 2280
931 -670 2276
938 -670 2272
945 -670 2268
955 -672 2274
964 -673 2274
969 -672 2267
974 -671 2260
981 -670 2255
987 -669 2250
982 -662 2220
1003 -671 2248
1016 -675 2259
1027 -677 2263
1030 -674 2251
1037 -675 2249
1039 -671 2233
1049 -673 2237
1054 -672 2229
1064 -673 2232
1069 -672 2225
1062 -664 2193
1009 -626 2066
921 -567 1868
890 -544 1790
889 -540 1775
897 -541 1776
911 -547 1791
918 -548 1791
919 -545 1779
923 -543 1771
925 -542 1763
942 -548 1781
933 -539 1750
950 -546 1767
952 -544 1758
966 -548 1769
959 -541 1744
968 -543 1747
974 -543 1745
981 -544 1743
987 -544 1740
997 -546 1745
996 -543 1730
1000 -542 1724
-1620 -822 2702
-1615 -824 2714
-1610 -827 2727
-1625 -839 2773
-1626 -844 2794
-1635 -854 2832
-1642 -863 2865
-1642 -868 2886
-1632 -868 2890
-1640 -877 2927
-1681 -905 3023
-1721 -931 3117
-1733 -944 3164
-1743 -955 3206
-1735 -957 3217
-1722 -955 3217
-1700 -949 3200
-1692 -951 3210
-1673 -945 3198
-1658 -943 3194
-1639 -938 3182
-1628 -938 3187
-1614 -936 3184
-1589 -927 3159
-1576 -926 3159
-1564 -925 3159
-1550 -922 3155
-1538 -921 3155
-1520 -917 3145
-1504 -914 3137
-1488 -910 3128
-1475 -908 3126
-1460 -905 3121
-1446 -903 3115
-1429 -898 3104
-1421 -899 3111
-1408 -898 3108
-1393 -894 3101
-1374 -888 3084
-1364 -889 3089
-1346 -884 3075
-1336 -883 3077
-1319 -878 3063
-1312 -880 3074
-1301 -880 3075
-1286 -876 3066
-1273 -874 3061
-1257 -869 3047
-1246 -869 3049
-1230 -864 3036
-1220 -864 3039
-1208 -862 3036
-1196 -860 3031
-1185 -859 3030
-1172 -857 3025
-1161 -856 3025
-1148 -853 3017
-1133 -849 3007
-1122 -848 3005
-1112 -847 3006
-1102 -847 3007
-1087 -842 2994
-1077 -842 2994
-1067 -841 2995
-1049 -835 2974
-1041 -835 2980
-1026 -831 2966
-1019 -832 2974
-1007 -830 2968
-993 -826 2957
-986 -828 2967
-972 -824 2954
-960 -821 2946
-947 -818 2937
-925 -807 2899
-892 -786 2826
-821 -730 2628
-843 -758 2728
-885 -803 2893
-885 -812 2926
-874 -810 2921
-862 -807 2912
-853 -807 2914
-842 -805 2910
-833 -805 2911
-822 -803 2905
-812 -802 2903
-802 -800 2901
-792 -800 2899
-782 -798 2894
-770 -795 2886
-760 -794 2883
-749 -791 2874
-739 -790 2874
-728 -787 2865
-719 -787 2865
-708 -785 2859
-700 -785 2862
-692 -786 2867
-681 -783 2857
-670 -780 2848
-659 -777 2839
-652 -779 2846
-640 -776 2835
-632 -776 2839
-622 -774 2833
-611 -772 2824
-602 -770 2821
-595 -772 2829
-583 -768 2816
-573 -766 2808
-564 -766 2809
-555 -765 2806
-546 -764 2804
-538 -764 2807
-528 -762 2799
-520 -762 2801
-508 -758 2785
-500 -757 2786
-491 -757 2785
-482 -756 2782
-472 -753 2772
-465 -755 2779
-455 -752 2770
-448 -754 2777
-438 -751 2770
-428 -749 2760
-419 -748 2757
-411 -747 2757
-403 -748 2759
-395 -748 2761
-385 -746 2753
-378 -747 2757
-368 -744 2746
-359 -742 2742
-350 -741 2737
-342 -742 2741
-333 -738 2729
-325 -739 2731
-317 -739 2733
-308 -737 2725
-300 -736 2724
-292 -737 2727
-283 -734 2717
-274 -732 2710
-266 -732 2710
-258 -732 2710
-249 -731 2705
-241 -730 2703
-233 -730 2704
-225 -729 2700
-216 -727 2692
-208 -728 2698
-200 -728 2697
-191 -723 2680
-184 -726 2688
-175 -722 2676
-167 -722 2677
-159 -723 2678
-151 -721 2673
-143 -719 2663
-135 -719 2664
-127 -720 2669
-119 -719 2664
-111 -718 2662
-103 -718 2662
-95 -716 2652
-87 -714 2646
-79 -715 2649
-71 -714 2646
-63 -712 2640
-56 -712 2637
-48 -713 2642
-40 -713 2642
-32 -707 2621
-24 -710 2630
-17 -708 2622
-9 -708 2623
-1 -707 2619
6 -706 2614
13 -705 2610
21 -704 2606
29 -703 2604
36 -704 2605
44 -702 2598
52 -702 2597
59 -701 2594
67 -701 2593
74 -699 2587
82 -699 2586
89 -698 2582
97 -699 2583
105 -699 2585
113 -700 2587
119 -696 2572
127 -695 2569
135 -695 2569
142 -694 2562
149 -693 2558
157 -693 2559
164 -693 2557
172 -692 2554
179 -693 2555
187 -692 2554
194 -690 2545
202 -692 2552
209 -690 2543
215 -687 2532
223 -688 2534
231 -689 2536
237 -686 2527
245 -686 2525
252 -686 2525
259 -683 2513
266 -683 2511
274 -685 2518
281 -684 2515
288 -683 2509
296 -684 2511
303 -683 2507
310 -681 2500
317 -682 2502
324 -680 2492
331 -680 2494
339 -681 2496
345 -677 2481
354 -681 2491
361 -680 2486
367 -678 2481
375 -678 2480
381 -677 2473
389 -678 2476
396 -678 2475
403 -676 2468
411 -678 2474
417 -676 2465
424 -675 2459
431 -675 2459
439 -676 2460
444 -672 2446
452 -673 2446
459 -673 2445
466 -672 2441
472 -670 2433
481 -673 2441
487 -672 2436
494 -671 2431
502 -672 2434
510 -672 2434
515 -670 2424
522 -669 2419
529 -669 2417
535 -668 2413
544 -670 2417
551 -669 2413
559 -670 2415
564 -668 2407
572 -669 2407
578 -667 2399
586 -668 2401
592 -667 2397
599 -666 2392
607 -668 2395
614 -667 2391
619 -665 2381
630 -669 2395
633 -664 2375
643 -667 2385
648 -665 2376
655 -665 2373
663 -666 2375
669 -665 2369
676 -664 2365
685 -666 2369
690 -664 2361
698 -665 2362
707 -667 2367
712 -664 2355
718 -664 2351
726 -665 2352
734 -665 2351
739 -663 2343
746 -663 2341
754 -663 2340
762 -664 2341
766 -662 2330
777 -665 2338
784 -665 2335
790 -664 2330
795 -662 2322
803 -663 2322
811 -664 2323
817 -663 2316
826 -664 2319
832 -663 2313
838 -663 2309
845 -663 2307
855 -665 2311
859 -662 2299
867 -663 2300
873 -662 2296
884 -665 2302
890 -664 2297
894 -662 2286
903 -664 2290
909 -662 2282
919 -664 2286
927 -665 2287
931 -663 2277
941 -665 2281
946 -664 2274
951 -662 2266
959 -663 2265
966 -663 2262
974 -663 2261
980 -663 2255
987 -662 2251
995 -663 2251
1004 -664 2252
1014 -666 2256
1009 -658 2225
1042 -675 2280
1028 -661 2230
1041 -665 2240
1046 -664 2233
1054 -665 2232
1063 -666 2233
1069 -665 2226
1070 -661 2211
1024 -628 2097
934 -569 1897
891 -539 1794
901 -542 1800
908 -542 1800
908 -539 1785
911 -537 1777
912 -535 1766
922 -537 1771
920 -533 1753
933 -537 1765
946 -541 1776
942 -535 1754
945 -534 1747
968 -544 1776
958 -535 1744
968 -537 1749
978 -539 1752
975 -535 1734
985 -537 1739
992 -538 1737
995 -536 1731
995 -533 1717
-1608 -807 2686
-1607 -811 2704
-1611 -818 2730
-1613 -824 2755
-1605 -824 2761
-1615 -834 2800
-1607 -835 2807
-1606 -840 2826
-1600 -841 2836
-1607 -850 2870
-1620 -862 2916
-1635 -875 2965
-1667 -898 3045
-1679 -910 3091
-1691 -922 3138
-1698 -931 3174
-1694 -935 3192
-1675 -931 3180
-1668 -932 3191
-1657 -932 3195
-1633 -925 3174
-1621 -924 3175
-1608 -922 3174
-1596 -921 3176
-1578 -917 3165
-1565 -915 3164
-1545 -910 3148
-1530 -907 3143
-1512 -902 3131
-1503 -903 3138
-1490 -901 3134
-1470 -895 3118
-1458 -894 3118
-1446 -893 3119
-1429 -888 3106
-1418 -888 3108
-1405 -886 3104
-1388 -882 3094
-1375 -880 3091
-1364 -879 3092
-1351 -877 3087
-1333 -872 3072
-1324 -872 3079
-1311 -870 3073
-1294 -865 3060
-1282 -864 3058
-1266 -859 3045
-1259 -861 3056
-1244 -857 3045
-1228 -853 3035
-1223 -856 3047
-1208 -852 3037
-1190 -846 3019
-1185 -849 3033
-1169 -845 3020
-1158 -844 3020
-1143 -840 3008
-1134 -840 3012
-1121 -837 3004
-1113 -839 3012
-1099 -835 3002
-1083 -830 2987
-1073 -829 2986
-1062 -828 2984
-1052 -828 2985
-1038 -824 2974
-1029 -824 2976
-1018 -823 2975
-1004 -819 2963
-990 -815 2950
-981 -815 2952
-969 -813 2948
-960 -813 2950
-949 -811 2946
-937 -809 2940
-911 -794 2888
-859 -756 2753
-813 -723 2633
-870 -781 2847
-883 -801 2923
-873 -800 2921
-865 -800 2923
-855 -800 2925
-839 -793 2902
-831 -794 2906
-821 -793 2903
-812 -793 2906
-802 -792 2904
-790 -789 2894
-778 -785 2882
-769 -785 2883
-755 -779 2864
-749 -782 2877
-739 -781 2874
-728 -779 2868
-718 -777 2864
-711 -779 2870
-701 -778 2869
-689 -774 2855
-679 -772 2850
-667 -769 2840
-660 -771 2848
-648 -767 2834
-640 -767 2837
-631 -766 2835
-623 -767 2839
-612 -764 2830
-602 -762 2825
-593 -761 2822
-582 -759 2813
-572 -757 2807
-563 -755 2803
-554 -755 2803
-546 -755 2804
-537 -755 2804
-526 -751 2793
-519 -752 2797
-510 -752 2795
-500 -750 2790
-493 -751 2797
-484 -751 2795
-473 -746 2780
-464 -745 2777
-455 -744 2774
-448 -746 2780
-437 -742 2767
-429 -742 2767
-421 -742 2768
-412 -740 2763
-402 -738 2757
-393 -736 2749
-384 -735 2744
-376 -735 2745
-367 -735 2745
-359 -734 2743
-351 -734 2742
-342 -732 2736
-333 -732 2736
-324 -730 2729
-316 -729 2726
-308 -728 2724
-298 -725 2713
-291 -727 2721
-283 -727 2720
-274 -726 2717
-266 -724 2712
-258 -725 2714
-249 -723 2706
-241 -724 2711
-232 -719 2695
-224 -720 2698
-216 -719 2694
-208 -718 2692
-199 -716 2684
-191 -715 2680
-183 -716 2684
-176 -718 2692
-167 -714 2676
-159 -712 2671
-151 -715 2680
-143 -711 2664
-135 -714 2677
-127 -710 2662
-119 -712 2669
-111 -709 2659
-103 -709 2658
-95 -708 2653
-87 -708 2655
-79 -706 2647
-71 -705 2644
-63 -706 2647
-56 -706 2645
-48 -702 2632
-40 -702 2632
-32 -698 2617
-24 -700 2623
-17 -701 2629
-9 -700 2625
-1 -697 2611
6 -700 2623
13 -697 2611
21 -697 2610
29 -698 2615
36 -696 2606
44 -696 2606
52 -695 2601
59 -694 2598
67 -692 2592
74 -692 2591
82 -693 2592
89 -689 2579
97 -688 2573
104 -689 2577
112 -690 2581
120 -689 2576
127 -687 2566
134 -685 2561
142 -686 2562
150 -687 2565
156 -684 2554
164 -685 2557
172 -685 2557
178 -682 2544
187 -684 2552
194 -683 2550
201 -681 2540
209 -683 2548
215 -678 2529
223 -681 2536
230 -678 2525
237 -678 2524
244 -677 2520
253 -679 2529
260 -679 2526
266 -675 2513
273 -676 2512
282 -677 2517
288 -675 2508
296 -675 2509
304 -677 2512
310 -674 2501
318 -675 2504
323 -671 2490
332 -674 2500
337 -669 2481
346 -673 2493
353 -671 2485
360 -671 2485
366 -668 2471
375 -671 2480
381 -669 2473
389 -671 2479
395 -668 2466
403 -669 2470
409 -666 2459
418 -670 2472
424 -667 2460
432 -668 2462
437 -665 2451
446 -667 2456
452 -665 2447
459 -665 2444
464 -662 2433
474 -666 2445
479 -663 2435
486 -662 2429
496 -666 2443
503 -665 2438
507 -662 2424
516 -664 2430
523 -663 2426
530 -663 2424
536 -662 2418
542 -660 2412
550 -661 2411
558 -662 2414
565 -662 2412
572 -662 2410
577 -659 2399
586 -661 2404
592 -660 2398
601 -662 2403
607 -660 2396
613 -659 2389
620 -659 2389
626 -657 2381
636 -660 2388
643 -660 2387
650 -660 2384
656 -659 2380
663 -659 2377
672 -660 2379
676 -657 2366
683 -657 2365
691 -658 2365
698 -658 2363
704 -657 2357
710 -655 2350
719 -657 2356
726 -657 2352
733 -657 2350
739 -656 2343
748 -657 2347
752 -655 2337
760 -656 2337
765 -654 2329
773 -655 2329
783 -657 2336
790 -656 2331
799 -658 2334
803 -655 2323
810 -656 2322
819 -658 2326
825 -656 2318
831 -656 2314
839 -656 2313
844 -654 2304
854 -657 2310
859 -655 2302
868 -656 2304
873 -655 2297
883 -657 2301
890 -657 2299
894 -654 2287
900 -654 2283
910 -656 2288
915 -655 2280
924 -656 2281
931 -656 2278
936 -654 2270
946 -657 2276
951 -655 2267
960 -656 2268
967 -656 2265
971 -654 2255
979 -655 2255
987 -655 2254
995 -656 2253
1011 -661 2269
983 -639 2189
1008 -650 2224
1012 -648 2215
1021 -650 2217
1039 -657 2238
1043 -655 2228
1055 -658 2236
1062 -658 2232
1067 -656 2224
1073 -656 2218
1028 -624 2107
933 -562 1897
900 -539 1815
894 -531 1787
904 -534 1795
908 -533 1787
909 -530 1776
918 -532 1778
924 -533 1777
933 -534 1779
936 -533 1772
937 -530 1760
945 -531 1761
948 -530 1754
950 -528 1744
966 -533 1760
957 -526 1731
973 -531 1745
979 -531 1743
988 -533 1746
982 -527 1722
994 -530 1731
1005 -533 1736
-1602 -795 2678
-1608 -803 2708
-1611 -809 2734
-1616 -816 2763
-1613 -819 2778
-1598 -816 2772
-1596 -820 2790
-1599 -826 2816
-1591 -827 2822
-1586 -830 2836
-1591 -837 2866
-1596 -845 2896
-1596 -850 2920
-1606 -861 2960
-1612 -869 2993
-1640 -890 3070
-1663 -908 3137
-1682 -924 3197
-1671 -924 3201
-1653 -919 3190
-1641 -919 3192
-1622 -914 3181
-1605 -910 3172
-1588 -906 3162
-1575 -905 3162
-1560 -902 3157
-1549 -902 3160
-1528 -895 3141
-1515 -894 3141
-1503 -893 3139
-1486 -888 3129
-1469 -885 3119
-1456 -883 3116
-1444 -881 3116
-1430 -879 3111
-1417 -877 3108
-1398 -872 3093
-1389 -872 3098
-1373 -869 3089
-1362 -868 3089
-1345 -863 3076
-1332 -861 3073
-1318 -858 3066
-1309 -859 3072
-1294 -855 3062
-1279 -852 3052
-1273 -854 3065
-1254 -848 3047
-1240 -845 3039
-1230 -845 3040
-1213 -840 3026
-1210 -844 3044
-1193 -839 3030
-1181 -838 3027
-1168 -835 3020
-1154 -832 3010
-1146 -833 3018
-1131 -829 3006
-1116 -825 2995
-1109 -826 3002
-1096 -824 2995
-1086 -823 2996
-1073 -820 2988
-1061 -818 2984
-1050 -817 2983
-1036 -813 2969
-1027 -813 2973
-1016 -812 2972
-1004 -809 2964
-991 -807 2956
-983 -807 2960
-971 -805 2956
-961 -804 2954
-951 -804 2954
-936 -798 2937
-919 -792 2915
-887 -771 2842
-821 -722 2660
-835 -741 2734
-875 -784 2896
-872 -790 2918
-862 -789 2916
-849 -785 2905
-840 -785 2908
-830 -784 2903
-819 -782 2898
-810 -782 2899
-799 -780 2894
-788 -778 2888
-780 -779 2894
-767 -775 2880
-759 -775 2881
-747 -772 2872
-739 -772 2875
-728 -769 2867
-718 -769 2867
-707 -766 2857
-698 -766 2857
-689 -766 2859
-681 -766 2860
-669 -762 2850
-662 -764 2856
-650 -760 2845
-641 -760 2843
-628 -754 2825
-619 -754 2825
-612 -755 2831
-602 -754 2828
-593 -754 2827
-581 -749 2810
-573 -749 2812
-562 -746 2803
-556 -749 2812
-547 -748 2812
-537 -746 2805
-527 -744 2799
-517 -742 2793
-509 -742 2792
-500 -742 2793
-490 -739 2783
-481 -738 2779
-472 -737 2776
-463 -736 2775
-454 -735 2771
-445 -733 2766
-437 -734 2770
-428 -732 2764
-420 -733 2766
-411 -732 2762
-401 -729 2753
-395 -731 2763
-384 -726 2745
-376 -728 2752
-367 -725 2740
-359 -726 2744
-350 -725 2742
-342 -724 2739
-334 -725 2742
-324 -722 2731
-316 -722 2732
-307 -718 2717
-300 -720 2728
-291 -719 2722
-282 -717 2715
-274 -716 2714
-266 -717 2715
-257 -713 2702
-249 -715 2711
-240 -712 2698
-233 -713 2703
-223 -709 2690
-216 -712 2698
-207 -709 2690
-199 -707 2682
-191 -708 2686
-183 -708 2686
-176 -709 2689
-167 -708 2686
-159 -704 2672
-150 -703 2667
-142 -702 2665
-134 -700 2656
-127 -703 2665
-119 -702 2663
-111 -700 2654
-103 -701 2661
-95 -700 2655
-87 -698 2648
-79 -698 2649
-71 -697 2643
-63 -697 2642
-55 -696 2640
-48 -696 2640
-40 -694 2633
-32 -693 2627
-24 -691 2621
-16 -692 2624
-9 -691 2621
-1 -692 2625
6 -690 2617
13 -688 2609
21 -689 2612
29 -688 2609
36 -687 2604
44 -685 2595
52 -687 2603
59 -686 2597
67 -682 2582
75 -686 2600
82 -684 2589
89 -682 2580
97 -681 2578
105 -682 2580
112 -681 2578
119 -678 2564
127 -682 2579
135 -680 2572
142 -679 2569
149 -679 2565
156 -675 2550
165 -679 2566
172 -678 2560
179 -675 2547
187 -677 2556
193 -673 2540
201 -675 2548
208 -673 2538
215 -672 2536
223 -672 2535
230 -672 2534
237 -670 2527
245 -670 2525
251 -669 2518
259 -670 2523
266 -669 2517
273 -667 2509
280 -667 2508
288 -668 2512
296 -668 2509
303 -667 2506
310 -667 2507
317 -665 2497
324 -665 2496
331 -665 2493
339 -665 2495
345 -663 2487
353 -663 2486
359 -662 2481
368 -665 2491
374 -662 2478
381 -662 2478
387 -660 2467
396 -662 2474
403 -661 2470
410 -661 2469
415 -658 2455
423 -659 2458
431 -660 2460
438 -658 2453
444 -657 2447
452 -658 2450
460 -659 2451
466 -658 2447
473 -657 2444
480 -657 2440
487 -657 2439
493 -655 2431
501 -655 2429
509 -657 2435
514 -654 2423
522 -654 2422
530 -656 2425
536 -654 2418
543 -654 2416
549 -653 2410
558 -654 2415
564 -653 2410
569 -651 2398
578 -653 2405
586 -654 2405
590 -650 2389
598 -651 2393
606 -651 2393
612 -651 2388
619 -650 2384
628 -653 2392
633 -650 2380
639 -648 2372
647 -650 2375
656 -651 2379
660 -648 2367
670 -651 2375
672 -646 2356
684 -651 2370
686 -646 2351
698 -650 2364
703 -648 2354
710 -648 2353
715 -646 2342
725 -649 2351
732 -649 2348
739 -649 2346
747 -649 2346
754 -650 2345
759 -648 2336
769 -650 2341
775 -649 2337
781 -648 2332
788 -648 2329
799 -651 2336
804 -649 2328
810 -648 2322
815 -647 2314
823 -647 2314
828 -646 2306
838 -648 2313
846 -649 2312
852 -648 2307
857 -647 2299
867 -648 2302
875 -649 2304
880 -648 2296
886 -647 2291
894 -647 2290
901 -647 2287
910 -649 2289
917 -649 2286
925 -649 2286
933 -650 2284
939 -649 2279
943 -647 2268
952 -648 2270
961 -649 2272
968 -649 2269
973 -648 2262
977 -646 2251
991 -650 2264
1002 -653 2271
997 -645 2239
1019 -655 2270
1008 -643 2226
1040 -659 2278
1044 -657 2268
1036 -648 2233
1044 -648 2231
1052 -649 2230
1060 -649 2229
1066 -649 2224
1072 -648 2219
1035 -622 2125
948 -565 1930
901 -534 1819
890 -523 1781
901 -527 1790
903 -525 1780
908 -524 1775
917 -526 1779
911 -519 1754
924 -523 1763
929 -523 1761
935 -523 1757
942 -524 1757
946 -523 1751
955 -524 1754
967 -528 1763
967 -525 1749
979 -529 1758
982 -527 1750
992 -529 1753
993 -526 1742
995 -525 1733
997 -523 1723
-1607 -789 2689
-1618 -798 2727
-1619 -804 2749
-1613 -805 2760
-1611 -809 2777
-1606 -811 2790
-1599 -812 2797
-1594 -814 2809
-1588 -816 2821
-1585 -820 2836
-1575 -820 2840
-1571 -822 2853
-1572 -828 2878
-1573 -833 2902
-1575 -839 2927
-1591 -853 2980
-1634 -882 3084
-1680 -913 3196
-1667 -911 3195
-1646 -905 3180
-1631 -903 3176
-1622 -903 3182
-1606 -900 3176
-1587 -896 3164
-1575 -894 3164
-1561 -892 3161
-1543 -888 3151
-1530 -887 3148
-1519 -886 3150
-1502 -882 3140
-1486 -878 3132
-1469 -874 3121
-1456 -873 3119
-1442 -870 3114
-1425 -866 3103
-1412 -864 3099
-1399 -862 3097
-1389 -862 3100
-1376 -860 3097
-1365 -860 3099
-1349 -856 3087
-1331 -851 3072
-1318 -849 3070
-1303 -845 3060
-1293 -845 3063
-1281 -843 3060
-1266 -840 3052
-1258 -841 3058
-1239 -835 3038
-1229 -834 3040
-1216 -832 3034
-1201 -829 3024
-1189 -827 3022
-1181 -828 3029
-1166 -824 3017
-1156 -824 3020
-1141 -820 3007
-1130 -819 3007
-1120 -818 3006
-1107 -815 2999
-1094 -813 2993
-1083 -812 2991
-1075 -812 2995
-1059 -808 2981
-1049 -807 2982
-1037 -805 2976
-1024 -802 2968
-1014 -801 2968
-1005 -801 2969
-992 -798 2962
-983 -799 2966
-968 -793 2948
-958 -793 2949
-945 -790 2938
-937 -790 2943
-923 -786 2930
-900 -774 2887
-862 -749 2797
-806 -707 2641
-852 -755 2823
-866 -775 2899
-861 -780 2917
-851 -778 2913
-840 -776 2908
-832 -777 2912
-820 -774 2903
-809 -772 2899
-797 -770 2890
-786 -767 2884
-777 -766 2882
-769 -767 2887
-754 -762 2867
-748 -764 2877
-737 -762 2871
-728 -762 2872
-718 -760 2869
-709 -760 2870
-697 -756 2856
-688 -755 2855
-677 -753 2846
-669 -754 2853
-659 -752 2847
-649 -750 2840
-640 -750 2842
-630 -748 2834
-619 -745 2825
-612 -747 2834
-601 -744 2824
-591 -743 2819
-581 -741 2813
-573 -740 2813
-563 -739 2808
-553 -737 2801
-546 -738 2808
-534 -734 2794
-526 -735 2796
-517 -733 2790
-508 -733 2792
-498 -730 2783
-490 -730 2784
-480 -729 2778
-475 -732 2793
-464 -728 2778
-454 -726 2771
-445 -724 2765
-437 -725 2767
-428 -723 2763
-418 -721 2756
-409 -719 2747
-403 -723 2763
-394 -721 2758
-383 -718 2746
-376 -719 2750
-366 -716 2739
-359 -718 2746
-349 -714 2733
-341 -715 2738
-333 -714 2734
-324 -713 2731
-316 -714 2735
-308 -712 2730
-298 -708 2714
-290 -709 2719
-282 -710 2721
-274 -709 2718
-265 -707 2710
-257 -706 2708
-249 -707 2710
-241 -705 2705
-233 -705 2706
-224 -703 2696
-216 -703 2697
-208 -703 2696
-199 -701 2690
-191 -699 2682
-183 -699 2685
-175 -700 2686
-167 -700 2687
-158 -696 2671
-150 -696 2670
-142 -695 2667
-135 -695 2667
-126 -691 2652
-118 -692 2659
-110 -692 2656
-103 -692 2657
-95 -692 2658
-87 -688 2643
-79 -689 2646
-71 -689 2645
-63 -689 2646
-55 -687 2637
-48 -687 2637
-40 -686 2634
-32 -687 2638
-24 -684 2625
-16 -684 2627
-9 -684 2625
-1 -682 2618
6 -680 2608
13 -679 2604
21 -680 2608
29 -681 2613
36 -677 2597
44 -678 2601
52 -677 2595
59 -678 2600
67 -677 2595
74 -673 2581
82 -677 2593
89 -674 2582
97 -675 2585
104 -672 2572
112 -673 2576
119 -671 2570
127 -672 2572
134 -671 2570
142 -671 2566
149 -670 2565
157 -669 2560
164 -669 2557
172 -669 2559
179 -667 2548
186 -666 2545
194 -666 2546
201 -666 2542
208 -665 2539
216 -665 2538
223 -663 2532
230 -664 2533
236 -661 2519
245 -664 2530
252 -662 2522
259 -662 2522
265 -657 2503
274 -662 2520
281 -662 2518
287 -657 2501
295 -658 2502
302 -658 2504
309 -658 2500
317 -658 2499
323 -656 2491
331 -656 2490
338 -657 2492
344 -654 2482
353 -657 2489
359 -654 2479
367 -655 2483
373 -653 2473
381 -654 2476
388 -653 2472
395 -653 2469
400 -650 2456
410 -653 2469
418 -654 2470
424 -653 2463
431 -653 2463
437 -650 2453
444 -650 2448
452 -651 2451
458 -649 2444
466 -650 2447
473 -649 2442
481 -650 2443
489 -652 2449
493 -648 2433
501 -648 2431
508 -647 2428
514 -647 2424
522 -647 2424
529 -647 2423
536 -647 2420
540 -643 2406
549 -645 2411
558 -647 2415
563 -644 2405
570 -645 2404
576 -643 2396
583 -643 2394
592 -645 2399
598 -644 2394
606 -644 2395
613 -644 2392
619 -643 2387
627 -644 2389
631 -641 2375
641 -643 2382
648 -643 2380
652 -641 2368
661 -642 2370
669 -643 2373
677 -644 2375
681 -641 2362
690 -642 2364
695 -641 2357
703 -642 2358
709 -640 2351
718 -642 2356
724 -641 2350
729 -639 2341
739 -641 2348
744 -640 2340
753 -641 2342
759 -641 2338
763 -638 2326
774 -641 2334
779 -639 2326
788 -641 2329
795 -641 2327
804 -642 2331
808 -640 2320
815 -639 2316
823 -640 2316
829 -639 2310
838 -641 2313
843 -640 2307
850 -639 2302
858 -640 2303
864 -639 2296
873 -641 2300
880 -640 2297
886 -639 2290
893 -639 2288
902 -641 2290
908 -640 2286
915 -640 2283
923 -640 2281
931 -641 2281
936 -640 2275
942 -639 2268
951 -641 2271
957 -640 2264
966 -641 2267
973 -641 2262
976 -638 2252
980 -636 2242
992 -639 2248
980 -627 2202
1005 -638 2240
1006 -635 2225
1024 -641 2244
1030 -641 2241
1035 -640 2232
1045 -642 2236
1049 -640 2226
1060 -642 2230
1064 -640 2222
1073 -641 2222
1041 -618 2138
951 -560 1936
901 -528 1820
888 -516 1779
896 -518 1780
902 -518 1779
905 -516 1770
916 -519 1777
925 -521 1782
919 -515 1756
923 -514 1751
930 -514 1750
935 -514 1746
945 -517 1751
960 -521 1765
964 -521 1759
965 -518 1746
974 -520 1751
973 -516 1736
985 -520 1744
988 -518 1736
997 -520 1738
1001 -519 1731
-1619 -785 2711
-1625 -793 2741
-1623 -796 2758
-1613 -796 2762
-1611 -800 2779
-1605 -801 2790
-1606 -806 2812
-1597 -807 2818
-1589 -807 2824
-1581 -808 2831
-1579 -812 2850
-1575 -815 2865
-1566 -815 2869
-1558 -816 2876
-1561 -823 2905
-1594 -845 2988
-1657 -884 3131
-1680 -902 3199
-1670 -902 3204
-1651 -898 3192
-1634 -894 3185
-1615 -889 3171
-1600 -887 3167
-1582 -883 3156
-1571 -882 3160
-1557 -880 3157
-1539 -876 3145
-1533 -878 3156
-1512 -872 3139
-1492 -866 3123
-1480 -865 3122
-1472 -867 3131
-1456 -863 3122
-1437 -858 3107
-1429 -859 3114
-1412 -855 3103
-1397 -852 3096
-1384 -849 3092
-1371 -847 3088
-1362 -848 3093
-1345 -843 3081
-1327 -838 3066
-1318 -839 3072
-1304 -837 3066
-1289 -833 3055
-1277 -831 3053
-1266 -831 3054
-1253 -828 3048
-1241 -827 3047
-1229 -825 3043
-1213 -821 3031
-1205 -822 3036
-1191 -819 3029
-1177 -816 3020
-1168 -816 3026
-1151 -811 3007
-1142 -811 3011
-1129 -809 3005
-1118 -808 3005
-1108 -807 3005
-1096 -805 2999
-1079 -800 2982
-1072 -801 2990
-1063 -801 2994
-1048 -797 2980
-1037 -795 2977
-1025 -793 2972
-1014 -792 2969
-1000 -788 2958
-992 -789 2962
-980 -787 2958
-968 -784 2950
-953 -780 2936
-947 -782 2946
-933 -778 2934
-921 -776 2925
-908 -773 2916
-881 -757 2861
-829 -719 2720
-812 -712 2692
-858 -760 2876
-858 -768 2909
-849 -767 2909
-840 -768 2911
-829 -765 2905
-818 -764 2900
-808 -762 2896
-798 -762 2896
-787 -759 2889
-777 -758 2885
-766 -756 2877
-755 -753 2871
-747 -755 2877
-737 -753 2874
-727 -751 2868
-717 -751 2868
-706 -747 2856
-696 -746 2852
-688 -747 2858
-678 -746 2854
-666 -742 2840
-659 -743 2847
-648 -741 2838
-638 -740 2836
-628 -737 2828
-619 -737 2830
-608 -734 2817
-601 -736 2828
-590 -733 2815
-584 -735 2827
-573 -733 2818
-563 -730 2808
-553 -728 2803
-545 -729 2806
-534 -726 2794
-527 -727 2801
-517 -725 2796
-507 -723 2789
-498 -722 2786
-491 -724 2793
-481 -721 2781
-472 -721 2782
-463 -719 2777
-454 -718 2774
-447 -719 2779
-437 -717 2770
-428 -717 2770
-420 -717 2771
-411 -715 2766
-401 -713 2757
-392 -710 2747
-384 -710 2748
-375 -709 2745
-367 -709 2745
-358 -708 2741
-349 -707 2739
-341 -706 2734
-332 -704 2729
-323 -703 2726
-315 -703 2727
-306 -701 2720
-299 -704 2730
-290 -701 2718
-282 -700 2716
-273 -699 2711
-265 -698 2709
-257 -698 2708
-248 -696 2703
-240 -696 2700
-232 -696 2704
-224 -695 2699
-216 -696 2702
-208 -695 2698
-199 -693 2692
-191 -692 2690
-183 -691 2683
-175 -691 2683
-167 -690 2681
-159 -689 2677
-150 -688 2673
-142 -687 2668
-134 -686 2666
-126 -684 2658
-119 -687 2669
-111 -685 2663
-103 -685 2660
-94 -681 2648
-87 -681 2646
-79 -681 2646
-71 -682 2649
-63 -680 2644
-55 -678 2634
-47 -677 2629
-40 -678 2632
-32 -677 2631
-24 -678 2632
-16 -674 2617
-9 -676 2626
-1 -673 2612
6 -674 2616
13 -671 2606
21 -672 2607
29 -672 2608
36 -670 2600
44 -667 2589
52 -669 2597
59 -670 2600
67 -667 2589
74 -668 2592
82 -665 2579
90 -667 2586
97 -666 2581
105 -667 2584
112 -662 2566
120 -665 2576
127 -665 2575
134 -663 2567
141 -660 2554
149 -662 2562
156 -659 2552
163 -658 2547
171 -659 2551
179 -660 2551
186 -660 2552
194 -660 2551
201 -658 2544
207 -655 2531
215 -656 2534
223 -658 2541
231 -657 2538
237 -655 2527
245 -655 2528
251 -653 2517
259 -653 2520
266 -652 2514
273 -652 2510
281 -653 2515
288 -652 2509
295 -652 2509
303 -652 2509
308 -646 2487
317 -651 2504
324 -650 2500
330 -648 2491
338 -649 2493
344 -647 2482
352 -648 2487
359 -647 2483
367 -647 2482
373 -645 2474
381 -646 2474
389 -647 2479
397 -648 2480
402 -644 2465
410 -647 2473
416 -645 2464
424 -645 2465
431 -645 2463
437 -642 2451
445 -643 2454
452 -643 2450
457 -640 2440
465 -642 2443
472 -640 2437
479 -641 2437
486 -640 2432
493 -640 2430
500 -640 2431
508 -641 2431
515 -640 2429
521 -639 2422
529 -640 2424
534 -638 2414
542 -638 2413
548 -637 2407
556 -637 2407
562 -636 2402
569 -636 2401
578 -638 2407
583 -635 2393
591 -636 2396
600 -638 2401
606 -638 2398
614 -638 2397
618 -635 2385
626 -635 2384
634 -637 2388
640 -636 2381
647 -635 2378
654 -635 2376
662 -636 2376
666 -633 2364
675 -634 2367
682 -634 2365
688 -634 2361
691 -629 2343
703 -634 2359
709 -633 2353
718 -634 2355
725 -634 2353
731 -634 2349
739 -635 2350
745 -633 2344
751 -633 2339
759 -633 2339
766 -633 2335
771 -631 2327
780 -632 2329
787 -633 2329
795 -633 2328
803 -634 2328
803 -629 2307
814 -631 2315
821 -632 2314
830 -633 2315
838 -633 2314
840 -630 2299
851 -632 2306
857 -632 2301
864 -632 2299
871 -632 2297
880 -633 2299
885 -632 2291
891 -631 2285
899 -631 2284
909 -633 2289
915 -633 2284
924 -634 2287
929 -632 2277
936 -633 2275
944 -633 2274
949 -632 2268
959 -633 2270
964 -632 2263
972 -633 2262
974 -629 2247
981 -630 2246
977 -622 2216
987 -624 2220
991 -623 2212
1013 -632 2242
1011 -626 2218
1022 -629 2225
1036 -633 2237
1040 -632 2227
1049 -632 2227
1057 -633 2227
1065 -634 2225
1072 -633 2221
1044 -613 2145
968 -564 1973
894 -517 1806
894 -514 1792
903 -516 1796
907 -515 1791
910 -513 1781
911 -511 1770
918 -512 1769
929 -514 1777
924 -509 1753
934 -511 1758
937 -510 1752
946 -511 1754
956 -513 1758
958 -512 1750
962 -511 1743
967 -510 1738
985 -517 1757
987 -515 1749
996 -517 1751
1000 -516 1745
996 -511 1726
-1630 -782 2733
-1624 -783 2743
-1620 -786 2756
-1618 -789 2773
-1611 -791 2783
-1605 -792 2792
-1598 -793 2802
-1598 -798 2821
-1585 -796 2820
-1590 -803 2850
-1574 -800 2842
-1574 -805 2864
-1573 -809 2884
-1567 -811 2895
-1572 -819 2926
-1615 -846 3030
-1679 -886 3175
-1678 -890 3197
-1659 -886 3185
-1646 -885 3185
-1635 -884 3188
-1613 -878 3170
-1600 -877 3170
-1587 -875 3170
-1571 -872 3162
-1554 -868 3151
-1540 -866 3150
-1528 -865 3150
-1507 -859 3131
-1496 -858 3133
-1479 -855 3124
-1465 -852 3119
-1455 -853 3123
-1442 -850 3119
-1422 -845 3103
-1414 -846 3109
-1398 -842 3099
-1384 -840 3095
-1369 -837 3087
-1354 -833 3078
-1343 -833 3080
-1331 -831 3078
-1315 -828 3067
-1302 -825 3063
-1295 -827 3074
-1280 -824 3064
-1264 -819 3050
-1252 -818 3048
-1241 -817 3047
-1229 -816 3047
-1214 -812 3036
-1203 -811 3034
-1191 -810 3032
-1179 -808 3027
-1165 -805 3020
-1151 -802 3011
-1139 -800 3006
-1130 -800 3012
-1117 -797 3003
-1104 -794 2995
-1100 -799 3013
-1081 -792 2991
-1070 -790 2986
-1063 -792 2995
-1049 -789 2986
-1035 -785 2974
-1023 -783 2968
-1012 -782 2967
-999 -779 2958
-992 -780 2966
-979 -778 2958
-969 -776 2956
-958 -775 2953
-947 -773 2949
-936 -772 2945
-926 -771 2945
-910 -765 2924
-891 -757 2894
-866 -743 2843
-803 -696 2665
-821 -719 2754
-850 -752 2882
-848 -758 2909
-840 -758 2912
-830 -758 2910
-818 -754 2900
-808 -754 2900
-798 -753 2897
-787 -751 2892
-775 -748 2882
-767 -748 2885
-755 -745 2872
-747 -746 2879
-738 -746 2881
-726 -742 2866
-717 -742 2867
-707 -740 2862
-695 -737 2852
-687 -737 2855
-677 -736 2852
-666 -733 2842
-656 -732 2839
-646 -730 2833
-639 -732 2839
-627 -728 2827
-619 -728 2829
-607 -724 2815
-599 -725 2820
-591 -725 2819
-581 -724 2817
-573 -724 2817
-562 -721 2808
-554 -722 2811
-545 -720 2808
-536 -720 2807
-524 -716 2791
-517 -717 2796
-505 -712 2780
-498 -713 2784
-490 -713 2786
-482 -714 2789
-473 -713 2786
-463 -712 2782
-454 -709 2774
-445 -709 2775
-436 -707 2765
-428 -707 2769
-417 -703 2753
-409 -704 2756
-401 -705 2759
-392 -703 2755
-383 -701 2747
-375 -701 2746
-366 -700 2743
-358 -700 2743
-349 -698 2737
-341 -698 2736
-331 -695 2728
-323 -695 2725
-315 -695 2728
-307 -694 2726
-298 -692 2716
-289 -692 2716
-281 -691 2715
-273 -690 2709
-265 -691 2715
-256 -689 2708
-249 -690 2710
-239 -686 2697
-232 -688 2704
-223 -685 2693
-215 -685 2691
-207 -684 2688
-199 -683 2687
-190 -682 2681
-183 -682 2683
-175 -683 2684
-166 -679 2669
-159 -683 2684
-150 -680 2673
-142 -678 2668
-134 -677 2662
-126 -676 2660
-118 -677 2663
-110 -676 2658
-102 -675 2657
-94 -674 2651
-87 -674 2650
-79 -675 2656
-71 -674 2650
-63 -671 2640
-55 -668 2628
-47 -670 2633
-39 -668 2625
-32 -667 2623
-24 -667 2624
-16 -669 2629
-8 -665 2614
-1 -668 2624
6 -664 2608
14 -662 2602
21 -665 2614
29 -663 2604
36 -662 2601
44 -661 2597
52 -660 2594
59 -659 2589
67 -660 2591
74 -660 2589
82 -658 2582
89 -658 2583
97 -658 2582
104 -656 2574
112 -656 2574
119 -653 2559
127 -654 2565
134 -653 2560
141 -652 2557
149 -654 2563
157 -653 2559
164 -651 2550
171 -650 2546
178 -649 2541
186 -651 2547
193 -650 2543
200 -647 2532
208 -651 2545
215 -649 2536
221 -644 2518
230 -649 2534
237 -648 2532
244 -646 2521
251 -645 2516
258 -644 2512
266 -646 2520
272 -643 2507
280 -644 2511
288 -644 2511
294 -642 2503
302 -643 2503
310 -643 2505
315 -640 2491
323 -641 2494
331 -641 2494
338 -640 2489
345 -640 2488
353 -641 2489
359 -639 2479
367 -640 2483
372 -636 2468
381 -638 2475
387 -637 2470
395 -638 2470
402 -637 2467
408 -636 2461
416 -636 2462
422 -635 2457
430 -636 2458
437 -635 2453
444 -635 2450
451 -635 2449
458 -634 2444
466 -635 2447
473 -635 2444
481 -635 2447
487 -634 2439
493 -633 2433
500 -632 2430
507 -632 2427
515 -632 2428
520 -630 2419
528 -631 2420
533 -629 2410
542 -630 2414
549 -630 2411
556 -631 2412
563 -629 2406
570 -629 2405
578 -630 2406
583 -628 2395
590 -628 2394
598 -629 2395
605 -629 2394
612 -628 2390
620 -629 2393
627 -630 2392
635 -630 2390
638 -626 2374
646 -627 2377
652 -626 2370
662 -629 2379
668 -627 2371
673 -626 2364
681 -626 2363
689 -627 2365
694 -624 2354
702 -626 2357
708 -625 2351
715 -625 2349
724 -627 2354
730 -625 2346
737 -626 2345
742 -624 2337
752 -626 2343
760 -626 2342
764 -624 2331
771 -624 2330
779 -625 2330
784 -623 2322
793 -625 2325
800 -625 2323
807 -624 2318
815 -625 2319
821 -624 2313
829 -625 2315
836 -625 2311
843 -624 2307
849 -624 2303
855 -623 2298
866 -626 2305
869 -623 2293
877 -624 2293
884 -624 2290
892 -624 2288
900 -625 2289
906 -624 2283
915 -625 2285
921 -625 2280
928 -625 2277
937 -626 2280
942 -625 2272
948 -624 2266
956 -624 2265
966 -627 2270
972 -626 2264
976 -624 2254
981 -622 2247
979 -617 2224
1002 -627 2256
1017 -632 2272
1004 -619 2223
1023 -627 2246
1023 -623 2229
1032 -624 2230
1040 -624 2228
1049 -625 2229
1057 -626 2227
1063 -625 2222
1072 -626 2222
1054 -611 2167
966 -557 1970
904 -517 1828
886 -504 1778
891 -503 1773
902 -506 1782
907 -506 1778
915 -507 1778
917 -505 1768
925 -506 1771
927 -504 1760
940 -509 1772
941 -506 1760
946 -505 1756
948 -503 1746
961 -507 1756
970 -509 1760
967 -505 1741
976 -506 1743
976 -503 1730
986 -505 1734
1001 -510 1747
1001 -507 1735
-1634 -774 2741
-1629 -776 2753
-1624 -778 2765
-1617 -780 2774
-1611 -781 2785
-1609 -785 2802
-1602 -786 2810
-1598 -789 2825
-1588 -788 2828
-1586 -792 2846
-1583 -795 2861
-1576 -797 2872
-1573 -800 2887
-1563 -800 2891
-1584 -815 2952
-1641 -850 3081
-1691 -881 3200
-1674 -878 3193
-1660 -876 3190
-1643 -872 3181
-1632 -872 3186
-1610 -866 3168
-1597 -865 3166
-1586 -865 3170
-1562 -857 3147
-1550 -856 3146
-1537 -854 3145
-1521 -851 3138
-1507 -849 3134
-1494 -847 3131
-1476 -843 3120
-1463 -841 3116
-1454 -842 3123
-1439 -839 3117
-1422 -835 3104
-1408 -832 3099
-1391 -828 3088
-1377 -826 3081
-1367 -826 3085
-1355 -825 3085
-1341 -822 3077
-1327 -819 3072
-1315 -818 3070
-1303 -816 3067
-1285 -811 3051
-1275 -811 3054
-1263 -810 3052
-1247 -806 3040
-1242 -808 3052
-1224 -803 3037
-1212 -801 3033
-1202 -801 3036
-1185 -796 3019
-1176 -797 3024
-1167 -796 3026
-1152 -793 3016
-1139 -791 3010
-1129 -790 3011
-1116 -788 3004
-1102 -784 2994
-1094 -785 2998
-1084 -785 3000
-1070 -781 2990
-1055 -777 2976
-1046 -777 2979
-1034 -775 2974
-1024 -775 2975
-1010 -771 2963
-1000 -770 2962
-989 -769 2960
-975 -765 2947
-968 -767 2956
-955 -764 2947
-943 -761 2938
-936 -763 2948
-922 -758 2933
-911 -757 2931
-900 -755 2925
-876 -743 2879
-840 -719 2789
-792 -685 2658
-826 -723 2805
-841 -743 2887
-836 -747 2903
-827 -746 2902
-819 -747 2908
-806 -743 2895
-796 -742 2891
-786 -741 2888
-774 -738 2878
-765 -737 2878
-754 -735 2871
-743 -733 2864
-736 -735 2874
-726 -734 2871
-715 -731 2861
-707 -732 2866
-698 -731 2865
-687 -729 2856
-677 -728 2855
-665 -724 2841
-656 -723 2838
-648 -724 2843
-639 -723 2842
-627 -720 2830
-620 -722 2838
-610 -719 2829
-598 -716 2817
-589 -715 2815
-580 -714 2813
-571 -714 2813
-563 -714 2814
-551 -710 2799
-544 -711 2806
-533 -708 2794
-526 -709 2800
-516 -707 2793
-507 -706 2791
-498 -705 2786
-489 -704 2784
-480 -704 2784
-471 -702 2778
-462 -701 2773
-453 -700 2769
