VERSION 0.7
FIELDS x y z
SIZE 4 4 4
TYPE I I I
COUNT 1 1 1
WIDTH 3602
HEIGHT 1
VIEWPOINT 0.0 0.0 0.0 1.0 0.0 0.0 0.0
POINTS 3602
DATA ascii
566 197 3516
593 203 3621
609 205 3652
642 212 3781
663 215 3839
677 216 3853
676 212 3784
675 208 3716
690 210 3737
697 208 3712
723 213 3792
722 209 3729
739 211 3758
747 210 3744
752 208 3714
757 207 3682
753 203 3610
760 201 3588
756 197 3518
751 193 3447
752 191 3404
757 190 3380
754 187 3320
749 183 3257
751 181 3222
754 179 3193
756 178 3159
751 174 3099
760 174 3096
760 172 3059
772 173 3068
766 169 3007
771 168 2990
761 164 2917
770 164 2917
779 164 2917
783 163 2897
784 162 2870
783 160 2830
789 159 2821
767 153 2713
0 0 0
0 0 0
0 0 0
0 0 0
0 0 0
0 0 0
0 0 0
0 0 0
0 0 0
0 0 0
0 0 0
0 0 0
0 0 0
0 0 0
0 0 0
0 0 0
1031 173 3058
0 0 0
0 0 0
0 0 0
0 0 0
0 0 0
0 0 0
1026 162 2848
1041 163 2863
1050 163 2860
1057 163 2853
1047 160 2800
1049 159 2780
1049 158 2757
1052 157 2739
1057 156 2729
1055 155 2699
1061 154 2690
1061 153 2667
1081 155 2694
1067 151 2635
1073 151 2629
1058 148 2568
1068 148 2572
1077 148 2572
1074 147 2544
1083 147 2542
1084 146 2525
1091 146 2519
1099 146 2517
1092 144 2480
1098 143 2474
1097 142 2451
1100 141 2438
1096 140 2410
1109 141 2418
1096 138 2372
1098 137 2357
1108 138 2360
1099 135 2322
1109 136 2325
1114 135 2317
1111 134 2293
1109 133 2270
1098 131 2231
1098 130 2213
1103 130 2205
1104 129 2191
1109 129 2185
1117 129 2183
1124 129 2181
1126 128 2168
1129 128 2157
1122 126 2127
1131 126 2129
1131 125 2113
1127 124 2090
1136 124 2091
1134 123 2072
1133 123 2055
1122 121 2020
1135 121 2027
-515 65 897
-502 63 881
-492 63 871
-499 64 890
-498 64 894
-488 63 883
-476 62 868
-475 62 873
-491 65 909
-512 68 954
-553 73 1038
-1024 135 1937
-1108 147 2111
-1098 146 2107
-1091 146 2111
-1084 146 2113
-1078 146 2116
-1068 146 2113
-1062 146 2117
-1057 146 2123
-1045 145 2115
-1037 145 2116
-1029 145 2115
-1019 144 2112
-1012 144 2113
-1008 144 2121
-1000 144 2122
-994 144 2125
-984 144 2122
-976 144 2121
-966 143 2116
-957 143 2112
-955 143 2124
-941 142 2111
-918 140 2078
-918 140 2094
-900 139 2070
-888 138 2058
-896 140 2095
-888 140 2092
-878 139 2086
-871 139 2088
-865 139 2090
-862 139 2101
-848 138 2085
-840 138 2082
-841 139 2103
-834 139 2105
-820 138 2088
-819 138 2102
-813 138 2107
-805 138 2104
-793 137 2092
-791 138 2104
-783 137 2101
-778 138 2108
-766 137 2094
-763 137 2104
-750 136 2088
-747 136 2099
-740 136 2098
-732 136 2096
-728 136 2103
-715 135 2088
-710 135 2094
-705 135 2097
-704 136 2115
-692 135 2099
-684 135 2095
-682 136 2110
-673 135 2105
-665 135 2101
-656 134 2094
-642 132 2068
-642 134 2090
-641 135 2111
-633 134 2106
-613 131 2060
-616 133 2094
-616 135 2117
-610 135 2117
-604 135 2120
-597 134 2118
-586 133 2105
-582 134 2112
-577 134 2117
-572 134 2125
-567 134 2130
-553 133 2104
-552 134 2122
-546 134 2125
-539 134 2125
-530 133 2116
-526 133 2125
-525 135 2147
-512 133 2121
-506 133 2124
-498 132 2116
-492 132 2118
-490 134 2139
-489 135 2162
-520 145 2328
-531 150 2411
-528 151 2433
-569 165 2655
-555 163 2626
-557 166 2675
-578 174 2816
-555 170 2742
-543 169 2724
-571 180 2908
-596 190 3080
-589 191 3094
-589 194 3140
-644 215 3490
-598 203 3292
-555 191 3111
-622 217 3541
-804 285 4655
-818 295 4816
-802 294 4803
-789 294 4815
-775 294 4816
-770 297 4869
-751 296 4843
-736 295 4839
-719 293 4814
-700 291 4783
-662 281 4619
-636 276 4530
-521 231 3795
-460 209 3426
-548 253 4164
-604 285 4695
-585 282 4650
-581 287 4731
-562 284 4682
-547 283 4670
-542 288 4752
-528 287 4745
-511 285 4716
-497 285 4713
-419 247 4094
-332 202 3339
-309 194 3200
-297 192 3175
-287 191 3163
-277 191 3163
-300 213 3532
-387 283 4703
-386 293 4864
-374 294 4895
-360 294 4888
-345 293 4879
-330 292 4869
-315 291 4852
-299 290 4826
0 0 0
-190 204 3402
-177 200 3335
-168 201 3342
-128 163 2718
-109 148 2467
-99 145 2409
-94 147 2447
-85 145 2408
-85 157 2618
-84 169 2828
-83 184 3078
-78 193 3227
-69 194 3238
-58 187 3124
-47 180 3016
-42 196 3276
0 0 0
0 0 0
0 0 0
0 0 0
4 191 3198
13 183 3068
0 0 0
0 0 0
0 0 0
46 172 2887
60 190 3198
0 0 0
80 194 3268
89 193 3251
103 204 3430
110 199 3343
118 196 3303
127 195 3285
137 196 3296
149 199 3349
166 208 3510
163 192 3236
178 199 3358
191 202 3405
199 200 3381
209 201 3384
226 207 3500
229 201 3390
246 207 3495
245 198 3345
268 208 3517
275 206 3473
286 206 3481
303 211 3563
319 215 3638
328 214 3611
337 213 3605
348 213 3601
352 209 3538
360 208 3519
370 208 3513
379 207 3500
387 206 3479
404 209 3542
400 202 3424
406 200 3386
406 195 3308
437 206 3480
436 200 3389
457 205 3471
449 197 3339
459 197 3339
466 196 3321
479 197 3341
483 195 3298
490 194 3286
510 198 3354
518 197 3341
530 198 3355
552 202 3427
586 211 3572
599 212 3588
625 217 3682
636 217 3682
653 219 3715
660 218 3694
668 217 3675
678 217 3672
676 212 3599
674 209 3533
694 211 3581
716 215 3639
732 216 3665
745 217 3676
735 211 3572
747 211 3581
760 212 3590
761 209 3544
758 206 3479
756 202 3423
755 199 3374
753 196 3319
753 194 3274
759 193 3256
756 189 3200
758 187 3167
757 185 3124
758 183 3090
750 179 3016
766 180 3045
769 179 3020
764 176 2965
772 175 2959
769 173 2914
778 173 2912
780 171 2884
787 171 2877
777 167 2810
788 167 2817
775 163 2738
793 165 2773
772 159 2670
750 153 2564
0 0 0
0 0 0
0 0 0
0 0 0
0 0 0
0 0 0
0 0 0
0 0 0
0 0 0
0 0 0
0 0 0
0 0 0
0 0 0
976 173 2893
0 0 0
0 0 0
0 0 0
0 0 0
0 0 0
966 162 2703
1022 170 2835
1043 172 2868
1044 171 2845
1043 169 2815
1043 168 2789
1048 167 2776
1055 167 2772
1049 164 2730
1064 166 2746
1050 162 2686
1052 161 2667
1061 161 2665
1050 158 2615
1073 160 2652
1072 159 2625
1073 158 2606
1056 154 2542
1076 156 2570
1062 153 2514
1086 155 2550
1087 154 2530
1076 151 2484
1075 150 2463
1101 152 2501
1097 151 2472
1092 149 2441
1095 148 2427
1098 148 2413
1115 149 2432
1096 145 2372
1107 146 2375
1099 144 2341
1105 143 2334
1104 142 2314
1111 142 2310
1103 140 2277
1110 140 2271
1098 138 2231
1098 137 2213
1098 136 2196
1101 135 2185
1109 136 2184
1119 136 2188
1128 136 2188
1126 135 2167
1121 134 2142
1126 133 2135
1120 132 2108
1128 132 2107
1122 130 2080
1127 130 2074
1129 129 2063
1134 129 2056
1139 129 2049
1132 127 2023
-502 66 874
-505 67 887
-499 66 882
-500 67 890
-490 66 880
-485 66 877
-474 64 863
-474 65 870
-506 69 936
-491 68 915
-546 76 1025
-999 138 1888
-1107 154 2109
-1098 153 2108
-1093 153 2113
-1085 153 2114
-1076 153 2113
-1070 153 2116
-1058 152 2110
-1050 152 2108
-1046 152 2117
-1042 152 2126
-1029 151 2115
-1022 151 2117
-1013 151 2115
-1006 151 2117
-1000 151 2122
-990 150 2117
-982 150 2116
-976 150 2121
-962 149 2107
-958 149 2115
-952 149 2119
-938 148 2105
-926 147 2094
-915 147 2087
-906 146 2084
-887 144 2056
-891 146 2083
-887 146 2090
-875 145 2078
-872 146 2091
-859 144 2077
-855 145 2085
-851 145 2092
-838 144 2079
-833 144 2083
-820 143 2069
-826 145 2103
-814 144 2090
-814 145 2109
-808 145 2112
-796 144 2099
-790 144 2101
-784 144 2105
-779 144 2111
-769 144 2102
-762 143 2103
-755 143 2102
-747 143 2099
-738 142 2094
-730 142 2090
-728 143 2106
-717 142 2092
-711 142 2096
-706 142 2099
-703 143 2113
-697 143 2114
-692 143 2119
-684 142 2116
-678 142 2120
-669 142 2111
-660 141 2106
-645 139 2079
-641 140 2087
-645 142 2122
-636 141 2115
-627 141 2109
-610 138 2072
-613 140 2106
-608 140 2110
-601 140 2108
-596 140 2114
-585 139 2100
-582 140 2114
-577 140 2120
-567 139 2106
-564 140 2120
-558 140 2123
-551 140 2121
-547 140 2129
-540 140 2126
-537 141 2141
-528 140 2133
-516 139 2112
-518 141 2143
-507 140 2128
-499 139 2120
-495 140 2130
-492 140 2145
-494 143 2185
-526 154 2357
-552 163 2506
-544 163 2502
-559 170 2610
-565 174 2676
-556 174 2671
-561 177 2734
-575 184 2840
-573 186 2876
-561 185 2855
-559 187 2894
-572 194 3003
-556 191 2965
-571 200 3097
-566 201 3121
-549 198 3076
-606 222 3450
-808 300 4674
-795 300 4678
-784 301 4697
-770 301 4694
-737 293 4575
-726 294 4595
-702 289 4523
-680 286 4472
-635 272 4259
-584 255 3992
-525 234 3664
-479 218 3417
-441 205 3215
-431 205 3207
-440 213 3347
-449 223 3494
-456 231 3630
-465 241 3785
-460 244 3840
-455 247 3894
-471 262 4125
-405 231 3644
-401 235 3710
-389 234 3694
-355 220 3468
-326 208 3279
-308 203 3198
-299 202 3195
-285 199 3144
-279 201 3180
-306 228 3600
-359 276 4369
-374 297 4715
-364 300 4762
-351 300 4767
-334 298 4733
-319 297 4712
-290 281 4472
0 0 0
-184 197 3126
-175 197 3131
-174 206 3275
0 0 0
-118 158 2512
-110 157 2490
-105 160 2541
-94 154 2448
-88 155 2470
-83 160 2544
-82 174 2765
-79 184 2933
-75 195 3108
-68 198 3164
-57 195 3108
-46 186 2963
-41 200 3201
-29 187 2988
0 0 0
-11 178 2840
-3 183 2929
4 183 2918
0 0 0
20 170 2722
31 195 3119
0 0 0
45 177 2834
57 192 3068
70 202 3245
77 198 3168
90 206 3310
97 201 3227
109 206 3300
116 202 3244
125 201 3224
136 203 3267
143 199 3199
152 199 3195
166 206 3309
177 207 3323
184 204 3281
197 208 3338
206 207 3326
213 204 3289
219 201 3240
234 206 3314
243 205 3307
254 206 3323
265 208 3347
280 212 3415
296 216 3484
308 217 3502
314 215 3462
324 214 3456
334 214 3455
338 210 3393
356 216 3480
361 213 3430
372 213 3437
379 212 3413
386 210 3387
397 210 3395
394 204 3284
408 206 3321
421 208 3351
436 210 3385
443 209 3366
446 205 3314
453 204 3296
464 205 3302
472 204 3292
482 204 3297
493 205 3300
503 205 3302
507 202 3267
520 204 3290
528 203 3279
556 210 3391
573 213 3432
594 216 3493
615 220 3555
635 224 3611
643 223 3595
644 219 3541
655 219 3542
648 214 3449
654 212 3428
680 217 3509
684 215 3476
704 218 3523
726 222 3582
739 223 3592
745 221 3568
739 216 3488
751 217 3497
766 218 3518
765 215 3462
757 210 3379
765 209 3370
758 204 3294
757 202 3246
759 199 3211
750 195 3135
759 195 3133
752 190 3063
757 189 3044
759 188 3018
756 185 2967
762 184 2956
766 183 2936
769 181 2912
770 180 2882
764 176 2825
767 175 2806
778 175 2814
780 174 2790
793 175 2804
793 173 2771
785 170 2715
813 174 2782
891 188 3017
820 172 2744
773 160 2561
0 0 0
0 0 0
0 0 0
0 0 0
0 0 0
0 0 0
0 0 0
0 0 0
0 0 0
0 0 0
0 0 0
0 0 0
0 0 0
0 0 0
0 0 0
0 0 0
973 172 2723
1042 182 2891
1040 180 2857
1045 180 2845
1059 180 2858
1042 176 2786
1055 177 2796
1037 172 2723
1045 172 2719
1062 174 2740
1052 170 2689
1065 171 2700
1062 169 2668
1062 168 2645
1059 166 2615
1059 165 2594
1067 165 2590
1058 162 2546
1060 161 2530
1071 162 2534
1077 161 2528
1083 161 2520
1080 160 2494
1074 157 2459
1079 157 2449
1083 157 2440
1085 156 2423
1080 154 2392
1095 155 2406
1094 153 2384
1100 153 2379
1099 152 2359
1116 153 2375
1103 151 2330
1108 150 2321
1106 149 2299
1104 148 2277
1104 147 2259
1101 145 2235
1095 144 2207
1097 143 2193
1102 143 2187
1114 143 2193
1124 143 2196
1122 142 2176
1121 141 2157
1127 141 2152
1118 139 2120
1135 140 2135
1130 139 2110
1134 138 2102
1130 137 2079
1131 136 2065
1134 136 2056
1137 135 2046
1138 135 2033
-502 69 875
-505 70 886
-504 70 892
-488 68 870
-498 70 894
-471 66 852
-492 70 896
-479 68 879
-491 70 908
-497 72 926
-522 76 980
-913 132 1725
-1106 160 2106
-1098 160 2107
-1091 160 2109
-1084 160 2112
-1079 160 2118
-1071 160 2118
-1062 159 2116
-1056 159 2120
-1045 159 2116
-1035 158 2112
-1030 158 2116
-1022 158 2118
-1011 157 2111
-1005 157 2114
-999 157 2119
-987 157 2110
-984 157 2121
-975 157 2119
-969 157 2121
-959 156 2116
-953 156 2121
-932 154 2090
-925 154 2091
-914 153 2085
-912 153 2096
-893 151 2071
-898 153 2098
-885 152 2086
-873 151 2075
-869 151 2082
-864 152 2088
-852 151 2076
-846 151 2079
-840 151 2083
-837 151 2093
-832 151 2099
-827 152 2106
-820 151 2105
-818 152 2120
-799 150 2086
-794 150 2093
-792 151 2108
-786 151 2108
-778 150 2107
-765 149 2091
-763 150 2105
-753 149 2096
-749 150 2106
-740 149 2100
-736 149 2107
-718 147 2074
-717 148 2092
-712 148 2096
-711 149 2115
-697 148 2094
-694 148 2104
-687 148 2106
-688 150 2128
-669 147 2091
-663 147 2095
-653 146 2082
-640 145 2064
-643 146 2094
-646 149 2126
-638 148 2120
-633 148 2128
-614 145 2086
-611 146 2100
-611 148 2122
-596 145 2091
-585 144 2076
-587 146 2106
-582 146 2113
-577 147 2120
-568 146 2110
-565 147 2123
-559 147 2125
-548 145 2108
-546 146 2126
-538 146 2121
-534 146 2129
-527 146 2129
-519 146 2123
-512 146 2121
-506 146 2123
-501 146 2129
-494 146 2128
-493 147 2151
-500 151 2209
-535 163 2395
-535 166 2428
-554 174 2551
-547 174 2552
-554 178 2621
-579 189 2778
-562 186 2737
-569 191 2814
-565 192 2836
-543 187 2764
-576 201 2978
-565 201 2968
-550 198 2933
-555 203 3011
-535 199 2950
-555 209 3108
-580 222 3303
-757 294 4383
-750 296 4413
-747 300 4474
-740 302 4511
-704 293 4374
-668 283 4225
-628 271 4054
-570 251 3751
-546 245 3664
-531 243 3634
-499 233 3489
-460 219 3279
-443 216 3230
-430 213 3199
-424 215 3229
-442 229 3443
-444 236 3539
-437 237 3563
-426 236 3553
-427 243 3655
-404 235 3542
-386 231 3479
-370 227 3426
-364 229 3456
-345 224 3376
-326 218 3281
-308 212 3193
-303 215 3243
-290 212 3198
-286 216 3263
-294 229 3464
-304 245 3710
-291 243 3677
-286 247 3747
-259 233 3533
-258 242 3662
0 0 0
-216 221 3345
-192 205 3110
-181 203 3087
-165 195 2960
-170 211 3204
-136 179 2721
-117 164 2492
-110 165 2501
-102 164 2485
-93 160 2434
-86 160 2431
-81 164 2498
-81 180 2733
-77 187 2846
-72 196 2987
-66 204 3111
-56 198 3025
-50 211 3212
-38 195 2974
-28 192 2928
-18 173 2642
-11 181 2770
-3 185 2825
4 190 2897
13 195 2984
20 183 2798
30 192 2942
40 205 3132
48 198 3027
58 201 3082
66 199 3039
78 210 3211
85 204 3126
95 205 3141
105 207 3179
111 202 3090
121 204 3127
132 207 3176
136 198 3038
146 200 3075
162 210 3221
165 202 3095
183 212 3258
188 207 3177
200 211 3235
207 207 3188
217 209 3209
221 203 3124
229 203 3121
241 205 3155
259 212 3268
275 218 3351
282 216 3316
300 222 3415
309 221 3403
310 215 3303
326 219 3376
334 218 3354
346 219 3373
355 219 3367
352 211 3252
372 217 3349
381 217 3339
388 215 3316
404 218 3364
409 216 3328
414 214 3292
423 213 3289
431 213 3276
435 210 3232
443 209 3221
455 210 3236
465 210 3238
470 208 3208
484 210 3241
493 210 3240
508 212 3273
507 208 3207
521 210 3235
541 214 3299
544 211 3253
556 212 3270
576 216 3331
583 215 3314
598 217 3340
611 218 3360
622 218 3364
644 223 3430
649 221 3402
651 218 3356
654 216 3323
669 217 3349
699 224 3444
714 225 3469
718 223 3438
739 227 3489
738 223 3435
751 224 3448
754 222 3410
746 216 3328
763 218 3359
761 215 3306
761 212 3263
760 209 3214
753 205 3145
756 203 3119
757 201 3085
753 197 3028
760 197 3021
760 195 2984
765 194 2968
772 193 2956
760 188 2875
763 186 2856
783 189 2895
767 183 2805
767 181 2770
776 181 2772
782 181 2765
783 179 2738
780 177 2697
793 178 2713
793 176 2682
796 174 2663
808 175 2675
808 173 2646
812 173 2633
786 166 2522
0 0 0
0 0 0
0 0 0
0 0 0
0 0 0
0 0 0
0 0 0
0 0 0
0 0 0
0 0 0
0 0 0
0 0 0
0 0 0
0 0 0
999 183 2770
1033 188 2837
1040 187 2833
1055 188 2846
1065 189 2847
1063 187 2816
1032 180 2710
1059 183 2756
1063 182 2741
1056 179 2699
1060 179 2685
1071 179 2692
1055 175 2628
1071 176 2644
1049 171 2569
1058 171 2568
1077 173 2592
1070 171 2554
1076 170 2546
1081 170 2536
1078 168 2508
1075 166 2480
1078 166 2468
1084 165 2462
1081 164 2435
1082 163 2416
1091 163 2417
1100 163 2416
1089 160 2373
1089 159 2354
1084 157 2325
1091 157 2322
1101 158 2324
1096 156 2296
1109 157 2305
1107 155 2283
1101 153 2252
1108 153 2250
1095 150 2206
1104 151 2206
1106 150 2193
1110 150 2185
1118 150 2185
1121 149 2174
1122 148 2158
1129 148 2156
1125 147 2132
1126 146 2119
1127 145 2104
1133 145 2099
1130 144 2079
1132 143 2066
1136 143 2058
1133 142 2038
1134 141 2024
-514 73 895
-509 73 894
-502 72 887
-493 72 878
-506 74 908
-488 72 882
-469 69 854
-480 71 881
-485 72 896
-487 73 906
-489 74 917
-630 95 1190
-1086 164 2068
-1087 165 2084
-1090 166 2107
-1086 167 2115
-1068 165 2097
-1061 165 2099
-1057 165 2106
-1043 164 2095
-1048 166 2121
-1038 165 2117
-1027 164 2111
-1022 165 2117
-1016 165 2121
-1005 164 2114
-1000 164 2121
-993 164 2123
-987 164 2126
-973 163 2113
-973 164 2129
-965 164 2129
-955 163 2124
-938 161 2105
-917 159 2072
-912 159 2080
-904 159 2079
-893 158 2071
-890 158 2079
-892 160 2103
-875 158 2078
-867 158 2078
-855 156 2066
-860 158 2095
-846 157 2079
-844 158 2093
-830 156 2075
-835 158 2105
-828 158 2107
-815 157 2092
-808 157 2093
-801 157 2092
-806 159 2125
-789 157 2099
-781 156 2097
-776 156 2101
-762 155 2083
-755 155 2081
-756 156 2106
-749 156 2104
-737 155 2089
-739 156 2115
-723 154 2089
-719 155 2098
-713 155 2101
-712 156 2119
-703 155 2110
-691 154 2097
-688 155 2107
-684 155 2115
-673 154 2104
-672 155 2123
-652 152 2079
-638 150 2056
-642 153 2091
-644 154 2120
-632 153 2101
-627 153 2107
-622 153 2112
-612 153 2101
-607 153 2107
-601 153 2109
-590 151 2093
-586 152 2104
-580 152 2105
-576 153 2113
-571 153 2122
-563 152 2116
-561 153 2132
-553 153 2129
-548 153 2133
-539 152 2124
-535 153 2133
-528 153 2133
-520 152 2125
-515 153 2134
-508 152 2131
-502 152 2132
-496 152 2136
-495 154 2158
-503 158 2222
-525 167 2351
-547 177 2483
-553 181 2546
-559 185 2609
-552 185 2614
-562 191 2699
-563 194 2742
-537 188 2657
-564 200 2827
-566 203 2881
-548 200 2834
-554 205 2912
-564 212 3007
-563 215 3050
-563 218 3102
-554 218 3103
-559 224 3186
-639 260 3701
-717 296 4223
-727 305 4356
-715 305 4363
-681 296 4233
-609 269 3856
-572 258 3692
-558 256 3672
-530 248 3554
-515 246 3523
-485 236 3390
-459 228 3277
-453 230 3298
-433 225 3226
-437 231 3326
-467 253 3632
-457 253 3641
-420 238 3424
-418 242 3490
-405 241 3471
-388 236 3403
-379 237 3416
-365 234 3380
-349 230 3317
-328 223 3214
-320 223 3223
-305 219 3162
-293 216 3129
-287 219 3165
-280 221 3192
-286 233 3369
-284 239 3470
-285 248 3599
-280 253 3667
-259 244 3539
-237 232 3367
-227 232 3364
-207 221 3208
-195 217 3159
-177 208 3015
-167 205 2985
-156 203 2949
-126 174 2534
-117 171 2481
-106 166 2417
-98 164 2390
-91 164 2378
-86 167 2429
-82 174 2526
-78 180 2616
-75 192 2793
-67 192 2799
-60 195 2850
-52 194 2833
-44 197 2875
-35 194 2826
-26 184 2686
-19 192 2810
-11 188 2753
-3 198 2894
4 184 2688
12 194 2839
21 201 2939
29 195 2847
37 194 2833
47 200 2933
55 198 2907
62 195 2855
73 203 2974
83 208 3048
87 197 2885
103 211 3102
105 199 2920
115 201 2943
129 210 3091
134 204 3001
146 208 3063
157 212 3114
162 207 3042
175 212 3117
180 208 3054
191 210 3088
194 204 2996
208 209 3070
223 214 3150
226 208 3067
236 209 3081
248 212 3127
269 222 3276
280 224 3292
295 228 3359
302 226 3328
312 226 3332
316 222 3265
329 224 3306
343 227 3350
349 225 3311
356 223 3291
362 221 3258
367 218 3217
383 222 3268
385 218 3210
397 219 3226
411 221 3265
411 217 3192
426 220 3237
429 216 3184
437 216 3179
447 216 3183
453 214 3153
462 214 3152
470 214 3149
480 214 3154
491 214 3162
494 212 3120
513 216 3183
520 215 3168
528 214 3156
548 219 3224
548 215 3167
558 215 3172
557 211 3113
562 209 3085
581 213 3143
605 219 3221
617 219 3231
631 221 3252
645 222 3276
637 216 3184
668 223 3292
667 220 3237
696 226 3329
709 227 3343
727 230 3382
732 228 3359
739 227 3345
745 226 3324
751 225 3304
768 227 3335
760 221 3256
769 221 3256
768 218 3207
760 213 3135
760 211 3094
764 209 3074
760 206 3017
766 205 3005
760 201 2946
767 200 2936
767 198 2904
766 195 2864
770 194 2845
772 193 2822
775 191 2801
765 187 2733
769 186 2716
777 186 2713
783 185 2706
789 185 2697
790 183 2672
781 179 2611
786 178 2603
795 179 2603
805 179 2607
810 178 2597
794 173 2520
804 174 2525
0 0 0
0 0 0
0 0 0
0 0 0
0 0 0
0 0 0
0 0 0
0 0 0
0 0 0
0 0 0
0 0 0
0 0 0
907 174 2513
1001 190 2750
1025 193 2790
1062 198 2865
1066 197 2848
1067 196 2825
1068 194 2803
1070 193 2783
1073 192 2767
1055 187 2695
1045 184 2647
1066 186 2676
1054 183 2624
1059 182 2613
1064 182 2604
1068 181 2591
1071 180 2578
1066 178 2544
1066 176 2521
1063 175 2493
1068 174 2484
1072 174 2474
1074 173 2459
1079 172 2449
1085 172 2443
1069 168 2386
1076 168 2383
1078 167 2369
1086 167 2368
1086 166 2349
1096 166 2350
1101 166 2342
1101 165 2323
1104 164 2312
1097 162 2280
1105 162 2278
1103 161 2256
1099 159 2231
1095 157 2205
1096 157 2191
1102 156 2185
1111 157 2186
1118 157 2184
1122 156 2174
1124 155 2163
1127 155 2152
1121 153 2125
1127 153 2119
1124 152 2098
1121 150 2076
1133 151 2084
1134 150 2070
1137 149 2059
1134 148 2039
1126 146 2009
-500 74 871
-501 75 880
-503 76 889
-496 75 883
-498 76 894
-487 74 880
-485 74 883
-476 73 873
-483 75 893
-479 75 892
-484 76 909
-516 81 976
-952 150 1812
-995 157 1909
-981 156 1897
-1010 161 1967
-1029 165 2019
-1018 165 2013
-1024 167 2040
-1004 164 2015
-1008 166 2040
-998 165 2034
-998 166 2051
-996 167 2063
-985 166 2056
-996 169 2095
-976 167 2069
-977 168 2088
-967 167 2083
-967 168 2099
-958 168 2096
-942 166 2078
-931 166 2072
-927 166 2079
-920 166 2080
-915 166 2086
-908 166 2086
-898 165 2082
-893 165 2086
-888 165 2091
-881 165 2092
-875 165 2096
-864 165 2088
-860 165 2095
-852 165 2095
-842 164 2086
-834 163 2086
-834 165 2102
-823 164 2094
-818 164 2098
-811 164 2100
-805 164 2103
-797 163 2099
-794 164 2113
-783 163 2100
-777 163 2105
-765 162 2090
-758 162 2089
-752 162 2092
-750 162 2106
-735 161 2084
-727 160 2082
-721 160 2084
-709 159 2068
-703 159 2071
-700 160 2082
-702 161 2109
-697 162 2114
-691 162 2117
-685 162 2120
-676 161 2113
-669 161 2113
-653 158 2082
-643 157 2071
-642 159 2091
-647 161 2129
-637 160 2118
-629 160 2115
-617 159 2097
-616 160 2116
-613 161 2128
-601 159 2108
-587 157 2084
-587 159 2105
-584 160 2120
-575 159 2112
-572 159 2123
-564 159 2119
-561 160 2130
-548 158 2108
-545 159 2122
-536 158 2111
-532 158 2120
-526 159 2124
-515 157 2107
-516 159 2138
-510 159 2139
-501 158 2126
-497 159 2139
-491 159 2140
-502 165 2218
-532 177 2382
-556 187 2523
-564 192 2594
-559 193 2610
-569 199 2691
-572 202 2745
-567 204 2763
-558 203 2758
-557 206 2794
-558 209 2844
-543 207 2810
-541 209 2842
-545 213 2909
-558 222 3025
-535 216 2946
-530 217 2968
-552 230 3147
-606 256 3510
-685 294 4035
-722 315 4327
-703 312 4288
-627 284 3895
-559 258 3539
-536 252 3462
-530 254 3485
-526 256 3527
-498 248 3409
-481 244 3359
-462 240 3298
-438 232 3194
-431 233 3206
-437 241 3324
-430 243 3346
-424 244 3373
-391 231 3190
-384 232 3207
-382 236 3268
-361 229 3172
-358 234 3231
-338 226 3128
-323 222 3078
-321 227 3140
-309 224 3112
-304 227 3152
-294 227 3143
-281 223 3100
-274 225 3124
-272 231 3210
-265 233 3234
-272 247 3440
-272 257 3576
-264 259 3601
-243 247 3446
-220 235 3267
-198 221 3073
-184 215 2995
-175 213 2975
-166 214 2980
-154 209 2909
-126 181 2526
-112 172 2394
-104 170 2372
-97 169 2360
-89 168 2338
-83 169 2357
-79 175 2438
-76 183 2551
-72 192 2686
-68 202 2822
-58 195 2733
-48 187 2620
-43 199 2790
-34 197 2758
-27 201 2812
-19 200 2807
-10 194 2726
-3 200 2799
4 198 2771
12 191 2685
21 202 2837
29 201 2824
37 204 2862
44 197 2765
53 202 2842
60 198 2782
72 209 2937
79 206 2898
87 203 2861
96 205 2886
106 208 2934
109 199 2799
122 207 2914
130 206 2900
140 208 2931
144 203 2854
161 215 3023
168 212 2984
177 213 2996
186 212 2992
193 211 2979
206 216 3042
212 213 2998
217 209 2947
230 213 3007
240 214 3019
264 227 3211
275 228 3225
283 228 3217
298 232 3274
307 232 3272
314 230 3245
323 230 3243
336 232 3275
341 229 3230
347 227 3201
354 225 3177
370 229 3239
377 228 3217
382 225 3182
396 228 3216
404 227 3205
405 223 3146
408 219 3095
425 223 3153
437 224 3172
446 225 3174
454 224 3166
459 222 3135
466 221 3120
472 219 3098
486 221 3129
475 212 3000
491 216 3047
500 216 3046
517 219 3089
534 222 3140
527 216 3044
547 220 3105
538 213 3004
525 204 2883
523 200 2824
549 207 2921
577 214 3022
614 224 3164
641 230 3254
653 231 3266
651 227 3206
647 222 3138
654 222 3130
673 225 3173
697 230 3238
702 228 3220
720 231 3258
738 233 3292
733 229 3226
751 231 3263
769 234 3295
765 230 3234
767 227 3202
762 223 3141
764 221 3112
758 217 3047
763 215 3031
762 212 2988
761 210 2948
764 208 2926
768 207 2908
764 203 2857
768 202 2840
769 200 2808
770 198 2783
766 195 2735
767 193 2710
777 194 2715
771 190 2663
779 190 2662
787 190 2659
793 190 2652
788 186 2606
793 186 2596
778 181 2522
802 184 2573
791 180 2509
804 181 2525
806 180 2507
803 178 2473
784 172 2389
0 0 0
0 0 0
0 0 0
0 0 0
0 0 0
0 0 0
0 0 0
0 0 0
0 0 0
0 0 0
0 0 0
1037 204 2822
1069 208 2884
1087 210 2904
1085 208 2874
1084 206 2846
1076 203 2798
1091 204 2814
1071 199 2738
1061 195 2689
1071 195 2689
1064 193 2649
1057 190 2608
1052 188 2574
1065 188 2584
1066 187 2565
1066 186 2543
1073 185 2537
1066 183 2500
1074 183 2497
1072 181 2474
1077 181 2464
1069 178 2424
1077 178 2424
1072 176 2393
1078 176 2386
1093 177 2400
1081 174 2356
1083 173 2340
1078 171 2311
1082 170 2300
1094 171 2308
1094 170 2291
1095 169 2274
1101 169 2269
1097 167 2244
1088 164 2209
1100 165 2214
1101 164 2199
1105 164 2190
1114 164 2191
1111 162 2168
1120 163 2171
1124 162 2162
1123 161 2143
1121 160 2123
1127 160 2118
1129 159 2106
1132 158 2097
1133 157 2082
1132 156 2065
1131 155 2048
1125 154 2022
1135 154 2025
-501 77 872
-504 78 883
-500 78 883
-495 78 881
-493 78 884
-486 77 879
-485 77 883
-473 76 868
-485 78 897
-483 78 899
-483 79 905
-511 84 965
-819 134 1559
-932 153 1788
-906 150 1750
-938 156 1826
-944 158 1853
-977 164 1932
-934 158 1860
-909 155 1824
-952 163 1926
-927 160 1891
-920 159 1890
-942 164 1950
-926 162 1932
-906 160 1907
-904 161 1916
-899 161 1921
-897 161 1931
-905 164 1966
-913 166 1997
-918 168 2025
-880 163 1957
-893 166 2003
-910 170 2058
-914 172 2082
-913 173 2098
-896 171 2077
-887 171 2073
-880 170 2073
-872 170 2072
-872 171 2088
-856 169 2068
-856 171 2086
-852 171 2093
-845 171 2094
-827 168 2068
-830 170 2092
-827 171 2102
-821 171 2106
-810 170 2098
-803 170 2097
-800 170 2109
-792 170 2106
-788 170 2114
-784 171 2121
-768 169 2099
-761 169 2097
-752 168 2092
-746 168 2096
-739 168 2095
-732 168 2096
-724 167 2093
-712 166 2077
-707 166 2082
-714 169 2122
-704 168 2113
-697 168 2113
-688 167 2108
-678 166 2098
-681 169 2128
-671 168 2117
-663 167 2113
-642 164 2070
-645 166 2100
-642 167 2112
-636 167 2115
-624 165 2096
-620 166 2106
-612 165 2102
-604 164 2095
-596 164 2091
-591 164 2097
-587 165 2108
-584 166 2121
-577 166 2119
-575 167 2135
-567 166 2131
-557 165 2117
-550 165 2117
-547 166 2128
-542 166 2137
-536 166 2137
-522 164 2107
-520 165 2125
-514 165 2128
-507 165 2124
-496 163 2106
-494 165 2128
-492 166 2144
-510 174 2254
-559 193 2501
-570 199 2588
-585 207 2693
-583 209 2721
-603 219 2852
-607 223 2912
-574 214 2795
-567 215 2803
-558 214 2798
-558 217 2842
-554 219 2865
-565 227 2970
-546 222 2915
-546 226 2963
-523 220 2884
-534 228 2992
-546 237 3113
-591 260 3423
-637 285 3752
-656 298 3931
-621 287 3791
-573 270 3561
-538 258 3407
-530 259 3422
-505 252 3326
-486 247 3263
-470 243 3219
-462 244 3227
-450 243 3213
-437 241 3188
-423 238 3151
-420 241 3194
-406 238 3160
-396 238 3154
-373 229 3044
-357 225 2988
-351 227 3010
-354 234 3109
-338 229 3048
-327 228 3027
-318 228 3031
-314 231 3074
-308 233 3107
-303 236 3144
-288 231 3086
-281 233 3107
-273 233 3112
-264 233 3113
-261 239 3191
-248 235 3143
-241 237 3164
-240 245 3273
-217 231 3095
-201 223 2982
-190 221 2952
-183 222 2969
-178 226 3027
-167 223 2985
-159 224 3009
-132 198 2654
-111 177 2365
-102 173 2318
-94 171 2290
-89 174 2327
-82 172 2312
-78 179 2406
-73 184 2465
-68 188 2529
-64 199 2679
-56 198 2659
-47 194 2604
-39 192 2578
-33 199 2672
-26 200 2698
-18 198 2661
-10 200 2691
-2 198 2669
4 195 2632
12 201 2715
20 199 2687
27 199 2684
35 199 2689
42 195 2627
52 204 2750
61 209 2818
69 209 2824
77 206 2784
86 211 2848
95 213 2874
103 210 2842
112 212 2861
121 213 2880
129 213 2883
132 205 2768
145 211 2860
152 211 2853
161 211 2854
174 217 2944
179 213 2890
190 216 2926
198 215 2913
209 218 2950
215 215 2917
230 222 3004
239 222 3015
258 231 3135
268 232 3141
279 233 3162
293 238 3226
305 239 3245
312 237 3220
320 237 3210
327 235 3184
332 232 3142
347 236 3199
349 231 3137
355 229 3103
370 233 3157
378 232 3149
390 234 3171
387 226 3073
395 226 3062
403 225 3054
408 223 3030
426 228 3095
431 226 3062
443 227 3088
454 228 3099
454 224 3035
465 225 3047
463 220 2981
484 225 3058
487 223 3021
501 225 3049
508 224 3039
511 221 3000
511 217 2948
524 219 2975
502 207 2802
502 203 2753
507 202 2735
522 205 2773
530 205 2773
567 215 2918
602 225 3055
613 226 3062
652 237 3210
648 232 3146
650 229 3108
648 226 3055
648 222 3010
670 227 3070
674 225 3048
709 234 3164
731 238 3216
734 236 3187
745 236 3190
755 236 3191
748 231 3122
762 232 3139
775 233 3155
764 227 3071
759 223 3014
764 222 2998
769 221 2980
763 216 2920
767 215 2903
767 213 2866
767 210 2834
768 208 2804
763 205 2755
765 203 2732
770 202 2718
769 200 2685
773 199 2670
779 198 2660
779 196 2633
787 196 2630
775 191 2563
788 192 2580
794 192 2573
797 191 2555
794 188 2519
797 187 2502
795 185 2470
792 182 2439
816 186 2488
805 182 2428
803 180 2399
796 177 2355
0 0 0
0 0 0
0 0 0
0 0 0
0 0 0
0 0 0
0 0 0
0 0 0
1039 213 2827
1061 215 2861
1089 219 2910
1088 217 2881
1088 215 2855
1103 217 2868
1101 215 2838
1104 213 2820
1087 208 2753
1078 205 2707
1077 203 2680
1069 200 2636
1058 197 2588
1077 199 2613
1063 195 2557
1059 192 2525
1069 193 2528
1067 191 2501
1059 188 2461
1075 189 2478
1073 188 2454
1071 186 2430
1075 185 2418
1084 185 2418
1080 183 2390
1080 182 2371
1090 183 2374
1090 181 2354
1078 178 2310
1074 176 2283
1087 177 2293
1086 176 2273
1087 175 2257
1091 174 2249
1091 173 2230
1099 173 2230
1093 171 2199
1093 170 2182
1106 171 2192
1110 170 2183
1115 170 2177
1125 170 2180
1119 168 2151
1120 168 2138
1118 166 2117
1124 166 2112
1118 164 2085
1127 164 2087
1132 164 2080
1131 163 2064
1134 162 2053
1131 161 2032
1134 160 2022
-507 81 884
-506 81 887
-502 81 887
-495 80 881
-486 79 871
-481 79 868
-492 81 896
-475 79 872
-491 82 907
-469 79 872
-483 82 905
-502 85 948
-839 142 1596
-906 154 1738
-926 159 1789
-906 156 1764
-946 164 1856
-910 159 1799
-953 167 1897
-881 156 1768
-910 162 1841
-852 152 1737
-912 164 1874
-889 161 1840
-928 169 1937
-932 171 1961
-880 162 1866
-891 165 1904
-898 168 1934
-877 165 1903
-884 167 1935
-887 169 1957
-864 166 1922
-896 173 2010
-903 175 2040
-906 177 2065
-909 179 2089
-892 177 2065
-889 177 2077
-884 178 2082
-880 178 2090
-870 177 2084
-861 177 2080
-858 177 2090
-850 177 2088
-848 178 2101
-834 176 2086
-825 176 2080
-830 178 2112
-819 177 2101
-812 177 2101
-804 176 2100
-799 177 2105
-793 177 2107
-782 176 2097
-777 176 2103
-771 176 2106
-756 174 2085
-755 175 2102
-739 173 2076
-746 176 2114
-736 175 2106
-726 174 2097
-717 173 2090
-713 174 2100
-714 176 2123
-708 176 2125
-691 173 2094
-692 175 2119
-682 174 2110
-676 174 2113
-665 172 2098
-659 172 2100
-642 170 2070
-646 172 2103
-645 174 2122
-630 171 2095
-629 173 2112
-620 172 2106
-614 172 2109
-603 170 2091
-597 171 2094
-592 171 2101
-592 173 2124
-586 173 2128
-577 172 2119
-573 172 2127
-564 172 2120
-562 173 2135
-550 171 2117
-545 171 2120
-540 172 2127
-530 170 2112
-532 173 2147
-522 172 2135
-513 171 2123
-507 171 2126
-499 170 2119
-493 170 2121
-496 173 2162
-528 187 2331
-581 208 2602
-582 211 2641
-579 213 2663
-601 223 2802
-618 233 2924
-625 239 2998
-590 228 2871
-571 224 2821
-568 227 2851
-573 232 2916
-560 230 2894
-544 227 2858
-546 231 2914
-532 228 2884
-533 233 2938
-529 234 2962
-545 245 3106
-606 277 3510
-607 282 3574
-556 263 3334
-556 268 3396
-549 269 3412
-527 263 3341
-500 254 3230
-485 251 3192
-478 252 3210
-467 251 3196
-455 249 3177
-441 247 3148
-436 249 3179
-425 248 3165
-411 245 3132
-404 246 3145
-391 244 3115
-370 236 3019
-357 234 2988
-350 235 3003
-336 231 2953
-325 229 2932
-312 226 2890
-309 229 2939
-310 237 3035
-302 238 3048
-296 239 3070
-283 236 3035
-277 238 3060
-266 236 3031
-256 235 3025
-246 234 3009
-229 226 2908
-218 223 2869
-208 221 2841
-203 225 2890
-188 216 2788
-178 214 2760
-171 216 2784
-167 221 2853
-166 231 2982
-160 235 3033
-138 214 2767
-107 178 2296
-101 178 2290
-94 177 2289
-87 177 2290
-81 177 2285
-77 185 2387
-72 188 2433
-67 195 2522
-62 200 2592
-56 204 2640
-48 206 2669
-43 216 2795
-34 208 2701
-27 215 2780
-18 211 2733
-10 206 2671
-2 203 2632
4 205 2655
12 211 2744
20 213 2763
28 211 2737
37 215 2788
42 200 2600
51 206 2680
61 215 2793
69 216 2814
79 221 2869
86 218 2832
95 220 2861
99 211 2739
113 222 2884
120 221 2870
125 214 2786
135 217 2831
143 217 2826
151 217 2828
159 216 2813
163 211 2751
170 210 2735
182 215 2795
195 221 2875
197 213 2781
212 221 2882
226 227 2954
240 231 3019
251 233 3045
265 238 3107
272 237 3089
282 237 3094
290 237 3089
304 241 3139
312 240 3130
320 239 3120
322 234 3054
330 233 3041
338 233 3037
356 238 3111
354 231 3017
374 239 3115
388 241 3152
378 229 2995
389 231 3017
399 232 3025
411 233 3047
414 230 3007
433 236 3075
439 234 3055
441 230 3008
448 230 2998
459 231 3008
465 229 2991
472 228 2980
480 228 2977
477 222 2900
496 227 2962
495 223 2904
514 227 2966
521 226 2954
508 217 2832
485 204 2662
492 204 2655
491 200 2605
542 217 2832
528 209 2716
577 224 2923
589 226 2942
600 227 2952
632 235 3065
648 238 3097
653 236 3078
642 229 2984
625 220 2863
630 219 2845
625 214 2782
670 227 2946
727 242 3153
725 239 3104
738 240 3121
750 241 3128
751 238 3096
755 236 3071
759 235 3051
775 237 3078
767 232 3006
769 230 2977
763 225 2922
766 223 2896
768 221 2869
762 217 2816
768 217 2804
769 215 2778
776 214 2770
766 209 2705
769 208 2685
773 207 2671
774 205 2642
774 203 2615
775 201 2591
773 198 2555
779 198 2548
784 197 2538
787 196 2523
788 194 2501
795 194 2497
804 194 2499
795 190 2447
804 191 2448
804 189 2425
808 188 2413
810 187 2395
828 189 2427
827 187 2400
802 180 2304
0 0 0
0 0 0
0 0 0
0 0 0
0 0 0
1050 224 2856
1084 229 2922
1090 228 2910
1097 228 2903
1103 227 2894
1117 228 2905
1116 226 2876
1121 225 2862
1118 223 2830
1106 219 2777
1089 214 2708
1087 212 2681
1084 210 2651
1077 207 2611
1073 204 2580
1082 204 2579
1069 200 2526
1065 198 2497
1081 200 2513
1061 194 2445
1071 195 2449
1069 193 2425
1077 193 2423
1084 193 2419
1081 191 2391
1086 191 2384
1080 188 2351
1087 188 2348
1092 188 2340
1074 183 2282
1084 184 2287
1083 182 2267
1091 182 2265
1089 181 2243
1086 179 2220
1099 180 2230
1095 178 2204
1100 178 2197
1100 177 2181
1109 177 2181
1110 176 2166
1109 175 2148
1116 175 2144
1117 174 2131
1118 173 2117
1126 173 2116
1119 171 2087
1123 170 2079
1135 171 2085
1127 169 2055
1132 169 2049
1133 168 2036
1129 166 2013
-514 85 895
-501 83 879
-495 83 874
-498 84 887
-490 83 879
-482 82 871
-481 82 875
-475 82 871
-491 85 906
-479 83 892
-484 85 908
-504 89 952
-819 144 1558
-880 155 1688
-898 160 1735
-942 168 1834
-981 176 1923
-948 171 1874
-947 172 1887
-913 167 1833
-900 166 1820
-937 173 1909
-922 172 1893
-888 166 1838
-896 169 1869
-906 172 1905
-913 174 1934
-911 175 1947
-869 168 1872
-891 173 1933
-892 175 1952
-886 175 1953
-840 167 1868
-882 176 1977
-912 183 2061
-920 186 2095
-898 183 2064
-900 185 2085
-887 183 2072
-887 185 2089
-873 183 2074
-877 185 2101
-866 184 2091
-857 184 2088
-854 184 2098
-845 184 2093
-826 181 2065
-826 182 2082
-832 185 2115
-818 183 2099
-815 184 2109
-806 183 2105
-801 183 2109
-788 182 2093
-778 181 2087
-782 183 2115
-773 183 2111
-766 183 2111
-749 180 2084
-732 177 2055
-745 182 2112
-735 181 2103
-724 180 2092
-722 181 2105
-717 181 2112
-709 181 2109
-700 180 2102
-697 181 2114
-688 180 2106
-677 179 2093
-674 180 2107
-657 177 2074
-658 179 2098
-646 177 2080
-641 177 2086
-645 180 2121
-634 179 2108
-628 179 2108
-627 180 2128
-612 178 2102
-596 175 2070
-601 178 2109
-594 178 2106
-590 178 2116
-581 177 2108
-575 178 2111
-568 177 2108
-566 179 2127
-558 178 2120
-553 178 2125
-541 176 2105
-536 177 2112
-534 178 2128
-526 178 2125
-523 178 2137
-515 178 2133
-506 177 2123
-501 177 2127
-497 178 2138
-495 180 2160
-523 192 2312
-584 217 2616
-578 217 2625
-594 226 2731
-612 236 2856
-626 244 2959
-614 243 2946
-602 242 2933
-588 240 2907
-578 239 2897
-572 240 2915
-555 236 2871
-546 236 2870
-526 231 2806
-524 234 2843
-524 237 2886
-520 239 2915
-536 250 3052
-628 298 3635
-677 326 3986
-615 301 3686
-548 273 3345
-516 262 3209
-514 266 3256
-510 269 3294
-494 265 3250
-486 266 3263
-469 262 3210
-450 256 3145
-441 256 3146
-433 257 3153
-423 256 3153
-415 257 3161
-395 250 3080
-378 245 3013
-369 245 3014
-346 235 2890
-345 240 2955
-323 231 2843
-318 232 2865
-309 232 2868
-308 238 2937
-305 241 2982
-295 241 2978
-292 245 3033
-283 245 3029
-274 245 3028
-260 240 2973
-252 240 2971
-233 230 2852
-229 234 2901
-208 221 2737
-198 219 2713
-187 215 2670
-185 221 2747
-175 219 2714
-164 216 2677
-162 223 2765
-167 241 2998
-158 241 2997
-137 220 2739
-106 182 2266
-98 180 2235
-91 178 2218
-84 178 2217
-80 184 2284
-74 183 2273
-72 194 2421
-67 201 2508
-62 207 2578
-56 213 2652
-49 215 2688
-41 214 2675
-33 211 2632
-26 221 2757
-17 210 2623
-10 218 2725
-2 214 2679
4 213 2665
12 217 2708
20 216 2697
28 220 2755
36 219 2740
43 215 2695
50 211 2634
58 214 2677
68 220 2760
77 223 2791
83 218 2734
92 221 2772
100 220 2758
112 228 2864
119 226 2831
129 230 2885
132 221 2773
137 216 2710
145 216 2707
156 221 2772
167 225 2821
171 218 2742
180 220 2758
188 220 2762
203 228 2859
204 220 2759
217 226 2833
230 231 2898
246 237 2983
263 245 3081
269 242 3046
281 245 3086
282 239 3000
295 242 3043
305 243 3052
310 240 3021
315 237 2978
328 240 3019
336 239 3010
345 240 3013
353 240 3012
358 237 2979
367 237 2982
375 237 2974
380 234 2945
392 236 2969
398 235 2952
412 238 2989
419 236 2973
427 236 2969
435 236 2968
451 240 3014
456 238 2988
452 231 2906
456 229 2875
467 230 2891
488 236 2966
495 235 2955
500 233 2932
504 232 2909
504 227 2856
481 214 2682
475 207 2602
478 206 2580
495 209 2628
508 212 2656
526 216 2705
551 223 2792
554 220 2763
555 218 2730
596 231 2891
621 237 2967
640 241 3016
662 245 3072
645 236 2952
618 223 2792
608 216 2705
640 225 2813
647 224 2803
673 230 2882
702 237 2967
737 246 3076
741 244 3054
759 247 3086
761 245 3058
756 240 3001
771 242 3021
774 240 2998
777 238 2975
763 231 2883
762 228 2847
767 227 2834
769 225 2807
767 222 2770
776 222 2768
773 219 2728
766 215 2673
772 214 2663
774 213 2644
778 211 2626
774 208 2588
775 206 2563
778 205 2544
777 203 2515
786 203 2519
783 200 2482
793 201 2489
787 198 2446
794 197 2441
797 196 2428
798 195 2405
806 195 2406
800 192 2366
810 192 2373
822 194 2385
824 192 2369
804 186 2288
815 187 2298
856 194 2391
0 0 0
972 217 2667
1057 234 2874
1076 236 2899
1091 237 2914
1101 238 2913
1103 236 2893
1112 236 2890
1127 237 2903
1140 238 2911
1131 234 2863
1111 228 2789
1091 223 2714
1099 222 2711
1097 220 2681
1104 220 2676
1103 218 2651
1102 216 2627
1087 212 2569
1096 212 2570
1090 209 2534
1074 205 2475
1078 204 2465
1081 203 2451
1079 201 2425
1070 198 2386
1083 199 2396
1077 196 2364
1079 195 2349
1085 195 2343
1093 195 2342
1085 192 2305
1077 190 2270
1079 189 2258
1088 189 2258
1090 188 2244
1087 186 2221
1087 185 2204
1092 185 2197
1095 184 2186
1099 184 2177
1104 183 2171
1112 183 2169
1113 182 2156
1107 180 2126
1123 182 2142
1121 180 2121
1117 178 2097
1117 177 2083
1124 177 2081
1125 176 2066
1123 175 2046
1130 175 2045
1131 174 2032
1135 174 2024
-500 86 871
-502 86 880
-508 88 897
-491 86 875
-493 86 883
-485 85 876
-477 85 869
-470 84 862
-492 88 909
-496 89 922
-481 87 902
-503 91 949
-820 149 1560
-962 176 1843
-929 171 1795
-917 170 1785
-921 171 1806
-955 179 1887
-933 176 1858
-897 170 1800
-910 173 1839
-890 171 1813
-870 168 1787
-921 179 1907
-898 175 1872
-910 179 1914
-908 179 1923
-880 175 1880
-886 177 1907
-880 177 1909
-907 184 1985
-881 180 1943
-895 184 1990
-864 179 1937
-920 191 2078
-918 192 2092
-910 192 2089
-905 192 2095
-894 191 2088
-893 192 2103
-877 190 2083
-872 191 2087
-862 190 2082
-863 191 2102
-852 190 2091
-840 189 2080
-825 187 2062
-834 190 2101
-826 190 2100
-817 189 2096
-812 190 2102
-803 189 2097
-797 189 2100
-787 188 2091
-785 189 2104
-779 189 2108
-765 187 2090
-758 187 2090
-749 186 2083
-744 187 2090
-739 187 2094
-730 186 2090
-728 187 2102
-721 187 2101
-718 188 2114
-710 187 2112
-702 187 2108
-690 185 2091
-690 187 2111
-679 185 2099
-675 186 2110
-664 185 2096
-658 185 2097
-649 184 2092
-635 182 2067
-639 185 2102
-640 187 2128
-635 187 2133
-623 185 2116
-612 184 2101
-602 183 2088
-600 184 2103
-595 184 2110
-589 184 2114
-584 185 2118
-577 185 2119
-570 184 2114
-569 186 2135
-559 184 2123
-548 183 2109
-547 184 2127
-540 184 2126
-534 184 2129
-526 184 2124
-520 184 2125
-513 184 2125
-505 183 2116
-503 184 2138
-497 184 2137
-491 185 2142
-521 198 2303
-564 217 2524
-565 220 2564
-608 240 2795
-634 253 2955
-624 253 2951
-617 253 2962
-617 256 3001
-595 251 2940
-591 253 2961
-581 252 2959
-535 236 2766
-526 235 2763
-523 237 2788
-511 236 2773
-513 240 2826
-510 243 2856
-522 253 2974
-595 292 3443
-613 306 3611
-570 290 3418
-541 280 3305
-502 264 3122
-486 261 3081
-465 254 3006
-460 256 3031
-439 249 2951
-434 251 2974
-432 255 3022
-434 261 3098
-429 263 3125
-421 264 3138
-411 263 3129
-393 258 3059
-373 250 2973
-345 237 2817
-329 232 2752
-328 236 2809
-313 231 2753
-314 238 2835
-298 232 2761
-306 245 2916
-301 247 2944
-292 247 2947
-289 251 2999
-279 250 2986
-271 251 2996
-253 242 2892
-237 235 2806
-228 233 2786
-214 228 2722
-211 232 2779
-196 225 2688
-188 224 2681
-179 223 2667
-171 222 2665
-167 227 2717
-163 233 2790
-167 250 3001
-160 252 3020
-134 225 2696
-105 187 2243
-96 182 2187
-89 182 2182
-83 183 2193
-78 184 2207
-73 188 2255
-70 197 2366
-66 205 2466
-60 208 2505
-56 223 2682
-49 224 2701
-41 223 2682
-33 221 2659
-25 219 2642
-18 221 2664
-10 219 2635
-2 214 2586
4 219 2637
12 221 2663
20 223 2690
28 225 2722
37 231 2790
44 224 2710
51 224 2706
60 228 2748
67 224 2707
75 225 2723
84 227 2744
86 213 2570
99 226 2734
108 228 2759
118 233 2822
123 226 2736
134 231 2801
135 219 2654
142 219 2653
151 222 2681
163 226 2741
172 228 2758
176 223 2705
191 231 2802
191 222 2688
206 231 2794
217 234 2835
227 235 2847
241 241 2917
248 239 2902
266 249 3014
273 247 2997
286 251 3041
283 241 2921
301 248 3010
298 239 2902
302 236 2859
318 241 2925
322 238 2887
343 247 2996
340 239 2900
351 240 2913
366 245 2973
372 243 2951
369 236 2857
385 240 2916
394 241 2918
409 245 2967
418 245 2966
423 242 2940
424 238 2889
446 246 2980
436 235 2854
453 240 2912
448 233 2825
467 238 2888
476 239 2893
491 242 2930
489 237 2871
493 235 2845
498 233 2825
496 228 2763
481 218 2637
487 217 2627
503 220 2668
509 220 2656
531 226 2731
536 224 2714
556 229 2776
562 228 2761
586 235 2839
609 241 2910
633 247 2983
642 246 2980
655 248 3000
666 249 3005
649 239 2889
640 233 2810
618 222 2679
623 221 2666
629 220 2656
683 236 2846
712 243 2929
745 251 3030
755 251 3032
759 250 3012
757 246 2965
764 245 2956
772 245 2953
774 243 2925
766 238 2860
774 238 2858
769 234 2808
768 231 2771
769 228 2743
765 225 2698
772 225 2694
775 223 2675
771 220 2632
772 218 2608
773 216 2581
772 213 2550
774 212 2530
771 209 2495
779 209 2494
782 208 2478
784 206 2461
787 205 2445
789 204 2428
797 204 2428
800 203 2412
805 202 2403
804 200 2377
807 199 2361
803 196 2328
812 196 2331
816 196 2322
826 196 2327
849 200 2370
869 203 2403
953 221 2613
1026 236 2790
1068 243 2878
1085 245 2896
1084 243 2867
1102 245 2890
1109 244 2883
1116 244 2875
1129 245 2882
1125 242 2848
1114 238 2795
1098 232 2730
1099 231 2711
1111 231 2716
1124 232 2725
1125 231 2703
1126 229 2683
1136 229 2684
1117 224 2618
1108 220 2574
1102 218 2540
1096 215 2504
1088 212 2466
1067 206 2399
1075 206 2396
1077 205 2382
1073 203 2354
1080 203 2351
1075 201 2321
1090 202 2335
1077 198 2289
1086 198 2288
1089 198 2278
1080 195 2241
1090 195 2244
1095 195 2237
1093 193 2214
1099 193 2211
1101 192 2197
1099 190 2177
1100 189 2162
1105 189 2155
1108 188 2145
1107 187 2127
1115 187 2125
1112 185 2103
1112 184 2088
1120 184 2087
1119 183 2069
1128 183 2070
1121 181 2043
1126 181 2036
1132 181 2032
1124 178 2003
-517 91 900
-502 89 880
-504 90 889
-493 89 876
-491 89 879
-488 89 880
-481 88 875
-471 87 863
-478 89 883
-483 90 899
-479 90 898
-497 93 938
-809 152 1538
-900 170 1724
-928 176 1792
-918 175 1787
-879 169 1724
-910 176 1797
-947 184 1886
-902 177 1810
-935 184 1890
-914 181 1863
-910 181 1868
-938 188 1942
-904 182 1886
-907 184 1906
-929 190 1968
-905 186 1933
-911 189 1962
-877 183 1903
-903 189 1975
-879 185 1937
-879 187 1954
-842 180 1886
-918 198 2073
-911 197 2075
-905 197 2079
-890 196 2061
-887 196 2072
-877 195 2063
-884 198 2097
-880 199 2107
-873 199 2107
-858 197 2090
-850 196 2086
-833 194 2064
-828 194 2068
-821 194 2069
-821 195 2087
-821 197 2106
-813 196 2103
-812 197 2118
-799 196 2104
-791 195 2102
-786 196 2109
-778 195 2105
-765 193 2088
-757 193 2085
-751 193 2089
-738 191 2072
-740 193 2096
-736 194 2104
-715 190 2065
-716 192 2088
-715 193 2103
-710 194 2111
-703 194 2111
-694 193 2103
-685 192 2097
-680 192 2102
-663 189 2071
-664 191 2095
-661 192 2106
-654 192 2107
-637 189 2072
-636 190 2092
-637 192 2118
-631 192 2120
-625 192 2121
-611 190 2097
-592 186 2053
-584 185 2047
-591 189 2096
-588 190 2110
-585 191 2123
-576 190 2115
-572 191 2124
-565 191 2121
-555 190 2109
-553 191 2127
-543 190 2114
-543 192 2140
-533 190 2126
-525 190 2121
-523 191 2137
-510 189 2111
-507 190 2126
-502 190 2130
-496 190 2133
-491 191 2142
-523 205 2309
-568 226 2543
-566 228 2567
-606 247 2785
-621 257 2897
-631 264 2983
-625 265 3000
-618 266 3007
-596 260 2945
-574 254 2878
-561 252 2854
-533 243 2758
-528 245 2774
-507 238 2705
-502 240 2723
-496 240 2732
-505 249 2827
-505 253 2879
-512 261 2968
-529 274 3121
-539 283 3232
-494 264 3017
-489 266 3039
-476 264 3015
-452 256 2919
-446 257 2938
-436 256 2931
-425 254 2910
-425 260 2972
-431 268 3076
-425 270 3098
-418 271 3114
-407 270 3096
-391 265 3042
-362 252 2889
-339 241 2768
-332 242 2776
-323 241 2767
-316 242 2783
-320 251 2890
-307 247 2843
-303 251 2886
-299 254 2931
-286 250 2887
-282 254 2928
-269 249 2878
-262 251 2894
-252 250 2884
-240 245 2834
-221 234 2702
-217 239 2758
-205 234 2701
-198 235 2719
-190 234 2707
-176 226 2614
-171 229 2656
-166 234 2707
-162 239 2773
-166 256 2971
-154 252 2922
-124 214 2484
-100 185 2143
-94 186 2151
-87 184 2133
-81 184 2132
-76 188 2175
-74 196 2280
-69 200 2326
-65 210 2434
-59 215 2496
-53 218 2535
-48 228 2652
-39 220 2555
-33 227 2636
-25 227 2638
-17 225 2625
-10 229 2664
-2 228 2651
4 223 2593
13 237 2765
19 223 2596
28 231 2691
36 234 2726
44 232 2710
51 232 2709
59 232 2709
68 234 2733
74 230 2680
83 232 2707
90 230 2691
98 231 2699
105 230 2684
114 232 2707
124 237 2765
132 235 2752
138 234 2730
145 232 2708
155 234 2740
155 223 2601
166 228 2669
176 231 2696
183 230 2691
195 235 2750
203 235 2748
219 244 2855
226 243 2840
235 244 2854
245 245 2870
252 243 2849
265 248 2907
275 249 2921
282 248 2907
286 245 2865
298 248 2901
301 243 2842
313 246 2883
314 240 2808
324 241 2825
338 246 2878
346 245 2872
352 244 2858
357 242 2831
372 246 2877
375 242 2836
387 245 2863
406 251 2944
402 244 2855
414 245 2874
428 249 2917
435 248 2903
439 245 2873
443 243 2844
449 242 2830
453 239 2801
471 244 2861
475 242 2836
479 240 2808
497 245 2864
483 234 2735
478 228 2663
470 220 2573
478 220 2575
481 218 2549
515 230 2691
515 227 2648
546 237 2765
538 230 2682
544 229 2673
576 239 2789
605 247 2889
612 247 2880
622 247 2887
641 251 2933
646 250 2917
675 258 3004
669 252 2937
659 245 2854
632 232 2704
609 221 2568
624 223 2600
652 230 2681
700 244 2845
739 255 2965
750 255 2972
756 255 2962
751 250 2905
768 253 2936
762 248 2878
775 249 2894
770 245 2843
771 243 2815
773 240 2788
781 240 2787
772 235 2722
775 234 2704
772 230 2663
774 228 2642
775 226 2617
774 224 2586
776 222 2565
772 219 2524
776 218 2511
777 216 2488
779 214 2468
779 212 2444
786 212 2440
787 210 2419
789 209 2401
786 206 2368
794 206 2369
804 207 2375
804 205 2352
801 202 2321
803 201 2305
807 200 2296
809 199 2278
822 201 2294
853 206 2359
893 214 2447
967 230 2627
1008 238 2713
1039 243 2774
1083 251 2863
1079 248 2827
1085 248 2819
1107 250 2851
1114 250 2843
1130 252 2859
1112 246 2789
1096 240 2724
1102 240 2716
1103 238 2697
1118 239 2709
1131 240 2718
1132 239 2698
