VERSION 0.7
FIELDS x y z
SIZE 4 4 4
TYPE I I I
COUNT 1 1 1
WIDTH 3617
HEIGHT 1
VIEWPOINT 0.0 0.0 0.0 1.0 0.0 0.0 0.0
POINTS 3617
DATA ascii
180 356 1215
183 354 1211
186 353 1206
191 356 1214
195 356 1214
198 356 1215
202 355 1212
206 356 1214
208 354 1207
212 354 1205
215 353 1201
218 353 1201
224 356 1210
229 359 1220
231 356 1209
234 355 1207
238 356 1209
242 356 1211
245 355 1205
250 357 1211
253 356 1208
256 355 1205
261 357 1209
264 355 1203
267 355 1202
270 354 1199
276 357 1206
281 359 1214
281 354 1194
289 359 1213
290 356 1202
293 356 1200
298 356 1202
302 358 1206
306 358 1204
309 357 1200
314 359 1208
316 357 1200
323 361 1212
327 360 1211
328 358 1202
333 359 1203
336 358 1199
340 359 1201
343 358 1199
347 359 1200
353 361 1206
355 358 1198
361 361 1207
365 361 1206
366 359 1196
375 364 1212
378 363 1209
378 359 1195
384 361 1201
388 362 1203
392 362 1202
397 364 1206
400 363 1202
407 365 1210
404 359 1188
411 362 1197
418 365 1205
426 369 1218
427 367 1209
432 367 1211
439 370 1218
439 367 1206
442 367 1205
452 371 1218
454 370 1212
460 372 1218
458 367 1201
466 370 1212
466 367 1200
475 371 1213
481 373 1217
482 371 1209
488 372 1211
493 373 1214
493 370 1203
498 371 1203
501 371 1202
506 371 1202
516 376 1215
514 372 1201
518 372 1200
523 373 1202
528 373 1201
533 374 1204
536 373 1199
541 374 1200
546 375 1202
552 376 1205
557 377 1205
558 375 1197
567 379 1208
569 377 1201
573 377 1200
588 384 1221
589 383 1214
590 381 1206
605 388 1228
605 385 1218
611 386 1219
613 385 1215
619 387 1217
622 386 1212
626 386 1211
632 387 1213
634 385 1206
638 386 1205
642 386 1203
640 382 1191
646 383 1192
652 385 1195
666 390 1211
661 385 1193
659 381 1179
667 384 1186
672 384 1184
679 386 1189
682 385 1184
681 383 1174
687 384 1175
692 384 1175
-637 363 1065
-641 368 1079
-622 359 1055
-620 360 1059
-617 360 1061
-610 358 1058
-603 356 1054
-605 359 1066
-594 355 1054
-597 359 1068
-588 355 1059
-582 354 1057
-589 360 1077
-585 360 1078
-589 364 1095
-585 364 1095
-597 374 1126
-601 379 1144
-604 383 1158
-615 392 1189
-614 394 1197
-609 393 1195
-593 386 1174
-562 368 1122
-541 356 1088
-527 350 1069
-526 351 1075
-521 350 1073
-522 353 1084
-520 354 1089
-514 353 1086
-506 349 1078
-510 354 1094
-504 353 1090
-501 353 1094
-498 353 1096
-496 355 1101
-491 354 1100
-489 354 1103
-485 354 1104
-482 355 1107
-474 351 1098
-472 353 1104
-467 351 1100
-468 355 1113
-470 359 1127
-464 356 1121
-462 358 1129
-459 358 1130
-454 357 1127
-452 359 1133
-441 353 1116
-446 359 1138
-440 357 1133
-441 361 1148
-430 355 1130
-429 358 1138
-428 359 1144
-424 359 1144
-423 361 1153
-419 360 1152
-414 360 1151
-417 365 1169
-406 359 1151
-400 357 1146
-397 357 1148
-402 364 1172
-397 364 1171
-391 361 1163
-391 365 1177
-387 364 1177
-386 367 1186
-377 362 1171
-370 358 1160
-368 359 1165
-366 361 1171
-364 363 1179
-362 364 1184
-361 367 1194
-354 364 1184
-347 360 1173
-348 365 1191
-342 362 1183
-339 363 1187
-332 360 1176
-329 360 1179
-326 360 1180
-325 363 1191
-320 362 1188
-315 361 1184
-312 361 1187
-311 364 1196
-306 363 1194
-302 363 1194
-297 361 1188
-292 358 1181
-291 361 1192
-285 359 1186
-282 360 1188
-279 361 1193
-274 358 1184
-271 360 1191
-266 357 1183
-261 356 1179
-259 357 1184
-254 356 1181
-251 356 1182
-248 357 1186
-242 354 1176
-241 358 1190
-237 356 1186
-231 353 1175
-229 355 1184
-224 353 1178
-223 357 1191
-220 358 1194
-215 356 1190
-211 356 1188
-207 354 1182
-205 357 1192
-199 353 1181
-196 354 1184
-195 357 1196
-190 356 1193
-187 356 1194
-183 356 1192
-182 360 1209
-177 357 1198
-173 357 1200
-170 358 1201
-165 355 1193
-163 359 1206
-159 357 1201
-155 356 1197
-151 356 1197
-147 355 1194
-146 360 1213
-141 357 1204
-137 356 1200
-133 356 1199
-130 356 1200
-126 356 1200
-123 358 1206
-120 359 1211
-112 347 1170
-106 338 1142
-99 325 1097
-90 308 1040
-84 299 1009
-80 295 995
-76 291 982
-72 287 967
-68 282 951
-64 278 940
-61 277 937
-58 276 932
-55 274 924
-53 276 931
-51 284 959
-47 273 922
-44 275 929
-41 274 928
-39 276 933
-36 275 932
-34 278 942
-31 281 951
-29 284 960
-26 286 967
-23 288 975
-21 294 997
-19 308 1043
-17 323 1096
-14 333 1130
-11 343 1165
-8 352 1193
-4 350 1189
-1 351 1192
2 354 1202
5 352 1196
9 355 1205
12 354 1201
16 353 1200
20 354 1202
23 352 1197
27 353 1199
30 352 1197
34 353 1200
37 353 1199
41 351 1192
44 353 1198
48 351 1192
52 354 1203
56 357 1212
59 355 1204
63 356 1208
66 354 1201
70 355 1205
73 352 1195
77 353 1198
80 353 1198
84 355 1204
88 356 1209
92 358 1214
95 356 1208
98 352 1195
102 355 1203
106 354 1202
110 356 1207
114 357 1211
117 356 1207
120 356 1207
123 354 1201
127 355 1205
130 354 1199
134 353 1198
138 356 1205
143 358 1211
145 354 1199
149 355 1201
151 352 1190
156 355 1200
159 354 1198
164 356 1203
168 357 1208
171 356 1202
174 355 1201
177 354 1194
181 354 1194
185 354 1196
189 356 1201
191 353 1192
196 356 1200
200 357 1203
204 356 1200
206 354 1193
210 355 1194
215 357 1202
218 356 1199
221 355 1194
225 356 1199
229 356 1198
234 359 1206
236 355 1194
240 357 1198
242 354 1189
248 357 1199
250 355 1192
254 356 1193
258 356 1194
262 357 1196
266 358 1198
268 355 1188
273 356 1192
277 358 1196
280 356 1191
283 356 1188
287 356 1190
291 356 1188
296 358 1193
299 357 1191
302 357 1190
306 357 1188
309 356 1184
314 358 1190
317 357 1188
321 357 1186
326 359 1192
330 360 1194
333 359 1189
338 360 1192
341 359 1189
346 361 1195
350 361 1194
355 362 1196
359 362 1197
358 358 1182
362 358 1181
368 360 1187
373 362 1190
376 361 1188
377 359 1180
385 363 1191
386 361 1184
389 359 1178
396 363 1188
398 361 1181
404 363 1189
410 365 1193
416 367 1198
419 366 1196
423 366 1195
431 371 1208
429 365 1189
436 368 1197
438 366 1191
445 369 1199
448 369 1197
452 369 1196
456 369 1195
460 369 1195
462 368 1189
466 368 1188
472 370 1193
475 369 1190
480 370 1190
483 370 1188
494 375 1205
496 373 1197
493 368 1181
503 373 1194
507 373 1193
513 374 1196
516 374 1194
521 375 1194
524 375 1192
531 376 1196
533 375 1191
539 377 1196
543 377 1194
550 379 1199
557 381 1204
559 379 1198
557 376 1185
565 378 1191
575 383 1203
578 382 1200
585 384 1205
587 383 1200
594 385 1204
599 385 1204
605 386 1206
605 384 1198
612 386 1202
615 386 1198
618 384 1193
624 386 1197
630 387 1198
635 388 1198
629 382 1178
634 383 1179
640 384 1181
643 383 1177
649 384 1178
656 386 1181
649 379 1160
648 377 1150
661 382 1164
668 384 1167
679 388 1177
675 383 1161
685 387 1170
684 384 1159
-628 361 1048
-619 359 1041
-615 358 1041
-607 356 1036
-604 356 1039
-604 358 1046
-601 358 1049
-593 356 1044
-590 356 1046
-584 354 1043
-587 358 1057
-584 358 1060
-579 357 1058
-577 359 1064
-577 361 1071
-576 362 1078
-584 369 1101
-588 374 1117
-588 376 1126
-597 384 1152
-601 389 1169
-600 391 1177
-572 376 1131
-552 365 1100
-531 353 1066
-526 352 1065
-520 351 1063
-522 354 1074
-514 351 1067
-514 353 1075
-513 355 1082
-508 354 1080
-507 356 1087
-498 352 1077
-494 351 1076
-494 354 1087
-490 353 1086
-486 354 1087
-485 355 1093
-479 353 1089
-477 354 1094
-470 352 1087
-468 353 1091
-467 355 1100
-463 355 1100
-461 356 1105
-459 356 1109
-454 356 1108
-451 356 1110
-453 360 1124
-446 357 1117
-444 358 1121
-441 359 1124
-435 357 1120
-435 360 1131
-430 359 1128
-422 355 1117
-427 362 1140
-421 360 1137
-416 359 1133
-412 359 1134
-410 359 1138
-407 360 1142
-401 358 1136
-398 358 1138
-399 362 1151
-393 360 1145
-392 363 1155
-386 360 1147
-385 363 1157
-382 363 1160
-384 369 1179
-375 364 1164
-370 362 1160
-365 360 1155
-362 361 1160
-360 363 1166
-357 363 1167
-356 365 1176
-353 366 1180
-345 362 1167
-348 369 1190
-343 367 1184
-333 361 1166
-333 364 1176
-329 364 1179
-324 362 1174
-320 362 1173
-314 359 1166
-311 360 1169
-309 362 1175
-308 364 1183
-301 361 1174
-299 362 1179
-296 363 1183
-292 362 1180
-289 363 1184
-283 361 1177
-279 360 1176
-277 361 1181
-272 360 1177
-269 360 1180
-264 359 1176
-259 356 1168
-254 354 1161
-253 358 1174
-248 355 1167
-246 358 1175
-242 357 1173
-237 355 1166
-235 357 1174
-231 356 1174
-225 353 1163
-224 357 1176
-221 358 1180
-217 356 1176
-212 355 1171
-211 359 1186
-205 354 1171
-203 358 1183
-199 357 1180
-195 355 1176
-193 359 1188
-190 358 1188
-186 358 1188
-182 358 1186
-179 358 1187
-177 361 1199
-171 357 1186
-168 357 1187
-164 356 1184
-161 357 1188
-158 359 1193
-154 358 1192
-150 357 1187
-147 359 1196
-144 361 1201
-140 359 1195
-137 360 1200
-133 359 1197
-129 359 1198
-126 359 1198
-123 361 1206
-118 358 1194
-110 344 1149
-104 336 1120
-96 321 1071
-90 311 1037
-83 298 994
-80 296 987
-75 291 970
-71 284 950
-67 281 939
-64 279 933
-61 278 929
-61 293 981
-52 264 884
-55 291 973
-48 267 892
-45 266 888
-43 272 910
-41 274 918
-38 276 923
-36 279 935
-33 279 935
-31 280 938
-28 282 944
-26 285 955
-23 288 963
-20 293 982
-18 306 1025
-16 323 1082
-14 334 1122
-11 342 1147
-8 354 1187
-4 352 1183
-1 355 1194
2 352 1182
5 354 1189
9 354 1188
12 351 1178
16 354 1188
19 354 1188
23 351 1179
26 350 1174
30 353 1186
34 353 1187
37 352 1183
41 354 1188
44 353 1187
48 356 1195
51 351 1179
55 352 1184
59 356 1196
62 356 1196
65 354 1189
70 357 1199
73 355 1194
76 353 1187
80 355 1192
83 354 1190
86 353 1185
91 356 1195
95 357 1198
97 354 1187
101 356 1195
106 359 1204
109 358 1201
112 357 1196
116 357 1197
119 355 1189
122 353 1182
126 356 1193
130 356 1194
133 355 1189
136 354 1185
141 357 1195
143 354 1185
148 355 1189
151 356 1192
154 353 1183
159 358 1198
162 355 1188
166 357 1193
171 360 1202
173 357 1193
176 355 1186
178 352 1175
183 355 1187
187 356 1188
191 356 1189
194 356 1187
198 356 1186
201 356 1187
205 355 1185
209 356 1186
212 355 1184
216 356 1186
220 357 1188
222 355 1181
226 355 1181
232 359 1193
235 358 1191
238 357 1187
241 355 1181
244 355 1179
249 357 1185
252 356 1180
254 354 1173
261 359 1189
262 355 1177
266 356 1178
272 358 1186
275 358 1186
275 354 1170
281 356 1178
286 358 1183
291 361 1190
295 360 1188
296 358 1179
301 359 1183
305 360 1184
306 357 1174
312 359 1181
316 359 1180
321 361 1186
322 358 1176
325 358 1175
330 359 1178
333 358 1175
339 360 1180
341 359 1174
347 362 1184
351 362 1183
355 362 1183
356 359 1172
364 364 1186
367 363 1183
367 359 1170
371 360 1171
375 360 1172
382 364 1183
382 360 1170
388 362 1175
395 365 1183
394 361 1168
401 364 1179
404 363 1174
413 368 1188
415 366 1183
419 367 1184
428 372 1198
432 372 1198
429 366 1178
433 366 1177
443 371 1193
442 367 1179
445 367 1176
452 369 1182
455 369 1180
459 369 1179
468 373 1191
468 370 1180
476 374 1192
474 369 1175
479 370 1177
482 370 1174
484 368 1168
491 371 1175
494 370 1172
505 375 1187
508 375 1184
508 372 1173
513 373 1174
518 374 1176
523 375 1178
533 379 1191
533 376 1180
536 375 1176
539 375 1175
541 374 1168
552 379 1182
551 375 1170
561 380 1182
567 381 1185
576 385 1195
579 384 1192
577 380 1178
588 385 1190
596 387 1197
601 388 1197
599 384 1183
610 389 1196
613 388 1192
614 386 1185
622 388 1190
620 385 1178
629 388 1186
628 385 1174
629 384 1168
633 383 1166
640 385 1169
644 385 1168
646 384 1163
653 386 1166
650 382 1152
659 385 1159
664 385 1159
664 383 1150
671 385 1153
671 383 1146
685 388 1160
-621 361 1035
-615 360 1033
-606 357 1026
-601 356 1025
-602 358 1034
-597 357 1033
-596 359 1040
-589 357 1035
-583 355 1033
-585 358 1044
-577 355 1037
-581 360 1053
-574 358 1049
-575 361 1058
-573 362 1062
-573 364 1070
-577 369 1088
-576 370 1094
-585 378 1120
-589 383 1136
-595 389 1156
-590 389 1156
-559 371 1105
-536 358 1068
-525 353 1054
-518 351 1049
-514 350 1048
-516 354 1061
-512 354 1062
-509 354 1065
-509 356 1072
-507 357 1077
-502 356 1076
-495 354 1070
-491 353 1070
-491 356 1080
-484 353 1072
-486 357 1086
-481 356 1084
-478 356 1087
-476 357 1091
-475 359 1098
-467 356 1090
-465 357 1095
-461 357 1095
-453 353 1084
-454 356 1096
-451 356 1098
-450 358 1106
-444 357 1102
-442 358 1107
-437 356 1104
-435 358 1110
-428 355 1101
-427 357 1108
-427 360 1119
-419 356 1109
-417 357 1114
-417 360 1123
-412 359 1123
-410 360 1126
-403 357 1118
-403 360 1128
-397 358 1122
-395 359 1127
-393 361 1134
-390 361 1136
-385 360 1134
-383 361 1138
-381 362 1144
-376 362 1143
-374 363 1147
-370 362 1147
-369 365 1155
-362 361 1144
-358 360 1144
-354 361 1146
-352 362 1151
-351 365 1161
-348 365 1163
-345 365 1165
-344 368 1176
-341 369 1178
-334 365 1168
-330 364 1165
-320 358 1146
-319 360 1154
-318 363 1165
-313 361 1160
-311 363 1165
-307 362 1165
-301 360 1159
-298 361 1161
-295 361 1163
-292 362 1168
-288 361 1165
-284 360 1163
-281 361 1168
-278 362 1170
-275 362 1172
-272 364 1178
-263 356 1153
-262 359 1165
-254 354 1147
-254 358 1160
-250 357 1160
-246 357 1159
-243 358 1162
-240 358 1165
-236 357 1160
-232 356 1158
-229 358 1166
-226 357 1165
-222 357 1165
-218 356 1162
-215 357 1164
-212 358 1168
-207 356 1164
-205 357 1168
-200 356 1164
-195 354 1157
-194 358 1171
-190 356 1168
-187 358 1174
-183 356 1168
-180 358 1173
-177 357 1173
-172 355 1166
-169 357 1173
-166 358 1175
-162 356 1172
-159 358 1178
-156 358 1177
-152 358 1180
-150 360 1187
-146 359 1184
-143 362 1193
-140 363 1198
-135 360 1187
-131 358 1182
-128 360 1187
-125 360 1187
-122 362 1194
-117 357 1180
-109 342 1131
-103 336 1110
-95 319 1054
-88 306 1012
-82 298 984
-79 296 976
-74 290 958
-70 286 944
-67 282 932
-63 280 926
-60 279 923
-56 271 895
-55 278 919
-53 282 934
-50 285 943
-49 293 968
-42 271 896
-40 272 901
-38 277 915
-36 278 922
-33 279 924
-30 281 929
-28 282 935
-25 284 943
-23 289 957
-20 294 975
-18 305 1011
-16 321 1064
-14 334 1109
-11 340 1128
-8 352 1170
-4 353 1173
-1 351 1167
2 352 1169
5 355 1179
9 352 1169
12 352 1169
16 349 1160
19 352 1171
23 355 1179
26 355 1181
30 351 1167
33 354 1176
37 352 1171
40 354 1176
44 354 1176
47 352 1169
51 354 1178
55 356 1182
58 356 1183
62 357 1185
65 357 1186
69 357 1187
72 356 1182
75 354 1176
78 351 1167
83 357 1185
87 360 1197
89 354 1174
94 357 1184
97 356 1184
100 355 1179
104 356 1181
107 354 1173
112 358 1187
114 355 1179
119 359 1190
122 357 1184
125 354 1175
129 357 1184
132 356 1182
135 354 1174
140 357 1182
143 355 1178
146 355 1178
151 358 1184
154 358 1185
157 356 1178
162 360 1191
166 360 1190
166 352 1166
171 356 1178
175 357 1180
179 357 1179
181 354 1171
186 357 1180
188 354 1168
193 357 1177
197 358 1180
201 358 1181
203 355 1172
207 356 1175
210 356 1172
214 357 1176
217 356 1173
223 359 1183
225 357 1175
228 355 1169
230 354 1164
236 357 1174
241 360 1183
244 359 1177
248 359 1179
249 356 1167
254 358 1173
258 359 1175
261 357 1169
266 359 1176
268 358 1171
273 359 1176
276 358 1172
279 357 1168
283 358 1171
286 358 1168
289 357 1166
294 358 1168
295 356 1159
300 357 1163
304 358 1165
308 359 1167
313 360 1172
316 359 1165
321 361 1171
325 361 1170
329 361 1172
331 360 1167
336 361 1170
342 363 1176
342 360 1164
347 361 1167
350 360 1164
355 362 1169
358 361 1165
363 363 1170
364 360 1160
369 361 1163
374 363 1166
377 362 1164
380 362 1161
383 361 1160
391 365 1171
390 361 1157
397 364 1166
400 364 1163
406 365 1167
413 368 1176
418 370 1180
420 368 1173
429 372 1186
426 367 1167
432 369 1173
439 372 1181
442 371 1177
446 371 1176
446 368 1166
456 373 1181
455 369 1167
462 372 1175
460 368 1160
469 372 1171
475 373 1176
475 371 1165
481 372 1169
486 373 1171
487 371 1164
497 376 1176
495 372 1163
504 376 1174
509 377 1176
515 378 1179
511 372 1159
523 379 1178
519 372 1157
523 373 1156
531 376 1164
538 378 1170
539 376 1162
544 377 1163
549 378 1165
559 382 1176
564 383 1177
568 383 1177
569 381 1169
575 382 1171
581 384 1174
587 385 1177
595 388 1184
591 383 1166
603 388 1182
602 385 1169
615 391 1186
617 390 1181
619 388 1174
618 385 1164
623 386 1164
630 388 1168
635 389 1169
636 387 1162
639 386 1157
643 386 1156
644 385 1150
647 384 1145
654 385 1149
644 377 1123
653 380 1130
666 386 1145
669 385 1140
668 383 1131
-612 359 1019
-601 355 1008
-602 358 1018
-597 357 1017
-597 359 1025
-591 357 1021
-582 354 1015
-583 357 1024
-582 358 1030
-576 356 1027
-576 358 1035
-569 357 1031
-566 356 1032
-568 360 1044
-571 364 1058
-575 369 1074
-568 367 1069
-574 372 1088
-573 374 1095
-577 380 1113
-578 383 1123
-575 383 1126
-552 370 1090
-529 357 1053
-525 357 1053
-519 355 1049
-518 356 1056
-515 356 1057
-509 355 1056
-506 355 1056
-505 357 1063
-503 358 1067
-495 355 1061
-495 357 1068
-492 357 1070
-488 357 1072
-485 357 1073
-481 357 1075
-476 356 1072
-472 355 1073
-469 355 1074
-467 356 1078
-461 355 1075
-461 357 1084
-456 356 1081
-457 360 1094
-451 358 1090
-448 358 1090
-445 358 1094
-444 360 1099
-438 358 1097
-437 360 1103
-431 358 1097
-428 359 1101
-425 359 1103
-424 360 1109
-420 360 1110
-413 357 1102
-408 356 1098
-408 359 1109
-407 361 1118
-398 356 1104
-397 359 1112
-393 358 1111
-389 357 1109
-389 360 1121
-388 363 1131
-382 360 1123
-381 362 1131
-380 365 1140
-372 361 1127
-373 366 1144
-368 364 1140
-364 363 1137
-358 361 1133
-356 362 1138
-352 362 1137
-350 363 1143
-347 364 1147
-344 365 1150
-343 367 1158
-340 367 1159
-338 369 1166
-331 366 1158
-327 365 1154
-319 360 1141
-318 363 1150
-313 361 1147
-310 362 1149
-307 362 1149
-304 362 1152
-300 362 1153
-297 362 1154
-293 362 1155
-288 361 1150
-285 361 1153
-282 361 1154
-278 361 1153
-275 362 1157
-271 361 1155
-268 362 1158
-263 360 1152
-259 359 1151
-256 359 1153
-250 357 1145
-247 356 1143
-243 356 1145
-241 357 1149
-236 355 1144
-231 354 1139
-230 356 1148
-226 357 1149
-223 356 1149
-221 360 1160
-216 357 1152
-213 358 1155
-209 357 1154
-207 359 1159
-203 358 1160
-198 356 1153
-196 359 1162
-192 357 1155
-191 362 1172
-186 359 1165
-182 357 1159
-179 358 1162
-176 360 1170
-172 358 1164
-168 358 1164
-167 363 1180
-162 361 1173
-158 359 1168
-156 362 1178
-152 360 1174
-148 360 1172
-145 362 1178
-143 364 1187
-138 360 1175
-135 361 1178
-131 360 1177
-127 359 1172
-123 360 1174
-121 362 1182
-116 359 1172
-109 347 1133
-102 335 1095
-93 317 1034
-86 305 998
-82 300 981
-77 291 951
-74 292 954
-70 287 937
-66 284 930
-62 279 912
-58 270 882
-57 280 915
-55 282 923
-50 270 884
-48 275 899
-44 266 869
-43 275 899
-42 287 940
-38 279 914
-35 280 918
-33 280 918
-30 279 916
-27 282 925
-25 286 937
-22 288 946
-20 293 960
-18 306 1005
-16 318 1043
-13 335 1100
-11 343 1128
-7 352 1156
-4 354 1163
-1 355 1167
2 353 1160
5 352 1159
9 353 1162
12 350 1151
16 353 1161
19 353 1162
23 355 1166
26 352 1156
30 356 1172
33 356 1171
36 354 1163
40 353 1163
44 356 1172
47 355 1167
51 355 1169
54 357 1173
58 360 1183
61 355 1169
65 356 1170
68 355 1166
71 355 1167
75 357 1175
78 354 1164
82 356 1171
86 357 1172
89 356 1171
93 356 1171
96 357 1172
99 353 1161
103 355 1166
106 355 1166
111 358 1176
113 355 1167
118 358 1176
121 359 1178
124 355 1165
127 356 1167
131 357 1172
134 353 1159
139 359 1177
142 358 1174
145 357 1169
149 356 1167
153 358 1172
157 359 1178
160 358 1171
163 358 1171
166 357 1167
171 359 1173
174 357 1168
177 356 1166
180 356 1164
184 356 1163
188 358 1168
190 356 1161
194 355 1159
199 359 1170
201 356 1160
206 358 1168
208 356 1160
213 358 1168
217 358 1168
218 355 1157
225 360 1173
226 357 1161
230 357 1162
235 359 1167
238 359 1167
240 357 1159
245 359 1165
248 358 1161
253 359 1166
256 358 1162
259 358 1159
264 361 1169
266 359 1162
268 357 1154
272 356 1152
276 358 1156
282 360 1163
284 358 1158
286 357 1152
291 358 1155
294 357 1152
302 363 1170
302 359 1155
307 360 1160
311 361 1160
314 360 1158
316 359 1153
321 360 1156
324 360 1154
329 362 1159
333 361 1158
335 360 1153
339 361 1154
343 361 1155
346 361 1152
351 362 1156
354 361 1151
357 360 1149
362 362 1154
369 365 1163
369 362 1151
373 362 1152
375 360 1144
381 363 1151
387 365 1157
387 362 1147
394 365 1154
400 367 1162
404 367 1160
408 368 1162
416 371 1171
419 371 1168
421 369 1163
427 371 1168
429 370 1164
434 371 1166
436 370 1160
442 371 1165
445 371 1163
451 373 1168
455 373 1166
455 370 1157
457 369 1151
461 369 1149
468 371 1157
472 372 1157
475 371 1154
481 373 1159
481 370 1148
492 376 1164
495 375 1160
498 375 1158
500 374 1154
506 375 1157
508 374 1152
512 374 1151
512 372 1141
523 377 1156
526 376 1153
532 378 1157
535 377 1154
543 380 1161
545 379 1155
551 380 1159
551 378 1149
560 381 1158
564 381 1157
571 384 1163
581 388 1173
580 385 1162
590 388 1172
589 385 1161
598 389 1171
604 390 1172
604 387 1163
607 387 1159
610 387 1157
619 389 1164
613 384 1144
624 388 1156
624 386 1147
629 386 1148
632 386 1144
637 386 1143
640 386 1140
637 382 1126
644 384 1131
648 383 1128
645 380 1116
660 386 1132
658 383 1120
666 385 1126
-602 357 1002
-600 358 1005
-604 362 1020
-592 357 1008
-594 360 1018
-585 357 1011
-583 358 1015
-581 359 1019
-577 358 1020
-576 360 1026
-572 359 1026
-572 361 1034
-558 355 1017
-563 360 1035
-564 363 1044
-561 363 1047
-557 363 1047
-562 368 1065
-571 377 1091
-570 379 1098
-573 383 1113
-564 379 1103
-541 366 1066
-524 357 1041
-521 357 1043
-519 358 1048
-513 356 1044
-506 354 1040
-506 356 1048
-507 359 1058
-502 358 1055
-497 357 1054
-496 359 1061
-490 357 1057
-487 357 1058
-482 356 1056
-477 355 1056
-477 357 1063
-473 357 1065
-471 358 1069
-468 358 1071
-464 358 1071
-458 356 1066
-455 356 1069
-453 357 1074
-452 359 1079
-448 359 1080
-449 362 1092
-441 359 1084
-437 358 1081
-434 359 1086
-430 358 1085
-429 360 1091
-422 357 1083
-421 359 1092
-417 358 1090
-415 360 1096
-412 360 1099
-405 356 1089
-406 361 1104
-398 357 1092
-395 357 1094
-394 359 1102
-391 360 1106
-388 360 1107
-387 362 1115
-384 362 1116
-379 361 1114
-372 357 1103
-371 360 1114
-369 362 1118
-368 364 1127
-363 363 1124
-363 366 1134
-355 361 1120
-353 363 1127
-351 364 1132
-347 363 1131
-344 364 1135
-344 368 1147
-339 366 1144
-339 370 1157
-338 373 1167
-328 366 1145
-321 362 1135
-318 363 1137
-313 360 1130
-310 361 1134
-306 360 1131
-304 362 1138
-299 360 1133
-297 362 1139
-294 363 1143
-291 364 1148
-285 360 1137
-281 360 1136
-281 364 1150
-275 360 1140
-273 363 1148
-268 361 1142
-265 361 1144
-262 361 1146
-257 359 1139
-253 358 1137
-247 356 1129
-246 359 1142
-241 357 1134
-240 360 1147
-234 357 1135
-232 358 1141
-229 358 1142
-224 356 1136
-221 357 1140
-217 357 1139
-215 358 1144
-212 359 1146
-209 360 1151
-205 359 1149
-202 360 1154
-198 359 1151
-193 356 1139
-191 358 1149
-187 357 1146
-184 358 1150
-182 361 1160
-178 360 1155
-176 363 1168
-171 360 1156
-169 362 1166
-165 363 1168
-161 362 1165
-157 360 1161
-154 360 1159
-151 361 1165
-147 361 1164
-143 360 1162
-140 361 1166
-137 361 1166
-132 359 1158
-130 361 1167
-126 361 1167
-123 362 1170
-120 363 1174
-114 357 1154
-108 347 1123
-100 332 1073
-91 314 1016
-86 306 989
-81 298 964
-77 295 952
-72 287 927
-69 286 925
-66 285 922
-59 266 860
-57 271 876
-58 288 933
-53 277 895
-52 284 919
-47 271 877
-44 272 881
-43 282 912
-41 287 931
-38 280 908
-36 285 926
-32 282 913
-30 282 915
-27 284 921
-25 286 929
-22 290 943
-20 293 952
-18 307 998
-16 320 1040
-13 335 1090
-10 342 1111
-7 351 1142
-4 353 1147
-1 353 1147
2 352 1144
5 356 1159
9 353 1148
12 354 1151
16 354 1151
19 355 1156
22 353 1149
26 358 1164
29 356 1158
33 352 1146
36 356 1158
40 355 1156
43 353 1149
47 357 1162
50 354 1153
54 356 1158
57 358 1165
61 358 1164
64 356 1159
68 356 1159
71 357 1160
75 356 1160
78 356 1158
82 359 1168
84 354 1150
89 358 1163
92 356 1156
96 359 1167
99 357 1162
102 356 1156
106 358 1163
109 356 1158
113 357 1161
117 359 1167
120 357 1159
123 357 1159
127 356 1157
130 356 1155
133 355 1152
137 356 1155
141 357 1158
143 355 1152
146 354 1149
152 360 1167
156 360 1167
157 355 1149
162 357 1157
165 357 1155
168 357 1155
173 359 1162
176 358 1158
179 356 1153
182 356 1153
185 356 1150
189 357 1153
192 356 1151
197 358 1155
199 355 1146
205 359 1160
207 357 1152
211 358 1154
214 358 1154
219 360 1159
223 361 1164
225 358 1154
227 356 1147
232 358 1150
236 359 1153
238 357 1149
243 358 1151
249 363 1164
251 360 1155
255 361 1160
259 362 1160
262 361 1156
264 359 1151
267 359 1149
269 357 1142
275 359 1148
276 356 1138
282 359 1147
285 359 1146
290 360 1150
294 361 1151
297 360 1149
300 360 1148
306 363 1155
306 359 1143
311 360 1144
314 360 1143
320 362 1151
322 361 1146
328 364 1154
329 361 1144
333 361 1145
339 364 1153
340 361 1142
343 361 1140
346 360 1137
352 363 1145
356 363 1146
359 362 1142
366 366 1152
368 364 1146
371 364 1143
373 362 1138
379 365 1146
383 365 1146
388 366 1147
392 366 1147
396 367 1148
401 368 1151
407 371 1158
408 368 1149
415 371 1157
420 372 1159
421 370 1152
420 365 1136
427 369 1147
434 372 1155
435 369 1144
443 373 1155
444 371 1148
447 370 1145
448 368 1138
455 371 1146
457 370 1140
464 372 1145
466 371 1141
473 373 1147
478 374 1149
479 372 1142
483 372 1141
490 375 1147
491 373 1140
498 375 1146
502 376 1147
501 373 1135
508 375 1140
508 372 1131
513 373 1133
522 377 1143
522 374 1134
535 381 1152
538 380 1150
540 379 1144
549 382 1152
547 379 1139
556 382 1148
557 381 1142
562 381 1142
568 383 1145
577 386 1154
583 387 1157
585 386 1152
586 384 1145
595 388 1154
601 389 1156
602 387 1149
603 386 1142
612 389 1150
614 388 1144
618 388 1142
626 390 1149
626 388 1139
631 389 1141
630 386 1130
641 390 1141
639 387 1129
636 383 1116
647 387 1125
641 381 1106
646 382 1107
653 384 1111
657 384 1109
-605 362 1005
-596 359 999
-596 361 1006
-596 363 1013
-586 359 1003
-588 362 1015
-580 360 1009
-578 360 1013
-573 360 1013
-574 362 1021
-568 361 1019
-571 365 1032
-563 362 1025
-562 363 1031
-563 366 1042
-560 366 1044
-552 364 1038
-552 365 1045
-563 375 1075
-565 378 1086
-566 382 1098
-560 380 1095
-541 369 1065
-522 359 1037
-514 356 1029
-511 356 1031
-507 356 1031
-505 357 1037
-500 356 1035
-501 359 1045
-502 362 1056
-495 359 1049
-491 359 1049
-486 358 1047
-480 356 1043
-479 358 1051
-472 354 1043
-472 357 1053
-473 360 1062
-467 358 1058
-462 357 1055
-462 360 1066
-460 361 1071
-456 360 1069
-447 356 1058
-446 358 1065
-443 358 1066
-438 357 1064
-440 361 1079
-432 358 1070
-429 358 1072
-427 359 1077
-425 360 1082
-421 359 1079
-417 359 1079
-416 361 1087
-411 359 1084
-406 359 1083
-406 361 1092
-398 357 1081
-398 360 1091
-393 359 1088
-386 355 1079
-385 358 1087
-382 358 1089
-380 359 1095
-379 361 1101
-376 362 1104
-372 361 1104
-367 360 1100
-366 362 1108
-362 362 1108
-360 363 1112
-357 363 1115
-352 362 1112
-350 364 1118
-347 363 1119
-344 364 1121
-341 364 1124
-339 366 1130
-336 367 1133
-335 370 1142
-332 370 1145
-327 368 1139
-318 362 1123
-313 360 1115
-311 361 1122
-307 362 1124
-302 360 1118
-301 363 1128
-298 362 1128
-295 364 1133
-291 363 1132
-290 366 1141
-286 365 1141
-279 361 1127
-278 363 1136
-274 362 1134
-271 363 1136
-268 364 1141
-263 362 1135
-259 362 1135
-254 359 1127
-251 359 1129
-247 358 1125
-244 359 1131
-240 358 1128
-237 359 1132
-234 359 1132
-229 357 1125
-226 358 1130
-223 358 1130
-222 363 1145
-216 358 1130
-213 358 1132
-210 359 1136
-205 357 1131
-203 359 1136
-199 358 1135
-196 359 1139
-193 360 1141
-189 358 1137
-187 362 1148
-183 360 1142
-179 360 1143
-176 359 1142
-174 363 1155
-170 362 1151
-167 364 1157
-162 360 1147
-159 359 1145
-157 364 1160
-153 361 1151
-150 363 1158
-146 361 1153
-142 362 1154
-139 363 1158
-136 362 1156
-132 362 1158
-129 364 1163
-125 361 1153
-123 364 1165
-119 364 1166
-113 357 1143
-105 343 1098
-99 334 1068
-90 314 1004
-84 304 974
-80 300 961
-75 292 935
-72 290 928
-69 288 921
-67 291 931
-61 278 889
-62 296 949
-58 289 925
-54 284 909
-53 295 944
-46 269 860
-46 284 910
-42 279 893
-41 289 927
-38 284 911
-33 267 855
-32 284 910
-30 284 912
-27 284 911
-24 286 917
-22 290 930
-19 293 942
-18 308 990
-15 318 1022
-13 336 1079
-10 342 1100
-7 351 1131
-4 355 1142
0 356 1145
2 359 1154
5 354 1141
9 353 1136
12 352 1134
16 356 1147
19 355 1144
22 355 1143
26 353 1136
29 357 1149
33 355 1143
36 356 1146
39 353 1138
43 357 1149
46 356 1147
50 357 1149
53 356 1146
57 357 1151
60 355 1144
63 353 1137
67 357 1150
71 357 1151
74 357 1150
78 358 1152
80 354 1140
85 359 1155
88 358 1150
90 354 1139
95 357 1149
97 354 1140
101 357 1149
106 359 1156
108 357 1147
112 358 1152
116 360 1157
119 358 1151
122 357 1149
125 356 1143
128 354 1138
132 357 1147
136 356 1144
140 359 1152
143 359 1151
146 357 1144
149 356 1143
154 360 1155
157 359 1152
161 359 1151
163 357 1144
168 359 1150
171 358 1147
175 359 1148
178 358 1146
183 361 1154
184 357 1143
188 358 1145
192 359 1148
194 356 1137
198 358 1143
202 359 1146
204 356 1136
209 358 1143
214 361 1151
216 358 1142
220 360 1147
224 361 1149
228 361 1148
231 360 1146
234 360 1145
237 359 1142
239 356 1132
245 359 1142
246 356 1131
250 358 1136
255 360 1141
259 360 1143
264 362 1147
265 358 1135
271 362 1147
273 360 1140
274 357 1131
281 362 1145
282 358 1131
285 358 1131
290 360 1137
294 360 1135
297 359 1132
299 357 1126
304 360 1133
308 361 1135
313 362 1140
314 359 1127
319 361 1134
324 363 1138
325 360 1129
329 360 1130
332 360 1127
341 365 1144
341 362 1132
344 361 1130
345 359 1121
349 360 1123
357 364 1136
359 363 1130
364 363 1131
366 362 1127
373 366 1137
375 364 1132
380 365 1135
382 364 1129
385 364 1128
391 366 1133
397 368 1138
401 368 1138
403 367 1134
411 371 1146
412 368 1136
415 368 1134
425 373 1149
425 370 1138
431 372 1144
431 369 1134
432 368 1127
439 371 1135
445 372 1139
448 371 1136
450 370 1131
458 374 1141
459 372 1133
462 372 1131
467 372 1132
469 371 1126
477 375 1136
480 374 1133
484 374 1133
488 374 1132
491 374 1129
497 376 1133
500 375 1132
502 374 1126
504 373 1122
512 376 1129
518 378 1134
516 374 1120
524 376 1126
528 377 1126
535 379 1131
540 380 1133
545 381 1134
553 384 1141
552 381 1131
555 380 1127
567 386 1142
569 385 1138
575 386 1140
579 386 1138
589 390 1149
593 390 1148
593 388 1139
593 385 1130
601 388 1137
606 389 1137
608 388 1131
612 388 1131
619 390 1134
619 388 1126
622 387 1124
626 387 1122
635 391 1130
631 385 1113
636 386 1114
639 386 1111
642 386 1108
643 383 1100
650 386 1104
648 382 1092
-596 360 990
-598 363 1000
-589 360 993
-590 363 1002
-591 365 1011
-583 363 1005
-583 365 1014
-573 361 1003
-572 362 1009
-573 365 1019
-566 363 1014
-568 366 1025
-562 364 1023
-557 364 1022
-559 367 1033
-558 368 1038
-551 366 1034
-551 368 1042
-557 374 1061
-557 377 1071
-572 389 1107
-555 381 1084
-535 369 1054
-515 358 1022
-508 355 1016
-504 354 1015
-501 355 1018
-501 357 1026
-499 359 1032
-495 358 1031
-497 362 1044
-491 359 1039
-488 360 1041
-484 360 1043
-482 360 1046
-471 355 1031
-475 360 1048
-471 360 1048
-463 356 1040
-461 358 1045
-463 362 1059
-461 362 1062
-458 363 1064
-449 358 1053
-450 361 1063
-444 360 1060
-439 358 1056
-435 358 1057
-433 359 1061
-430 359 1062
-429 361 1070
-427 362 1075
-423 362 1075
-419 362 1076
-414 360 1071
-414 363 1081
-406 358 1070
-401 357 1067
-401 361 1079
-400 362 1085
-396 362 1084
-387 357 1071
-386 359 1078
-384 360 1082
-378 358 1078
-377 360 1084
-376 362 1093
-370 360 1086
-371 364 1100
-366 362 1095
-366 365 1107
-360 363 1099
-358 365 1106
-355 365 1109
-349 362 1101
-345 361 1099
-340 360 1095
-339 362 1104
-336 363 1108
-337 367 1121
-331 365 1116
-328 365 1116
-324 365 1118
-322 366 1121
-315 363 1112
-311 362 1110
-309 363 1114
-304 361 1109
-301 362 1113
-298 362 1116
-294 361 1113
-291 362 1116
-287 361 1114
-287 365 1128
-281 362 1120
-279 363 1124
-275 363 1125
-271 362 1121
-266 361 1118
-262 360 1115
-261 363 1126
-258 364 1130
-253 361 1121
-250 361 1123
-243 357 1110
-241 359 1117
-239 360 1122
-235 360 1121
-229 356 1110
-229 360 1123
-226 361 1126
-220 358 1118
-217 358 1119
-213 357 1118
-210 358 1120
-208 360 1126
-204 358 1122
-200 357 1118
-197 357 1120
-193 358 1122
-192 361 1131
-187 358 1124
-183 356 1119
-181 360 1132
-179 362 1138
-175 361 1135
-172 363 1142
-169 363 1144
-166 364 1146
-160 359 1132
-158 363 1143
-155 363 1145
-151 361 1138
-148 363 1146
-145 363 1145
-140 360 1138
-138 362 1143
-135 363 1148
-131 362 1143
-127 360 1138
-123 360 1139
-122 365 1155
-118 363 1151
-112 356 1128
-104 342 1083
-97 330 1046
-89 314 995
-83 303 960
-79 297 941
-74 292 924
-72 291 923
-64 273 864
-66 292 925
-60 278 882
-56 272 862
-56 282 893
-52 276 876
-49 275 871
-46 271 860
-44 275 873
-41 275 873
-40 281 890
-36 277 878
-34 282 896
-31 277 878
-29 284 903
-27 285 906
-24 287 913
-22 290 922
-19 296 940
-18 309 982
-15 323 1029
-13 329 1048
-10 344 1095
-7 353 1125
-4 356 1134
0 355 1130
2 356 1133
5 353 1126
9 356 1136
12 355 1131
15 355 1131
19 355 1133
22 357 1139
26 355 1131
29 355 1133
33 357 1138
36 358 1140
39 353 1126
43 358 1140
46 358 1141
49 356 1136
53 357 1136
56 357 1136
59 353 1126
63 358 1140
67 358 1141
69 355 1131
73 356 1133
77 357 1138
80 356 1133
84 358 1140
87 358 1141
91 359 1144
94 357 1135
97 357 1135
101 357 1138
105 361 1148
107 357 1135
111 358 1139
114 357 1136
118 358 1137
122 359 1143
124 356 1132
128 359 1140
133 362 1150
135 358 1139
138 358 1136
141 357 1134
144 355 1128
149 359 1138
152 357 1132
156 358 1136
160 361 1145
162 358 1135
165 357 1132
170 359 1139
173 358 1133
177 359 1138
179 357 1132
182 356 1127
187 358 1134
189 357 1131
194 359 1137
197 359 1134
200 358 1130
204 359 1135
208 359 1135
211 359 1133
216 362 1143
218 359 1131
221 358 1129
225 360 1133
228 359 1132
233 360 1135
237 362 1140
238 358 1125
242 359 1129
248 362 1139
249 359 1129
251 358 1124
257 360 1131
261 362 1135
263 360 1129
268 362 1135
271 361 1130
273 359 1125
278 361 1131
280 359 1124
283 358 1119
288 361 1126
291 360 1122
294 360 1123
299 361 1126
302 361 1125
306 361 1124
308 360 1119
314 363 1128
315 360 1118
320 361 1122
325 363 1128
329 364 1128
331 362 1123
334 362 1121
338 362 1121
340 361 1116
344 361 1117
350 363 1122
351 361 1114
356 363 1120
362 365 1125
365 364 1122
368 364 1121
372 365 1121
375 365 1120
381 366 1125
382 364 1115
388 366 1122
394 369 1128
398 369 1130
400 367 1122
406 370 1129
408 369 1125
412 369 1123
415 368 1122
421 370 1127
422 368 1120
427 370 1122
435 373 1133
435 370 1121
436 368 1115
443 371 1121
444 369 1114
451 372 1121
451 369 1112
457 371 1117
462 372 1119
463 370 1112
467 370 1111
475 374 1121
476 371 1112
483 374 1120
488 375 1122
488 372 1112
501 379 1132
502 378 1125
502 374 1114
506 375 1115
510 375 1113
513 375 1111
522 379 1121
528 380 1125
533 381 1126
533 379 1118
539 380 1120
547 384 1129
553 385 1131
554 383 1124
563 386 1132
562 384 1123
567 384 1122
575 387 1130
583 390 1136
583 387 1127
585 386 1122
595 391 1134
595 388 1124
603 391 1131
606 390 1128
608 389 1123
610 388 1117
615 389 1118
615 386 1108
625 390 1119
626 389 1112
632 390 1114
627 385 1097
637 388 1106
642 389 1105
636 383 1087
643 385 1091
649 386 1093
-591 361 981
-593 364 991
-587 363 989
-588 365 997
-589 368 1007
-579 363 997
-575 363 998
-576 366 1008
-565 361 996
-566 364 1006
-563 364 1007
-564 367 1018
-558 365 1014
-554 365 1014
-555 368 1025
-549 366 1021
-548 368 1028
-550 371 1040
-557 378 1062
-558 381 1071
-558 383 1079
-556 385 1085
-536 373 1054
-518 363 1027
-506 357 1012
-500 355 1007
-505 361 1025
-498 358 1019
-500 362 1031
-492 359 1024
-495 363 1038
-489 362 1035
-487 363 1039
-482 361 1037
-479 361 1038
-471 358 1030
-465 356 1026
-465 359 1035
-462 359 1037
-457 358 1035
-461 363 1053
-484 384 1115
-455 364 1056
-454 365 1063
-444 360 1050
-437 357 1042
-437 360 1051
-433 360 1051
-430 360 1052
-429 361 1059
-424 360 1056
-423 362 1064
-419 361 1063
-414 361 1062
-412 361 1064
-407 360 1062
-403 359 1061
-397 357 1057
-397 360 1067
-397 363 1075
-386 356 1057
-387 360 1068
-382 358 1065
-379 359 1069
-377 360 1072
-376 362 1081
-372 361 1079
-370 363 1084
-367 363 1087
-362 362 1083
-360 363 1087
-355 361 1084
-354 364 1093
-351 364 1095
-350 366 1103
-341 361 1087
-339 362 1091
-336 363 1095
-333 363 1096
-332 366 1105
-328 365 1103
-325 365 1107
-318 362 1096
-317 364 1104
-311 361 1095
-307 361 1096
-305 362 1101
-303 363 1105
-298 361 1100
-296 363 1106
-294 365 1112
-291 365 1114
-285 362 1107
-281 361 1104
-279 363 1112
-276 364 1113
-273 364 1114
-267 360 1104
-264 362 1109
-261 361 1108
-259 363 1114
-255 363 1114
-249 358 1102
-246 360 1107
-244 362 1113
-239 359 1106
-235 357 1101
-232 359 1107
-229 359 1108
-225 358 1105
-222 359 1110
-218 357 1103
-216 359 1110
-214 362 1120
-209 358 1109
-205 358 1110
-202 358 1110
-198 358 1110
-194 356 1104
-191 357 1107
-188 357 1110
-186 360 1118
-182 358 1114
-179 359 1116
-177 362 1126
-173 361 1123
-170 362 1126
-166 361 1125
-163 361 1127
-159 360 1124
-156 360 1123
-153 361 1127
-150 362 1130
-145 357 1116
-142 360 1126
-140 362 1131
-136 360 1127
-133 361 1131
-129 360 1127
-127 363 1137
-122 361 1130
-119 362 1134
-118 368 1155
-110 354 1109
-104 345 1080
-96 329 1030
-88 312 977
-83 305 957
-78 299 937
-74 294 922
-70 290 909
-68 290 908
-63 283 889
-58 273 855
-61 296 929
-52 267 838
-53 286 899
-49 278 871
-46 274 860
-46 290 910
-41 278 873
-39 280 879
-37 282 885
-36 297 932
-32 288 905
-31 299 941
-26 286 898
-24 290 911
-22 292 917
-19 294 924
-17 303 955
-15 319 1004
-13 333 1048
-10 343 1083
-7 353 1113
-4 358 1127
0 357 1125
2 355 1121
5 354 1116
9 354 1117
12 355 1120
15 354 1117
19 355 1119
22 356 1124
26 357 1126
29 355 1121
32 354 1118
36 357 1126
39 357 1126
43 359 1133
46 357 1125
49 354 1117
53 359 1132
56 357 1126
60 360 1137
63 362 1141
66 360 1135
69 358 1129
73 360 1136
76 358 1130
80 359 1132
82 354 1116
86 357 1127
90 358 1128
93 357 1126
97 358 1129
100 359 1132
103 357 1124
107 358 1127
110 357 1125
113 356 1120
116 355 1118
120 356 1121
123 357 1124
127 358 1126
131 360 1132
134 358 1126
138 360 1132
140 356 1120
144 359 1129
147 358 1126
152 362 1137
154 358 1124
158 359 1127
162 360 1130
164 358 1123
168 359 1127
171 358 1123
175 359 1126
178 357 1120
182 360 1128
186 360 1128
190 361 1130
191 358 1120
195 359 1123
198 358 1119
203 360 1127
206 360 1125
209 359 1123
214 362 1130
217 361 1127
219 359 1121
224 362 1128
227 361 1126
229 358 1116
233 360 1120
238 361 1124
239 358 1115
245 363 1128
248 361 1122
252 362 1125
255 361 1123
258 361 1122
261 360 1117
266 362 1122
269 361 1120
270 358 1110
276 362 1120
278 360 1115
283 362 1121
285 361 1115
289 361 1116
292 361 1114
295 360 1112
300 362 1115
302 361 1111
308 363 1118
312 364 1120
315 364 1119
318 363 1115
321 362 1111
326 364 1118
329 364 1116
334 365 1119
334 361 1107
340 364 1113
344 365 1115
348 365 1114
350 363 1110
355 365 1114
360 367 1118
364 367 1118
365 365 1110
369 365 1111
374 366 1113
379 368 1117
381 366 1111
383 366 1108
390 369 1117
389 364 1102
399 370 1121
400 368 1112
403 367 1108
408 369 1113
418 375 1130
416 370 1113
420 370 1114
424 370 1113
428 371 1115
431 370 1110
435 371 1112
439 371 1112
445 373 1115
445 371 1107
447 369 1102
456 373 1112
456 371 1103
462 373 1108
471 377 1119
471 374 1109
474 374 1108
481 376 1113
480 373 1103
487 375 1108
489 374 1104
492 374 1101
493 371 1093
498 373 1096
507 376 1105
513 379 1110
514 376 1103
524 381 1116
526 380 1111
528 379 1106
537 383 1115
543 384 1118
547 385 1118
551 385 1117
552 383 1110
552 380 1100
560 383 1108
562 382 1103
571 386 1111
577 387 1114
580 387 1113
585 388 1113
585 385 1104
591 387 1106
599 390 1114
604 390 1113
608 390 1112
610 389 1108
611 388 1101
620 391 1109
624 391 1107
631 393 1112
630 390 1100
633 390 1098
634 388 1090
636 387 1086
639 387 1084
642 386 1079
-589 363 976
-592 367 988
-587 366 988
-587 368 996
-586 369 1001
-585 371 1007
-574 366 996
-567 364 991
-570 368 1003
-571 370 1012
-559 365 999
-556 365 1002
-554 366 1007
-550 365 1006
-549 367 1012
-551 371 1024
-547 370 1024
-546 372 1032
-548 376 1043
-554 382 1062
-551 382 1065
-547 382 1066
-538 378 1056
-516 365 1022
-508 362 1013
-499 358 1005
-495 357 1004
-492 358 1007
-498 364 1027
-492 363 1023
-490 363 1026
-487 363 1028
-482 362 1027
-480 363 1031
-477 364 1034
-468 359 1023
-466 360 1026
-459 358 1021
-456 358 1023
-455 359 1029
-461 366 1050
-452 362 1040
-463 374 1074
-463 376 1083
-445 364 1050
-434 358 1034
-432 359 1038
-429 359 1040
-429 362 1049
-423 360 1044
-422 362 1051
-417 361 1049
-416 363 1056
-412 362 1055
-409 362 1056
-400 358 1044
-402 362 1059
-398 361 1056
-394 361 1058
-392 362 1062
-389 362 1064
-387 364 1069
-381 361 1061
-378 361 1065
-374 361 1064
-371 361 1066
-369 362 1070
-369 365 1080
-363 363 1076
-359 362 1074
-355 361 1072
-353 362 1076
-351 364 1083
-346 362 1078
-344 364 1083
-342 365 1088
-336 362 1080
-333 362 1082
-329 362 1083
-328 365 1092
-324 364 1091
-321 364 1091
-318 365 1094
-312 362 1087
-312 366 1099
-306 363 1092
-303 363 1093
-296 359 1081
-296 363 1094
-292 362 1092
-289 362 1091
-287 364 1099
-282 361 1092
-280 363 1098
-276 362 1097
-274 364 1102
-268 361 1095
-269 366 1112
-263 363 1103
-261 365 1108
-256 363 1103
-253 363 1104
-248 361 1098
-244 359 1095
-242 361 1101
-238 361 1101
-234 359 1097
-230 358 1093
-228 361 1102
-224 360 1100
-220 359 1097
-218 361 1104
-214 359 1100
-211 360 1103
-210 364 1114
-204 360 1105
-201 360 1105
-197 358 1100
-194 359 1103
-189 356 1095
-189 362 1113
-183 358 1101
-180 359 1105
-177 359 1106
-174 360 1109
-172 361 1114
-167 359 1107
-165 361 1114
-161 360 1112
-157 359 1107
-154 359 1110
-151 360 1113
-146 357 1104
-145 361 1116
-140 359 1109
-137 359 1112
-134 360 1113
-132 362 1122
-128 361 1118
-124 360 1117
-122 364 1128
-119 364 1128
-115 362 1123
-108 352 1093
-102 341 1057
-94 326 1011
-86 310 961
-82 304 941
-77 297 922
-74 295 916
-70 289 898
-67 290 899
-63 284 883
-61 285 884
-58 283 880
-55 285 886
-52 283 880
-46 264 819
-47 282 877
-42 269 835
-43 289 898
-36 266 825
-37 287 892
-35 294 916
-31 284 885
-28 277 863
-27 291 906
-24 291 905
-21 292 909
-19 295 919
-17 306 953
-15 319 996
-13 333 1040
-10 344 1073
-7 350 1092
-4 357 1115
0 360 1124
2 354 1105
5 358 1119
9 356 1111
12 356 1112
15 355 1109
18 354 1104
22 359 1121
25 357 1115
28 355 1107
32 356 1110
35 357 1115
39 359 1121
42 359 1122
45 356 1112
49 357 1116
52 358 1118
55 357 1114
59 357 1115
62 359 1121
66 359 1121
69 358 1117
72 359 1122
76 361 1125
79 358 1116
82 358 1118
86 360 1123
90 361 1127
93 360 1122
95 355 1107
99 360 1122
102 356 1109
105 356 1110
110 362 1127
113 359 1118
115 356 1109
120 359 1119
123 359 1118
126 357 1113
129 358 1115
133 358 1115
137 362 1127
140 359 1117
142 356 1106
147 360 1121
148 356 1107
154 360 1119
157 360 1117
160 359 1114
162 357 1107
167 359 1115
169 356 1106
174 359 1115
177 359 1115
180 359 1113
184 361 1119
186 358 1108
191 361 1117
195 362 1122
198 360 1115
201 361 1117
204 359 1111
209 363 1121
211 361 1115
215 361 1116
218 361 1115
221 359 1109
225 360 1111
230 363 1118
232 361 1114
237 363 1119
239 361 1112
240 358 1101
247 363 1118
249 361 1109
253 362 1112
257 362 1114
259 361 1109
263 362 1110
267 362 1110
268 359 1102
273 362 1108
278 364 1114
283 366 1119
283 361 1105
290 365 1116
291 362 1107
294 362 1104
299 364 1110
300 361 1100
305 363 1105
308 363 1105
311 362 1102
315 362 1102
317 361 1098
321 362 1098
327 365 1107
329 363 1100
334 364 1105
337 364 1102
341 364 1103
345 365 1105
349 365 1104
352 366 1105
354 364 1099
357 364 1097
362 365 1100
366 365 1099
370 366 1101
373 366 1099
377 366 1100
379 365 1094
387 370 1108
389 367 1100
392 367 1098
398 369 1104
399 367 1097
405 370 1103
404 365 1090
413 370 1104
415 369 1099
418 369 1097
421 369 1095
428 372 1103
433 373 1105
435 371 1099
439 372 1100
441 370 1094
444 370 1092
452 373 1101
455 373 1100
455 371 1091
462 373 1096
464 372 1093
468 372 1091
476 376 1102
478 374 1095
482 375 1095
489 378 1103
490 375 1095
490 373 1086
501 379 1101
503 377 1096
507 378 1096
515 381 1103
512 376 1088
520 380 1097
524 379 1095
531 382 1101
532 380 1094
540 383 1103
543 383 1099
549 385 1103
550 382 1095
556 384 1098
560 384 1097
564 384 1096
570 386 1100
570 384 1091
577 386 1097
578 384 1089
593 392 1109
588 386 1091
600 391 1105
602 390 1100
600 387 1088
605 387 1088
613 390 1094
616 390 1091
618 388 1086
623 390 1088
622 386 1077
627 387 1078
637 391 1087
641 391 1085
642 390 1078
-593 369 982
-587 367 978
-588 370 988
-584 370 989
-585 372 998
-580 371 998
-577 372 1000
-568 368 992
-564 368 993
-554 363 982
-558 368 997
-553 367 995
-551 368 1000
-544 365 995
-543 367 1001
-543 369 1009
-540 369 1011
-539 371 1017
-547 378 1039
-547 381 1048
-546 383 1055
-550 388 1070
-542 385 1064
-519 370 1026
-504 362 1005
-496 359 997
-496 362 1006
-486 357 994
-490 362 1010
-490 364 1018
-489 366 1024
-485 366 1025
-483 366 1028
-474 362 1018
-471 362 1019
-467 361 1019
-460 359 1012
-458 360 1017
-452 358 1013
-452 360 1020
-459 369 1046
-466 377 1070
-479 390 1111
-463 380 1083
-445 368 1050
-429 357 1021
-429 361 1031
-426 361 1033
-421 359 1029
-421 362 1038
-417 361 1038
-413 361 1038
-411 362 1042
-407 361 1041
-401 358 1035
-400 360 1042
-397 361 1045
-396 363 1050
-390 360 1045
-391 365 1059
-385 362 1051
-382 362 1054
-377 360 1049
-373 360 1048
-372 362 1056
-367 360 1053
-366 363 1062
-365 365 1067
-361 364 1067
-358 364 1068
-353 363 1066
-348 361 1063
-350 367 1080
-347 367 1080
-341 364 1074
-338 364 1075
-336 365 1079
-331 364 1075
-327 363 1074
-324 364 1077
-323 366 1086
-320 367 1087
-313 363 1078
-311 363 1080
-310 366 1090
-303 362 1077
-299 362 1078
-297 363 1082
-292 361 1077
-291 364 1087
-287 364 1086
-286 366 1096
-281 363 1087
-277 363 1086
-273 362 1085
-269 362 1084
-266 361 1085
-263 362 1087
-261 364 1093
-258 364 1095
-254 363 1094
-250 362 1090
-246 361 1088
-241 359 1082
-238 359 1084
-234 359 1082
-231 359 1085
-228 359 1086
-225 360 1089
-223 361 1092
-218 359 1086
-215 360 1089
-211 359 1087
-209 361 1094
-205 359 1088
-202 360 1094
-199 361 1095
-197 363 1103
-193 361 1098
-190 362 1101
-186 360 1096
-183 361 1100
-178 358 1091
-177 362 1105
-173 361 1102
-170 361 1102
-167 361 1102
-162 359 1097
-160 362 1106
-157 361 1104
-153 360 1101
-149 359 1099
-146 359 1100
-144 362 1108
-140 362 1107
-137 361 1106
-133 360 1102
-131 363 1112
-127 361 1108
-123 359 1103
-120 362 1111
-118 365 1120
-114 362 1110
-107 350 1076
-100 340 1043
-92 324 995
-86 310 953
-81 303 930
-77 299 920
-74 297 913
-73 305 939
-66 290 892
-63 286 879
-59 281 864
-56 278 855
-55 288 885
-52 283 870
-52 296 912
-44 267 821
-44 284 873
-40 276 851
-38 278 856
-36 286 880
-33 276 850
-31 286 879
-28 281 865
-28 303 933
-24 289 892
-21 289 890
-19 297 914
-17 304 936
-15 319 984
-12 333 1027
-10 341 1054
-7 349 1079
-4 359 1110
0 358 1107
2 358 1107
5 355 1096
9 358 1106
12 357 1104
15 358 1107
19 358 1108
22 358 1105
25 357 1104
28 358 1106
32 356 1100
35 354 1096
38 357 1103
42 357 1104
45 357 1105
48 358 1106
51 355 1098
55 358 1106
58 358 1107
61 357 1102
65 358 1106
68 357 1103
72 360 1114
75 360 1111
78 357 1103
82 359 1110
85 359 1110
88 359 1107
91 358 1105
95 359 1109
98 359 1109
101 358 1105
105 358 1104
108 358 1105
111 357 1101
115 358 1103
117 356 1098
122 358 1105
125 358 1104
130 363 1118
132 360 1108
135 359 1106
138 359 1105
141 358 1102
145 359 1106
149 361 1112
152 359 1105
155 360 1107
159 360 1106
161 357 1096
166 362 1112
169 360 1105
173 361 1108
175 358 1101
179 361 1108
182 359 1103
186 361 1107
190 361 1108
192 360 1102
196 360 1104
200 361 1107
203 361 1104
206 361 1103
210 362 1108
213 361 1104
216 360 1101
220 361 1102
223 362 1104
228 363 1108
228 358 1094
233 361 1100
237 362 1105
240 361 1101
244 363 1105
248 362 1103
250 361 1098
254 361 1099
259 364 1107
260 361 1098
264 361 1097
268 363 1101
273 364 1105
274 361 1095
276 360 1090
280 361 1092
287 366 1106
290 365 1103
292 363 1097
295 363 1096
299 363 1094
302 363 1095
306 363 1095
308 361 1088
312 363 1092
319 366 1101
321 365 1097
321 362 1087
326 363 1090
330 364 1092
334 364 1093
337 364 1091
343 367 1097
347 367 1099
350 366 1095
353 366 1094
354 364 1085
358 365 1087
361 364 1085
366 366 1089
370 366 1088
373 366 1087
379 368 1094
380 365 1084
386 368 1091
389 368 1091
394 370 1094
398 370 1094
401 369 1090
405 370 1092
407 368 1086
411 369 1087
417 371 1091
418 369 1085
421 369 1083
429 373 1093
431 372 1089
435 372 1088
437 371 1084
444 373 1090
446 372 1086
452 374 1091
453 372 1084
457 372 1083
456 369 1073
468 376 1091
469 373 1083
468 370 1072
475 373 1080
483 376 1088
485 375 1083
493 379 1091
491 375 1078
498 377 1085
501 377 1081
507 379 1086
513 381 1090
514 378 1082
