VERSION 0.7
FIELDS x y z
SIZE 4 4 4
TYPE I I I
COUNT 1 1 1
WIDTH 3292
HEIGHT 1
VIEWPOINT 0.0 0.0 0.0 1.0 0.0 0.0 0.0
POINTS 3292
DATA ascii
-507 -539 2688
-499 -539 2686
-490 -537 2679
-483 -539 2687
-474 -538 2683
-465 -537 2678
-456 -535 2669
-448 -536 2674
-442 -537 2682
-434 -538 2685
-422 -533 2661
-414 -532 2657
-405 -531 2655
-398 -532 2660
-390 -532 2658
-380 -529 2647
-372 -529 2645
-366 -530 2653
-358 -530 2653
-349 -529 2647
-341 -528 2642
-332 -527 2640
-324 -526 2632
-316 -526 2634
-308 -526 2634
-301 -526 2635
-292 -524 2626
-285 -525 2630
-277 -525 2629
-268 -523 2620
-261 -524 2625
-253 -523 2622
-243 -518 2599
-236 -521 2611
-229 -521 2614
-220 -519 2603
-213 -520 2608
-205 -518 2596
-197 -518 2599
-189 -516 2587
-182 -517 2595
-174 -516 2588
-166 -516 2588
-159 -516 2591
-151 -517 2592
-143 -515 2586
-135 -512 2571
-127 -512 2570
-120 -513 2574
-112 -512 2566
-105 -511 2566
-97 -510 2557
-90 -511 2565
-82 -510 2557
-75 -511 2565
-67 -511 2562
-59 -509 2555
-52 -509 2554
-44 -506 2536
-37 -507 2542
-29 -507 2543
-22 -508 2545
-15 -508 2546
-7 -505 2534
0 -506 2538
7 -507 2541
14 -507 2539
21 -507 2540
29 -505 2531
36 -503 2518
43 -503 2519
51 -504 2523
58 -502 2512
65 -502 2515
73 -502 2513
80 -501 2509
87 -500 2504
94 -501 2504
102 -502 2510
109 -500 2501
116 -501 2504
124 -501 2506
131 -500 2501
138 -500 2497
145 -500 2499
152 -500 2497
159 -498 2487
166 -498 2487
173 -498 2484
181 -498 2484
188 -497 2478
195 -496 2475
202 -498 2482
209 -495 2468
216 -495 2466
224 -497 2477
231 -496 2471
238 -496 2469
244 -495 2464
252 -496 2465
258 -494 2457
266 -496 2465
274 -496 2464
279 -493 2448
287 -494 2455
295 -495 2457
301 -493 2449
304 -487 2416
307 -480 2381
314 -481 2383
323 -484 2398
329 -482 2387
338 -485 2403
346 -486 2406
352 -485 2397
360 -486 2402
367 -486 2401
372 -484 2392
380 -485 2396
387 -485 2393
394 -484 2389
401 -485 2391
406 -483 2379
415 -485 2389
422 -485 2388
429 -485 2385
435 -484 2379
444 -486 2389
450 -485 2382
458 -486 2385
464 -484 2377
470 -484 2375
477 -484 2371
485 -485 2374
493 -486 2380
499 -485 2371
504 -483 2365
513 -485 2369
519 -484 2365
526 -484 2365
535 -486 2370
538 -482 2350
538 -476 2321
550 -481 2340
559 -483 2349
563 -480 2333
573 -483 2345
580 -483 2345
590 -485 2353
598 -486 2357
607 -488 2364
612 -486 2355
623 -489 2367
628 -487 2356
633 -486 2348
641 -487 2350
648 -487 2348
656 -488 2351
661 -486 2340
668 -486 2341
676 -487 2341
682 -486 2335
690 -487 2337
696 -486 2333
703 -486 2330
711 -487 2333
718 -487 2329
726 -488 2332
731 -486 2323
737 -486 2318
745 -486 2318
753 -487 2320
760 -487 2318
767 -487 2316
773 -486 2310
780 -487 2309
787 -487 2308
795 -488 2309
804 -488 2310
806 -486 2296
816 -487 2302
823 -487 2298
831 -488 2299
836 -487 2291
847 -489 2299
852 -488 2292
856 -486 2282
864 -487 2283
871 -487 2281
877 -486 2274
882 -485 2267
896 -489 2282
900 -488 2272
910 -489 2277
913 -487 2265
923 -489 2269
927 -487 2260
934 -487 2257
944 -489 2262
953 -490 2264
957 -488 2254
964 -488 2251
972 -489 2251
978 -489 2246
984 -488 2240
992 -488 2239
1007 -492 2255
1002 -487 2226
1016 -490 2237
1024 -490 2237
1030 -490 2232
1035 -489 2224
1043 -490 2224
1052 -490 2224
1057 -490 2219
1064 -490 2216
1062 -486 2193
1010 -459 2069
921 -415 1870
895 -401 1804
892 -397 1784
900 -398 1784
907 -398 1784
908 -397 1773
915 -397 1772
925 -399 1779
930 -399 1774
927 -395 1754
939 -398 1764
940 -396 1753
950 -398 1758
957 -398 1758
966 -400 1761
965 -397 1746
973 -398 1747
983 -400 1751
980 -396 1734
992 -399 1742
-1338 -498 2277
-1327 -497 2275
-1309 -493 2262
-1296 -491 2254
-1291 -492 2263
-1275 -489 2251
-1272 -491 2263
-1259 -489 2258
-1236 -482 2233
-1228 -482 2235
-1217 -481 2231
-1208 -480 2232
-1196 -478 2227
-1185 -477 2223
-1169 -473 2210
-1167 -476 2223
-1155 -473 2217
-1151 -475 2226
-1129 -469 2201
-1132 -473 2224
-1115 -469 2207
-1113 -471 2219
-1098 -468 2208
-1087 -466 2202
-1072 -463 2189
-1064 -462 2190
-1040 -455 2158
-1034 -455 2162
-1031 -457 2173
-1022 -456 2172
-1009 -453 2161
-1006 -455 2173
-995 -453 2167
-977 -448 2144
-976 -451 2160
-985 -458 2196
-998 -468 2245
-1004 -474 2276
-999 -475 2284
-995 -477 2295
-991 -478 2305
-990 -481 2321
-985 -482 2329
-979 -483 2335
-978 -486 2353
-972 -486 2357
-967 -488 2366
-966 -491 2385
-961 -493 2394
-957 -494 2404
-956 -498 2423
-949 -498 2427
-946 -500 2440
-943 -503 2455
-937 -504 2462
-933 -506 2473
-931 -509 2491
-932 -513 2515
-922 -512 2511
-919 -515 2528
-916 -518 2543
-907 -517 2543
-909 -523 2571
-902 -523 2575
-897 -525 2585
-887 -524 2584
-885 -527 2601
-880 -529 2612
-873 -530 2617
-871 -533 2637
-861 -532 2634
-853 -532 2635
-846 -533 2643
-840 -534 2649
-834 -536 2658
-839 -544 2702
-879 -576 2860
-883 -584 2904
-873 -583 2901
-866 -585 2910
-855 -583 2904
-846 -583 2903
-837 -583 2905
-826 -581 2901
-814 -579 2891
-800 -575 2874
-792 -576 2878
-783 -576 2879
-776 -576 2884
-764 -574 2873
-740 -563 2819
-715 -550 2755
-701 -545 2733
-694 -547 2742
-685 -545 2738
-672 -542 2722
-663 -541 2720
-658 -543 2731
-648 -542 2726
-638 -541 2719
-628 -539 2713
-622 -541 2722
-608 -536 2700
-601 -537 2707
-593 -537 2707
-583 -535 2699
-577 -537 2710
-566 -534 2696
-557 -534 2694
-549 -534 2696
-540 -532 2687
-533 -533 2693
-523 -531 2683
-514 -531 2684
-507 -531 2687
-498 -530 2682
-490 -530 2685
-482 -530 2683
-472 -528 2672
-464 -527 2672
-454 -526 2664
-447 -526 2666
-438 -525 2663
-430 -524 2658
-422 -525 2662
-413 -523 2655
-405 -522 2651
-396 -521 2647
-389 -522 2650
-379 -520 2641
-372 -521 2645
-364 -520 2641
-356 -521 2645
-348 -519 2639
-340 -519 2639
-332 -518 2636
-323 -516 2625
-315 -516 2625
-306 -515 2620
-299 -516 2626
-291 -514 2617
-283 -515 2622
-276 -515 2621
-267 -512 2608
-259 -512 2607
-252 -513 2611
-243 -511 2604
-235 -511 2603
-227 -509 2594
-219 -509 2592
-212 -509 2593
-204 -508 2587
-196 -507 2581
-189 -508 2587
-180 -507 2581
-173 -508 2586
-165 -507 2581
-157 -504 2567
-150 -505 2574
-142 -505 2573
-135 -504 2568
-127 -502 2559
-119 -503 2563
-111 -501 2553
-103 -499 2543
-97 -502 2558
-89 -500 2547
-81 -501 2549
-74 -499 2543
-66 -499 2541
-59 -498 2538
-51 -497 2533
-44 -499 2542
-36 -496 2525
-29 -498 2534
-22 -499 2538
-14 -493 2511
-7 -496 2524
0 -495 2518
7 -494 2515
14 -494 2515
21 -492 2503
29 -494 2512
36 -492 2503
43 -493 2508
50 -492 2502
58 -493 2504
65 -491 2497
72 -491 2494
79 -491 2497
86 -490 2487
94 -491 2494
101 -490 2486
108 -488 2477
115 -488 2475
122 -488 2479
130 -490 2487
137 -489 2480
143 -487 2470
150 -486 2462
158 -487 2470
165 -487 2466
172 -486 2463
179 -485 2458
186 -486 2462
194 -487 2465
201 -486 2459
207 -485 2455
215 -486 2459
221 -483 2444
229 -485 2452
236 -485 2452
241 -481 2432
249 -482 2434
256 -483 2437
263 -482 2433
269 -481 2427
277 -481 2426
284 -481 2426
290 -480 2420
298 -481 2423
304 -480 2419
308 -474 2388
312 -471 2370
319 -470 2367
327 -472 2373
336 -475 2385
344 -476 2392
351 -477 2396
359 -478 2398
364 -476 2387
372 -476 2387
379 -476 2386
384 -475 2378
392 -475 2381
400 -477 2388
407 -477 2385
414 -476 2381
421 -476 2381
427 -475 2374
432 -474 2365
441 -475 2372
447 -475 2369
454 -474 2365
461 -475 2365
469 -476 2369
474 -474 2359
482 -475 2363
489 -475 2360
496 -475 2359
502 -474 2354
509 -474 2351
514 -473 2344
524 -475 2355
527 -472 2338
534 -472 2337
543 -473 2341
549 -473 2338
558 -475 2344
564 -474 2340
567 -470 2320
577 -473 2332
583 -473 2329
591 -473 2330
601 -476 2341
609 -476 2341
615 -476 2339
621 -475 2330
628 -475 2330
635 -475 2330
643 -476 2332
650 -476 2331
656 -476 2325
664 -476 2326
670 -476 2322
677 -475 2319
684 -476 2319
690 -475 2315
698 -476 2315
705 -476 2314
713 -476 2314
719 -476 2311
727 -477 2312
732 -475 2302
741 -477 2307
749 -477 2309
755 -477 2302
765 -479 2312
771 -478 2305
777 -478 2302
784 -477 2298
790 -477 2295
800 -479 2300
803 -477 2287
814 -479 2297
820 -478 2290
824 -476 2279
833 -478 2285
840 -478 2281
847 -478 2279
855 -479 2280
860 -478 2273
869 -479 2276
877 -479 2275
883 -479 2270
889 -479 2267
897 -479 2265
904 -479 2264
909 -478 2255
921 -481 2266
925 -479 2255
932 -479 2254
941 -480 2255
946 -479 2248
955 -480 2251
962 -480 2249
970 -481 2248
976 -480 2241
985 -481 2243
992 -482 2242
1004 -484 2249
1006 -481 2235
1026 -488 2261
1011 -477 2211
1049 -492 2276
1032 -481 2221
1045 -484 2231
1050 -482 2222
1054 -481 2213
1069 -485 2226
1065 -480 2201
1013 -453 2076
929 -413 1889
893 -394 1800
893 -392 1785
898 -392 1783
907 -393 1785
909 -391 1775
915 -392 1775
932 -397 1794
923 -390 1762
934 -392 1769
931 -389 1751
945 -392 1763
950 -392 1759
946 -388 1738
958 -391 1747
973 -394 1761
975 -393 1751
971 -389 1731
984 -392 1742
984 -390 1728
-1339 -491 2280
-1321 -487 2266
-1312 -487 2267
-1300 -485 2263
-1284 -482 2253
-1279 -483 2261
-1257 -477 2238
-1255 -480 2252
-1240 -477 2242
-1229 -475 2239
-1221 -475 2240
-1201 -470 2221
-1198 -472 2231
-1181 -468 2217
-1173 -468 2219
-1165 -467 2219
-1162 -469 2230
-1152 -468 2229
-1138 -465 2220
-1125 -463 2210
-1111 -460 2201
-1098 -458 2192
-1084 -455 2181
-1068 -451 2166
-1060 -450 2165
-1055 -451 2173
-1049 -452 2177
-1035 -449 2166
-1033 -451 2178
-1024 -450 2176
-1011 -447 2167
-1009 -450 2180
-995 -447 2168
-981 -443 2155
-974 -443 2157
-990 -453 2209
-999 -461 2247
-1000 -465 2270
-1005 -470 2299
-993 -468 2291
-990 -470 2304
-990 -474 2323
-987 -476 2334
-983 -478 2346
-983 -481 2366
-975 -481 2366
-974 -484 2384
-967 -484 2388
-963 -486 2399
-958 -488 2409
-954 -489 2419
-951 -492 2433
-944 -492 2436
-943 -495 2457
-938 -496 2464
-927 -495 2459
-932 -502 2495
-926 -503 2502
-916 -501 2498
-917 -506 2524
-913 -508 2537
-906 -509 2541
-902 -511 2554
-900 -514 2573
-896 -516 2584
-888 -517 2588
-887 -521 2609
-879 -520 2610
-874 -522 2621
-866 -522 2624
-862 -525 2637
-856 -526 2646
-850 -527 2654
-845 -529 2666
-840 -531 2677
-846 -540 2726
-868 -560 2826
-880 -573 2896
-872 -574 2901
-864 -574 2904
-854 -573 2901
-844 -573 2899
-836 -573 2904
-823 -570 2891
-813 -569 2888
-804 -569 2889
-794 -568 2885
-784 -568 2883
-771 -564 2868
-760 -563 2862
-731 -547 2785
-708 -536 2729
-697 -534 2721
-689 -534 2723
-678 -532 2711
-671 -533 2717
-662 -532 2715
-653 -532 2714
-644 -531 2713
-635 -530 2709
-627 -530 2709
-616 -528 2698
-608 -528 2699
-600 -528 2704
-593 -529 2706
-582 -526 2696
-573 -525 2690
-565 -525 2692
-557 -526 2695
-548 -524 2688
-539 -523 2686
-528 -520 2670
-522 -522 2683
-512 -521 2675
-504 -520 2671
-494 -518 2664
-488 -521 2676
-479 -519 2667
-472 -520 2676
-461 -516 2657
-452 -515 2649
-446 -517 2663
-438 -517 2660
-427 -513 2642
-420 -514 2649
-411 -513 2642
-404 -514 2647
-397 -515 2654
-387 -513 2644
-378 -510 2631
-369 -509 2626
-362 -510 2632
-353 -507 2618
-346 -509 2626
-337 -507 2617
-328 -506 2612
-321 -507 2617
-314 -507 2618
-304 -504 2605
-298 -506 2613
-289 -503 2601
-282 -504 2607
-274 -505 2610
-266 -503 2599
-257 -501 2590
-250 -503 2601
-242 -501 2590
-233 -499 2580
-226 -499 2580
-217 -497 2572
-209 -496 2568
-202 -497 2569
-195 -498 2573
-186 -495 2558
-180 -497 2569
-172 -496 2566
-163 -493 2553
-157 -496 2564
-148 -493 2548
-141 -493 2548
-133 -492 2548
-125 -491 2539
-118 -492 2545
-111 -491 2539
-104 -492 2546
-95 -489 2529
-88 -489 2529
-81 -488 2526
-73 -488 2525
-66 -488 2523
-58 -487 2518
-51 -488 2521
-44 -487 2518
-36 -486 2513
-29 -487 2518
-22 -485 2509
-14 -484 2503
-7 -485 2507
0 -485 2507
7 -483 2495
14 -484 2499
21 -484 2498
28 -482 2491
36 -483 2495
43 -482 2489
50 -481 2481
58 -483 2494
64 -481 2482
72 -481 2483
79 -480 2476
86 -480 2476
93 -478 2468
100 -479 2471
108 -481 2481
115 -479 2467
121 -477 2459
129 -478 2463
136 -479 2469
143 -477 2457
150 -477 2455
157 -477 2456
164 -477 2454
170 -474 2440
178 -477 2452
185 -476 2448
193 -477 2452
199 -476 2445
206 -474 2436
213 -474 2433
221 -475 2440
228 -476 2441
234 -474 2433
241 -473 2429
248 -472 2423
254 -472 2421
262 -473 2425
269 -473 2423
276 -474 2426
282 -471 2411
289 -471 2410
297 -473 2419
302 -470 2403
309 -469 2396
312 -463 2368
318 -462 2358
325 -463 2362
332 -462 2360
339 -462 2358
349 -467 2383
357 -468 2384
362 -465 2370
371 -468 2383
376 -466 2370
384 -467 2377
392 -468 2380
398 -467 2376
405 -467 2373
412 -467 2373
419 -467 2373
425 -466 2366
431 -465 2357
439 -466 2362
444 -464 2352
453 -467 2363
460 -467 2361
468 -467 2362
475 -468 2366
480 -466 2353
487 -465 2349
495 -467 2354
500 -465 2346
508 -466 2350
514 -465 2341
521 -466 2343
528 -466 2342
535 -466 2341
539 -463 2327
549 -466 2339
555 -465 2331
561 -464 2327
568 -464 2324
575 -464 2324
582 -464 2323
587 -463 2315
592 -461 2305
601 -463 2311
609 -464 2317
618 -466 2322
622 -464 2311
630 -465 2313
636 -464 2307
644 -464 2308
653 -466 2315
659 -465 2309
664 -464 2301
670 -464 2296
679 -465 2302
684 -464 2294
693 -466 2301
698 -464 2293
706 -465 2293
712 -464 2289
718 -464 2282
726 -465 2286
733 -465 2284
740 -465 2283
749 -466 2286
755 -465 2281
759 -464 2271
768 -465 2274
777 -466 2278
781 -465 2269
788 -465 2267
797 -466 2270
805 -467 2271
812 -467 2270
818 -466 2264
826 -467 2267
836 -468 2271
841 -468 2265
847 -467 2260
855 -468 2261
861 -467 2256
872 -470 2264
877 -469 2258
884 -469 2254
893 -470 2257
899 -469 2252
906 -469 2249
913 -469 2247
920 -469 2244
929 -471 2248
934 -470 2240
938 -468 2230
950 -471 2239
958 -471 2239
965 -472 2238
971 -471 2233
976 -470 2224
989 -473 2235
995 -472 2230
1006 -474 2237
1024 -480 2259
1021 -475 2234
1021 -472 2215
1034 -475 2226
1043 -476 2227
1047 -474 2218
1055 -475 2217
1062 -475 2213
1064 -472 2199
1016 -448 2084
928 -407 1888
892 -388 1800
887 -383 1774
904 -388 1795
906 -387 1785
907 -385 1774
914 -385 1774
920 -385 1770
926 -385 1768
930 -385 1763
943 -388 1775
937 -383 1748
945 -384 1750
954 -385 1754
962 -387 1756
967 -386 1752
966 -384 1737
979 -386 1746
985 -387 1744
988 -386 1737
-1325 -479 2259
-1322 -480 2269
-1301 -475 2251
-1297 -477 2260
-1283 -474 2253
-1274 -474 2253
-1262 -472 2248
-1247 -469 2238
-1239 -469 2241
-1221 -465 2225
-1213 -465 2227
-1221 -471 2259
-1195 -463 2228
-1175 -458 2206
-1171 -460 2215
-1178 -465 2245
-1152 -458 2214
-1134 -453 2195
-1140 -459 2224
-1120 -454 2202
-1105 -451 2191
-1097 -450 2192
-1080 -446 2174
-1086 -452 2203
-1070 -448 2187
-1070 -451 2205
-1061 -450 2204
-1047 -447 2192
-1038 -446 2191
-1031 -446 2192
-1019 -444 2185
-1014 -445 2192
-998 -441 2174
-988 -439 2170
-979 -439 2169
-983 -443 2195
-1005 -457 2263
-1001 -458 2272
-998 -460 2284
-996 -462 2298
-988 -462 2301
-986 -465 2316
-984 -467 2330
-979 -468 2338
-977 -471 2352
-968 -470 2353
-970 -474 2376
-963 -475 2381
-963 -478 2400
-960 -481 2415
-956 -483 2426
-952 -485 2438
-946 -485 2444
-945 -489 2462
-940 -490 2473
-934 -491 2479
-932 -494 2495
-925 -494 2500
-921 -497 2514
-910 -494 2505
-906 -497 2519
-906 -501 2542
-900 -502 2549
-895 -504 2560
-893 -507 2580
-885 -507 2580
-881 -509 2594
-879 -513 2614
-870 -512 2613
-866 -514 2625
-864 -518 2645
-852 -515 2635
-851 -520 2661
-848 -523 2676
-836 -521 2668
-835 -525 2693
-843 -535 2746
-850 -545 2798
-853 -553 2838
-848 -555 2852
-846 -560 2878
-840 -561 2888
-833 -562 2894
-824 -563 2897
-811 -559 2882
-799 -557 2873
-793 -559 2886
-780 -556 2870
-770 -555 2866
-752 -548 2833
-722 -532 2751
-706 -526 2723
-695 -524 2712
-686 -524 2712
-678 -524 2715
-670 -524 2718
-659 -522 2704
-650 -521 2703
-644 -523 2713
-631 -519 2694
-623 -519 2694
-618 -521 2709
-606 -518 2693
-595 -515 2679
-587 -515 2682
-582 -518 2697
-573 -517 2694
-563 -515 2684
-552 -512 2670
-547 -515 2685
-536 -512 2671
-528 -512 2671
-519 -511 2666
-509 -510 2659
-504 -512 2675
-493 -509 2660
-485 -509 2657
-475 -506 2646
-467 -507 2649
-458 -506 2643
-450 -505 2641
-443 -506 2646
-435 -505 2644
-428 -507 2652
-418 -505 2641
-408 -501 2625
-400 -501 2625
-394 -503 2634
-385 -501 2627
-377 -501 2626
-368 -500 2618
-361 -501 2625
-352 -499 2615
-343 -498 2609
-336 -498 2610
-328 -498 2613
-318 -494 2592
-311 -496 2601
-305 -498 2612
-295 -494 2593
-286 -491 2580
-281 -495 2599
-272 -494 2591
-264 -492 2585
-256 -491 2578
-248 -491 2578
-241 -492 2583
-234 -493 2590
-226 -491 2580
-217 -489 2571
-209 -487 2559
-202 -489 2569
-195 -490 2572
-187 -489 2569
-179 -487 2560
-171 -486 2552
-164 -486 2556
-156 -485 2550
-149 -487 2557
-141 -485 2549
-133 -485 2550
-126 -485 2547
-118 -483 2540
-110 -482 2532
-104 -485 2549
-95 -482 2531
-88 -484 2543
-81 -483 2539
-73 -481 2527
-66 -479 2519
-59 -481 2529
-51 -482 2530
-44 -480 2519
-36 -478 2511
-29 -478 2510
-21 -476 2500
-14 -480 2522
-7 -479 2514
0 -477 2504
7 -477 2505
14 -478 2507
21 -477 2505
29 -479 2516
36 -476 2499
43 -475 2494
50 -476 2496
57 -474 2488
65 -475 2490
72 -473 2481
79 -475 2487
86 -474 2484
94 -474 2485
101 -474 2481
108 -472 2473
115 -472 2471
122 -472 2470
129 -473 2474
137 -474 2479
143 -471 2463
150 -469 2455
158 -473 2475
164 -469 2450
171 -470 2456
179 -471 2463
186 -470 2454
192 -468 2443
200 -469 2448
207 -469 2449
214 -469 2445
221 -469 2448
228 -468 2439
235 -469 2447
242 -469 2444
249 -467 2434
255 -467 2430
263 -467 2433
269 -466 2425
277 -467 2430
285 -469 2438
290 -465 2419
298 -467 2429
306 -468 2432
310 -464 2411
314 -460 2387
319 -457 2369
326 -456 2367
331 -454 2353
337 -452 2343
345 -455 2356
351 -454 2349
361 -458 2368
369 -458 2369
375 -457 2365
382 -458 2367
389 -458 2366
398 -460 2373
403 -457 2360
409 -457 2357
416 -457 2357
422 -456 2349
430 -457 2356
436 -456 2349
443 -456 2348
450 -457 2349
457 -456 2344
465 -458 2352
472 -458 2349
478 -457 2343
485 -457 2344
491 -457 2339
499 -457 2343
507 -458 2346
510 -454 2324
518 -456 2329
526 -457 2334
533 -457 2332
539 -456 2325
547 -457 2328
552 -455 2320
559 -456 2321
567 -457 2323
574 -456 2321
581 -457 2322
587 -456 2314
591 -454 2304
598 -454 2300
607 -456 2308
615 -456 2310
625 -459 2321
631 -458 2317
639 -459 2317
644 -458 2310
653 -459 2315
658 -458 2306
664 -457 2302
671 -458 2302
680 -459 2306
683 -456 2293
690 -456 2290
697 -456 2289
704 -457 2288
712 -457 2287
716 -456 2279
725 -457 2282
729 -455 2273
735 -455 2268
745 -456 2274
754 -458 2279
758 -456 2269
766 -457 2271
771 -456 2263
780 -457 2268
784 -456 2258
796 -458 2269
800 -457 2258
805 -456 2251
813 -456 2252
823 -458 2258
830 -458 2256
833 -456 2244
844 -459 2254
850 -458 2247
858 -459 2248
865 -459 2248
869 -457 2236
877 -458 2238
888 -460 2244
892 -459 2236
899 -458 2232
907 -459 2233
912 -458 2226
920 -459 2228
928 -460 2227
937 -461 2230
946 -462 2231
953 -462 2229
957 -460 2220
968 -462 2225
975 -462 2223
981 -462 2219
993 -464 2227
1009 -469 2245
1011 -466 2230
1020 -467 2232
1043 -475 2263
1035 -468 2228
1038 -466 2216
1052 -469 2229
1057 -468 2221
1063 -468 2216
1061 -464 2194
1017 -442 2087
933 -402 1898
885 -379 1785
896 -381 1793
901 -381 1789
902 -379 1778
903 -377 1766
918 -381 1782
916 -378 1765
919 -377 1756
924 -377 1753
936 -379 1761
934 -376 1745
943 -378 1748
950 -378 1748
954 -378 1742
968 -381 1754
975 -381 1753
975 -379 1741
984 -381 1743
985 -379 1733
-1334 -474 2275
-1321 -472 2269
-1310 -471 2267
-1300 -470 2267
-1294 -471 2273
-1280 -469 2266
-1268 -467 2260
-1250 -463 2245
-1240 -462 2243
-1223 -458 2230
-1219 -460 2239
-1212 -460 2244
-1190 -454 2220
-1193 -458 2242
-1164 -450 2204
-1161 -451 2215
-1147 -449 2206
-1138 -448 2205
-1125 -446 2196
-1118 -446 2199
-1112 -446 2205
-1112 -449 2222
-1097 -446 2210
-1085 -444 2203
-1080 -445 2209
-1067 -443 2201
-1056 -441 2195
-1051 -442 2202
-1044 -442 2205
-1030 -439 2193
-1021 -438 2190
-1008 -435 2180
-1003 -436 2188
-985 -431 2165
-974 -429 2159
-991 -440 2214
-1003 -449 2261
-1003 -452 2280
-995 -452 2279
-995 -455 2298
-992 -457 2311
-989 -459 2323
-985 -460 2333
-984 -463 2351
-978 -464 2356
-970 -464 2357
-968 -466 2373
-966 -469 2390
-963 -471 2403
-959 -473 2414
-955 -474 2424
-950 -476 2433
-949 -479 2452
-940 -478 2451
-938 -482 2469
-933 -483 2478
-929 -485 2488
-923 -486 2497
-923 -490 2521
-917 -491 2526
-911 -492 2533
-906 -493 2542
-901 -495 2554
-894 -495 2557
-889 -497 2567
-887 -500 2587
-880 -501 2592
-876 -503 2606
-869 -504 2611
-864 -505 2622
-859 -507 2633
-852 -508 2637
-849 -511 2655
-847 -515 2676
-840 -515 2682
-833 -516 2686
-832 -520 2711
-830 -524 2733
-827 -528 2754
-824 -531 2774
-821 -535 2793
-823 -542 2831
-826 -549 2873
-818 -550 2876
-810 -550 2881
-801 -550 2881
-788 -547 2868
-770 -541 2835
-745 -529 2776
-726 -521 2736
-710 -516 2709
-700 -514 2702
-691 -514 2701
-683 -514 2703
-674 -513 2701
-664 -511 2692
-657 -512 2700
-649 -512 2699
-639 -511 2695
-627 -508 2678
-622 -510 2691
-611 -507 2678
-602 -507 2678
-594 -507 2678
-586 -506 2677
-576 -505 2671
-569 -506 2677
-557 -502 2657
-550 -503 2664
-541 -502 2659
-533 -502 2660
-524 -501 2656
-516 -501 2656
-509 -501 2657
-498 -499 2646
-492 -500 2653
-482 -498 2642
-473 -497 2636
-464 -496 2634
-459 -499 2651
-448 -495 2629
-441 -497 2639
-435 -498 2647
-425 -495 2633
-417 -495 2635
-408 -494 2630
-399 -493 2622
-395 -498 2648
-383 -492 2619
-376 -493 2623
-368 -492 2620
-360 -492 2620
-353 -492 2622
-342 -489 2603
-334 -488 2601
-328 -490 2612
-320 -490 2612
-312 -489 2610
-304 -488 2602
-296 -487 2597
-288 -487 2596
-282 -491 2617
-272 -486 2595
-265 -488 2602
-258 -487 2600
-249 -485 2590
-241 -484 2581
-232 -482 2573
-226 -485 2588
-218 -484 2582
-210 -483 2580
-202 -482 2571
-195 -482 2576
-187 -482 2573
-180 -483 2578
-172 -481 2569
-164 -481 2567
-156 -479 2558
-149 -479 2559
-141 -478 2554
-134 -479 2556
-126 -477 2544
-118 -477 2544
-111 -476 2544
-103 -477 2547
-96 -476 2539
-88 -474 2529
-81 -476 2540
-73 -475 2535
-66 -475 2535
-58 -474 2530
-51 -474 2532
-44 -474 2530
-36 -472 2517
-29 -474 2530
-21 -472 2516
-14 -472 2520
-7 -470 2505
0 -474 2527
7 -471 2511
14 -469 2503
21 -470 2506
29 -471 2511
36 -471 2512
43 -469 2499
50 -468 2495
58 -469 2498
65 -469 2497
72 -467 2487
79 -466 2483
86 -466 2481
93 -466 2478
101 -467 2485
108 -469 2493
115 -466 2477
122 -464 2467
129 -466 2477
137 -466 2479
143 -464 2464
150 -464 2463
158 -464 2463
164 -462 2456
172 -465 2468
179 -463 2457
186 -463 2456
193 -463 2457
200 -464 2458
207 -462 2449
214 -462 2451
221 -461 2441
228 -462 2446
234 -460 2436
242 -461 2438
249 -460 2437
256 -460 2436
262 -459 2429
271 -461 2438
276 -459 2425
284 -460 2429
291 -460 2429
297 -459 2421
306 -462 2436
310 -457 2409
317 -457 2408
322 -454 2394
326 -450 2372
331 -447 2354
337 -446 2349
343 -445 2341
349 -443 2331
357 -445 2340
365 -447 2347
373 -448 2354
380 -448 2350
386 -447 2348
394 -449 2355
401 -448 2348
408 -448 2348
414 -448 2347
421 -448 2344
429 -449 2349
435 -448 2343
443 -449 2347
448 -447 2335
457 -450 2348
463 -449 2343
469 -448 2335
475 -447 2328
481 -446 2326
489 -448 2330
497 -449 2335
502 -447 2323
511 -448 2330
516 -447 2323
526 -450 2334
530 -447 2318
538 -448 2323
543 -447 2316
550 -447 2315
557 -447 2311
564 -447 2311
572 -448 2314
577 -447 2305
584 -447 2304
589 -446 2297
595 -445 2291
601 -444 2288
611 -446 2295
619 -448 2301
632 -452 2320
637 -450 2311
645 -451 2315
650 -450 2305
660 -452 2314
666 -452 2310
675 -453 2315
681 -452 2310
686 -451 2303
692 -451 2299
701 -452 2304
706 -451 2296
716 -453 2303
721 -452 2294
730 -453 2298
735 -452 2292
739 -450 2280
747 -451 2283
753 -450 2277
760 -450 2274
766 -450 2270
773 -450 2271
783 -452 2277
785 -449 2260
792 -449 2259
802 -451 2264
807 -450 2258
816 -451 2263
822 -451 2258
828 -450 2251
837 -451 2255
843 -451 2251
850 -451 2249
857 -451 2246
859 -449 2231
870 -451 2241
876 -450 2235
884 -451 2236
890 -451 2231
895 -450 2225
902 -450 2221
911 -451 2224
917 -451 2221
924 -451 2219
931 -451 2215
938 -451 2215
943 -450 2207
952 -451 2209
961 -452 2211
968 -452 2208
976 -453 2208
985 -454 2210
1001 -458 2229
1010 -459 2229
1037 -468 2270
1014 -454 2203
1033 -460 2225
1042 -461 2227
1047 -460 2219
1056 -461 2221
1059 -459 2210
1059 -456 2192
1016 -435 2085
924 -392 1880
891 -376 1800
896 -376 1795
905 -377 1799
910 -377 1795
910 -374 1781
908 -371 1763
919 -374 1771
925 -374 1769
930 -373 1765
942 -376 1775
936 -372 1750
952 -376 1766
949 -372 1748
966 -376 1764
961 -372 1742
971 -374 1747
973 -373 1739
983 -374 1743
992 -376 1746
-1342 -470 2290
-1324 -466 2277
-1309 -463 2267
-1302 -463 2272
-1286 -461 2261
-1269 -457 2247
-1255 -455 2239
-1236 -451 2222
-1233 -452 2233
-1243 -459 2268
-1210 -449 2225
-1187 -443 2198
-1197 -450 2235
-1186 -448 2231
-1170 -445 2217
-1173 -449 2241
-1161 -447 2234
-1144 -443 2217
-1140 -444 2227
-1128 -443 2221
-1119 -442 2220
-1106 -440 2211
-1099 -440 2215
-1093 -440 2220
-1082 -439 2215
-1074 -438 2216
-1062 -436 2208
-1049 -434 2199
-1040 -433 2199
-1027 -431 2187
-1024 -432 2199
-1013 -431 2193
-1002 -429 2186
-983 -424 2164
-980 -426 2175
-993 -434 2220
-1002 -441 2258
-1002 -444 2278
-998 -446 2287
-992 -447 2294
-991 -449 2311
-989 -451 2324
-983 -452 2331
-983 -455 2349
-975 -455 2350
-967 -455 2351
-968 -459 2375
-962 -460 2381
-961 -463 2399
-957 -464 2410
-954 -467 2424
-951 -469 2438
-945 -470 2445
-943 -473 2461
-941 -476 2479
-931 -474 2475
-928 -477 2489
-929 -481 2514
-918 -479 2507
-915 -482 2522
-913 -485 2541
-906 -486 2545
-901 -487 2555
-895 -488 2562
-888 -489 2567
-883 -490 2578
-875 -490 2579
-873 -493 2598
-869 -496 2613
-866 -499 2628
-859 -499 2632
-855 -502 2648
-849 -503 2655
-844 -505 2668
-832 -502 2658
-828 -505 2671
-827 -509 2698
-818 -509 2697
-820 -515 2732
-813 -516 2739
-807 -517 2747
-803 -520 2765
-800 -524 2783
-796 -526 2800
-794 -531 2827
-792 -535 2851
-778 -532 2832
-751 -519 2767
-730 -510 2721
-717 -506 2703
-707 -505 2697
-699 -505 2699
-688 -503 2691
-682 -505 2701
-671 -503 2689
-662 -502 2688
-656 -503 2696
-648 -503 2696
-636 -501 2683
-626 -499 2676
-622 -502 2692
-610 -499 2676
-604 -501 2687
-592 -497 2671
-582 -496 2664
-581 -501 2693
-569 -498 2675
-562 -499 2682
-551 -497 2671
-542 -495 2664
-535 -496 2671
-526 -495 2665
-519 -496 2672
-508 -493 2656
-501 -493 2659
-492 -492 2655
-484 -492 2655
-478 -494 2668
-467 -491 2648
-460 -492 2655
-450 -490 2644
-442 -489 2643
-434 -489 2643
-427 -490 2647
-418 -488 2639
-409 -487 2634
-402 -488 2639
-394 -488 2640
-385 -487 2632
-377 -486 2630
-366 -482 2610
-362 -487 2636
-352 -483 2616
-346 -486 2633
-338 -486 2632
-329 -484 2620
-320 -482 2611
-312 -481 2606
-304 -481 2608
-298 -483 2616
-287 -479 2594
-280 -480 2600
-273 -480 2603
-264 -478 2590
-257 -478 2593
-248 -475 2579
-240 -475 2578
-234 -478 2590
-226 -476 2584
-218 -477 2589
-211 -477 2585
-201 -472 2563
-195 -475 2577
-187 -475 2578
-179 -472 2561
-171 -473 2564
-164 -472 2560
-157 -474 2571
-149 -472 2563
-141 -470 2553
-134 -473 2568
-125 -468 2542
-118 -469 2544
-110 -468 2538
-103 -468 2538
-96 -468 2538
-88 -468 2539
-80 -466 2527
-74 -469 2544
-66 -465 2523
-58 -465 2520
-51 -465 2522
-44 -467 2531
-36 -465 2521
-29 -466 2527
-21 -464 2517
-14 -465 2523
-7 -463 2510
0 -463 2509
7 -463 2507
14 -462 2503
21 -462 2503
29 -461 2496
36 -460 2491
43 -462 2502
50 -459 2487
58 -460 2492
65 -460 2489
72 -458 2479
79 -459 2485
86 -459 2486
93 -458 2476
101 -459 2480
108 -457 2473
115 -458 2474
122 -457 2469
129 -457 2470
137 -458 2475
143 -457 2469
150 -455 2457
157 -454 2451
164 -454 2453
171 -455 2454
178 -454 2451
185 -455 2452
192 -454 2446
200 -456 2457
207 -455 2451
213 -453 2441
221 -455 2450
227 -453 2438
235 -454 2442
241 -453 2435
248 -451 2426
256 -453 2437
263 -453 2436
270 -454 2439
277 -453 2430
284 -452 2429
291 -453 2429
296 -450 2414
304 -451 2419
311 -451 2415
318 -450 2414
322 -447 2395
327 -444 2375
333 -442 2365
336 -437 2337
343 -438 2341
348 -436 2330
354 -434 2321
361 -435 2320
369 -436 2328
378 -438 2339
385 -439 2339
391 -438 2333
398 -438 2333
406 -439 2339
413 -439 2339
419 -439 2336
426 -439 2335
434 -440 2339
441 -441 2340
446 -439 2329
455 -440 2335
460 -439 2325
466 -438 2321
474 -439 2323
481 -439 2326
487 -438 2319
494 -439 2319
503 -440 2326
507 -438 2311
515 -439 2318
521 -438 2310
528 -439 2312
534 -438 2307
543 -440 2314
550 -440 2313
554 -438 2302
561 -438 2299
567 -437 2294
574 -437 2294
582 -439 2299
590 -439 2300
596 -438 2295
603 -439 2296
608 -437 2286
614 -437 2284
623 -438 2288
634 -442 2302
642 -442 2305
649 -443 2305
662 -447 2324
667 -446 2316
671 -443 2301
679 -444 2306
688 -445 2309
693 -444 2301
697 -442 2290
705 -443 2292
714 -444 2296
719 -443 2288
727 -444 2292
733 -444 2286
738 -442 2278
742 -441 2268
752 -443 2276
757 -442 2268
770 -445 2283
774 -443 2272
782 -444 2274
786 -443 2265
793 -443 2263
798 -442 2255
808 -443 2260
815 -444 2260
825 -445 2265
828 -443 2253
835 -443 2251
841 -443 2247
846 -442 2240
857 -444 2248
863 -444 2242
870 -444 2242
875 -443 2233
881 -442 2229
886 -442 2222
895 -443 2227
903 -443 2226
907 -442 2217
917 -444 2222
923 -443 2217
932 -444 2219
938 -444 2214
944 -444 2210
951 -443 2207
958 -444 2205
962 -442 2196
972 -444 2201
979 -444 2198
1000 -450 2227
1008 -451 2226
1034 -460 2266
1016 -448 2208
1029 -451 2217
1042 -454 2227
1046 -453 2219
1047 -450 2202
1056 -451 2205
1051 -446 2177
1017 -428 2088
931 -389 1896
895 -372 1809
894 -369 1791
899 -369 1788
902 -368 1780
904 -366 1771
919 -370 1786
919 -368 1772
930 -370 1779
923 -365 1752
930 -365 1752
936 -365 1750
946 -367 1755
946 -365 1743
958 -368 1751
962 -367 1745
970 -368 1746
970 -366 1733
976 -366 1731
991 -370 1746
-1342 -462 2292
-1308 -453 2251
-1316 -458 2280
-1305 -457 2279
-1282 -452 2255
-1269 -450 2250
-1263 -450 2255
-1250 -448 2248
-1249 -451 2263
-1224 -444 2234
-1219 -445 2242
-1210 -445 2243
-1199 -443 2239
-1195 -444 2249
-1172 -439 2222
-1173 -442 2241
-1157 -438 2227
-1154 -440 2238
-1141 -438 2231
-1129 -436 2224
-1124 -437 2232
-1108 -433 2216
-1098 -432 2214
-1084 -430 2204
-1079 -431 2211
-1070 -430 2210
-1059 -428 2203
-1053 -429 2210
-1041 -427 2202
-1034 -427 2205
-1017 -423 2185
-1009 -422 2186
-1001 -422 2186
-983 -417 2164
-978 -418 2172
-986 -424 2206
-1000 -433 2256
-1007 -439 2290
-999 -439 2291
-997 -441 2305
-993 -443 2316
-992 -446 2334
-981 -444 2326
-981 -448 2347
-973 -447 2348
-971 -450 2363
-968 -452 2376
-965 -454 2389
-960 -455 2399
-955 -456 2406
-952 -458 2421
-948 -460 2431
-944 -462 2442
-939 -463 2451
-934 -465 2461
-931 -467 2475
-926 -468 2484
-923 -471 2499
-918 -472 2509
-916 -475 2526
-907 -474 2524
-906 -478 2546
-898 -478 2547
-894 -480 2561
-892 -483 2579
-885 -483 2583
-882 -486 2601
-875 -487 2605
-867 -487 2607
-859 -487 2609
-859 -491 2636
-856 -494 2652
-846 -493 2647
-840 -494 2658
-836 -497 2671
-830 -498 2679
-825 -500 2691
-818 -501 2698
-813 -503 2711
-812 -507 2734
-802 -506 2731
-802 -511 2761
-794 -511 2764
-792 -516 2788
-788 -519 2806
-776 -516 2793
-765 -515 2787
-742 -504 2733
-731 -503 2727
-719 -500 2712
-709 -498 2705
-698 -497 2698
-688 -495 2692
-685 -499 2713
-676 -498 2710
-665 -496 2700
-655 -495 2693
-650 -497 2707
-636 -492 2682
-631 -495 2696
-622 -494 2694
-610 -491 2679
-604 -492 2688
-595 -492 2684
-586 -491 2683
-576 -489 2672
-569 -490 2680
-558 -487 2663
-553 -490 2682
-542 -487 2665
-535 -488 2672
-527 -488 2670
-517 -486 2663
-508 -485 2659
-501 -486 2662
-491 -484 2654
-483 -484 2652
-476 -485 2659
-469 -485 2662
-457 -481 2642
-450 -482 2645
-441 -481 2640
-434 -482 2646
-424 -479 2633
-416 -479 2634
-408 -479 2632
-402 -481 2642
-392 -478 2626
-385 -478 2631
-374 -474 2609
-370 -479 2634
-358 -474 2610
-350 -474 2606
-343 -474 2612
-335 -474 2612
-328 -475 2616
-319 -473 2607
-311 -472 2599
-305 -474 2611
-295 -472 2598
-287 -471 2596
-280 -472 2600
-272 -471 2595
-264 -470 2593
-257 -470 2592
-248 -469 2585
-240 -467 2574
-233 -468 2580
-225 -467 2574
-215 -464 2556
-209 -465 2567
-202 -466 2569
-194 -465 2567
-186 -464 2562
-179 -467 2575
-171 -464 2561
-163 -462 2551
-155 -462 2550
-148 -462 2548
-140 -460 2537
-133 -461 2540
-126 -462 2549
-118 -460 2540
-110 -459 2534
-103 -460 2538
-95 -459 2529
-88 -460 2537
-80 -459 2531
-73 -458 2526
-65 -457 2519
-58 -459 2532
-51 -458 2523
-43 -457 2518
-36 -455 2507
-28 -453 2499
-21 -456 2514
-14 -456 2512
-7 -456 2510
0 -455 2507
7 -457 2516
14 -454 2503
21 -453 2497
29 -453 2493
36 -454 2499
43 -452 2487
50 -452 2490
57 -452 2488
65 -451 2482
72 -452 2484
79 -451 2483
86 -452 2483
93 -448 2463
100 -450 2472
107 -450 2471
115 -449 2469
121 -447 2457
129 -450 2470
136 -449 2466
143 -448 2459
151 -450 2469
157 -449 2461
163 -445 2442
171 -448 2456
178 -447 2449
186 -449 2459
193 -448 2454
199 -446 2442
206 -446 2440
213 -446 2442
221 -446 2443
227 -445 2436
234 -446 2437
240 -443 2425
249 -446 2435
256 -446 2434
262 -444 2424
268 -443 2420
276 -444 2425
283 -445 2425
290 -445 2425
297 -444 2418
303 -443 2412
309 -441 2401
316 -441 2404
322 -440 2393
329 -439 2391
334 -436 2374
339 -434 2362
344 -432 2347
349 -430 2336
353 -426 2313
358 -425 2305
365 -425 2306
374 -427 2318
381 -427 2315
389 -429 2325
397 -430 2328
404 -430 2327
411 -430 2327
418 -430 2326
422 -428 2314
430 -429 2319
437 -429 2317
445 -430 2322
452 -431 2323
458 -430 2317
464 -429 2313
470 -428 2305
479 -430 2314
484 -429 2307
492 -430 2309
498 -429 2304
505 -429 2304
513 -431 2310
521 -431 2311
525 -429 2298
533 -430 2302
538 -429 2293
544 -428 2289
553 -430 2299
559 -429 2290
567 -430 2294
574 -431 2296
579 -429 2285
585 -428 2280
593 -430 2286
601 -431 2289
607 -430 2283
609 -427 2266
615 -426 2260
622 -426 2259
636 -431 2283
646 -433 2293
655 -435 2298
668 -439 2317
672 -437 2306
678 -437 2303
686 -437 2304
692 -436 2298
699 -437 2297
704 -436 2290
712 -436 2292
720 -437 2294
726 -436 2287
734 -437 2289
738 -436 2281
743 -434 2272
749 -434 2268
758 -435 2272
766 -436 2272
773 -436 2271
783 -438 2279
787 -437 2269
792 -435 2259
800 -436 2261
807 -436 2260
813 -436 2257
819 -435 2250
827 -436 2253
833 -435 2247
838 -435 2241
848 -436 2247
855 -436 2244
861 -436 2238
868 -436 2238
875 -436 2235
882 -436 2234
891 -437 2235
900 -438 2238
904 -437 2229
911 -437 2228
919 -438 2228
923 -436 2217
932 -437 2219
938 -437 2217
949 -439 2223
953 -437 2213
957 -436 2204
966 -437 2207
972 -437 2202
980 -438 2202
993 -440 2213
1000 -440 2210
1011 -442 2216
1036 -450 2252
1028 -443 2216
1041 -446 2227
1048 -446 2223
1054 -446 2218
1050 -441 2192
1052 -439 2179
1022 -424 2100
935 -385 1905
891 -364 1800
892 -362 1788
897 -362 1785
907 -364 1790
908 -362 1778
909 -360 1768
922 -363 1780
920 -360 1762
930 -362 1768
935 -362 1763
939 -361 1757
949 -363 1762
945 -359 1742
956 -361 1749
958 -360 1738
974 -364 1754
979 -363 1750
980 -362 1739
982 -360 1730
-1324 -448 2263
-1308 -445 2252
-1311 -449 2274
-1297 -447 2265
-1282 -444 2257
-1292 -450 2291
-1262 -443 2255
-1261 -445 2269
-1245 -442 2258
-1243 -444 2270
-1225 -440 2255
-1222 -441 2265
-1205 -438 2252
-1204 -440 2266
-1182 -435 2243
-1178 -436 2251
-1162 -433 2238
-1153 -432 2238
-1138 -430 2227
-1127 -428 2221
-1124 -430 2233
-1105 -425 2213
-1102 -427 2223
-1088 -424 2212
-1075 -422 2203
-1074 -424 2218
-1060 -421 2207
-1046 -419 2195
-1041 -420 2203
-1030 -418 2196
-1023 -418 2199
-1010 -416 2189
-1001 -415 2186
-980 -409 2159
-981 -412 2177
-992 -420 2220
-1004 -428 2267
-998 -428 2271
-994 -430 2282
-991 -431 2292
-990 -434 2310
-988 -437 2326
-981 -437 2329
-979 -439 2344
-975 -441 2353
-970 -442 2361
-966 -443 2372
-963 -445 2385
-961 -448 2401
-956 -449 2410
-951 -450 2418
-952 -454 2442
-945 -455 2447
-944 -458 2467
-936 -458 2467
-932 -460 2479
-928 -461 2490
-921 -462 2496
-919 -465 2514
-909 -463 2508
-908 -467 2529
-908 -471 2554
-900 -471 2554
-892 -471 2555
-889 -473 2572
-885 -476 2586
-876 -475 2586
-871 -477 2596
-868 -479 2610
-863 -481 2622
-855 -481 2626
-849 -482 2632
-844 -484 2643
-844 -488 2669
-837 -489 2677
-829 -489 2679
-822 -490 2684
-817 -492 2697
-812 -494 2707
-804 -494 2709
-801 -497 2730
-795 -499 2740
-791 -501 2754
-791 -507 2788
-782 -506 2786
-770 -504 2775
-753 -498 2744
-736 -493 2715
-727 -492 2714
-717 -491 2708
-712 -492 2719
-705 -494 2727
-694 -492 2717
-683 -489 2705
-676 -490 2711
-668 -490 2713
-659 -489 2710
-645 -485 2688
-638 -486 2693
-629 -486 2692
-621 -485 2690
-611 -484 2685
-605 -485 2693
-594 -483 2683
-585 -482 2676
-577 -482 2680
-564 -478 2658
-558 -480 2668
-550 -479 2666
-544 -481 2678
-533 -478 2661
-526 -479 2669
-516 -477 2659
-505 -475 2644
-498 -475 2649
-490 -475 2647
-483 -476 2655
-472 -472 2635
-464 -473 2637
-456 -472 2634
-446 -470 2621
-441 -473 2639
-433 -473 2640
-424 -471 2631
-415 -470 2628
-405 -468 2614
-402 -473 2644
-393 -472 2637
-384 -469 2625
-373 -466 2605
-368 -469 2625
-360 -469 2625
-351 -467 2611
-342 -465 2603
-334 -465 2603
-326 -465 2601
-318 -464 2599
-310 -463 2593
-303 -464 2601
-295 -463 2596
-286 -462 2586
-279 -462 2586
-270 -460 2579
-263 -461 2586
-255 -461 2582
-248 -460 2580
-240 -460 2580
-232 -459 2573
-224 -459 2571
-217 -458 2570
-208 -457 2563
-200 -455 2553
-193 -456 2559
-186 -456 2558
-178 -455 2553
-170 -454 2547
-163 -456 2558
-155 -455 2550
-148 -454 2549
-140 -452 2538
-132 -453 2541
-125 -452 2536
-117 -452 2534
-109 -450 2523
-103 -452 2536
-95 -449 2520
-88 -450 2526
-80 -450 2522
-72 -448 2511
-66 -451 2528
-58 -448 2509
-51 -449 2515
-43 -448 2512
-36 -446 2501
-29 -448 2513
-21 -447 2507
-14 -447 2504
-7 -446 2497
0 -446 2497
7 -443 2484
14 -445 2490
21 -445 2493
29 -445 2491
36 -444 2485
43 -445 2493
50 -444 2483
57 -441 2470
64 -443 2476
72 -443 2477
79 -445 2486
86 -440 2461
93 -441 2463
100 -440 2458
107 -441 2462
115 -442 2472
121 -439 2455
129 -442 2466
136 -441 2459
143 -441 2459
150 -439 2451
157 -439 2450
163 -438 2442
171 -440 2451
178 -439 2447
185 -439 2444
191 -437 2436
198 -437 2431
206 -438 2436
213 -439 2442
219 -436 2427
227 -437 2433
233 -436 2425
240 -436 2424
248 -438 2431
254 -436 2422
261 -436 2419
267 -434 2409
276 -437 2425
281 -434 2410
289 -436 2415
296 -435 2411
303 -435 2409
309 -434 2403
315 -432 2391
320 -430 2381
327 -430 2377
334 -430 2380
340 -429 2370
346 -427 2361
349 -422 2332
355 -421 2326
361 -421 2320
365 -417 2302
371 -416 2295
377 -416 2295
385 -417 2297
395 -421 2317
402 -421 2315
409 -422 2321
415 -421 2313
423 -422 2319
429 -421 2311
437 -422 2318
442 -420 2306
450 -422 2311
456 -421 2305
465 -423 2315
470 -421 2305
476 -421 2300
481 -420 2293
491 -422 2306
497 -422 2302
503 -421 2297
509 -420 2292
517 -421 2294
525 -422 2300
528 -419 2281
537 -421 2291
545 -422 2294
550 -421 2287
558 -422 2290
562 -420 2277
569 -420 2278
576 -420 2277
581 -419 2267
589 -420 2272
595 -419 2267
599 -418 2255
604 -417 2248
606 -413 2227
608 -410 2210
617 -412 2216
635 -419 2256
648 -423 2275
653 -422 2269
659 -422 2263
670 -425 2277
675 -423 2269
681 -423 2265
688 -423 2261
694 -422 2257
702 -423 2261
711 -424 2264
714 -422 2251
721 -423 2251
727 -422 2247
733 -422 2241
741 -423 2244
746 -422 2238
756 -424 2245
759 -421 2231
769 -423 2238
773 -422 2228
782 -423 2232
788 -423 2229
795 -423 2226
801 -422 2222
808 -422 2221
812 -421 2210
820 -422 2213
830 -424 2220
832 -421 2205
846 -425 2221
847 -422 2205
855 -422 2204
862 -423 2204
870 -423 2203
875 -423 2198
884 -424 2200
891 -424 2199
899 -424 2198
905 -424 2195
911 -424 2190
920 -425 2194
927 -425 2189
936 -426 2193
940 -425 2183
949 -426 2186
953 -425 2178
960 -425 2176
974 -428 2189
980 -428 2185
990 -429 2188
1003 -432 2199
1013 -433 2204
1025 -435 2211
1034 -436 2213
1049 -440 2227
1050 -437 2212
1040 -430 2172
1049 -431 2174
1023 -417 2103
938 -380 1913
893 -359 1806
888 -355 1782
896 -356 1785
907 -358 1792
912 -358 1788
910 -355 1769
913 -354 1762
923 -356 1767
930 -356 1767
933 -355 1760
945 -358 1770
941 -354 1748
955 -357 1761
958 -356 1754
957 -354 1738
973 -358 1754
970 -355 1736
983 -357 1745
991 -358 1747
-1349 -449 2307
-1321 -442 2276
-1312 -442 2277
-1303 -441 2278
-1299 -443 2288
-1277 -438 2266
-1271 -438 2272
-1261 -438 2271
-1252 -437 2271
-1245 -437 2276
-1227 -433 2260
-1217 -432 2258
-1212 -433 2266
-1196 -430 2254
-1181 -427 2242
-1175 -428 2247
-1165 -427 2247
-1151 -425 2236
-1143 -424 2237
-1127 -421 2223
-1120 -421 2226
-1103 -417 2209
-1091 -416 2203
-1087 -417 2212
-1074 -415 2203
-1058 -411 2187
-1047 -410 2182
-1045 -412 2195
-1045 -414 2212
-1031 -411 2200
-1019 -409 2191
-1010 -409 2190
-995 -405 2175
-984 -404 2169
-973 -402 2163
-992 -413 2223
-1004 -421 2268
-998 -421 2272
-998 -424 2292
-996 -426 2305
-996 -430 2325
-988 -429 2327
-982 -430 2332
-977 -431 2341
-975 -434 2356
-970 -435 2363
-966 -436 2375
-957 -435 2372
-961 -440 2402
-958 -443 2417
-950 -442 2417
-948 -445 2433
-940 -445 2436
-942 -449 2461
-934 -449 2463
-933 -452 2483
-929 -454 2494
-920 -454 2493
-917 -456 2510
-912 -457 2517
-909 -460 2533
-905 -462 2546
-897 -462 2548
-896 -465 2569
-891 -467 2579
-880 -465 2573
-876 -467 2586
-871 -469 2597
-867 -471 2609
-864 -474 2627
-849 -470 2609
-850 -475 2636
-839 -473 2630
-839 -477 2655
-839 -483 2685
-826 -479 2669
-823 -483 2690
-816 -483 2694
-816 -488 2724
-806 -487 2719
-799 -488 2724
-791 -488 2727
-789 -492 2749
-785 -494 2766
-777 -494 2768
-764 -492 2753
-747 -486 2724
-736 -485 2717
-728 -484 2718
-721 -485 2723
-708 -482 2707
-698 -480 2698
-689 -480 2697
-680 -479 2695
-670 -478 2690
-662 -478 2690
-653 -477 2686
-644 -477 2686
-635 -476 2683
-622 -472 2662
-617 -474 2675
-609 -475 2679
-603 -476 2688
-591 -472 2668
-581 -471 2662
-577 -474 2680
-563 -469 2652
-558 -472 2670
-546 -468 2649
-541 -471 2664
-531 -469 2655
-522 -468 2649
-513 -467 2646
-505 -467 2646
-495 -465 2634
-491 -468 2653
-481 -466 2644
-473 -466 2646
-465 -466 2644
-453 -462 2621
-448 -464 2635
-439 -463 2631
-429 -461 2618
-423 -463 2630
-415 -462 2626
-407 -462 2629
-398 -461 2621
-388 -458 2603
-381 -459 2609
-376 -462 2626
-364 -456 2595
-357 -457 2602
-349 -456 2598
-341 -457 2601
-334 -458 2606
-326 -457 2602
-317 -455 2592
-310 -455 2594
-300 -452 2576
-294 -455 2590
-286 -453 2583
-280 -456 2600
-270 -452 2574
-262 -452 2574
-253 -448 2556
-247 -451 2573
-238 -449 2557
-231 -450 2563
-223 -448 2555
-215 -448 2555
-207 -447 2548
-200 -447 2549
-192 -447 2547
-184 -446 2543
-177 -447 2550
-169 -445 2535
-162 -445 2537
-155 -445 2541
-147 -444 2531
-139 -443 2528
-132 -444 2535
-124 -441 2516
-117 -443 2528
-109 -442 2523
-102 -443 2525
-94 -441 2513
-87 -441 2517
-80 -442 2522
-72 -439 2505
-65 -441 2513
-57 -439 2501
-50 -439 2503
-43 -438 2499
-36 -439 2502
-28 -438 2494
-21 -438 2497
-14 -438 2496
-7 -437 2491
0 -438 2497
7 -438 2494
14 -437 2486
21 -437 2491
29 -436 2483
36 -436 2483
43 -435 2478
50 -435 2476
57 -436 2478
64 -435 2475
71 -434 2468
79 -434 2468
86 -433 2462
93 -434 2466
100 -435 2473
107 -435 2470
114 -432 2455
121 -433 2458
128 -433 2457
135 -431 2449
141 -428 2431
149 -431 2444
157 -432 2449
163 -430 2441
170 -430 2440
177 -430 2436
184 -430 2437
192 -431 2440
198 -429 2432
205 -429 2430
212 -429 2427
219 -428 2422
226 -429 2425
233 -428 2421
240 -428 2417
246 -426 2410
252 -425 2402
260 -427 2412
266 -425 2401
272 -423 2387
279 -423 2386
286 -423 2388
292 -423 2383
299 -422 2380
306 -422 2376
311 -420 2363
319 -421 2369
323 -418 2352
330 -417 2347
335 -416 2338
344 -418 2349
349 -416 2334
353 -413 2317
359 -412 2309
364 -410 2297
370 -409 2293
376 -408 2287
381 -406 2276
389 -408 2284
398 -410 2296
408 -413 2311
413 -412 2302
419 -412 2299
427 -413 2304
433 -412 2298
442 -413 2306
447 -412 2298
454 -412 2297
462 -413 2302
467 -412 2291
474 -413 2294
482 -413 2297
487 -412 2288
495 -413 2295
499 -411 2281
507 -412 2285
514 -412 2285
519 -411 2275
529 -413 2286
537 -414 2292
549 -418 2311
560 -422 2328
562 -418 2305
561 -412 2273
568 -412 2272
571 -410 2256
575 -407 2242
583 -409 2248
590 -409 2246
591 -405 2225
594 -402 2208
598 -401 2200
604 -400 2194
611 -401 2196
622 -404 2208
632 -406 2220
638 -406 2216
645 -406 2216
652 -406 2215
657 -406 2210
665 -406 2210
671 -406 2208
677 -405 2204
684 -406 2204
689 -405 2197
697 -406 2199
705 -406 2200
708 -404 2188
715 -404 2186
724 -406 2192
730 -406 2189
736 -406 2186
743 -406 2185
749 -405 2181
755 -405 2177
761 -405 2175
769 -406 2176
772 -404 2162
782 -405 2170
787 -405 2165
796 -406 2167
801 -405 2163
809 -406 2163
815 -406 2161
823 -406 2161
828 -406 2156
836 -406 2156
846 -408 2162
850 -407 2154
856 -407 2150
865 -408 2153
873 -408 2154
876 -407 2144
884 -407 2144
894 -409 2151
899 -408 2143
907 -409 2145
914 -409 2142
924 -411 2148
932 -411 2149
935 -410 2137
945 -411 2142
954 -412 2146
964 -414 2149
973 -415 2153
981 -415 2152
998 -420 2171
1006 -420 2172
1026 -426 2196
1038 -428 2205
1040 -426 2192
1022 -416 2136
1028 -415 2131
1016 -408 2090
948 -378 1933
892 -353 1805
888 -349 1782
902 -353 1796
899 -349 1777
902 -348 1768
911 -350 1773
922 -352 1781
927 -351 1776
924 -348 1758
943 -353 1779
932 -347 1746
946 -350 1758
954 -351 1760
954 -349 1747
954 -347 1733
968 -350 1746
975 -351 1745
984 -352 1748
984 -350 1735
-1342 -439 2297
-1327 -437 2288
-1313 -435 2280
-1303 -434 2280
-1299 -435 2289
-1283 -432 2278
-1281 -434 2292
-1265 -432 2280
-1251 -429 2272
-1237 -427 2262
-1232 -428 2271
-1215 -424 2256
-1202 -423 2250
-1205 -426 2271
-1183 -421 2247
-1167 -418 2233
-1156 -417 2230
-1144 -415 2223
-1135 -414 2223
-1119 -411 2208
-1102 -407 2192
-1096 -408 2197
-1076 -403 2174
-1064 -401 2166
-1045 -397 2145
-1034 -395 2139
-1031 -396 2149
-1048 -406 2203
-1072 -418 2270
-1032 -405 2202
-1014 -401 2183
-1008 -401 2188
-1000 -401 2187
-983 -397 2168
-980 -398 2178
-993 -406 2225
-1005 -414 2271
-1001 -415 2281
-1001 -419 2301
-992 -418 2298
-988 -419 2309
-987 -422 2325
-983 -423 2336
-978 -424 2343
-967 -422 2336
-970 -427 2365
-967 -429 2378
-956 -427 2370
-955 -431 2390
-952 -432 2403
-949 -435 2416
-947 -437 2433
-942 -438 2440
-938 -440 2453
-931 -441 2458
-930 -443 2476
-925 -445 2486
-920 -446 2494
-917 -448 2509
-906 -447 2504
-906 -451 2526
-903 -453 2542
-895 -453 2544
-888 -453 2546
-881 -454 2551
-883 -459 2584
-877 -460 2591
-869 -460 2592
-866 -463 2609
-861 -464 2618
-856 -466 2629
-846 -464 2625
-847 -470 2657
-839 -469 2657
-832 -470 2664
-829 -473 2681
-823 -475 2691
-814 -474 2689
-812 -478 2712
-806 -479 2719
-798 -479 2724
-794 -482 2740
-788 -483 2749
-780 -483 2752
-769 -482 2743
-754 -477 2720
-748 -479 2730
-732 -474 2702
-722 -472 2697
-714 -472 2697
-704 -471 2692
-701 -475 2714
-691 -473 2706
-678 -470 2690
-668 -469 2683
-658 -467 2677
-652 -469 2686
-642 -467 2677
-633 -466 2673
-622 -464 2663
-619 -468 2686
-606 -464 2666
-600 -466 2675
-591 -465 2670
-579 -462 2655
-569 -460 2647
-563 -461 2653
-555 -462 2656
-548 -462 2659
-536 -459 2641
-530 -460 2648
-521 -459 2646
-509 -456 2627
-504 -458 2642
-494 -456 2630
-487 -456 2633
-477 -455 2623
-473 -458 2644
-459 -453 2613
-454 -455 2627
-445 -453 2619
-438 -454 2623
-430 -454 2625
-421 -453 2620
-413 -453 2617
-405 -452 2613
-397 -452 2613
-390 -452 2618
-380 -450 2603
-372 -450 2603
-365 -450 2603
-357 -450 2605
-349 -449 2600
-341 -449 2602
-331 -446 2581
-325 -447 2591
-316 -446 2583
-308 -445 2578
-301 -446 2584
-292 -444 2573
-285 -444 2576
-277 -444 2575
-269 -443 2570
-261 -443 2568
-254 -443 2567
-245 -440 2552
-238 -441 2557
-230 -440 2554
-222 -440 2550
-213 -436 2531
-207 -439 2548
-198 -437 2534
-191 -437 2533
-184 -438 2539
-177 -438 2539
-169 -436 2532
-161 -436 2530
-154 -436 2531
-146 -435 2527
-139 -436 2530
-131 -435 2524
-124 -435 2525
-117 -435 2521
-109 -435 2524
-102 -434 2516
-94 -433 2512
-87 -432 2506
-79 -432 2507
-72 -433 2509
-65 -431 2502
-57 -431 2501
-50 -430 2495
-43 -432 2503
-36 -431 2500
-28 -430 2491
-21 -430 2495
-14 -429 2484
-6 -429 2486
0 -430 2491
7 -427 2473
14 -429 2486
21 -427 2475
28 -426 2466
36 -428 2477
43 -426 2469
50 -427 2470
57 -427 2471
64 -427 2469
71 -426 2462
78 -425 2456
85 -424 2454
92 -423 2449
99 -423 2447
106 -421 2436
113 -422 2437
120 -421 2432
127 -420 2428
134 -420 2427
141 -419 2421
148 -419 2421
154 -418 2410
161 -418 2409
168 -417 2404
174 -416 2399
181 -415 2392
188 -415 2392
194 -413 2381
201 -413 2381
207 -412 2373
214 -411 2368
221 -411 2366
228 -412 2369
234 -411 2363
240 -410 2356
247 -410 2357
254 -409 2349
260 -408 2344
266 -408 2340
272 -406 2332
279 -407 2332
284 -404 2318
292 -405 2320
297 -403 2311
303 -403 2306
310 -403 2305
317 -403 2304
323 -403 2303
329 -402 2297
335 -401 2289
341 -400 2284
347 -399 2279
354 -399 2276
362 -401 2286
370 -402 2292
378 -403 2298
382 -400 2281
388 -400 2278
395 -400 2277
