VERSION 0.7
FIELDS x y z
SIZE 4 4 4
TYPE I I I
COUNT 1 1 1
WIDTH 3534
HEIGHT 1
VIEWPOINT 0.0 0.0 0.0 1.0 0.0 0.0 0.0
POINTS 3534
DATA ascii
-115 718 2074
-117 771 2230
-111 771 2228
-102 757 2188
-95 752 2175
-89 755 2185
-82 757 2191
-79 786 2274
-72 787 2278
-65 783 2265
-57 773 2237
-49 752 2178
-42 744 2155
-37 760 2201
-31 783 2267
-26 830 2405
-19 839 2430
-11 783 2269
-3 744 2155
2 737 2135
9 743 2151
15 743 2152
22 747 2165
28 754 2184
36 770 2230
44 798 2312
52 829 2403
61 852 2470
69 856 2481
76 855 2479
84 857 2483
90 844 2446
97 844 2448
103 826 2395
111 835 2421
119 840 2436
125 835 2419
133 835 2420
131 782 2264
129 730 2114
140 753 2181
154 794 2300
173 855 2478
174 826 2391
181 823 2383
189 825 2387
206 866 2507
208 847 2451
215 842 2436
215 815 2360
219 804 2326
235 835 2417
244 843 2437
254 850 2458
263 857 2479
268 850 2457
276 850 2458
284 852 2460
290 848 2448
297 847 2445
302 840 2426
311 845 2441
319 847 2445
326 845 2439
332 841 2427
340 843 2429
346 841 2424
353 840 2420
360 839 2418
368 840 2419
374 838 2412
382 838 2412
387 834 2398
395 835 2402
402 834 2397
408 832 2392
415 831 2388
423 831 2388
428 828 2378
436 829 2380
441 826 2369
448 826 2367
455 825 2363
461 822 2355
465 817 2338
461 797 2282
480 818 2341
489 820 2344
497 823 2351
501 818 2336
510 819 2339
517 819 2338
528 825 2353
533 823 2346
537 818 2330
542 814 2317
548 812 2310
556 813 2313
562 812 2309
565 806 2289
583 822 2334
589 820 2327
590 811 2300
597 810 2297
597 801 2270
606 804 2275
622 815 2307
629 816 2307
633 811 2292
636 805 2274
633 794 2239
631 783 2206
639 784 2209
643 780 2196
649 779 2193
656 780 2192
662 778 2185
673 783 2197
671 773 2168
683 779 2183
677 765 2142
686 767 2145
688 762 2130
688 754 2107
690 749 2091
693 745 2077
691 736 2050
689 727 2024
691 722 2009
689 714 1983
694 713 1979
696 709 1965
711 717 1988
745 745 2063
789 782 2163
809 794 2196
813 792 2186
795 767 2117
800 766 2111
824 783 2155
841 792 2179
851 795 2184
856 793 2177
858 788 2162
869 792 2168
872 788 2157
876 785 2146
877 780 2131
894 789 2152
910 797 2173
921 801 2180
930 802 2181
935 801 2174
942 801 2171
952 803 2176
960 803 2174
961 799 2158
964 795 2146
978 801 2159
972 790 2127
996 804 2163
1006 806 2166
1030 820 2199
1036 818 2193
1041 817 2187
1037 808 2160
1035 801 2138
1036 796 2121
1016 776 2064
986 748 1986
800 603 1597
753 563 1489
699 519 1371
726 536 1414
733 538 1416
760 554 1457
810 587 1541
920 662 1737
938 670 1757
939 667 1745
945 667 1743
963 676 1763
958 668 1741
963 667 1735
971 669 1737
984 674 1746
988 672 1740
997 674 1742
994 669 1725
989 661 1703
1011 672 1726
1006 665 1705
1019 669 1714
1027 670 1714
-1389 923 2278
-1383 925 2286
-1381 928 2299
-1361 920 2284
-1352 919 2285
-1329 909 2265
-1324 911 2272
-1318 912 2279
-1299 904 2264
-1286 900 2259
-1274 897 2255
-1262 894 2250
-1252 893 2251
-1238 887 2242
-1236 892 2256
-1224 889 2253
-1215 887 2254
-1198 880 2239
-1187 878 2236
-1171 871 2223
-1171 877 2242
-1156 871 2231
-1148 871 2233
-1137 868 2229
-1127 866 2228
-1115 862 2221
-1110 864 2230
-1097 860 2222
-1089 859 2223
-1067 847 2196
-1059 846 2197
-1003 808 2099
-961 780 2029
-949 775 2020
-950 781 2040
-952 789 2061
-950 792 2073
-945 793 2080
-941 796 2090
-944 804 2114
-950 814 2144
-962 831 2191
-957 833 2199
-959 841 2223
-957 845 2236
-949 845 2239
-946 848 2251
-940 849 2256
-931 848 2255
-929 852 2270
-925 855 2280
-918 856 2286
-909 854 2282
-894 847 2266
-887 847 2269
-881 848 2276
-880 854 2294
-875 857 2303
-868 857 2306
-857 853 2299
-854 857 2313
-847 858 2316
-839 856 2316
-832 857 2319
-820 852 2309
-821 860 2333
-809 856 2324
-806 860 2339
-793 854 2324
-792 860 2343
-779 855 2330
-771 854 2329
-766 856 2339
-752 849 2321
-745 849 2323
-729 839 2298
-716 832 2282
-699 820 2251
-685 812 2230
-667 799 2196
-657 796 2188
-643 786 2165
-634 783 2158
-620 775 2137
-609 769 2123
-601 767 2118
-587 757 2093
-575 750 2074
-563 743 2058
-555 741 2053
-550 742 2058
-543 742 2059
-538 743 2063
-531 742 2063
-523 740 2057
-517 740 2060
-516 748 2082
-501 735 2049
-498 740 2065
-493 743 2073
-478 729 2036
-481 744 2079
-481 753 2105
-465 738 2066
-464 747 2093
-460 751 2104
-451 746 2092
-441 740 2075
-438 746 2094
-430 743 2087
-428 750 2109
-422 752 2114
-417 754 2123
-408 749 2109
-407 760 2140
-398 754 2125
-392 756 2132
-387 758 2140
-381 758 2141
-375 760 2146
-374 771 2178
-385 808 2284
-368 787 2227
-358 779 2204
-361 801 2268
-356 806 2283
-341 786 2228
-333 784 2222
-319 766 2172
-309 758 2151
-299 750 2128
-283 724 2056
-269 706 2004
-264 708 2011
-264 725 2060
-260 728 2071
-247 712 2025
-240 707 2012
-243 736 2096
-253 784 2234
-251 800 2279
-238 779 2220
-229 773 2204
-216 751 2141
-211 757 2158
-200 738 2106
-192 733 2093
-185 731 2086
-177 724 2069
-171 722 2063
-163 718 2050
-157 715 2043
-151 716 2047
-145 720 2059
-139 720 2058
-140 758 2168
-130 735 2104
-120 716 2048
-113 710 2031
-109 722 2067
-105 740 2119
-102 765 2190
-96 766 2194
-90 770 2207
-84 776 2223
-79 799 2289
-71 787 2255
-65 789 2263
-58 786 2253
-51 783 2246
-45 802 2299
-40 835 2394
-34 869 2495
-28 891 2558
-20 888 2549
-12 853 2449
-4 793 2275
2 751 2154
9 743 2132
15 748 2146
21 747 2142
28 749 2149
34 750 2153
41 755 2168
48 765 2195
56 786 2256
65 816 2342
74 840 2411
83 854 2452
90 845 2426
98 853 2450
105 849 2437
110 831 2385
116 828 2377
124 834 2393
131 828 2378
134 807 2317
134 766 2198
148 807 2315
162 845 2425
169 840 2410
174 830 2382
182 835 2395
195 860 2466
199 847 2429
211 864 2478
218 862 2471
212 810 2323
220 814 2333
232 832 2384
240 836 2395
250 846 2423
261 856 2452
264 842 2411
271 842 2410
281 851 2434
290 855 2447
296 851 2434
304 852 2437
310 848 2424
315 842 2406
326 852 2435
334 853 2437
340 851 2429
346 848 2421
355 850 2427
362 850 2425
370 851 2427
376 849 2420
384 849 2421
390 847 2414
397 846 2411
405 847 2411
411 845 2405
418 843 2400
426 845 2403
432 844 2399
439 842 2394
446 841 2389
453 841 2387
459 839 2383
467 839 2382
471 834 2365
461 804 2280
480 825 2338
495 838 2373
501 837 2368
508 836 2366
515 835 2363
524 837 2366
530 836 2361
532 827 2336
541 831 2344
546 826 2331
554 829 2337
559 824 2323
565 824 2320
573 824 2318
578 822 2311
585 820 2306
591 820 2303
597 817 2295
597 808 2267
602 805 2257
610 807 2262
616 806 2256
615 795 2225
614 785 2194
615 778 2173
622 777 2171
626 774 2161
632 774 2157
639 774 2155
646 773 2153
658 780 2170
666 782 2174
651 757 2102
624 717 1991
622 709 1965
632 713 1975
634 708 1960
636 703 1945
639 699 1932
643 698 1926
650 698 1926
650 692 1908
658 694 1911
662 692 1903
664 687 1890
669 687 1885
679 690 1894
699 705 1933
731 731 2002
774 767 2099
784 770 2107
778 758 2070
794 767 2092
807 772 2106
821 780 2123
829 780 2124
830 775 2108
837 775 2106
849 781 2118
856 780 2114
861 779 2107
876 786 2126
898 799 2159
911 805 2171
920 807 2174
929 808 2176
936 808 2173
940 806 2164
950 808 2169
963 813 2179
968 811 2171
971 808 2159
972 803 2144
993 815 2172
1014 826 2199
1033 835 2220
1033 829 2202
1038 827 2195
1040 823 2180
1034 813 2151
1029 804 2123
1034 802 2115
1013 780 2054
963 737 1937
774 588 1543
720 543 1422
710 532 1392
714 532 1388
724 536 1397
744 547 1424
824 602 1566
920 668 1736
937 676 1754
947 679 1759
949 676 1749
954 675 1744
960 675 1741
964 674 1736
972 675 1736
984 680 1745
993 682 1746
993 677 1733
994 675 1723
1008 680 1733
1014 680 1731
1014 676 1717
1025 679 1723
1028 677 1715
-1352 906 2214
-1387 935 2289
-1380 935 2295
-1359 927 2278
-1351 926 2281
-1341 925 2281
-1319 915 2261
-1316 919 2275
-1309 919 2278
-1288 910 2260
-1273 904 2251
-1267 905 2257
-1253 901 2250
-1246 901 2255
-1220 888 2225
-1220 893 2242
-1201 885 2225
-1197 887 2235
-1191 888 2241
-1179 885 2236
-1165 880 2227
-1158 880 2231
-1155 884 2245
-1141 878 2235
-1127 873 2224
-1114 869 2218
-1108 870 2224
-1098 868 2222
-1088 866 2220
-1075 861 2211
-1064 858 2206
-1014 823 2119
-970 793 2044
-954 786 2029
-948 786 2031
-953 796 2061
-949 798 2068
-945 800 2078
-944 805 2092
-942 809 2107
-947 819 2137
-963 839 2191
-960 843 2204
-959 848 2220
-952 849 2225
-953 856 2246
-949 858 2256
-940 857 2254
-930 854 2251
-923 854 2253
-916 854 2257
-913 859 2271
-905 857 2270
-890 850 2254
-878 845 2243
-874 848 2254
-872 853 2269
-869 858 2285
-858 854 2277
-854 857 2289
-844 854 2282
-843 860 2301
-820 845 2262
-797 828 2218
-784 822 2206
-769 813 2185
-753 804 2161
-736 793 2134
-727 790 2128
-715 784 2115
-704 779 2103
-695 776 2098
-686 773 2092
-673 766 2074
-662 762 2064
-654 759 2059
-646 758 2056
-636 753 2046
-626 749 2036
-618 747 2032
-610 745 2030
-602 742 2024
-594 741 2021
-587 740 2021
-580 739 2019
-573 738 2020
-568 739 2024
-562 740 2027
-556 740 2029
-542 730 2004
-534 728 1998
-540 743 2043
-527 735 2022
-524 739 2034
-522 745 2052
-512 739 2038
-510 746 2059
-502 744 2054
-495 742 2050
-493 749 2071
-486 747 2068
-477 744 2060
-472 745 2065
-471 754 2090
-458 743 2062
-457 752 2086
-450 751 2085
-438 742 2061
-439 754 2096
-434 757 2106
-429 759 2114
-416 748 2082
-416 759 2116
-410 760 2119
-404 760 2120
-399 763 2129
-393 764 2133
-387 765 2139
-380 764 2137
-374 764 2138
-374 777 2175
-380 804 2251
-367 791 2216
-356 782 2193
-358 801 2246
-361 823 2309
-330 768 2156
-307 730 2049
-300 727 2041
-300 743 2088
-306 773 2174
-284 735 2067
-276 728 2049
-266 719 2024
-257 710 2000
-259 732 2062
-248 721 2031
-239 711 2004
-233 712 2007
-240 750 2117
-237 764 2156
-231 763 2153
-221 752 2123
-212 743 2099
-205 739 2089
-197 734 2075
-190 731 2067
-182 726 2054
-176 724 2048
-170 724 2048
-163 722 2043
-157 722 2045
-149 717 2029
-143 713 2019
-136 709 2007
-130 709 2008
-126 723 2050
-121 726 2057
-114 722 2047
-107 720 2042
-102 726 2060
-98 745 2115
-97 784 2225
-90 778 2210
-84 790 2244
-77 780 2215
-74 824 2341
-70 861 2447
-62 847 2406
-54 839 2385
-44 785 2230
-35 738 2096
-30 776 2204
-27 881 2506
-20 906 2577
-12 903 2568
-4 867 2465
2 797 2266
9 750 2133
15 748 2125
22 756 2150
28 753 2141
34 756 2148
41 754 2144
47 755 2146
54 757 2154
61 764 2172
68 776 2205
77 795 2259
86 820 2333
96 845 2403
103 841 2391
112 858 2441
119 852 2424
125 844 2400
135 864 2456
137 827 2352
142 821 2333
151 827 2351
162 848 2409
166 830 2360
174 838 2382
189 873 2480
192 851 2419
195 833 2366
193 795 2257
201 803 2281
207 799 2269
219 816 2316
226 819 2323
236 827 2347
241 821 2329
251 831 2357
249 802 2274
259 812 2301
280 853 2418
288 857 2429
295 856 2426
300 848 2401
305 841 2383
312 841 2381
323 851 2408
333 859 2430
340 858 2428
346 854 2415
354 856 2420
361 856 2418
370 858 2424
374 852 2406
381 851 2404
388 850 2400
395 849 2397
404 853 2405
411 852 2403
417 850 2395
425 851 2399
433 852 2398
440 851 2396
446 848 2387
452 847 2382
461 849 2386
468 848 2384
472 844 2370
470 827 2323
476 824 2313
497 848 2378
502 845 2370
508 843 2362
516 843 2363
525 846 2370
531 844 2362
538 844 2359
542 838 2343
549 839 2345
557 840 2344
563 838 2338
571 839 2339
577 837 2333
582 834 2324
591 836 2329
594 831 2313
597 825 2294
593 810 2250
597 805 2236
597 796 2208
582 767 2126
555 723 2003
545 703 1945
551 703 1944
553 697 1926
567 708 1955
564 695 1919
556 679 1873
574 694 1913
568 679 1869
586 694 1910
598 701 1927
590 684 1880
593 681 1870
600 682 1870
604 680 1863
607 677 1853
612 676 1849
619 677 1851
621 673 1839
629 675 1844
633 674 1837
638 672 1831
641 669 1822
647 670 1821
650 667 1812
665 676 1835
688 694 1882
719 719 1948
757 751 2032
771 757 2048
783 763 2063
787 760 2053
805 771 2081
818 777 2094
814 767 2064
825 771 2072
841 780 2095
849 781 2095
859 784 2102
874 791 2119
902 810 2166
914 815 2177
923 816 2179
931 817 2178
941 819 2182
945 817 2172
951 816 2169
961 818 2171
965 816 2163
971 815 2156
976 813 2149
993 822 2169
1009 828 2184
1023 835 2198
1034 837 2202
1037 834 2190
1035 826 2168
1036 822 2152
1036 816 2134
1026 802 2096
1004 780 2034
929 717 1867
759 582 1511
706 537 1393
703 531 1376
716 538 1391
713 532 1374
754 559 1441
851 627 1615
928 679 1748
937 682 1752
937 677 1737
943 677 1735
953 680 1739
961 682 1741
967 682 1738
971 680 1732
976 680 1727
988 684 1737
985 678 1718
995 681 1722
1002 681 1720
1015 686 1730
1025 689 1733
1019 681 1711
1030 684 1716
-961 651 1573
-1296 881 2137
-1394 953 2316
-1370 943 2294
-1357 938 2288
-1338 931 2273
-1325 927 2269
-1317 927 2273
-1300 920 2260
-1286 916 2254
-1275 914 2253
-1264 911 2250
-1253 909 2248
-1243 906 2246
-1227 900 2235
-1214 896 2228
-1200 892 2221
-1193 892 2225
-1186 892 2230
-1168 884 2213
-1166 888 2226
-1142 876 2199
-1145 883 2222
-1133 880 2216
-1123 878 2214
-1106 870 2199
-1101 872 2207
-1100 877 2224
-1085 871 2211
-1073 867 2205
-1059 861 2192
-1029 843 2148
-981 809 2065
-954 792 2025
-946 791 2025
-952 801 2055
-950 805 2068
-945 807 2076
-942 810 2086
-938 813 2095
-944 824 2128
-963 847 2190
-962 852 2206
-963 859 2227
-955 858 2228
-955 865 2249
-947 864 2249
-944 868 2261
-935 866 2261
-925 864 2256
-915 861 2252
-907 860 2253
-895 856 2244
-891 858 2254
-876 851 2237
-864 846 2227
-857 846 2230
-859 855 2255
-853 856 2261
-844 854 2258
-837 854 2261
-833 857 2272
-797 828 2196
-743 779 2068
-710 751 1995
-704 751 1998
-694 747 1990
-687 746 1989
-680 746 1989
-670 741 1979
-662 739 1976
-655 739 1977
-650 740 1982
-641 737 1975
-637 739 1982
-629 737 1980
-626 741 1992
-618 738 1986
-617 745 2005
-600 732 1972
-595 733 1977
-591 736 1986
-585 736 1988
-590 750 2029
-572 735 1989
-571 742 2010
-570 749 2030
-563 747 2027
-554 744 2021
-556 755 2053
-537 738 2007
-539 749 2039
-534 751 2045
-523 744 2029
-523 753 2055
-505 736 2011
-509 751 2054
-505 754 2061
-494 748 2046
-486 744 2038
-478 742 2033
-484 762 2089
-465 740 2031
-464 750 2059
-458 750 2059
-456 757 2083
-456 768 2112
-441 752 2071
-440 763 2102
-437 768 2116
-427 761 2099
-424 768 2119
-417 767 2118
-410 766 2116
-404 767 2120
-399 769 2126
-394 771 2135
-388 773 2141
-381 773 2141
-375 774 2146
-371 779 2161
-378 807 2239
-369 802 2227
-363 805 2236
-346 780 2168
-344 792 2202
-331 777 2162
-311 746 2075
-296 723 2012
-289 721 2006
-299 761 2120
-287 748 2083
-275 733 2042
-265 723 2015
-254 710 1980
-256 731 2039
-256 749 2092
-239 718 2005
-231 711 1985
-230 726 2030
-238 771 2155
-225 752 2102
-216 740 2071
-208 737 2063
-201 733 2051
-194 731 2046
-187 727 2035
-181 727 2038
-174 725 2032
-170 731 2049
-163 728 2041
-157 731 2051
-152 733 2057
-143 720 2021
-137 721 2023
-132 725 2035
-132 760 2133
-124 751 2109
-117 748 2102
-108 731 2053
-101 723 2031
-96 737 2071
-93 761 2139
-91 799 2247
-88 831 2337
-85 872 2454
-79 887 2496
-70 863 2430
-60 829 2333
-49 773 2175
-40 729 2052
-33 706 1986
-28 729 2052
-24 798 2246
-19 888 2500
-12 910 2564
-4 909 2562
2 873 2460
9 804 2266
15 756 2130
21 752 2119
28 760 2141
34 758 2136
41 760 2142
47 759 2137
54 761 2144
60 761 2143
67 761 2145
74 766 2158
81 773 2176
88 782 2202
96 791 2229
106 816 2299
117 849 2391
125 851 2398
129 831 2340
138 843 2373
147 852 2399
152 839 2363
160 843 2374
165 833 2346
175 849 2389
173 806 2268
180 808 2275
182 785 2208
185 771 2168
193 777 2184
197 767 2156
206 775 2177
207 756 2124
211 746 2096
216 741 2082
226 754 2118
240 780 2190
263 829 2329
280 861 2418
288 862 2421
294 860 2415
298 849 2383
302 841 2360
314 853 2393
324 862 2418
330 859 2407
337 858 2403
346 862 2415
354 864 2420
360 861 2410
368 862 2412
374 858 2400
382 860 2405
389 858 2400
395 855 2391
404 860 2402
411 859 2398
413 849 2371
423 853 2381
431 855 2387
437 852 2375
439 842 2346
447 843 2350
458 851 2369
467 855 2381
474 854 2376
475 843 2345
469 819 2276
493 848 2357
502 852 2367
511 855 2374
515 849 2356
523 850 2357
529 849 2354
535 847 2346
542 846 2343
552 850 2352
557 846 2341
565 848 2344
571 846 2337
580 848 2342
586 847 2337
592 845 2330
598 844 2326
598 834 2296
595 819 2254
590 803 2209
588 790 2173
538 715 1962
498 655 1795
511 664 1821
505 650 1779
520 662 1811
535 672 1839
531 660 1805
526 648 1768
549 669 1826
569 686 1871
576 688 1875
586 692 1886
576 673 1832
578 669 1819
582 667 1812
590 670 1817
593 667 1808
599 667 1807
604 666 1803
608 664 1797
616 667 1803
620 665 1796
627 667 1799
633 666 1796
639 667 1796
647 669 1800
649 665 1788
671 682 1833
714 720 1933
750 750 2011
767 760 2036
776 762 2040
785 765 2045
804 776 2074
822 788 2103
822 781 2083
834 786 2093
851 796 2117
851 790 2099
860 792 2101
886 809 2144
911 825 2187
921 828 2191
929 828 2190
933 826 2182
945 830 2189
951 830 2185
956 827 2176
964 828 2176
972 829 2176
976 826 2166
984 827 2166
996 831 2174
1013 840 2192
1025 843 2198
1033 844 2199
1038 842 2190
1036 835 2168
1036 828 2149
1033 821 2126
1023 807 2088
999 783 2023
885 689 1776
777 601 1545
733 562 1444
716 546 1401
728 552 1413
734 552 1412
764 571 1459
880 654 1670
929 686 1748
935 686 1745
943 688 1748
946 685 1739
961 692 1753
964 690 1744
966 687 1734
974 689 1736
975 685 1724
979 684 1717
998 693 1738
998 689 1725
1004 689 1722
1019 695 1735
1015 688 1715
1011 681 1695
1029 690 1712
-854 583 1395
-1003 689 1652
-1411 973 2342
-1372 951 2294
-1375 959 2317
-1357 952 2303
-1328 937 2272
-1318 935 2272
-1306 932 2268
-1286 923 2251
-1280 925 2258
-1272 925 2262
-1251 915 2242
-1238 911 2235
-1236 915 2250
-1218 907 2233
-1202 901 2222
-1193 900 2223
-1189 902 2233
-1170 893 2215
-1162 893 2217
-1153 891 2217
-1144 890 2217
-1137 891 2222
-1125 887 2217
-1115 885 2215
-1104 882 2210
-1094 879 2208
-1083 877 2205
-1076 877 2209
-1064 873 2202
-1038 857 2166
-986 820 2074
-957 802 2030
-948 800 2029
-949 806 2046
-950 812 2066
-948 816 2079
-943 818 2086
-938 819 2093
-942 829 2120
-957 849 2174
-964 861 2208
-964 867 2228
-958 869 2234
-958 875 2253
-951 875 2255
-951 881 2276
-939 877 2268
-931 876 2269
-921 874 2266
-916 876 2273
-904 871 2263
-895 870 2263
-876 858 2234
-858 848 2210
-851 847 2211
-851 855 2234
-848 859 2246
-841 858 2247
-835 859 2253
-824 855 2245
-775 812 2133
-712 753 1980
-682 728 1914
-696 749 1973
-679 737 1944
-678 743 1962
-676 748 1977
-655 731 1934
-659 743 1967
-656 746 1977
-649 745 1976
-635 736 1955
-641 750 1995
-621 734 1952
-615 734 1956
-613 739 1969
-599 730 1946
-606 745 1991
-599 744 1989
-584 733 1962
-594 753 2017
-576 738 1979
-581 752 2018
-577 755 2028
-578 766 2057
-550 737 1980
-551 747 2009
-551 754 2031
-529 733 1975
-534 749 2019
-529 751 2026
-530 760 2054
-519 754 2039
-511 752 2033
-507 754 2042
-510 768 2080
-505 770 2088
-495 764 2074
-493 772 2097
-484 767 2085
-483 777 2111
-466 759 2064
-457 754 2053
-454 760 2071
-457 776 2114
-448 772 2106
-442 772 2107
-437 775 2117
-432 777 2124
-427 781 2134
-422 782 2141
-416 784 2147
-410 785 2150
-405 788 2158
-400 790 2166
-395 793 2177
-389 795 2181
-386 802 2203
-378 799 2196
-386 831 2286
-370 812 2234
-361 806 2217
-361 821 2261
-338 784 2159
-335 792 2182
-324 781 2153
-299 739 2036
-292 735 2028
-280 720 1985
-291 765 2112
-278 748 2066
-272 749 2068
-263 740 2045
-251 723 1998
-247 730 2020
-242 734 2030
-232 719 1990
-226 720 1993
-240 784 2173
-224 755 2091
-213 739 2048
-206 736 2039
-199 733 2033
-193 733 2032
-187 731 2028
-184 747 2072
-173 725 2013
-166 721 2002
-160 721 2003
-154 724 2011
-146 715 1987
-143 729 2026
-137 731 2031
-134 743 2066
-132 768 2136
-127 779 2168
-121 779 2169
-110 750 2086
-101 730 2031
-95 733 2040
-92 759 2113
-89 786 2188
-87 831 2316
-80 825 2300
-72 821 2290
-64 796 2220
-54 765 2132
-47 744 2073
-40 737 2055
-34 742 2069
-28 754 2104
-23 775 2161
-18 835 2330
-12 911 2542
-4 928 2590
2 921 2572
10 884 2469
16 809 2257
22 763 2130
28 757 2111
34 763 2128
41 764 2133
47 766 2137
54 765 2134
60 764 2132
67 766 2137
73 764 2130
80 766 2137
86 767 2141
93 767 2141
100 772 2153
111 806 2250
124 851 2376
130 847 2364
134 826 2303
142 832 2322
150 839 2339
164 875 2441
161 821 2290
163 796 2220
166 779 2173
172 775 2161
180 781 2177
186 782 2178
191 776 2161
198 775 2158
203 769 2143
207 759 2113
211 754 2098
217 751 2090
227 763 2123
238 780 2169
257 819 2280
272 845 2350
284 859 2390
289 852 2369
292 840 2334
295 828 2302
306 840 2332
319 856 2377
330 866 2404
338 866 2403
345 865 2401
352 866 2402
361 869 2411
368 868 2406
374 866 2400
380 862 2390
387 861 2384
394 861 2385
401 860 2381
408 860 2380
408 846 2339
416 846 2338
422 844 2333
425 836 2309
431 834 2302
444 846 2334
457 857 2365
466 860 2371
473 860 2370
476 852 2347
468 825 2271
488 848 2334
502 860 2366
507 855 2351
515 856 2352
522 855 2350
529 855 2348
535 853 2341
540 851 2333
551 856 2347
558 855 2342
564 853 2336
573 857 2344
578 854 2335
585 852 2330
591 851 2324
600 853 2328
605 850 2320
595 827 2255
590 810 2206
552 748 2037
508 681 1853
519 688 1869
504 660 1792
523 678 1839
537 689 1869
547 694 1882
534 670 1814
553 686 1856
568 698 1889
585 712 1924
599 720 1945
589 701 1892
569 671 1810
571 666 1795
581 672 1807
584 668 1797
593 672 1805
597 671 1800
601 669 1793
609 671 1799
619 675 1808
621 672 1797
626 671 1793
632 671 1791
638 671 1791
645 673 1792
652 674 1795
668 685 1822
709 720 1915
751 757 2011
769 768 2038
777 770 2041
785 771 2042
799 779 2061
817 789 2086
817 783 2067
829 788 2079
842 794 2093
845 790 2080
859 797 2095
892 822 2158
916 837 2196
925 839 2199
933 839 2196
939 839 2193
947 839 2193
955 840 2192
958 836 2179
966 837 2178
973 837 2176
976 833 2163
986 836 2167
997 839 2173
1014 847 2190
1025 850 2196
1036 853 2202
1038 849 2187
1036 842 2166
1033 833 2140
1033 827 2123
1018 810 2074
988 781 1997
844 663 1692
741 578 1472
720 557 1417
709 546 1385
727 555 1408
711 540 1366
780 588 1488
894 670 1694
937 698 1761
935 692 1743
940 692 1740
946 692 1737
954 693 1737
969 699 1751
963 691 1727
974 694 1733
978 693 1727
991 698 1737
1000 700 1739
989 688 1707
1014 702 1737
1010 695 1717
1013 693 1709
1019 693 1706
1043 705 1733
-841 579 1372
-918 636 1511
-1319 917 2186
-1409 985 2353
-1407 990 2368
-1397 988 2369
-1355 964 2314
-1330 952 2290
-1317 948 2285
-1308 947 2286
-1282 934 2259
-1257 921 2232
-1254 924 2243
-1244 922 2243
-1225 915 2227
-1217 914 2230
-1211 915 2235
-1205 916 2243
-1189 910 2231
-1171 901 2213
-1165 903 2220
-1153 899 2216
-1138 893 2203
-1127 890 2200
-1120 890 2204
-1108 887 2198
-1100 886 2200
-1090 884 2198
-1078 880 2191
-1068 878 2190
-1061 878 2193
-1053 877 2195
-995 834 2090
-960 811 2035
-950 808 2030
-946 810 2038
-947 817 2058
-944 820 2069
-943 825 2083
-940 828 2095
-945 838 2124
-956 854 2168
-967 871 2213
-959 870 2214
-961 878 2236
-958 882 2250
-953 884 2259
-944 883 2258
-942 888 2273
-935 887 2275
-931 890 2286
-926 893 2294
-920 894 2301
-905 887 2285
-897 886 2284
-873 870 2246
-856 859 2221
-845 855 2213
-837 855 2215
-833 857 2224
-826 858 2229
-818 857 2228
-768 812 2112
-715 762 1986
-695 748 1951
-684 743 1938
-684 749 1956
-665 735 1921
-667 744 1948
-664 747 1957
-654 744 1950
-655 751 1972
-654 757 1990
-632 739 1944
-632 746 1964
-622 741 1954
-626 753 1987
-616 749 1977
-607 745 1970
-606 752 1989
-598 750 1985
-605 766 2030
-585 749 1987
-570 738 1958
-565 738 1962
-572 756 2011
-564 753 2005
-564 762 2030
-557 761 2029
-552 762 2032
-545 761 2033
-533 754 2014
-533 762 2038
-531 769 2057
-518 758 2031
-512 759 2033
-504 757 2029
-505 767 2059
-504 776 2084
-494 770 2070
-489 772 2076
-494 790 2127
-478 775 2088
-474 779 2100
-469 781 2105
-460 777 2097
-460 788 2127
-453 786 2124
-450 793 2145
-444 794 2149
-442 801 2169
-433 797 2159
-419 784 2125
-423 804 2181
-417 804 2181
-413 809 2197
-409 816 2216
-402 815 2215
-396 815 2217
-390 817 2223
-385 821 2236
-380 825 2246
-372 822 2241
-363 817 2227
-357 818 2232
-347 813 2219
-343 818 2233
-330 804 2195
-313 778 2126
-292 741 2025
-285 739 2021
-277 735 2010
-273 740 2026
-276 766 2097
-266 754 2063
-253 735 2013
-249 740 2028
-243 743 2037
-232 728 1996
-226 726 1992
-232 766 2103
-238 807 2215
-215 751 2062
-205 737 2023
-197 731 2009
-197 755 2075
-187 741 2037
-176 718 1973
-179 757 2082
-168 735 2021
-163 743 2045
-156 737 2029
-150 741 2039
-143 736 2027
-138 739 2035
-134 752 2073
-131 772 2127
-127 783 2157
-121 787 2172
-113 779 2148
-104 761 2099
-95 740 2041
-91 760 2098
-86 771 2129
-78 756 2087
-70 734 2027
-65 748 2065
-59 755 2086
-54 767 2119
-48 778 2148
-42 772 2134
-35 775 2142
-29 785 2170
-23 798 2206
-17 804 2222
-11 851 2353
-4 911 2518
2 935 2587
10 940 2601
17 881 2436
23 818 2262
28 762 2105
34 759 2099
41 767 2119
47 770 2128
53 766 2116
60 767 2120
66 769 2125
73 769 2126
79 770 2130
86 771 2131
92 773 2136
100 778 2151
109 800 2211
118 816 2256
132 865 2391
135 840 2323
148 871 2409
148 830 2293
147 788 2178
145 744 2055
151 745 2056
159 753 2080
170 771 2130
178 781 2156
184 777 2146
189 773 2133
196 774 2134
202 774 2135
209 773 2133
214 768 2118
220 769 2120
229 776 2138
241 794 2190
256 820 2261
260 813 2241
264 805 2218
269 799 2201
269 778 2143
285 807 2222
302 835 2299
320 864 2378
330 873 2402
336 868 2387
343 869 2390
350 868 2386
358 869 2387
365 869 2386
374 872 2394
379 867 2381
386 867 2379
393 865 2374
400 865 2373
403 856 2347
404 843 2309
406 832 2279
414 835 2285
419 831 2274
425 830 2270
440 844 2307
454 858 2344
463 861 2353
470 861 2352
478 861 2352
474 842 2297
480 841 2293
498 860 2344
505 858 2339
513 861 2344
521 862 2345
525 856 2327
534 859 2336
541 859 2334
550 861 2339
555 858 2329
563 859 2330
571 861 2334
577 859 2328
585 860 2328
590 856 2318
598 858 2321
605 857 2316
600 840 2268
592 820 2213
592 810 2185
570 771 2079
558 746 2007
563 744 2003
567 741 1993
574 742 1994
583 746 2004
584 739 1984
595 746 1999
609 754 2021
614 753 2016
600 728 1948
583 701 1873
571 679 1814
577 679 1811
582 679 1809
590 681 1813
596 682 1814
603 683 1815
611 686 1822
611 679 1803
622 684 1815
629 686 1817
633 684 1810
638 684 1808
645 685 1810
652 686 1811
660 688 1816
678 701 1847
722 740 1949
754 766 2017
770 776 2039
775 775 2034
781 774 2031
801 787 2062
811 791 2070
817 789 2065
821 787 2056
835 794 2073
843 795 2073
861 806 2098
896 832 2164
914 842 2189
924 845 2193
935 848 2200
937 844 2185
945 844 2184
953 845 2183
959 844 2179
969 846 2182
973 844 2173
981 844 2171
987 844 2166
996 845 2167
1011 852 2183
1019 853 2182
1036 861 2199
1037 855 2183
1033 846 2156
1029 837 2131
1024 827 2101
996 799 2028
966 770 1951
802 634 1604
726 571 1440
718 560 1411
730 566 1424
729 561 1410
760 582 1459
798 607 1521
904 684 1711
930 698 1745
947 707 1764
947 702 1750
958 706 1756
953 698 1734
965 702 1742
976 706 1747
967 695 1719
982 702 1732
990 703 1733
995 703 1728
1003 704 1729
997 696 1705
1013 702 1719
1014 699 1707
1022 701 1709
1030 702 1709
-853 593 1390
-961 671 1579
-1264 886 2092
-1404 990 2341
-1410 1000 2370
-1394 994 2361
-1399 1004 2387
-1381 997 2375
-1358 986 2353
-1318 962 2302
-1297 953 2282
-1278 945 2267
-1269 944 2268
-1246 932 2244
-1236 930 2244
-1224 927 2239
-1205 918 2222
-1201 921 2233
-1182 912 2214
-1173 910 2214
-1165 910 2217
-1153 906 2211
-1140 902 2205
-1132 902 2208
-1118 896 2197
-1103 890 2186
-1097 890 2190
-1089 890 2193
-1081 890 2196
-1071 887 2193
-1060 884 2187
-1048 880 2181
-1000 846 2099
-964 821 2040
-947 812 2021
-944 815 2031
-945 822 2051
-947 829 2073
-950 838 2097
-942 837 2098
-948 849 2130
-953 859 2158
-967 878 2211
-959 877 2210
-949 874 2206
-950 882 2228
-953 891 2255
-952 897 2273
-937 890 2258
-935 895 2273
-931 898 2285
-936 910 2317
-930 911 2323
-923 912 2328
-918 914 2335
-901 905 2314
-879 890 2279
-853 871 2232
-837 862 2212
-825 857 2202
-806 844 2171
-789 833 2145
-764 814 2097
-714 768 1981
-683 741 1915
-691 757 1957
-671 741 1918
-672 749 1941
-675 759 1968
-674 765 1986
-645 739 1920
-650 752 1955
-646 754 1963
-644 759 1979
-626 745 1944
-639 768 2005
-614 745 1946
-621 761 1992
-621 769 2013
-604 755 1980
-590 746 1956
-609 777 2041
-590 761 2001
-597 779 2048
-575 758 1995
-575 767 2020
-567 763 2013
-564 768 2028
-569 784 2070
-553 770 2035
-551 775 2051
-545 777 2057
-537 775 2052
-534 779 2065
-519 767 2035
-525 784 2082
-514 778 2069
-512 784 2085
-505 783 2084
-513 805 2145
-497 792 2110
-507 817 2180
-503 821 2191
-485 804 2147
-482 810 2164
-477 813 2173
-467 806 2157
-464 812 2175
-454 807 2162
-449 809 2168
-442 808 2167
-436 811 2176
-430 811 2179
-424 812 2182
-419 816 2193
-414 819 2204
-408 820 2207
-403 823 2218
-396 823 2217
-388 820 2212
-384 827 2229
-377 826 2228
-375 835 2255
-368 837 2260
-358 828 2238
-353 833 2252
-344 829 2241
-338 830 2246
-329 824 2231
-311 795 2152
-297 776 2101
-277 741 2006
-271 742 2011
-269 753 2042
-273 780 2116
-263 771 2094
-247 743 2017
-243 747 2030
-235 743 2017
-225 730 1983
-223 744 2024
-240 822 2235
-218 768 2089
-204 739 2012
-197 739 2011
-193 746 2030
-188 749 2039
-179 739 2014
-173 737 2009
-169 748 2039
-160 736 2006
-156 745 2031
-150 746 2035
-145 748 2042
-139 751 2049
-135 762 2081
-133 788 2152
-129 804 2196
-121 791 2161
-112 777 2122
-110 806 2203
-99 775 2118
-92 769 2102
-87 782 2138
-80 778 2127
-70 746 2041
-65 753 2059
-60 774 2119
-55 780 2135
-49 791 2164
-43 798 2185
-36 806 2206
-31 830 2272
-24 820 2245
-17 813 2227
-10 806 2209
-4 857 2347
2 922 2526
10 942 2581
18 930 2548
24 886 2428
30 823 2254
34 766 2098
40 759 2078
47 773 2118
53 772 2115
60 774 2119
66 773 2116
73 775 2122
79 775 2122
86 775 2123
92 778 2131
98 775 2122
108 795 2178
116 808 2212
123 814 2229
127 793 2171
134 793 2171
138 780 2135
140 759 2078
144 747 2045
153 758 2073
160 763 2089
171 783 2143
180 794 2172
180 767 2099
185 763 2085
191 762 2083
200 772 2110
208 777 2122
213 773 2112
220 773 2111
229 782 2136
242 805 2198
257 833 2274
268 845 2308
278 853 2330
273 819 2234
269 786 2143
285 814 2220
308 860 2345
320 872 2379
329 876 2389
337 878 2392
344 877 2390
352 880 2396
356 872 2374
364 874 2379
370 870 2367
376 867 2358
384 869 2361
392 870 2365
397 866 2354
400 858 2329
399 839 2279
406 840 2278
412 837 2270
417 835 2263
429 844 2288
440 852 2307
452 861 2332
460 863 2337
469 866 2343
476 865 2340
481 861 2328
474 836 2258
495 861 2325
505 866 2337
509 860 2320
518 864 2330
526 865 2331
533 864 2328
540 864 2327
548 865 2329
554 864 2322
560 862 2318
569 864 2321
575 863 2316
582 863 2314
589 862 2310
598 865 2318
604 863 2311
600 847 2266
581 810 2166
573 790 2110
566 771 2059
564 760 2028
569 758 2022
573 755 2012
579 755 2011
584 753 2004
596 761 2023
601 759 2017
613 766 2032
611 755 2003
603 738 1955
587 711 1883
578 694 1835
586 696 1840
595 699 1846
601 700 1847
607 700 1846
617 705 1858
624 705 1856
631 708 1861
637 707 1858
644 708 1859
654 713 1871
666 719 1885
672 719 1883
674 715 1870
686 721 1885
702 731 1909
734 759 1980
756 775 2020
766 778 2026
771 776 2019
791 790 2053
808 800 2077
823 809 2098
824 803 2081
831 803 2078
834 800 2067
841 800 2067
862 814 2099
894 837 2158
916 851 2190
924 852 2190
927 848 2178
937 851 2183
944 850 2178
951 851 2177
958 850 2173
961 847 2161
968 847 2159
978 849 2162
983 847 2155
994 851 2161
1010 858 2178
1023 863 2187
1036 868 2196
1039 864 2184
1032 852 2151
1023 839 2114
1016 828 2083
993 803 2019
953 766 1922
780 622 1557
720 571 1426
683 538 1341
725 567 1413
729 566 1408
744 574 1426
815 625 1550
920 701 1738
933 707 1750
940 707 1749
949 710 1752
963 716 1764
959 709 1743
971 713 1751
971 709 1738
983 713 1746
987 711 1739
985 706 1722
994 708 1724
993 703 1708
1003 706 1713
1011 707 1714
1018 708 1713
1023 707 1708
1032 710 1711
-858 601 1398
-1046 736 1715
-1353 957 2237
-1382 982 2301
-1377 985 2311
-1387 998 2346
-1383 1000 2357
-1367 995 2349
-1364 998 2360
-1375 1012 2399
-1323 980 2325
-1298 967 2299
-1275 955 2275
-1257 948 2262
-1246 945 2259
-1225 935 2238
-1214 932 2236
-1199 927 2226
-1189 925 2225
-1179 923 2223
-1167 919 2218
-1158 918 2219
-1142 911 2205
-1132 909 2205
-1119 904 2197
-1107 900 2191
-1100 901 2195
-1086 895 2185
-1084 899 2199
-1068 892 2183
-1058 890 2182
-1049 889 2182
-1007 859 2111
-976 838 2064
-952 823 2030
-943 821 2028
-939 824 2036
-943 833 2062
-947 842 2087
-932 835 2074
-942 850 2112
-946 860 2140
-948 868 2165
-957 883 2205
-953 885 2213
-947 887 2220
-946 892 2237
-944 898 2253
-941 901 2264
-931 898 2261
-924 899 2265
-932 914 2305
-925 914 2308
-923 919 2324
-911 915 2318
-918 929 2356
-907 925 2349
-881 907 2304
-840 872 2219
-820 859 2186
-787 831 2118
-759 808 2062
-739 794 2029
-712 772 1974
-694 759 1942
-689 760 1947
-677 754 1935
-673 756 1941
-679 770 1978
-669 766 1970
-654 756 1945
-656 765 1972
-652 768 1980
-654 777 2007
-618 742 1918
-633 767 1983
-630 771 1997
-622 768 1992
-617 770 1998
-613 772 2006
-608 774 2012
-602 775 2016
-599 779 2028
-596 783 2041
-584 776 2023
-585 786 2053
-585 795 2077
-567 778 2035
-572 795 2080
-577 810 2121
-552 784 2054
-548 788 2067
-547 796 2089
-549 808 2122
-533 793 2085
-532 802 2111
-525 802 2111
-526 812 2140
-515 806 2125
-500 793 2091
-503 807 2130
-498 810 2141
-492 811 2145
-486 811 2146
-480 813 2153
-474 813 2153
-467 813 2157
-462 815 2163
-456 817 2170
-451 819 2176
-444 820 2179
-438 821 2183
-434 825 2194
-427 826 2199
-423 829 2209
-415 827 2204
-409 828 2208
-403 831 2217
-397 832 2220
-389 830 2218
-382 830 2217
-378 835 2232
-371 834 2232
-367 841 2252
-360 841 2252
-351 834 2235
-344 836 2240
-338 838 2247
-331 837 2246
-322 832 2232
-311 819 2200
-293 790 2122
-269 742 1992
-267 752 2021
-274 792 2128
-269 796 2140
-251 759 2042
-239 741 1994
-231 737 1983
-223 731 1968
-219 736 1983
-222 767 2066
-220 783 2110
-204 747 2014
-197 743 2005
-193 751 2027
-187 750 2024
-177 738 1992
-172 740 1999
-168 748 2021
-162 752 2032
-157 757 2046
-152 759 2053
-147 766 2072
-144 782 2116
-140 800 2163
-133 797 2156
-129 812 2197
-123 811 2196
-116 811 2196
-109 807 2185
-98 778 2106
-94 797 2160
-89 807 2186
-81 794 2151
-73 781 2117
-67 787 2134
-62 797 2160
-55 797 2162
-50 809 2195
-42 794 2153
-36 811 2200
-31 836 2268
-24 845 2294
-17 839 2277
-10 825 2238
-3 814 2208
2 864 2345
10 935 2538
18 949 2577
26 938 2547
32 897 2436
36 830 2254
40 770 2090
46 762 2067
54 779 2114
60 783 2124
66 778 2111
73 777 2110
79 776 2107
86 780 2118
92 779 2113
98 781 2119
106 786 2134
115 810 2198
122 811 2199
125 787 2136
128 766 2077
137 780 2116
142 776 2104
148 770 2088
157 784 2126
165 794 2152
175 807 2188
180 800 2169
180 772 2093
186 773 2093
196 788 2134
201 780 2113
207 780 2112
212 774 2096
219 777 2104
228 785 2125
243 816 2208
263 857 2318
279 887 2400
289 895 2422
288 871 2356
281 829 2241
293 843 2278
308 864 2335
318 874 2362
327 879 2373
331 870 2349
341 878 2369
349 880 2374
357 882 2380
364 881 2375
372 881 2376
379 881 2373
383 875 2356
388 869 2340
397 873 2351
401 865 2328
404 858 2307
407 849 2282
417 854 2296
422 851 2285
433 858 2304
441 860 2309
452 868 2328
460 869 2330
466 868 2326
476 873 2339
480 867 2323
470 836 2238
490 860 2301
502 867 2320
508 866 2314
514 864 2308
521 864 2308
531 869 2319
538 868 2315
545 868 2313
553 869 2316
556 863 2299
567 868 2310
571 864 2298
581 868 2306
589 870 2310
596 869 2307
598 862 2286
593 844 2237
567 797 2112
555 772 2042
556 764 2021
556 755 1996
563 756 1998
569 756 1994
575 756 1993
582 756 1993
588 757 1992
601 765 2012
602 758 1994
609 759 1996
601 741 1946
599 732 1919
605 732 1919
615 736 1928
616 730 1911
624 733 1916
634 737 1926
640 737 1924
658 751 1958
661 747 1946
658 737 1918
678 752 1956
683 750 1950
695 757 1965
701 756 1962
706 755 1956
712 755 1954
732 769 1990
738 769 1987
752 777 2007
755 773 1994
767 779 2008
790 795 2048
815 814 2094
822 814 2092
826 812 2083
834 813 2085
833 805 2062
841 806 2063
855 813 2078
891 841 2147
909 851 2170
920 855 2178
924 852 2169
934 855 2174
940 854 2167
946 853 2163
954 854 2162
962 854 2160
966 852 2152
973 852 2149
983 854 2152
989 853 2146
1006 862 2167
1020 868 2178
1028 868 2176
1034 868 2172
1027 856 2139
1026 848 2118
1009 829 2067
994 811 2018
926 750 1864
763 614 1521
718 574 1420
725 576 1422
744 586 1447
720 564 1390
753 586 1442
844 653 1605
930 715 1755
935 714 1751
941 714 1747
948 715 1747
953 714 1742
968 721 1757
970 718 1746
970 713 1732
965 706 1711
985 716 1733
988 714 1725
997 716 1727
1013 723 1742
1003 712 1712
1012 713 1713
1015 712 1706
1017 709 1695
1028 712 1701
-855 604 1391
-1032 732 1691
-1359 969 2244
-1406 1008 2340
-1369 987 2294
-1373 996 2320
-1374 1002 2339
-1362 999 2336
-1359 1003 2350
-1343 997 2340
-1335 997 2344
-1326 996 2345
-1301 983 2320
-1303 991 2342
-1271 972 2302
-1251 963 2283
-1222 946 2247
-1205 939 2235
-1199 940 2241
-1172 925 2209
-1166 926 2214
-1155 923 2211
-1150 925 2219
-1137 921 2212
-1125 917 2206
-1111 911 2197
-1103 910 2197
-1092 907 2193
-1076 900 2179
-1067 898 2179
-1057 896 2177
-1045 892 2169
-1029 884 2154
-981 849 2072
-954 832 2032
-943 828 2025
-936 828 2028
-942 839 2058
-946 848 2084
-950 858 2111
-947 862 2123
-933 855 2109
-931 860 2124
-938 872 2158
-947 887 2196
-934 882 2187
-938 892 2215
-937 898 2232
-938 906 2256
-932 907 2261
-933 915 2284
-929 918 2295
-918 914 2288
-924 928 2325
-905 916 2298
-917 936 2351
-910 936 2355
-896 930 2341
-860 900 2267
-824 869 2193
-782 833 2104
-750 805 2035
-729 790 2000
-712 779 1972
-695 766 1943
-688 765 1942
-681 764 1942
-676 766 1948
-676 773 1967
-669 772 1967
-665 774 1975
-662 778 1987
-662 786 2009
-648 776 1985
-647 783 2005
-640 781 2003
-652 805 2065
-642 800 2055
-633 796 2047
-632 803 2066
-618 793 2043
-615 798 2056
-605 793 2046
-601 796 2056
-598 802 2072
-587 796 2058
-589 807 2089
-580 803 2081
-579 811 2103
-583 825 2141
-561 803 2086
-559 809 2104
-551 808 2102
-546 809 2106
-540 810 2112
-534 811 2116
-528 812 2119
-522 813 2123
-517 815 2129
-510 815 2132
-504 816 2136
-500 819 2145
-495 823 2156
-487 820 2151
-482 823 2160
-476 824 2163
-470 824 2166
-463 825 2168
-459 829 2181
-453 830 2185
-446 829 2184
-438 828 2181
-432 828 2184
-426 829 2188
-420 831 2194
-414 832 2197
-407 832 2198
-400 831 2197
-395 835 2208
-389 837 2216
-383 838 2218
-378 841 2228
-371 841 2229
-361 835 2215
-357 841 2232
-351 843 2237
-345 844 2241
-337 841 2235
-331 843 2240
-321 835 2220
-312 830 2208
-300 814 2166
-277 771 2052
-262 745 1984
-260 758 2020
-267 796 2122
-255 779 2076
-238 745 1986
-230 739 1970
-224 738 1968
-216 732 1954
-213 744 1986
-217 777 2077
-205 758 2025
-198 752 2011
-195 767 2050
-186 756 2021
-179 750 2007
-174 756 2023
-170 763 2043
-167 777 2081
-162 783 2097
-159 801 2145
-155 813 2180
-149 817 2189
-142 815 2185
-136 817 2192
-129 817 2190
-121 810 2172
-116 820 2201
-109 818 2194
-102 810 2174
-95 807 2166
-89 817 2194
-82 816 2190
-75 805 2163
-68 805 2162
-62 807 2169
-55 802 2154
-49 808 2171
-43 817 2197
-37 823 2214
-31 843 2265
-24 851 2289
-17 846 2275
-10 836 2248
-3 811 2181
3 818 2200
10 858 2308
18 924 2485
26 961 2587
33 947 2548
39 902 2428
43 837 2251
47 780 2098
52 766 2061
61 805 2167
68 801 2154
73 788 2118
79 782 2102
85 781 2101
91 781 2100
98 780 2097
105 784 2109
111 788 2119
120 802 2157
126 796 2141
128 769 2068
134 771 2073
144 790 2122
152 800 2150
163 823 2211
173 840 2258
179 835 2243
182 816 2191
178 772 2073
182 760 2040
191 772 2071
201 787 2112
206 782 2098
211 776 2082
218 780 2091
227 787 2112
245 826 2216
267 879 2358
283 906 2430
285 890 2385
282 858 2298
280 832 2230
294 854 2286
301 853 2284
312 865 2314
322 873 2336
331 876 2343
339 878 2348
345 876 2342
351 873 2334
359 876 2340
367 876 2341
374 876 2339
380 875 2336
387 874 2332
395 876 2335
401 874 2329
404 865 2306
412 866 2306
416 860 2290
425 863 2298
433 866 2305
442 869 2311
451 872 2319
459 874 2323
464 872 2315
474 876 2324
480 873 2318
480 862 2286
483 854 2265
501 874 2315
508 872 2310
513 869 2301
517 864 2285
525 866 2290
531 864 2283
537 862 2277
547 866 2287
554 866 2284
561 866 2283
567 865 2279
576 868 2285
581 865 2276
592 870 2288
591 858 2255
582 836 2195
526 746 1958
518 726 1903
526 729 1911
542 742 1942
550 746 1951
560 750 1961
564 747 1952
570 747 1951
579 751 1959
588 755 1967
598 760 1980
603 757 1971
598 744 1934
601 740 1922
608 741 1924
619 747 1938
626 748 1939
637 754 1953
649 761 1970
659 765 1978
667 767 1983
668 761 1965
670 756 1950
679 760 1958
688 763 1964
695 764 1964
703 765 1965
709 765 1964
727 777 1994
726 770 1973
745 782 2003
749 781 1997
753 778 1987
761 780 1990
785 797 2032
807 813 2071
820 819 2084
821 813 2068
820 806 2046
820 799 2028
827 800 2027
856 821 2079
889 846 2140
903 853 2155
909 852 2149
914 850 2143
928 856 2156
932 854 2147
939 853 2143
952 859 2154
959 859 2151
963 856 2143
972 858 2143
981 859 2145
983 855 2132
996 860 2141
1015 870 2164
1031 878 2180
1026 868 2151
1028 863 2138
1022 852 2108
1013 839 2071
985 810 1997
903 737 1815
757 614 1508
731 589 1444
715 573 1401
717 570 1393
726 573 1399
759 596 1452
858 669 1630
919 713 1733
934 720 1748
943 722 1750
960 730 1767
953 720 1741
964 724 1747
960 717 1727
979 726 1746
984 725 1742
982 719 1725
997 726 1739
993 718 1717
1002 721 1720
1013 725 1727
1020 725 1724
1019 720 1710
1019 716 1697
1029 719 1701
-860 612 1396
-999 715 1635
-1350 970 2226
-1372 992 2280
-1367 994 2289
-1375 1005 2320
-1360 1000 2313
-1359 1005 2328
-1335 993 2304
-1319 987 2295
-1319 993 2313
-1317 997 2327
-1313 1000 2338
-1308 1002 2347
-1301 1003 2353
-1279 992 2332
-1244 971 2285
-1230 966 2277
-1200 948 2239
-1192 948 2243
-1167 935 2214
-1150 926 2198
-1149 931 2214
-1141 931 2217
-1123 922 2200
-1111 918 2193
-1098 914 2185
-1095 918 2198
-1087 917 2200
-1070 908 2183
-1060 906 2180
-1052 906 2183
-1040 901 2176
-987 861 2082
-961 845 2045
-945 836 2027
-941 839 2036
-938 842 2047
-935 846 2058
-934 850 2072
-933 856 2089
-920 850 2078
-918 855 2092
-926 868 2128
-911 861 2112
-925 881 2164
-918 880 2166
-925 894 2202
-911 887 2189
-921 903 2232
-920 910 2251
-920 916 2270
-922 926 2296
-911 922 2290
-913 932 2317
-906 932 2320
-901 934 2328
-891 932 2325
-886 934 2333
-836 890 2225
-778 835 2090
-742 804 2014
-726 793 1988
-714 787 1976
-706 785 1973
-700 786 1976
-695 787 1981
-687 785 1979
-682 786 1984
-676 787 1987
-679 797 2016
-667 790 2000
-668 800 2025
-658 795 2015
-640 781 1982
-650 800 2033
-649 807 2052
-643 808 2057
-650 824 2100
-637 816 2082
-622 806 2056
-617 807 2061
-612 809 2068
-605 808 2068
-600 810 2076
-593 810 2077
-588 811 2080
-581 810 2081
-578 815 2095
-570 814 2094
-565 816 2101
-559 817 2103
-556 821 2118
-547 818 2110
-543 821 2120
-537 822 2125
-532 824 2131
-524 822 2128
-519 825 2136
-511 824 2134
-506 825 2139
-502 829 2151
-494 827 2148
-489 830 2157
-482 829 2157
-474 827 2152
-470 831 2164
-463 830 2163
-457 833 2170
-450 832 2171
-443 831 2170
-438 834 2177
-431 833 2176
-424 833 2178
-420 838 2191
-413 836 2189
-407 839 2198
-399 837 2192
-393 838 2197
-387 839 2200
-380 838 2199
-373 837 2197
-367 840 2206
-361 840 2208
-354 840 2208
-346 837 2202
-340 839 2209
-333 839 2208
-327 841 2215
-321 843 2221
-314 840 2215
-304 831 2192
-285 799 2108
-261 748 1973
-252 739 1952
-247 744 1964
-247 762 2013
-235 743 1964
-228 738 1951
-224 746 1974
-216 738 1951
-212 746 1973
-212 765 2025
-209 777 2057
-198 758 2009
-192 761 2017
-187 764 2024
-182 769 2038
-179 783 2077
-176 799 2120
-173 815 2163
-169 823 2185
-163 827 2197
-157 834 2214
-149 824 2188
-143 827 2199
-135 822 2184
-129 824 2191
-123 829 2204
-115 821 2184
-109 820 2180
-102 821 2185
-96 822 2188
-89 818 2176
-82 821 2185
-76 824 2194
-69 820 2182
-62 820 2185
-55 815 2169
-49 817 2175
-43 822 2188
-37 848 2261
-31 849 2261
-24 853 2273
-17 842 2245
-10 838 2234
-3 835 2225
3 829 2209
9 818 2181
17 867 2313
25 937 2499
33 958 2555
41 956 2549
47 909 2423
50 839 2238
53 783 2086
60 785 2093
68 817 2178
73 796 2122
78 783 2088
85 788 2101
91 786 2095
98 790 2106
105 797 2125
112 798 2126
119 801 2133
126 808 2152
133 808 2153
135 784 2088
144 797 2123
155 820 2183
166 843 2244
176 860 2289
184 863 2297
182 822 2187
179 783 2083
181 763 2031
190 773 2057
201 794 2112
206 787 2093
210 780 2073
217 782 2078
226 790 2099
244 831 2207
262 869 2309
264 853 2266
263 828 2199
270 829 2201
277 828 2197
292 852 2262
300 857 2274
309 864 2291
317 865 2294
328 875 2321
335 876 2321
342 874 2316
345 865 2290
352 865 2289
360 867 2295
371 877 2320
378 876 2318
385 877 2318
392 877 2317
398 873 2306
401 865 2285
409 866 2286
416 867 2289
423 868 2288
431 868 2288
441 874 2303
452 881 2322
456 877 2309
464 878 2310
471 878 2309
477 875 2300
484 875 2300
475 846 2222
498 875 2298
508 880 2309
513 877 2299
519 874 2290
524 871 2281
531 870 2279
535 866 2265
542 866 2266
550 867 2266
554 862 2252
562 865 2257
570 866 2259
577 865 2255
580 859 2237
584 855 2226
550 796 2072
500 714 1855
507 716 1860
516 720 1870
527 728 1888
532 727 1884
538 727 1882
544 727 1881
559 738 1909
568 742 1919
579 749 1936
597 764 1973
584 740 1908
580 727 1874
579 719 1850
586 720 1852
594 723 1859
602 726 1864
610 728 1868
618 730 1873
625 732 1875
629 730 1868
633 727 1860
639 727 1858
644 726 1853
651 727 1854
657 728 1854
661 726 1847
670 729 1854
682 735 1867
705 753 1912
740 784 1988
761 800 2027
767 799 2023
766 791 2001
790 808 2043
804 816 2060
812 817 2061
820 819 2064
818 810 2038
816 802 2015
823 802 2013
861 833 2090
889 853 2136
900 857 2146
908 857 2143
913 856 2137
919 855 2133
929 858 2136
935 856 2131
941 856 2127
948 856 2125
959 860 2132
967 860 2130
974 861 2128
984 863 2130
993 865 2133
1001 866 2132
1017 873 2148
1018 868 2132
1019 863 2117
1012 851 2085
1002 836 2046
985 817 1996
871 717 1749
730 597 1451
708 575 1396
723 583 1414
727 583 1412
730 581 1406
767 607 1465
887 698 1683
931 727 1752
934 725 1745
947 730 1754
955 732 1756
958 729 1747
970 734 1755
971 731 1744
970 725 1729
977 726 1727
985 727 1727
994 729 1730
1004 733 1735
996 722 1707
1007 726 1713
1020 731 1722
1018 726 1706
1030 730 1712
1030 726 1701
-851 611 1381
-974 703 1592
-1335 967 2198
-1360 991 2257
-1370 1003 2290
-1335 984 2250
-1358 1006 2306
-1328 990 2272
-1333 999 2298
-1308 986 2272
-1327 1007 2324
-1313 1002 2317
-1315 1010 2339
-1298 1003 2327
-1293 1005 2336
-1286 1006 2342
-1266 996 2324
-1270 1005 2349
-1242 990 2316
-1225 982 2302
-1186 957 2246
-1166 947 2227
-1149 939 2212
-1143 940 2217
-1129 934 2208
-1114 929 2198
-1105 927 2197
-1095 924 2194
-1081 919 2184
-1068 914 2176
-1061 914 2180
-1055 915 2186
-1033 902 2158
-1001 881 2110
-967 857 2054
-950 848 2036
-943 847 2038
-939 849 2046
-936 853 2058
-934 857 2070
-930 860 2079
-924 861 2085
-919 862 2092
-910 861 2090
-913 870 2115
-904 867 2112
-902 872 2125
-884 861 2103
-895 879 2149
-889 880 2153
-895 892 2187
-898 902 2214
-895 907 2228
-908 927 2281
-910 937 2307
-912 946 2333
-908 949 2344
-902 952 2352
-893 950 2350
-857 920 2278
-790 855 2119
-740 808 2006
-725 799 1984
-719 799 1987
-713 799 1990
-706 798 1990
-703 802 2001
-696 802 2002
-687 799 1997
-683 801 2005
-678 802 2009
-672 803 2013
-667 805 2020
-663 807 2028
-656 807 2029
-653 810 2040
-646 809 2040
-640 810 2044
-632 808 2041
-628 812 2051
-622 812 2053
-617 813 2059
-612 816 2067
-605 815 2066
-601 819 2078
-595 819 2080
-591 823 2091
-585 823 2094
-579 824 2098
-573 824 2100
-566 824 2102
-561 825 2107
-554 826 2110
-549 828 2117
-542 827 2115
-536 827 2118
-531 830 2126
-523 828 2124
-517 829 2128
-513 832 2137
-506 832 2138
-499 832 2139
-494 834 2145
-489 836 2153
-484 840 2165
-474 834 2151
-470 838 2162
-463 837 2162
-455 836 2159
-448 834 2157
-444 840 2174
-437 838 2170
-430 839 2173
-423 837 2170
-418 840 2177
-410 839 2176
-404 838 2176
-398 841 2185
-391 840 2182
-383 838 2178
-377 840 2184
-371 841 2188
-365 841 2190
-357 838 2183
-351 841 2191
-346 843 2199
-339 843 2200
-332 842 2196
-326 844 2203
-319 844 2203
-311 840 2196
-302 833 2177
-276 780 2040
-263 762 1992
-249 738 1931
-243 737 1929
-241 749 1961
-252 802 2101
-228 745 1953
-222 744 1949
-217 747 1959
-210 744 1950
-208 759 1990
-211 791 2076
-201 777 2039
-195 780 2048
-193 793 2084
-191 813 2137
-188 827 2175
-183 834 2192
-176 835 2195
-170 836 2199
-163 835 2197
-156 834 2196
-149 833 2193
-142 831 2189
-135 829 2184
-128 828 2181
-122 832 2191
-116 830 2189
-109 828 2183
-102 829 2186
-95 827 2181
-89 831 2192
-83 831 2193
-76 829 2188
-69 830 2189
-63 829 2188
-56 833 2198
-50 837 2210
-43 838 2212
-37 841 2219
