VERSION 0.7
FIELDS x y z
SIZE 4 4 4
TYPE I I I
COUNT 1 1 1
WIDTH 3588
HEIGHT 1
VIEWPOINT 0.0 0.0 0.0 1.0 0.0 0.0 0.0
POINTS 3588
DATA ascii
525 399 1584
527 397 1575
528 394 1560
531 393 1555
537 393 1556
543 394 1558
548 395 1558
555 396 1562
557 394 1553
566 397 1565
565 393 1547
572 394 1550
575 393 1543
590 400 1571
598 402 1577
602 401 1572
609 403 1578
610 401 1566
615 401 1565
619 400 1561
619 397 1547
628 399 1553
626 395 1536
636 398 1548
639 397 1541
652 402 1560
659 403 1563
664 403 1561
670 404 1560
675 404 1559
677 402 1552
682 402 1548
693 406 1562
702 408 1568
698 403 1547
708 406 1556
714 406 1556
720 407 1557
727 408 1560
732 408 1557
736 407 1553
742 408 1553
741 404 1538
751 407 1546
748 403 1528
743 398 1506
754 401 1516
747 394 1489
745 391 1475
748 390 1469
749 388 1459
760 391 1469
764 390 1464
773 393 1472
771 389 1456
780 391 1461
777 387 1445
774 384 1429
779 384 1427
755 370 1372
731 356 1318
725 350 1296
687 330 1220
610 292 1074
682 324 1193
708 335 1229
742 348 1279
-487 237 825
-505 247 861
-543 266 932
-612 302 1060
-713 353 1243
-718 357 1262
-713 357 1263
-701 353 1250
-692 350 1243
-674 343 1220
-666 341 1215
-658 339 1210
-644 334 1193
-646 337 1206
-644 338 1211
-652 344 1236
-681 362 1301
-727 388 1399
-768 412 1490
-761 411 1488
-659 359 1300
-557 306 1107
-547 302 1096
-542 301 1095
-543 304 1105
-540 304 1109
-541 307 1119
-532 303 1108
-544 312 1143
-521 301 1104
-524 305 1120
-520 305 1120
-524 309 1138
-522 310 1144
-519 310 1145
-506 305 1127
-507 308 1139
-509 311 1153
-509 313 1162
-502 311 1157
-508 317 1180
-534 336 1251
-553 350 1306
-561 358 1337
-560 359 1345
-556 359 1347
-554 361 1355
-547 359 1349
-537 355 1337
-539 359 1353
-528 355 1339
-525 356 1343
-524 358 1353
-517 356 1345
-516 358 1355
-513 359 1361
-506 357 1356
-502 357 1356
-493 354 1345
-487 352 1340
-483 352 1342
-482 354 1352
-475 353 1347
-473 354 1354
-460 347 1329
-463 352 1350
-463 356 1365
-458 355 1364
-453 355 1363
-456 360 1384
-453 361 1390
-451 363 1397
-440 357 1377
-435 357 1378
-441 365 1409
-428 358 1382
-417 352 1362
-411 351 1359
-409 352 1364
-403 351 1361
-412 362 1404
-404 359 1394
-400 359 1397
-394 358 1392
-388 355 1385
-386 358 1394
-379 355 1385
-375 355 1385
-373 358 1397
-373 361 1411
-363 355 1390
-362 359 1406
-356 357 1398
-351 356 1396
-348 358 1404
-345 359 1409
-338 355 1396
-335 357 1404
-331 357 1403
-326 357 1404
-320 354 1395
-314 352 1388
-309 352 1387
-302 348 1374
-296 346 1365
-294 348 1375
-292 350 1385
-287 350 1383
-281 347 1375
-275 345 1364
-273 347 1376
-268 347 1374
-265 348 1379
-258 344 1364
-256 347 1378
-251 345 1370
-250 349 1387
-243 345 1373
-240 347 1380
-233 343 1363
-229 343 1366
-227 345 1375
-223 346 1379
-218 344 1373
-212 341 1361
-207 341 1360
-206 344 1375
-200 341 1362
-196 342 1366
-195 346 1385
-191 346 1385
-185 344 1375
-181 343 1373
-177 345 1380
-174 346 1386
-170 345 1383
-164 342 1372
-161 344 1378
-157 344 1380
-154 348 1395
-150 347 1392
-146 347 1395
-143 351 1410
-140 353 1420
-142 367 1477
-141 376 1513
-135 372 1496
-122 348 1400
-110 326 1310
-101 311 1252
-94 301 1209
-87 290 1165
-81 282 1136
-77 279 1122
-73 275 1108
-69 275 1104
-66 273 1098
-62 273 1098
-59 271 1092
-55 271 1091
-52 270 1087
-49 273 1101
-47 277 1115
-45 285 1149
-44 300 1212
-41 307 1238
-39 313 1263
-36 324 1308
-31 309 1248
-28 315 1273
-25 330 1335
-22 342 1381
-19 362 1462
-16 377 1525
-11 377 1525
-7 378 1529
-2 380 1537
1 380 1538
6 379 1532
10 381 1544
14 375 1518
19 373 1510
23 368 1489
27 356 1441
31 365 1476
37 376 1522
42 379 1534
46 381 1542
51 381 1542
55 377 1525
60 381 1541
65 382 1545
69 382 1546
74 382 1547
77 377 1527
83 380 1540
87 378 1530
92 381 1542
96 380 1540
101 382 1545
106 382 1547
109 378 1529
112 372 1507
116 371 1501
122 377 1526
127 377 1525
130 374 1514
136 377 1524
140 377 1524
146 381 1539
151 382 1545
155 381 1538
161 382 1544
162 376 1518
162 366 1477
172 377 1522
180 385 1556
185 385 1555
188 381 1540
192 380 1536
197 382 1540
201 381 1539
209 386 1559
210 381 1537
214 380 1531
222 385 1551
224 380 1534
226 377 1518
231 378 1524
238 381 1535
242 381 1532
245 378 1522
250 378 1522
255 379 1525
262 382 1538
262 376 1512
267 377 1513
271 377 1514
274 374 1503
280 376 1511
284 376 1508
290 377 1513
293 375 1505
301 380 1522
302 376 1506
308 378 1513
314 379 1519
318 379 1516
325 382 1527
330 381 1525
332 379 1514
338 381 1522
340 377 1506
344 376 1503
348 376 1502
358 382 1523
361 380 1515
373 388 1546
378 388 1547
384 390 1551
385 386 1535
391 387 1541
395 387 1540
403 390 1550
403 386 1532
407 385 1527
408 381 1511
409 378 1498
415 379 1503
420 380 1505
428 383 1517
433 383 1516
441 386 1526
442 383 1513
451 387 1526
462 392 1548
465 391 1540
468 389 1532
475 391 1539
475 387 1522
481 388 1525
491 393 1542
498 394 1546
505 396 1553
511 397 1555
519 399 1564
522 398 1556
524 396 1547
525 393 1535
534 396 1545
538 396 1544
542 395 1540
552 399 1552
553 396 1540
550 391 1519
559 394 1530
563 393 1526
579 401 1553
586 402 1557
591 402 1556
591 399 1543
594 398 1536
603 400 1546
608 401 1545
613 400 1542
613 398 1531
617 397 1525
632 403 1549
629 399 1530
631 397 1521
645 403 1541
644 399 1526
656 403 1541
661 403 1538
669 405 1544
667 401 1527
671 400 1522
675 400 1520
682 401 1523
692 404 1531
692 401 1519
698 402 1520
707 404 1528
715 406 1531
713 402 1515
735 412 1549
729 405 1524
734 406 1523
740 406 1522
738 402 1506
734 397 1486
746 401 1499
744 398 1483
735 390 1453
746 393 1462
746 391 1452
754 393 1456
758 392 1453
764 393 1453
771 394 1454
768 390 1438
769 388 1429
780 391 1438
781 389 1430
780 387 1417
778 383 1402
756 370 1351
726 353 1288
711 344 1252
666 320 1164
590 282 1022
667 317 1148
-502 247 850
-577 284 982
-680 337 1167
-741 369 1281
-730 365 1272
-720 362 1264
-707 358 1251
-700 356 1247
-687 352 1234
-664 343 1203
-658 341 1200
-653 341 1200
-660 346 1222
-651 344 1214
-651 346 1224
-644 344 1221
-645 347 1232
-681 369 1312
-746 406 1447
-755 413 1476
-692 381 1363
-579 321 1150
-546 305 1093
-547 308 1103
-538 305 1094
-540 308 1108
-536 308 1109
-526 304 1095
-526 306 1105
-525 307 1112
-548 323 1171
-525 311 1130
-513 306 1113
-517 311 1131
-531 321 1172
-530 323 1180
-507 311 1138
-509 314 1151
-511 318 1165
-504 316 1160
-516 326 1198
-536 341 1255
-556 356 1312
-549 354 1307
-551 358 1323
-542 355 1313
-543 358 1327
-536 356 1322
-531 355 1320
-531 358 1333
-524 356 1327
-521 357 1332
-520 359 1340
-515 359 1339
-505 355 1326
-505 358 1339
-501 357 1339
-497 358 1342
-488 354 1330
-487 356 1339
-478 353 1327
-474 353 1329
-465 350 1318
-463 350 1323
-463 354 1337
-463 357 1351
-452 352 1332
-457 359 1360
-449 356 1350
-447 357 1356
-443 358 1359
-441 359 1367
-435 358 1362
-437 363 1382
-432 362 1382
-424 359 1369
-416 356 1359
-407 351 1344
-407 354 1357
-404 356 1363
-403 358 1374
-398 357 1371
-397 360 1384
-390 358 1376
-386 358 1377
-381 357 1374
-379 359 1384
-372 357 1376
-368 357 1376
-369 362 1397
-364 360 1393
-360 361 1394
-351 356 1379
-343 353 1366
-346 359 1393
-340 358 1388
-336 357 1387
-332 358 1389
-330 360 1400
-323 357 1388
-317 355 1381
-310 352 1370
-307 353 1374
-301 351 1369
-295 348 1359
-290 347 1355
-287 349 1363
-283 349 1364
-277 346 1354
-275 349 1366
-270 348 1362
-268 351 1373
-260 345 1352
-258 348 1364
-253 347 1359
-247 345 1352
-246 348 1365
-240 345 1355
-235 343 1349
-233 346 1361
-227 344 1353
-223 344 1355
-219 344 1355
-218 348 1373
-211 344 1356
-207 344 1358
-202 342 1347
-200 345 1362
-196 347 1368
-193 347 1369
-187 345 1362
-183 344 1357
-180 346 1367
-176 346 1368
-174 350 1385
-169 349 1381
-164 346 1371
-160 347 1375
-155 345 1366
-152 345 1369
-148 347 1376
-144 346 1372
-141 349 1386
-139 355 1411
-140 368 1462
-138 374 1485
-131 366 1454
-120 347 1378
-108 325 1293
-100 311 1235
-91 297 1178
-85 288 1145
-80 282 1121
-75 277 1099
-72 275 1094
-68 274 1088
-65 273 1084
-62 273 1085
-59 274 1090
-55 271 1076
-52 271 1079
-49 273 1085
-46 277 1102
-44 284 1131
-43 300 1193
-41 306 1220
-38 312 1243
-36 323 1288
-30 309 1233
-27 310 1235
-25 327 1303
-21 334 1334
-19 361 1441
-16 383 1531
-11 380 1517
-7 378 1510
-2 378 1509
1 383 1529
6 381 1524
10 383 1533
15 383 1533
19 382 1527
24 383 1532
28 377 1506
33 384 1536
37 383 1531
42 383 1533
46 384 1534
51 382 1529
55 382 1529
60 383 1529
64 382 1527
69 385 1541
73 384 1536
77 382 1526
82 380 1519
86 382 1525
90 379 1515
94 377 1507
98 376 1503
103 376 1502
108 378 1509
112 378 1510
116 376 1502
122 379 1515
126 378 1508
130 378 1508
135 380 1518
140 381 1520
145 381 1521
150 382 1527
155 384 1531
159 382 1524
160 375 1498
161 367 1466
171 379 1511
179 387 1542
183 386 1540
186 382 1523
191 384 1531
195 382 1523
200 383 1527
208 389 1549
210 384 1530
216 387 1541
219 384 1529
222 383 1523
225 379 1509
227 376 1495
234 379 1506
239 380 1511
244 381 1513
248 380 1510
252 380 1509
260 384 1527
260 377 1498
264 377 1497
267 376 1490
271 374 1485
280 381 1509
282 378 1498
287 379 1500
289 375 1486
295 376 1490
300 377 1494
305 378 1497
314 384 1518
318 383 1515
326 388 1532
328 384 1518
333 384 1517
334 381 1502
335 376 1484
339 376 1483
347 380 1497
349 377 1485
358 381 1501
364 384 1510
377 392 1541
379 389 1530
386 392 1539
390 391 1535
391 388 1522
395 387 1517
403 390 1530
410 392 1536
412 389 1525
414 388 1517
420 389 1522
423 387 1512
424 383 1498
429 385 1501
434 385 1502
436 382 1490
445 386 1506
452 388 1512
458 390 1517
466 393 1527
470 391 1521
480 396 1538
479 391 1518
490 396 1536
487 391 1514
496 394 1525
504 397 1535
509 397 1533
508 392 1516
516 394 1523
519 393 1516
535 402 1548
538 400 1541
538 397 1526
542 397 1525
544 394 1515
549 394 1513
557 397 1523
567 400 1533
565 396 1516
576 400 1530
576 397 1516
582 397 1517
592 401 1531
591 397 1512
602 401 1528
602 398 1515
606 398 1510
601 391 1484
618 399 1515
621 398 1508
625 397 1504
636 402 1518
636 398 1504
643 400 1509
647 399 1505
658 403 1517
659 401 1506
661 399 1500
663 397 1490
668 397 1489
679 401 1503
680 399 1492
689 401 1498
696 403 1501
699 401 1495
709 404 1504
720 408 1516
725 408 1514
731 409 1514
732 406 1504
725 400 1479
731 400 1478
745 405 1495
753 407 1500
742 398 1465
746 398 1461
736 390 1430
743 392 1434
745 390 1426
754 392 1432
751 388 1415
757 389 1416
769 393 1427
770 391 1419
775 391 1417
777 389 1409
785 391 1414
777 385 1389
780 384 1383
749 367 1318
714 348 1247
688 333 1191
633 305 1088
-623 309 1052
-756 376 1287
-766 384 1314
-742 374 1282
-728 369 1267
-709 361 1243
-698 358 1234
-688 355 1225
-674 349 1209
-664 346 1200
-655 344 1193
-652 344 1197
-650 345 1203
-649 347 1210
-638 343 1199
-646 349 1223
-632 344 1206
-664 364 1278
-722 397 1399
-756 419 1477
-707 394 1392
-628 352 1246
-563 318 1127
-548 312 1105
-540 309 1097
-544 314 1115
-541 314 1117
-533 311 1109
-519 305 1088
-518 307 1096
-548 326 1169
-529 317 1138
-539 326 1170
-525 319 1148
-499 306 1100
-512 316 1138
-511 317 1146
-511 319 1155
-505 318 1153
-508 322 1168
-526 336 1219
-539 347 1261
-552 357 1301
-547 357 1302
-542 356 1300
-541 358 1309
-529 353 1293
-528 355 1300
-529 358 1314
-521 356 1307
-509 351 1289
-509 353 1300
-507 354 1306
-510 360 1327
-501 356 1315
-500 358 1324
-498 360 1332
-490 357 1322
-479 352 1304
-478 354 1315
-470 351 1304
-466 351 1305
-462 351 1308
-461 353 1317
-456 353 1316
-456 356 1330
-453 356 1332
-450 357 1337
-445 357 1337
-445 360 1351
-438 357 1341
-435 359 1348
-433 360 1354
-428 359 1353
-425 360 1358
-418 358 1349
-410 354 1337
-404 352 1332
-403 355 1342
-401 358 1353
-400 360 1363
-397 361 1368
-393 361 1369
-385 358 1357
-379 356 1353
-373 354 1344
-370 355 1351
-368 357 1360
-367 360 1373
-363 360 1373
-359 360 1375
-355 360 1377
-345 355 1355
-344 357 1366
-340 358 1370
-340 362 1385
-332 358 1372
-326 356 1365
-325 359 1379
-319 357 1371
-314 356 1366
-305 350 1347
-304 353 1360
-297 350 1348
-294 351 1354
-289 350 1350
-285 350 1350
-277 346 1335
-276 349 1347
-273 350 1353
-268 349 1350
-262 347 1343
-259 348 1347
-255 348 1348
-254 352 1362
-243 343 1328
-243 348 1349
-238 347 1345
-234 347 1345
-228 344 1335
-227 348 1352
-221 345 1340
-220 350 1359
-213 344 1339
-209 345 1341
-206 346 1349
-201 345 1345
-196 342 1334
-195 347 1354
-190 347 1352
-187 348 1358
-181 345 1346
-177 344 1345
-175 349 1361
-172 351 1371
-167 348 1361
-164 350 1367
-158 347 1358
-154 346 1354
-150 346 1353
-146 347 1359
-142 347 1360
-140 350 1373
-137 354 1389
-138 367 1438
-137 374 1469
-129 365 1432
-117 342 1341
-107 325 1276
-98 309 1212
-91 297 1166
-85 290 1138
-79 283 1109
-75 278 1092
-71 277 1087
-67 273 1073
-64 274 1077
-61 274 1075
-58 274 1076
-54 273 1070
-51 272 1069
-48 274 1076
-46 279 1098
-44 285 1120
-43 299 1177
-40 303 1194
-37 309 1217
-35 324 1276
-30 308 1214
-26 308 1212
-24 324 1276
-22 343 1354
-19 359 1417
-15 379 1495
-11 380 1500
-7 377 1488
-2 378 1494
1 382 1506
6 383 1510
10 384 1518
14 382 1507
19 389 1537
24 386 1522
28 385 1522
32 384 1515
37 385 1518
42 389 1536
46 386 1524
50 381 1505
54 379 1497
59 381 1505
64 383 1514
68 386 1524
73 387 1527
77 382 1510
81 381 1506
85 379 1497
89 380 1499
94 379 1498
98 379 1496
103 381 1505
108 382 1506
111 379 1495
117 382 1507
121 383 1511
126 383 1510
130 382 1508
135 382 1508
140 383 1513
144 383 1511
149 385 1520
154 386 1521
158 385 1516
161 382 1506
164 378 1490
171 383 1507
175 383 1510
180 384 1513
184 383 1507
189 384 1514
195 387 1522
201 389 1531
205 389 1529
207 385 1513
212 384 1511
220 390 1536
222 387 1520
227 387 1521
230 385 1513
233 383 1503
237 381 1497
242 382 1500
247 383 1502
254 387 1517
259 387 1519
261 384 1504
260 376 1475
265 377 1477
266 371 1454
275 378 1480
280 379 1483
286 381 1490
290 381 1489
289 373 1459
298 380 1484
304 381 1490
309 382 1494
315 384 1499
321 385 1502
327 387 1511
330 386 1504
330 380 1480
332 377 1470
338 379 1474
344 381 1481
348 380 1480
358 386 1501
358 381 1482
366 386 1498
373 387 1504
377 388 1504
381 387 1501
384 385 1491
393 390 1509
396 388 1503
398 386 1492
402 385 1488
413 391 1511
415 388 1500
422 390 1508
426 390 1505
424 384 1481
432 387 1492
432 384 1477
437 384 1477
446 387 1490
452 389 1494
465 396 1521
468 395 1515
471 393 1507
479 396 1518
479 392 1501
487 395 1511
493 396 1513
499 397 1516
502 395 1509
497 388 1481
502 388 1480
512 392 1494
524 398 1514
530 399 1519
533 398 1511
538 398 1511
544 399 1513
545 396 1501
548 395 1497
559 399 1512
570 404 1526
562 395 1491
569 397 1497
573 396 1494
581 398 1500
589 401 1509
595 401 1509
595 398 1496
607 403 1512
603 397 1488
616 402 1507
616 399 1494
615 396 1479
627 401 1495
627 397 1481
632 398 1481
640 400 1488
652 404 1501
649 399 1483
656 401 1486
658 399 1478
661 398 1472
673 402 1486
671 398 1469
686 404 1491
683 400 1471
691 402 1477
690 398 1463
705 404 1482
710 404 1482
718 406 1485
713 401 1464
710 396 1446
725 402 1465
735 405 1473
728 398 1448
724 394 1429
732 396 1434
729 391 1416
732 391 1412
741 393 1417
745 392 1414
753 394 1418
751 390 1403
759 392 1408
762 391 1402
770 393 1406
774 393 1404
774 390 1391
779 391 1391
781 389 1383
782 387 1375
771 380 1345
720 353 1247
707 344 1214
-799 400 1350
-794 399 1350
-768 389 1316
-735 374 1269
-714 366 1243
-701 361 1229
-699 362 1235
-688 358 1224
-668 350 1197
-656 346 1186
-651 345 1185
-647 345 1187
-638 343 1180
-642 347 1195
-638 347 1198
-636 348 1203
-634 349 1209
-648 358 1244
-702 391 1359
-748 419 1460
-732 412 1440
-686 389 1361
-589 337 1178
-548 315 1104
-539 312 1095
-543 317 1111
-537 315 1109
-537 317 1116
-538 320 1129
-534 320 1130
-515 310 1098
-530 322 1139
-539 329 1168
-513 316 1122
-515 319 1134
-516 322 1147
-515 324 1154
-511 323 1154
-509 324 1159
-514 330 1182
-530 342 1227
-544 354 1272
-547 359 1290
-540 357 1285
-536 356 1285
-531 356 1284
-529 357 1292
-520 354 1281
-519 356 1290
-513 354 1286
-510 355 1291
-509 357 1298
-505 357 1301
-505 360 1312
-502 361 1317
-497 360 1315
-490 358 1310
-483 356 1301
-474 352 1291
-474 355 1301
-464 350 1287
-465 355 1303
-462 355 1306
-456 353 1302
-455 356 1312
-450 355 1311
-449 357 1320
-446 358 1326
-445 361 1335
-435 356 1320
-437 361 1338
-431 359 1333
-425 357 1327
-427 362 1348
-424 363 1352
-414 359 1336
-406 355 1323
-399 353 1316
-398 355 1326
-395 356 1331
-392 357 1336
-389 358 1340
-386 359 1344
-379 356 1337
-378 359 1347
-369 355 1332
-367 356 1338
-365 358 1348
-357 355 1335
-354 356 1340
-353 358 1349
-347 356 1344
-344 358 1350
-336 354 1336
-336 358 1352
-331 357 1351
-331 361 1366
-325 359 1359
-322 360 1364
-318 360 1365
-310 355 1348
-303 352 1337
-295 348 1322
-293 350 1329
-289 350 1332
-287 352 1340
-281 350 1334
-279 352 1340
-272 348 1329
-269 350 1335
-263 347 1325
-259 347 1325
-257 349 1334
-251 347 1328
-249 349 1337
-246 350 1341
-240 348 1332
-238 350 1342
-231 346 1326
-227 346 1326
-224 348 1334
-221 349 1340
-215 346 1331
-213 349 1340
-204 341 1312
-203 345 1327
-199 345 1329
-194 343 1320
-192 347 1337
-186 344 1325
-183 345 1330
-181 348 1343
-176 346 1336
-173 349 1347
-168 347 1338
-164 347 1340
-160 345 1333
-156 346 1337
-152 347 1339
-150 349 1351
-145 348 1346
-141 349 1349
-139 352 1361
-136 355 1376
-138 372 1443
-138 382 1479
-128 367 1423
-114 339 1314
-104 321 1246
-96 307 1191
-88 294 1139
-84 289 1120
-78 282 1091
-74 279 1083
-71 278 1077
-67 275 1066
-63 274 1064
-60 271 1051
-57 275 1066
-54 274 1062
-50 272 1056
-48 277 1077
-45 278 1080
-43 286 1110
-42 299 1163
-38 298 1157
-36 307 1193
-35 322 1251
-30 313 1218
-26 309 1203
-24 326 1270
-21 343 1334
-18 359 1399
-15 371 1448
-11 378 1472
-7 378 1475
-2 381 1485
1 380 1481
6 382 1490
10 388 1513
14 383 1495
19 387 1509
23 385 1501
28 388 1515
32 388 1513
37 387 1508
41 387 1511
45 385 1503
50 385 1501
55 387 1511
59 387 1511
63 387 1510
68 386 1507
71 382 1490
76 384 1498
80 380 1483
85 386 1506
89 383 1494
94 385 1501
98 382 1490
102 382 1488
107 384 1497
113 389 1515
116 382 1490
121 387 1508
126 386 1506
129 383 1491
134 385 1502
139 386 1506
144 389 1514
148 385 1501
152 385 1501
156 383 1491
159 381 1483
163 381 1482
169 384 1493
172 380 1480
177 382 1488
182 382 1486
186 382 1487
192 384 1494
197 385 1499
199 382 1483
203 381 1480
208 382 1486
214 385 1494
219 386 1500
224 387 1501
227 384 1489
232 386 1497
237 386 1499
240 383 1484
244 382 1482
251 387 1498
256 388 1502
256 381 1474
258 378 1462
260 374 1446
267 378 1463
271 376 1456
274 375 1448
280 378 1461
289 383 1481
294 385 1486
297 383 1477
304 386 1488
308 385 1486
312 384 1482
318 386 1488
321 385 1483
325 385 1481
326 380 1462
329 378 1455
336 382 1467
343 384 1477
346 383 1470
354 386 1482
356 383 1472
361 384 1474
368 387 1485
371 385 1477
378 388 1486
379 385 1473
384 385 1472
388 384 1468
397 389 1485
399 386 1476
402 385 1470
406 385 1469
420 393 1499
423 392 1493
426 391 1488
427 387 1474
423 380 1445
433 385 1463
443 390 1480
454 395 1498
459 395 1500
464 396 1501
464 392 1483
467 390 1477
475 393 1488
486 399 1506
488 396 1496
488 393 1482
493 393 1482
499 394 1484
505 395 1488
507 393 1480
510 392 1472
521 397 1490
528 399 1497
532 398 1493
537 399 1493
541 398 1491
542 395 1478
549 397 1484
558 400 1493
558 397 1480
567 400 1489
568 397 1478
570 396 1471
579 398 1479
585 399 1483
588 398 1476
591 397 1471
596 397 1470
601 397 1469
612 402 1483
610 397 1466
619 400 1475
621 398 1467
627 399 1467
631 399 1466
638 400 1469
641 399 1464
645 399 1460
648 398 1455
661 402 1470
667 403 1472
662 398 1450
672 401 1458
677 401 1458
684 402 1462
687 401 1455
697 404 1465
700 403 1458
705 404 1458
693 394 1422
697 393 1417
699 392 1412
707 394 1416
713 394 1416
718 395 1415
717 392 1402
727 395 1411
724 391 1394
731 392 1397
738 393 1400
744 394 1400
752 395 1403
748 391 1385
751 390 1380
762 394 1390
761 391 1378
765 391 1375
778 395 1388
777 392 1375
776 389 1363
777 387 1354
782 387 1354
769 379 1320
-805 408 1359
-772 393 1312
-748 383 1280
-729 376 1258
-709 368 1233
-696 363 1220
-690 362 1219
-673 355 1196
-664 352 1190
-648 346 1169
-644 346 1172
-639 345 1172
-644 350 1191
-634 346 1180
-636 350 1193
-633 350 1197
-621 346 1182
-636 356 1221
-689 388 1333
-739 419 1441
-736 419 1446
-719 413 1425
-659 381 1317
-571 332 1150
-546 320 1109
-536 316 1097
-537 319 1107
-537 321 1116
-535 322 1121
-524 318 1108
-527 322 1124
-524 322 1125
-523 323 1132
-517 322 1130
-521 326 1147
-509 321 1131
-507 322 1135
-509 326 1149
-515 332 1172
-521 338 1197
-542 354 1256
-543 357 1268
-540 358 1272
-536 358 1274
-535 360 1281
-525 356 1270
-530 362 1292
-522 359 1285
-510 354 1266
-505 353 1265
-511 360 1292
-502 356 1281
-500 357 1286
-498 359 1294
-496 360 1299
-493 361 1305
-485 358 1294
-485 361 1306
-474 356 1290
-472 358 1296
-465 356 1290
-463 357 1297
-457 355 1292
-449 352 1280
-448 355 1292
-442 353 1286
-448 360 1316
-444 361 1317
-434 356 1301
-435 360 1319
-430 359 1315
-425 359 1316
-422 359 1318
-425 365 1342
-426 370 1360
-413 362 1331
-401 355 1308
-399 357 1315
-393 354 1308
-395 360 1329
-388 358 1323
-386 360 1330
-382 359 1329
-376 358 1325
-372 358 1327
-365 354 1314
-364 357 1326
-357 355 1318
-354 355 1322
-352 358 1332
-353 363 1351
-347 361 1345
-340 358 1334
-338 359 1341
-331 356 1330
-331 360 1347
-324 357 1337
-317 355 1327
-312 353 1321
-306 350 1312
-299 347 1300
-291 342 1283
-293 349 1311
-287 347 1303
-285 349 1311
-281 349 1314
-280 352 1324
-273 348 1312
-270 350 1318
-268 352 1327
-261 348 1313
-258 349 1317
-253 348 1313
-251 350 1324
-245 348 1317
-243 350 1326
-240 352 1332
-233 347 1313
-231 350 1327
-225 347 1314
-223 350 1327
-219 349 1325
-213 347 1316
-210 347 1319
-204 345 1311
-200 344 1307
-198 347 1319
-193 346 1317
-190 348 1325
-186 347 1322
-183 348 1325
-179 348 1327
-174 347 1323
-170 347 1323
-166 346 1321
-163 349 1331
-160 349 1334
-156 349 1334
-151 348 1329
-148 349 1335
-144 350 1338
-141 351 1342
-137 353 1348
-136 358 1372
-139 378 1447
-138 388 1486
-126 367 1405
-113 340 1304
-104 323 1236
-94 304 1165
-89 298 1141
-82 288 1101
-78 285 1090
-74 282 1081
-70 279 1067
-66 274 1051
-63 275 1053
-60 275 1055
-56 273 1046
-53 272 1041
-50 271 1040
-47 275 1053
-45 281 1078
-43 288 1105
-42 299 1150
-38 296 1136
-36 307 1178
-34 320 1232
-29 310 1190
-26 310 1191
-24 327 1257
-21 338 1301
-18 361 1389
-15 377 1451
-11 381 1469
-7 388 1493
-2 385 1485
1 382 1472
6 378 1455
10 381 1466
14 381 1469
19 385 1484
23 387 1490
28 388 1495
32 385 1484
36 386 1487
41 385 1484
45 386 1487
49 383 1477
53 383 1477
58 387 1490
63 388 1497
68 389 1499
71 386 1488
76 387 1490
81 389 1498
85 388 1496
89 385 1485
93 384 1481
97 382 1473
101 381 1467
106 383 1477
111 386 1485
114 382 1473
119 384 1480
124 385 1483
129 388 1495
132 384 1477
137 385 1482
141 384 1478
146 385 1483
150 384 1479
153 380 1463
157 381 1464
161 380 1463
167 384 1476
171 382 1467
176 383 1472
182 388 1492
187 388 1491
190 385 1478
193 382 1466
197 383 1470
199 378 1451
204 379 1454
208 377 1448
211 376 1440
217 378 1451
223 382 1463
230 386 1478
234 385 1477
238 384 1471
242 384 1471
248 386 1479
252 386 1476
256 385 1472
258 381 1457
260 378 1444
264 377 1441
267 376 1435
274 380 1452
278 379 1448
285 382 1458
291 385 1468
294 383 1462
300 385 1468
306 387 1475
310 386 1470
308 379 1442
313 379 1444
316 378 1436
321 378 1437
328 381 1449
337 386 1468
333 377 1433
342 382 1451
350 387 1468
351 383 1451
357 385 1458
359 382 1447
369 387 1467
374 388 1467
375 385 1456
379 384 1451
385 386 1459
393 390 1471
399 391 1476
403 390 1470
407 390 1469
411 389 1466
413 387 1457
421 391 1469
422 387 1456
424 385 1447
432 388 1456
441 392 1472
442 389 1459
449 391 1466
456 393 1472
458 391 1465
465 394 1472
467 392 1463
471 391 1460
480 394 1470
482 392 1461
491 396 1476
490 391 1456
499 395 1469
503 394 1465
505 392 1456
514 396 1469
524 400 1484
531 402 1488
542 407 1506
537 399 1477
538 397 1465
546 399 1474
544 395 1456
555 399 1470
553 394 1452
560 396 1457
563 395 1451
566 394 1445
575 397 1454
574 393 1440
584 397 1453
594 400 1463
593 397 1448
608 404 1473
608 401 1460
608 398 1448
611 396 1441
619 399 1449
621 397 1441
621 394 1429
630 397 1437
631 395 1427
637 395 1428
645 397 1433
646 395 1424
655 398 1432
660 398 1431
667 399 1434
669 398 1428
679 401 1436
685 402 1439
675 394 1406
685 397 1416
691 397 1416
692 395 1406
688 390 1387
689 389 1379
696 390 1381
708 394 1395
709 392 1386
711 391 1378
712 389 1370
722 392 1379
725 391 1374
731 391 1373
741 394 1382
734 388 1358
747 393 1371
751 393 1370
755 392 1366
758 391 1361
765 393 1364
766 391 1355
772 392 1355
779 393 1358
782 392 1352
788 393 1352
-765 392 1290
-749 386 1272
-735 381 1257
-716 373 1235
-711 373 1235
-688 363 1204
-679 360 1197
-669 357 1189
-664 356 1188
-645 348 1164
-635 345 1154
-630 344 1153
-633 348 1168
-627 347 1167
-631 351 1183
-627 351 1184
-623 351 1187
-638 361 1224
-678 386 1312
-706 405 1376
-718 414 1411
-717 416 1420
-684 399 1364
-614 361 1236
-556 330 1128
-539 322 1102
-535 321 1102
-537 325 1116
-535 325 1120
-532 326 1122
-528 326 1124
-525 326 1128
-523 327 1132
-519 326 1132
-512 325 1128
-515 329 1143
-513 330 1148
-516 334 1165
-527 343 1198
-542 356 1244
-545 360 1260
-539 359 1258
-535 359 1259
-528 357 1254
-528 359 1264
-525 360 1269
-517 357 1261
-518 361 1275
-512 359 1271
-502 355 1258
-497 354 1256
-498 357 1269
-495 359 1274
-490 357 1271
-492 362 1288
-484 359 1279
-482 360 1285
-478 360 1287
-472 359 1283
-467 358 1283
-458 354 1270
-453 354 1268
-454 357 1284
-447 354 1274
-438 351 1262
-445 359 1294
-440 358 1292
-435 358 1291
-433 359 1298
-428 358 1296
-426 360 1303
-426 363 1315
-423 364 1322
-415 361 1310
-419 368 1336
-413 366 1330
-406 363 1321
-398 360 1311
-389 355 1295
-390 360 1314
-387 361 1318
-386 364 1329
-377 359 1312
-375 360 1319
-371 360 1321
-366 360 1318
-360 358 1314
-355 356 1308
-354 360 1323
-354 363 1336
-346 359 1322
-343 360 1326
-338 359 1325
-328 353 1303
-318 346 1278
-313 345 1274
-308 343 1269
-302 342 1264
-298 341 1263
-297 344 1273
-292 344 1273
-276 328 1217
-276 332 1233
-279 341 1265
-273 339 1258
-277 349 1295
-275 351 1305
-272 352 1310
-268 351 1307
-265 352 1312
-258 349 1301
-256 351 1311
-251 350 1305
-247 349 1302
-244 351 1311
-240 350 1310
-237 352 1317
-232 350 1308
-230 352 1319
-223 348 1303
-219 348 1302
-215 348 1305
-211 347 1302
-206 345 1293
-203 347 1302
-199 346 1300
-194 344 1293
-191 346 1301
-189 350 1315
-185 350 1315
-180 347 1307
-178 351 1321
-172 346 1304
-170 350 1319
-165 347 1309
-161 349 1315
-158 349 1317
-154 350 1319
-152 353 1332
-147 352 1327
-143 352 1331
-139 351 1327
-137 356 1347
-136 364 1377
-138 380 1438
-135 382 1447
-124 363 1375
-112 340 1286
-102 323 1221
-93 304 1151
-87 295 1116
-82 289 1094
-77 284 1075
-73 280 1059
-69 279 1055
-65 276 1044
-62 276 1045
-59 274 1039
-55 272 1030
-52 273 1035
-49 273 1035
-47 276 1047
-45 280 1063
-43 290 1098
-41 300 1137
-37 293 1111
-35 304 1152
-33 317 1203
-29 312 1185
-25 307 1164
-23 324 1231
-21 343 1303
-18 364 1383
-15 383 1457
-11 385 1464
-6 385 1466
-2 385 1464
1 383 1460
6 386 1469
10 386 1470
14 385 1467
19 384 1464
23 387 1473
27 383 1457
31 382 1453
36 385 1468
40 384 1463
45 386 1471
49 386 1471
53 386 1470
58 387 1473
62 388 1477
67 389 1480
71 386 1471
75 389 1480
81 393 1498
84 390 1484
88 387 1473
92 386 1471
95 381 1450
100 380 1447
104 381 1452
108 378 1439
112 378 1437
116 379 1441
122 382 1454
127 384 1463
129 379 1442
133 376 1431
137 376 1430
143 381 1451
147 380 1443
150 378 1435
154 378 1437
159 380 1442
164 382 1450
170 385 1462
174 384 1459
180 387 1470
186 390 1480
187 384 1456
191 383 1453
193 379 1438
198 380 1440
200 375 1420
202 372 1409
208 375 1419
214 377 1429
219 380 1438
226 383 1449
231 385 1456
233 380 1440
239 384 1453
244 385 1455
249 385 1456
252 383 1449
252 377 1424
255 375 1416
260 377 1422
263 375 1414
268 376 1418
274 378 1425
281 381 1438
288 385 1453
296 389 1467
301 391 1472
307 393 1480
305 385 1448
306 381 1432
310 380 1430
314 380 1427
321 382 1436
327 384 1443
328 381 1430
334 382 1433
343 388 1455
346 387 1449
350 386 1445
353 385 1441
355 382 1430
364 387 1448
368 386 1444
371 385 1437
376 385 1439
382 387 1445
387 388 1446
392 389 1448
395 387 1443
402 390 1451
408 391 1453
414 393 1461
420 394 1465
421 390 1449
429 393 1460
434 395 1464
441 396 1469
439 391 1449
442 390 1443
446 389 1438
455 393 1452
460 393 1453
464 393 1451
469 394 1452
473 393 1448
478 394 1449
485 395 1455
488 394 1450
493 395 1450
495 393 1443
502 394 1446
513 400 1466
517 399 1463
523 400 1464
529 401 1468
529 398 1454
531 396 1447
535 396 1443
543 398 1450
541 393 1431
548 395 1436
555 397 1443
556 394 1431
558 393 1425
560 391 1417
570 395 1428
578 397 1435
582 397 1434
590 399 1440
594 399 1438
599 399 1436
605 400 1438
601 395 1417
604 393 1411
611 395 1415
613 393 1408
615 392 1400
618 391 1396
620 389 1388
632 394 1403
632 391 1393
637 391 1392
646 394 1399
654 396 1406
656 395 1398
666 398 1408
654 388 1372
665 392 1383
674 394 1390
674 392 1379
678 392 1378
681 391 1373
681 388 1361
688 390 1365
691 389 1360
693 387 1352
693 385 1343
706 390 1357
716 393 1366
716 391 1356
730 395 1371
732 394 1365
733 392 1355
745 396 1368
746 394 1358
752 395 1358
755 394 1354
759 394 1351
758 391 1340
767 393 1344
763 389 1328
777 394 1342
777 391 1332
-739 383 1244
-733 382 1245
-720 377 1231
-713 376 1229
-686 364 1190
-678 362 1186
-674 362 1188
-661 356 1173
-653 355 1169
-641 350 1155
-639 351 1161
-636 351 1164
-623 346 1149
-625 349 1162
-621 349 1164
-620 351 1171
-615 350 1170
-636 364 1219
-671 387 1297
-691 400 1345
-696 406 1366
-698 410 1382
-669 395 1334
-642 382 1290
-610 365 1237
-570 344 1164
-537 326 1106
-534 326 1108
-533 328 1116
-529 328 1117
-527 329 1121
-526 330 1128
-522 330 1130
-514 327 1121
-520 333 1143
-523 338 1160
-517 336 1155
-525 343 1183
-547 360 1244
-544 361 1248
-542 362 1253
-535 360 1248
-531 360 1250
-527 360 1250
-520 358 1245
-515 357 1244
-519 363 1265
-507 357 1247
-501 355 1241
-502 359 1257
-499 360 1259
-488 355 1244
-488 357 1255
-488 360 1267
-481 358 1259
-477 358 1261
-474 359 1265
-470 358 1264
-467 359 1268
-463 359 1270
-457 357 1266
-452 356 1263
-446 355 1258
-443 355 1263
-445 360 1282
-436 356 1267
-436 359 1280
-434 361 1288
-432 362 1294
-429 363 1297
-428 366 1308
-423 365 1307
-420 366 1312
-411 361 1295
-412 366 1314
-411 368 1324
-400 362 1301
-393 359 1294
-386 356 1284
-387 361 1300
-385 363 1311
-382 364 1313
-373 359 1298
-370 360 1301
-364 358 1297
-362 360 1304
-354 356 1290
-354 359 1303
-348 357 1297
-348 361 1312
-342 359 1307
-338 360 1309
-334 360 1310
-316 344 1255
-307 339 1234
-300 334 1219
-300 339 1239
-309 353 1292
-297 343 1256
-298 349 1279
-285 339 1240
-275 331 1214
-282 343 1259
-269 333 1219
-273 342 1256
-275 349 1283
-274 352 1295
-269 351 1292
-265 351 1291
-261 351 1293
-259 353 1300
-255 353 1302
-250 351 1295
-246 352 1300
-243 352 1301
-236 349 1289
-235 353 1303
-230 351 1299
-226 351 1297
-220 348 1286
-218 349 1294
-212 347 1286
-210 349 1293
-205 347 1288
-201 348 1291
-196 346 1284
-192 345 1282
-191 349 1298
-187 350 1300
-182 348 1293
-180 351 1305
-176 350 1304
-172 350 1302
-168 350 1304
-164 350 1304
-161 351 1308
-157 351 1307
-153 351 1310
-148 349 1302
-145 350 1307
-141 349 1304
-137 351 1310
-135 355 1325
-136 368 1375
-137 381 1425
-133 381 1426
-121 358 1340
-109 335 1251
-100 319 1194
-92 304 1138
-86 296 1105
-81 289 1081
-76 285 1065
-72 281 1050
-69 280 1046
-65 276 1033
-61 276 1031
-58 276 1032
-55 273 1021
-52 275 1029
-49 276 1033
-46 277 1036
-45 284 1065
-42 290 1086
-40 295 1107
-36 293 1098
-34 301 1127
-33 318 1193
-28 310 1164
-25 306 1148
-23 326 1226
-21 345 1295
-18 360 1353
-15 382 1437
-10 384 1445
-6 384 1446
-2 386 1451
1 387 1455
6 387 1455
10 387 1456
14 386 1451
18 387 1456
23 387 1456
27 384 1445
31 382 1439
36 385 1449
40 387 1455
44 385 1451
49 388 1459
53 388 1459
57 383 1441
61 384 1444
66 389 1463
71 391 1470
74 387 1457
79 390 1466
83 388 1459
88 388 1459
90 381 1433
92 372 1400
97 373 1404
101 375 1409
106 378 1421
111 379 1425
116 382 1436
121 385 1446
125 384 1445
128 379 1424
131 377 1416
136 380 1426
142 382 1437
147 384 1443
148 377 1415
153 380 1426
158 381 1429
165 387 1453
167 382 1433
171 381 1430
175 382 1432
181 384 1440
184 381 1430
190 385 1442
194 385 1445
200 387 1450
201 382 1430
203 377 1412
207 377 1412
212 379 1418
218 382 1428
222 382 1428
228 383 1434
234 386 1443
240 389 1453
244 389 1455
247 387 1445
246 378 1412
247 374 1396
253 376 1404
257 376 1403
262 377 1407
267 379 1412
275 383 1429
280 385 1433
286 387 1442
290 386 1437
297 389 1448
304 393 1461
305 389 1447
306 384 1428
310 384 1427
314 384 1425
319 384 1427
323 385 1427
324 381 1411
330 382 1417
334 382 1416
344 388 1436
346 385 1426
349 385 1423
354 385 1424
358 385 1422
364 386 1427
365 383 1413
371 384 1418
374 383 1413
379 384 1414
387 388 1429
389 385 1419
400 392 1441
402 389 1431
405 388 1425
409 388 1425
422 396 1452
425 395 1448
430 395 1447
436 397 1453
434 391 1431
438 390 1426
443 391 1428
449 392 1431
457 395 1441
464 397 1449
462 392 1430
467 393 1429
473 394 1433
479 395 1437
490 400 1455
487 395 1433
498 399 1449
499 397 1438
506 399 1443
507 396 1432
514 398 1440
518 397 1435
522 397 1433
518 391 1409
523 391 1410
529 393 1413
534 393 1411
539 393 1412
547 395 1419
547 393 1407
553 394 1410
552 390 1395
558 391 1398
563 391 1397
571 394 1405
577 395 1406
584 397 1412
578 389 1385
592 396 1407
589 391 1386
594 391 1387
600 392 1389
599 389 1374
599 386 1362
607 389 1371
609 387 1362
620 391 1377
625 391 1374
628 390 1371
633 391 1371
639 392 1372
645 393 1374
657 397 1388
648 389 1358
646 385 1343
657 389 1353
660 388 1350
675 394 1370
672 390 1354
673 388 1344
678 389 1343
683 389 1342
696 393 1357
696 391 1347
702 392 1348
704 391 1341
710 391 1342
721 395 1352
725 394 1349
723 391 1336
732 394 1342
738 394 1342
736 391 1329
749 395 1342
748 393 1331
758 396 1339
747 388 1309
761 392 1322
764 391 1318
774 395 1326
-720 377 1211
-706 372 1197
-708 375 1209
-698 372 1201
-688 368 1192
-673 363 1176
-662 359 1166
-646 352 1145
-638 350 1140
-636 351 1146
-628 349 1141
-627 350 1146
-625 351 1152
-621 351 1153
-615 350 1150
-613 351 1156
-621 357 1180
-648 375 1241
-672 391 1297
-693 406 1349
-689 406 1352
-678 402 1340
-679 405 1352
-658 395 1321
-632 383 1280
-611 372 1246
-581 356 1195
-553 341 1146
-536 333 1120
-535 335 1129
-529 334 1125
-527 335 1130
-524 335 1131
-521 335 1136
-520 337 1142
-517 337 1146
-525 345 1172
-540 357 1217
-555 369 1260
-548 368 1256
-532 359 1229
-528 360 1231
-521 358 1226
-520 359 1233
-516 359 1233
-511 359 1234
-507 358 1233
-506 360 1244
-501 360 1242
-496 358 1239
-491 358 1240
-482 354 1227
-485 359 1245
-476 355 1234
-479 360 1253
-471 357 1244
-466 357 1243
-463 357 1246
-464 361 1260
-458 359 1255
-453 358 1252
-444 354 1242
-444 357 1254
-438 356 1249
-440 360 1265
-434 358 1260
-435 362 1276
-434 365 1286
-426 362 1276
-423 362 1278
-423 366 1293
-426 371 1314
-419 369 1306
-413 367 1302
-407 365 1296
-406 368 1306
-396 363 1289
-388 358 1275
-384 359 1278
-382 360 1283
-383 365 1300
-374 360 1285
-371 361 1289
-367 361 1290
-363 361 1291
-358 360 1289
-354 359 1288
-348 358 1283
-345 358 1287
-341 359 1288
-341 362 1303
-337 362 1302
-328 357 1284
-313 344 1240
-303 338 1219
-310 350 1262
-304 347 1253
-287 332 1197
-287 336 1215
-292 346 1250
-288 346 1252
-270 329 1192
-278 343 1241
-283 353 1281
-271 344 1247
-271 348 1264
-269 351 1274
-266 351 1275
-262 351 1277
-258 351 1277
-255 353 1284
-251 352 1281
-248 353 1285
-243 352 1283
-239 351 1280
-236 352 1286
-232 351 1284
-228 351 1283
-223 350 1281
-220 351 1285
-215 350 1281
-211 349 1277
-205 346 1268
-202 347 1272
-200 350 1284
-196 349 1279
-193 351 1287
-188 348 1277
-187 354 1299
-182 351 1291
-178 350 1288
-175 352 1295
-171 352 1294
-166 350 1287
-163 351 1293
-159 352 1297
-156 353 1299
-152 353 1303
-148 352 1297
-145 355 1308
-139 349 1288
-136 352 1298
-134 356 1313
-132 362 1339
-134 378 1396
-131 381 1408
-117 351 1297
-107 334 1233
-98 318 1175
-91 305 1128
-85 297 1096
-79 288 1065
-75 283 1045
-71 280 1035
-68 280 1034
-64 276 1019
-61 277 1025
-57 274 1012
-55 275 1018
-52 276 1020
-49 275 1018
-46 276 1021
-44 281 1040
-42 293 1086
-40 296 1096
-36 291 1077
-34 303 1122
-32 315 1168
-28 312 1156
-25 310 1149
-22 325 1205
-20 341 1264
-17 358 1329
-14 380 1412
-10 383 1424
-6 383 1423
-2 383 1425
1 384 1427
6 386 1436
10 387 1440
14 383 1423
18 384 1429
22 381 1415
26 378 1406
30 379 1410
35 383 1424
39 381 1417
43 382 1422
48 385 1431
52 388 1442
57 387 1438
61 386 1435
65 386 1435
69 386 1434
73 382 1419
77 385 1431
82 386 1435
86 384 1428
89 379 1408
93 380 1411
97 380 1413
101 378 1405
105 377 1401
110 380 1411
115 384 1427
120 385 1432
124 385 1431
127 382 1419
131 380 1410
136 381 1416
138 378 1402
144 383 1420
147 379 1407
151 377 1398
155 378 1404
161 382 1416
166 383 1420
170 383 1420
173 379 1407
178 382 1416
184 386 1431
187 384 1424
193 386 1429
196 384 1423
199 381 1412
201 378 1398
205 377 1394
209 377 1395
213 376 1392
219 379 1403
227 386 1427
230 384 1421
237 389 1439
240 386 1427
241 381 1405
239 371 1370
242 370 1365
247 371 1369
256 378 1395
262 381 1404
269 385 1417
273 385 1416
277 385 1417
283 387 1424
287 386 1420
293 388 1428
299 391 1438
303 390 1434
303 385 1415
309 387 1422
311 385 1412
319 389 1428
324 389 1427
325 386 1414
328 384 1406
333 385 1409
335 382 1399
345 389 1422
349 388 1419
352 387 1415
356 387 1414
358 385 1404
361 383 1397
362 379 1383
371 385 1402
378 388 1411
383 388 1411
382 382 1391
393 389 1414
402 394 1430
401 389 1412
407 390 1414
413 391 1419
418 392 1420
421 391 1415
422 388 1405
424 386 1396
428 386 1393
432 385 1391
445 393 1417
449 393 1416
453 393 1415
459 394 1417
460 391 1407
461 388 1396
466 389 1396
475 392 1408
475 389 1395
482 391 1403
490 394 1409
490 391 1398
495 391 1398
500 391 1397
507 393 1403
512 394 1405
512 391 1391
514 388 1382
521 390 1388
518 385 1368
529 390 1384
533 390 1382
535 388 1375
542 390 1381
544 388 1373
546 387 1365
553 389 1371
557 388 1369
568 393 1384
568 390 1371
575 392 1376
578 391 1371
583 391 1372
584 389 1362
593 392 1371
592 389 1358
593 386 1349
596 385 1344
606 389 1354
611 389 1354
610 386 1342
617 388 1346
624 389 1349
624 387 1339
634 390 1348
635 388 1339
648 393 1356
645 389 1340
653 391 1344
651 387 1331
656 387 1329
669 393 1345
668 390 1333
675 391 1337
683 393 1340
686 392 1336
691 393 1336
694 392 1332
693 389 1318
696 388 1314
706 391 1324
710 391 1321
718 393 1326
718 391 1316
734 397 1333
737 396 1329
739 395 1323
739 392 1313
746 393 1315
759 398 1328
759 396 1318
760 394 1310
763 393 1305
-706 374 1188
-685 365 1161
-693 371 1182
-686 370 1180
-676 366 1170
-666 363 1162
-650 357 1144
-640 353 1134
-635 352 1134
-632 353 1138
-625 351 1133
-623 352 1139
-615 350 1133
-615 351 1141
-611 351 1143
-618 357 1164
-622 362 1182
-646 378 1236
-669 394 1290
-684 405 1330
-684 408 1340
-666 400 1316
-663 400 1320
-652 396 1309
-644 394 1303
-623 384 1270
-611 378 1255
-577 360 1196
-550 346 1149
-533 338 1124
-527 336 1118
-527 338 1128
-526 340 1136
-521 339 1134
-516 338 1132
-519 342 1149
-518 344 1157
-528 353 1187
-535 360 1214
-533 361 1219
-521 356 1203
-515 355 1200
-510 353 1198
-511 357 1212
-502 353 1200
-498 353 1201
-502 358 1220
-493 355 1209
-493 357 1220
-487 356 1218
-484 357 1220
-482 358 1225
-480 359 1231
-481 363 1246
-471 358 1232
-469 359 1237
-461 356 1227
-459 358 1234
-459 361 1245
-449 356 1231
-447 357 1236
-439 354 1226
-439 357 1237
-434 356 1234
-429 355 1233
-430 359 1247
-426 359 1250
-425 361 1258
-421 361 1259
-419 363 1267
-417 364 1272
-423 373 1304
-418 372 1304
-407 366 1282
-407 369 1296
-400 366 1287
-390 361 1268
-384 359 1261
-382 361 1271
-380 362 1275
-375 361 1273
-375 365 1287
-368 362 1277
-364 362 1279
-362 364 1287
-355 361 1278
-350 359 1272
-344 357 1266
-342 359 1274
-338 359 1275
-337 362 1286
-330 359 1275
-327 360 1279
-319 355 1266
-314 354 1262
-308 352 1254
-306 353 1260
-300 350 1250
-296 350 1252
-290 347 1242
-297 361 1290
-278 342 1225
-274 342 1224
-274 346 1239
-270 346 1239
-269 349 1253
-266 351 1260
-261 349 1253
-260 352 1266
-256 352 1264
-254 354 1275
-248 352 1267
-244 351 1266
-240 350 1263
-238 354 1276
-234 354 1276
-227 348 1257
-225 351 1267
-224 356 1285
-217 350 1266
-215 353 1276
-211 353 1277
-206 351 1273
-202 350 1267
-197 349 1264
-194 350 1270
-191 351 1273
-186 350 1269
-184 353 1280
-179 351 1274
-176 351 1276
-172 350 1274
-170 355 1292
-166 354 1287
-161 351 1276
-158 353 1283
-153 350 1275
-151 354 1288
-145 349 1271
-144 355 1295
-139 354 1292
-137 357 1303
-132 356 1297
-131 362 1323
-131 372 1360
-126 372 1359
-115 350 1277
-106 333 1217
-96 315 1149
-89 304 1109
-84 297 1085
-79 289 1054
-74 285 1039
-70 280 1024
-67 279 1020
-63 277 1011
-60 276 1010
-57 277 1014
-54 273 1000
-51 275 1005
-48 276 1009
-45 278 1016
-43 283 1034
-42 292 1070
-39 293 1071
-35 289 1058
-33 301 1102
-32 317 1162
-28 312 1142
-24 306 1123
-22 320 1173
-19 337 1238
-17 355 1305
-14 379 1391
-10 386 1417
-6 387 1421
-2 385 1415
1 384 1409
6 387 1423
10 387 1422
14 390 1433
18 388 1426
22 382 1405
26 380 1397
31 384 1411
35 385 1414
39 388 1427
43 385 1414
48 388 1426
52 387 1422
56 388 1427
60 386 1421
63 378 1390
67 377 1386
71 376 1382
75 377 1386
80 381 1402
85 386 1419
89 384 1412
94 388 1427
99 391 1436
102 385 1416
104 377 1385
109 379 1391
114 382 1402
117 381 1399
121 380 1395
126 380 1397
129 378 1386
132 375 1377
138 379 1391
141 376 1380
146 380 1394
149 378 1386
153 375 1376
157 375 1376
162 377 1384
166 377 1383
169 376 1378
174 377 1380
177 376 1377
182 377 1381
185 374 1371
192 380 1390
195 377 1380
199 378 1382
202 376 1374
204 372 1361
210 375 1369
212 371 1355
222 382 1395
225 379 1386
231 382 1396
233 379 1385
234 374 1366
237 373 1359
240 370 1351
244 371 1352
250 373 1360
257 379 1379
262 380 1383
265 378 1377
271 381 1385
278 384 1397
280 381 1384
286 384 1396
292 386 1401
292 381 1382
296 380 1380
305 386 1399
304 380 1377
312 384 1394
320 389 1411
321 385 1394
324 384 1390
331 387 1400
337 389 1407
339 387 1398
343 386 1396
348 386 1395
351 385 1390
352 382 1379
356 382 1375
363 385 1386
367 385 1386
371 384 1383
375 384 1383
380 385 1383
383 384 1378
387 384 1377
389 381 1367
397 385 1379
404 388 1389
407 386 1382
413 388 1387
415 385 1378
418 385 1375
421 384 1370
427 385 1374
435 388 1385
438 388 1381
439 384 1368
445 386 1373
452 388 1379
450 383 1361
455 384 1362
459 384 1361
470 389 1378
472 387 1372
478 388 1373
479 386 1365
485 387 1366
486 385 1357
496 389 1372
495 385 1357
503 388 1365
498 381 1338
501 380 1335
512 385 1351
514 383 1343
518 383 1341
527 387 1354
529 385 1346
539 389 1360
545 390 1363
543 386 1346
545 385 1339
556 389 1354
561 389 1353
566 390 1353
563 385 1334
569 386 1338
575 387 1340
577 386 1333
583 387 1336
582 383 1322
583 381 1313
594 386 1327
596 384 1320
606 388 1331
610 387 1328
614 388 1327
621 389 1331
621 387 1321
636 393 1340
642 394 1343
641 391 1330
644 390 1324
647 389 1320
652 390 1320
652 387 1310
656 387 1307
660 387 1305
669 389 1311
668 386 1301
681 391 1316
686 392 1315
688 390 1308
693 391 1307
700 392 1311
695 387 1292
706 391 1302
713 392 1304
715 391 1299
728 396 1312
727 393 1300
733 393 1300
742 396 1308
752 399 1315
741 391 1286
750 393 1292
765 399 1309
-712 381 1196
-700 377 1184
-701 380 1196
-681 371 1171
-663 363 1148
-661 364 1152
-647 358 1137
-637 355 1128
-628 352 1120
-619 349 1113
-622 353 1127
-621 355 1134
-614 353 1130
-611 353 1134
-605 352 1131
-619 362 1165
-632 372 1199
-653 386 1249
-662 394 1275
-674 404 1309
-665 401 1301
-655 397 1293
-662 404 1316
-655 402 1313
-647 400 1308
-622 387 1267
-602 377 1236
-580 366 1201
-543 345 1134
-533 341 1122
-527 340 1119
-526 341 1125
-521 340 1124
-525 345 1142
-515 341 1129
-516 344 1140
-514 345 1146
-513 347 1154
-514 350 1166
-516 354 1180
-509 352 1175
-505 351 1175
-504 353 1184
-497 351 1177
-496 353 1184
-488 350 1176
-488 352 1186
-489 356 1198
-480 352 1189
-480 354 1197
-480 357 1209
-474 356 1205
-469 355 1203
-469 358 1214
-468 360 1223
-461 357 1216
-459 359 1222
-458 361 1231
-453 360 1228
-453 363 1240
-445 359 1229
-432 352 1206
-431 355 1215
-428 355 1218
-429 359 1232
-423 357 1228
-422 360 1238
-420 361 1244
-414 359 1238
-413 362 1248
-412 364 1256
-414 369 1275
-411 370 1281
-403 366 1268
-397 364 1262
-395 366 1269
-387 362 1256
-382 361 1255
-379 362 1260
-374 360 1255
-371 362 1260
-369 363 1267
-366 364 1270
-362 364 1271
-356 362 1266
-352 362 1266
-349 363 1270
-338 355 1245
-341 362 1271
-338 363 1273
-333 361 1269
-328 361 1269
-324 361 1268
-319 359 1262
-316 360 1268
-313 361 1272
-307 359 1265
-303 358 1263
-294 352 1242
-290 352 1242
-286 351 1241
-280 348 1232
-278 351 1241
-272 348 1233
-270 349 1238
-267 351 1244
-265 353 1253
-261 353 1255
-257 353 1253
-253 352 1250
-251 355 1262
-245 351 1250
-243 354 1261
-238 352 1256
-235 353 1260
-231 353 1258
-225 350 1248
-224 353 1259
-219 351 1254
-216 353 1262
-211 351 1254
-208 351 1257
-205 354 1266
-199 349 1250
-197 351 1259
-193 352 1261
-190 352 1264
-185 351 1260
-182 353 1265
-179 353 1266
-175 354 1270
-171 352 1265
-167 353 1268
-163 352 1266
-159 352 1265
-155 350 1258
-153 354 1275
-149 354 1275
-146 355 1279
-142 355 1280
-139 357 1286
-134 355 1281
-131 355 1282
-127 357 1287
-127 366 1322
-121 360 1299
-112 346 1251
-102 326 1178
-94 310 1120
-88 302 1091
-83 296 1069
-77 287 1035
-73 283 1023
-69 279 1007
-65 277 1000
-63 277 1002
-59 276 996
-57 277 1000
-53 275 994
-51 278 1003
-47 274 991
-45 277 1002
-43 284 1028
-42 294 1066
-38 292 1058
-35 290 1048
-32 296 1072
-31 315 1142
-27 312 1129
-24 306 1107
-21 319 1157
-19 337 1221
-16 351 1273
-13 370 1345
-10 376 1366
-6 380 1382
-2 382 1387
1 388 1408
6 382 1389
10 386 1401
14 389 1412
18 388 1409
22 378 1375
26 379 1378
30 380 1382
35 387 1407
39 389 1413
44 392 1425
48 390 1419
52 388 1411
54 378 1375
58 375 1362
62 374 1358
66 374 1359
70 376 1365
75 380 1382
79 381 1385
85 387 1407
89 388 1409
94 391 1420
98 392 1425
101 386 1401
103 378 1373
107 378 1373
111 376 1367
115 377 1369
119 375 1363
122 374 1358
126 374 1355
130 373 1352
132 369 1337
140 378 1371
143 374 1358
148 378 1370
151 376 1363
155 376 1361
160 377 1366
163 374 1356
166 372 1348
172 376 1362
174 372 1346
176 368 1333
179 366 1325
183 365 1322
191 374 1352
193 370 1339
200 377 1361
201 370 1336
206 373 1347
209 370 1338
216 375 1354
220 375 1353
225 378 1363
228 374 1351
230 371 1339
231 368 1325
235 366 1320
240 368 1327
249 376 1356
255 379 1365
257 376 1353
260 374 1346
265 376 1354
269 376 1352
273 375 1348
278 377 1354
283 378 1356
288 380 1363
291 378 1356
295 377 1353
296 374 1340
302 376 1349
304 373 1337
310 376 1345
315 376 1347
324 383 1369
328 383 1369
332 382 1365
335 382 1362
339 380 1358
340 378 1347
340 373 1330
351 381 1356
354 379 1351
358 379 1349
359 376 1337
367 380 1349
372 381 1353
379 383 1360
384 385 1365
388 384 1362
392 384 1361
395 383 1357
398 381 1350
401 381 1347
400 376 1329
410 381 1346
417 384 1355
417 380 1342
426 385 1355
425 380 1339
424 375 1320
429 377 1324
434 377 1324
440 378 1329
447 381 1337
448 378 1326
450 376 1318
459 381 1332
464 381 1333
466 380 1327
471 380 1326
483 387 1349
480 381 1326
484 380 1324
491 383 1332
496 384 1333
500 383 1331
505 384 1332
506 381 1321
509 380 1317
519 385 1331
517 380 1313
525 383 1321
529 383 1320
528 379 1307
543 387 1333
539 381 1310
548 384 1320
554 386 1324
559 386 1323
561 385 1318
565 385 1316
570 385 1315
577 387 1321
578 385 1311
583 385 1311
583 383 1301
588 383 1302
596 385 1307
605 389 1317
607 387 1311
607 385 1300
619 389 1314
626 391 1318
631 391 1318
635 391 1315
637 390 1309
637 387 1299
643 389 1301
648 388 1299
655 391 1305
651 385 1285
658 387 1289
662 387 1288
673 391 1298
673 388 1288
681 390 1293
687 392 1295
691 391 1293
704 396 1307
702 393 1294
707 393 1292
712 393 1291
721 396 1299
730 399 1305
728 395 1291
731 394 1286
742 398 1297
743 396 1288
747 396 1284
757 399 1294
-729 394 1223
