VERSION 0.7
FIELDS x y z
SIZE 4 4 4
TYPE I I I
COUNT 1 1 1
WIDTH 4057
HEIGHT 1
VIEWPOINT 0.0 0.0 0.0 1.0 0.0 0.0 0.0
POINTS 4057
DATA ascii
130 107 301
143 117 330
134 109 308
139 112 315
144 115 324
144 115 323
153 121 339
148 116 325
157 122 342
160 123 346
152 117 326
159 121 339
157 119 331
150 112 313
161 120 334
166 123 342
155 114 316
164 120 332
157 114 316
170 122 339
159 114 314
173 123 340
163 115 316
171 120 330
161 112 307
185 128 352
190 131 359
184 126 344
172 117 319
174 118 321
189 127 345
184 123 334
181 120 326
176 116 315
176 115 312
189 123 332
179 115 311
188 121 326
186 119 320
191 121 325
188 118 317
188 118 316
184 115 306
198 123 328
198 122 325
-173 112 285
-193 125 321
-177 116 297
-177 116 300
-190 125 323
-177 117 303
-176 117 303
-189 127 329
-189 127 332
-192 130 339
-189 129 337
-192 132 346
-178 123 323
-163 114 298
-171 120 314
-177 125 328
-162 115 304
-152 109 287
-161 116 307
-168 121 321
-159 116 307
-160 117 311
-160 118 314
-141 105 280
-148 111 296
-107 82 216
-112 86 228
-94 73 193
-123 95 253
-121 95 252
-134 105 281
-120 95 255
-136 108 290
-163 129 351
-131 105 284
-158 127 345
-151 122 332
-150 123 335
-136 112 306
-146 121 330
-142 118 324
-151 127 347
-146 124 339
-130 111 305
-139 120 330
-137 119 326
-134 117 323
-124 110 302
-126 112 310
-137 123 340
-132 119 329
-138 125 348
-131 120 332
-129 119 330
-125 117 324
-136 128 357
-126 119 333
-118 113 315
-130 125 349
-121 118 329
-119 117 326
-122 121 339
-123 122 344
-123 124 349
-114 116 325
-116 119 336
-114 118 333
-117 123 346
-111 117 330
-104 111 314
-109 117 331
-105 114 323
-104 114 323
-105 116 329
-109 122 346
-101 114 323
-101 115 327
-86 100 283
-78 92 260
-94 111 316
-78 94 267
-96 115 329
-86 105 299
-97 119 340
-92 115 328
-104 130 374
-100 127 365
-89 114 328
-105 136 393
-92 120 346
-102 134 388
-92 124 358
-94 128 370
-95 131 378
-96 133 385
-92 129 374
-84 121 349
-90 130 377
-85 125 362
-82 122 354
-80 121 350
-82 124 362
-78 121 353
-77 121 351
-75 119 346
-76 122 355
-76 124 360
-74 123 357
-77 130 379
-71 121 354
-68 119 348
-64 113 330
-68 122 356
-72 130 382
-64 119 348
-70 131 383
-66 127 371
-65 127 373
-64 127 372
-64 129 380
-61 125 368
-60 126 370
-60 128 377
-60 130 381
-59 131 385
-58 131 385
-53 123 363
-57 135 398
-54 131 387
-54 132 389
-52 131 386
-53 136 403
-51 134 396
-52 139 412
-47 129 383
-47 134 397
-46 134 396
-44 131 389
-44 135 400
-44 137 406
-39 128 379
-40 133 395
-37 127 378
-37 132 391
-35 130 386
-33 127 376
-32 128 380
-28 117 346
-29 122 363
-25 113 335
-27 123 364
-24 118 350
-23 119 352
-22 118 351
-21 120 355
-21 123 365
-21 129 385
-18 119 353
-18 126 375
-17 124 369
-14 112 333
-13 113 335
-12 110 327
-11 112 331
-10 117 348
-9 114 338
-8 111 330
-7 114 340
-6 113 337
-5 112 333
-4 113 335
-2 107 317
-2 109 323
0 90 265
0 85 252
0 107 319
1 108 322
2 113 337
3 119 353
4 107 318
5 115 343
6 101 300
7 107 317
8 105 312
9 104 309
11 115 341
13 128 381
13 120 359
14 114 341
12 94 278
15 109 324
16 108 322
17 110 327
18 110 327
19 107 318
20 107 319
21 110 328
22 109 325
23 108 321
24 108 321
25 108 321
26 108 322
28 114 338
29 113 336
29 112 331
31 115 341
32 115 340
37 128 380
38 126 375
37 121 359
41 131 391
43 132 393
42 124 370
45 132 392
45 128 382
47 130 387
49 134 398
48 126 374
53 136 405
51 128 382
53 131 391
53 127 379
55 128 381
56 129 384
57 128 381
58 127 377
61 132 392
59 125 372
61 126 375
62 127 376
64 128 379
63 123 365
66 127 377
63 119 353
68 128 378
68 124 368
68 123 363
66 118 347
67 118 347
66 114 336
52 87 254
61 101 295
56 91 266
50 79 231
42 65 188
55 85 248
51 79 228
51 78 225
46 69 198
51 75 217
43 61 176
36 50 142
40 56 158
37 51 143
31 41 115
39 53 149
27 35 96
32 42 117
28 36 100
40 51 144
53 68 196
56 70 202
65 82 235
78 98 283
75 92 265
78 95 274
82 98 285
97 116 337
90 106 308
91 107 308
85 98 283
81 92 265
86 97 279
99 111 321
103 114 329
98 108 310
100 109 313
103 111 320
100 106 305
104 110 317
111 117 336
106 110 316
109 112 321
109 111 318
111 112 320
115 114 328
115 114 325
111 109 310
115 112 320
114 110 314
112 107 305
122 115 329
128 120 342
121 112 319
129 119 339
124 114 323
138 126 357
133 120 340
121 108 304
132 117 332
125 110 311
135 118 333
128 111 311
136 117 329
140 119 336
128 108 302
126 105 294
134 111 312
132 109 305
130 107 297
147 119 334
145 117 327
137 110 305
145 115 320
147 116 324
145 114 316
156 122 338
153 118 327
147 113 312
152 116 319
155 118 325
162 122 336
165 123 339
152 113 309
167 123 337
174 127 349
164 119 326
165 119 326
172 124 338
167 119 323
172 121 331
168 118 320
170 119 322
173 120 326
175 120 326
180 123 334
181 124 334
185 125 338
173 117 314
183 123 330
174 115 309
182 120 323
187 123 328
176 115 307
192 124 332
184 119 315
184 118 313
183 117 309
189 120 316
185 117 308
182 114 301
198 123 325
-191 124 315
-189 124 314
-183 120 306
-185 122 311
-192 127 326
-169 113 289
-181 122 312
-171 116 298
-179 122 313
-190 130 335
-186 128 331
-187 130 336
-175 122 317
-187 131 342
-171 121 315
-176 125 325
-154 111 288
-158 114 297
-157 114 299
-166 121 317
-163 120 315
-152 113 296
-151 113 296
-150 112 296
-147 111 293
-144 110 290
-121 93 246
-101 79 207
-109 85 224
-120 95 250
-126 100 264
-118 94 249
-147 117 313
-137 110 295
-137 111 298
-141 115 309
-150 122 329
-154 127 342
-142 118 319
-150 126 339
-139 118 318
-141 120 325
-136 117 316
-133 115 313
-131 114 309
-138 121 330
-130 115 314
-138 122 334
-128 115 314
-129 116 318
-128 117 320
-133 122 336
-139 128 353
-129 120 331
-124 117 321
-123 117 323
-126 120 332
-123 119 327
-125 121 336
-123 120 334
-123 122 337
-119 119 329
-118 119 330
-114 116 323
-116 119 331
-111 115 321
-113 118 328
-104 110 307
-104 111 311
-108 116 324
-110 119 333
-100 109 306
-102 113 317
-101 113 316
-99 112 315
-106 121 341
-101 116 326
-95 111 312
-93 110 309
-97 115 325
-99 119 337
-87 106 298
-98 120 339
-95 118 335
-99 123 350
-79 101 284
-100 128 364
-109 140 401
-92 120 342
-83 110 312
-91 122 349
-92 125 357
-101 138 396
-96 133 380
-102 142 409
-93 133 380
-93 134 385
-84 123 352
-84 125 357
-86 128 368
-81 123 355
-76 118 338
-80 124 358
-75 119 341
-75 120 347
-77 126 363
-74 122 351
-71 119 343
-69 118 342
-74 127 368
-75 131 380
-69 122 354
-69 124 359
-69 127 367
-67 125 363
-65 124 359
-67 130 377
-64 126 365
-65 130 377
-63 128 373
-62 129 376
-62 131 382
-58 126 366
-57 126 366
-57 127 370
-59 134 390
-57 133 388
-54 129 377
-55 133 389
-52 129 378
-52 132 387
-49 127 371
-52 137 401
-48 131 383
-47 131 384
-47 134 391
-44 129 379
-45 135 396
-42 129 380
-40 128 377
-41 134 394
-36 124 363
-37 130 383
-38 137 402
-34 126 370
-33 127 373
-31 125 368
-30 125 367
-28 121 355
-27 120 352
-25 117 344
-25 123 360
-23 120 352
-22 119 350
-22 121 357
-21 123 363
-19 117 344
-17 112 329
-18 124 366
-15 115 337
-15 117 345
-15 125 368
-14 130 382
-12 122 360
-14 148 440
-9 117 346
-8 115 340
-7 113 334
-6 115 338
-5 111 328
-4 113 333
-3 114 335
-2 112 328
-1 112 329
0 112 331
0 110 324
1 107 314
2 107 315
3 128 379
4 118 348
5 109 320
6 101 297
7 103 302
7 93 273
10 130 385
10 112 330
11 111 327
12 111 328
13 107 315
14 108 318
15 108 317
16 108 317
18 114 336
18 111 327
19 111 326
20 111 327
21 111 327
22 113 332
23 112 331
24 112 328
25 110 325
26 112 328
27 112 330
28 109 322
30 114 335
35 131 388
34 120 355
33 116 342
37 123 363
41 133 394
39 125 367
43 133 394
45 135 398
45 132 391
46 133 391
45 126 371
45 122 360
50 134 395
51 132 390
51 129 380
53 131 384
54 130 382
54 128 376
54 126 370
57 129 379
55 122 357
58 126 370
59 126 370
61 128 374
62 129 377
62 125 367
64 127 371
64 125 367
66 127 374
68 129 378
64 118 345
66 121 354
64 114 334
68 119 348
59 103 299
62 106 310
57 96 278
47 77 222
43 69 196
37 59 166
36 56 158
38 58 164
39 58 165
42 63 179
40 59 168
31 44 122
38 55 155
35 50 139
37 52 145
29 40 109
31 41 114
28 36 99
37 48 134
36 47 131
44 57 161
62 80 228
65 83 236
74 94 269
76 95 272
77 96 274
83 102 292
99 121 348
88 107 306
79 94 268
85 100 285
88 102 292
91 106 302
92 105 299
93 105 299
95 107 304
99 110 315
98 108 307
94 103 291
86 93 263
103 110 312
106 112 317
111 116 331
109 113 322
108 111 314
107 109 307
111 111 315
116 116 330
107 106 299
111 109 307
114 111 313
113 109 307
116 111 313
122 116 326
120 113 318
121 112 315
120 110 310
125 115 321
123 112 312
134 121 339
131 117 328
124 110 306
124 109 303
129 113 314
129 112 311
144 124 346
137 117 325
133 112 312
137 115 319
138 115 318
147 122 338
142 117 322
153 125 345
138 112 308
152 122 338
146 116 320
146 116 317
142 111 305
143 112 306
153 119 325
154 119 325
156 119 326
148 112 306
157 118 321
158 119 322
171 127 345
165 122 330
170 125 338
159 116 313
157 114 307
169 122 329
165 118 318
170 121 325
165 117 313
176 123 332
160 112 298
175 121 324
169 116 309
180 123 328
179 122 324
167 113 299
178 119 317
169 112 297
184 122 322
176 116 306
191 125 329
178 116 304
190 123 323
180 116 304
180 115 300
190 120 315
197 125 326
189 119 309
-182 119 299
-173 114 286
-181 120 303
-175 117 295
-167 112 284
-180 121 307
-181 123 312
-174 119 302
-178 123 312
-191 132 337
-186 129 331
-183 128 328
-167 118 302
-176 125 321
-168 120 308
-168 121 311
-160 116 299
-164 119 309
-164 120 311
-168 124 321
-159 118 305
-166 124 323
-153 115 300
-152 115 301
-142 108 282
-134 103 270
-115 90 234
-105 82 214
-105 83 216
-123 97 254
-121 97 254
-116 94 246
-144 116 307
-138 112 295
-146 119 317
-148 121 323
-147 122 324
-139 116 309
-139 116 310
-141 120 320
-139 118 317
-141 121 323
-134 116 311
-131 114 307
-130 114 308
-141 125 337
-134 119 322
-131 118 318
-128 116 314
-130 118 321
-129 119 322
-131 121 328
-130 122 331
-129 121 330
-124 118 320
-129 124 337
-123 119 325
-117 114 313
-117 115 315
-118 117 321
-117 117 320
-108 110 301
-114 117 320
-114 117 322
-111 115 317
-120 125 346
-108 114 315
-112 119 329
-112 121 334
-114 123 342
-108 118 328
-99 110 305
-107 119 331
-104 117 326
-106 120 335
-101 116 324
-100 116 324
-98 115 321
-97 115 320
-104 124 347
-95 115 321
-90 111 310
-91 113 316
-90 113 318
-85 108 301
-89 114 321
-81 106 297
-82 108 304
-91 120 338
-80 108 304
-87 117 331
-88 120 339
-91 126 356
-91 127 359
-87 124 350
-88 127 360
-87 126 358
-86 126 359
-86 128 364
-85 129 367
-85 130 371
-90 139 397
-81 127 361
-74 118 336
-76 123 350
-74 122 348
-73 123 350
-74 126 359
-69 119 340
-71 124 356
-70 125 357
-69 124 354
-68 125 358
-67 125 358
-66 124 357
-64 123 352
-67 130 373
-68 134 387
-63 127 367
-58 120 346
-62 131 376
-60 127 366
-60 130 375
-58 129 373
-58 130 375
-53 123 355
-56 131 379
-56 134 388
-52 128 371
-52 130 377
-53 137 396
-49 128 371
-47 127 369
-46 127 367
-47 131 381
-46 132 384
-44 130 378
-43 130 378
-43 134 388
-40 129 375
-41 134 390
-37 127 369
-37 129 376
-36 132 385
-34 126 367
-32 124 362
-31 126 367
-30 126 366
-28 120 350
-27 121 351
-26 122 354
-23 116 336
-23 118 343
-23 124 361
-22 124 360
-20 119 345
-19 120 350
-18 119 346
-18 126 367
-16 124 360
-15 123 360
-14 120 350
-12 118 344
-12 123 360
-10 119 346
-7 102 296
-8 119 347
-7 118 344
-6 115 336
-5 114 333
-4 116 339
-3 112 327
-2 117 343
-1 113 329
0 114 332
0 115 336
1 112 327
2 111 323
3 114 333
4 113 331
5 110 321
6 114 333
7 114 331
8 115 336
9 111 325
10 115 336
11 112 326
12 113 330
13 112 327
14 108 315
15 112 327
16 111 325
17 108 314
18 112 326
19 111 324
20 112 327
21 112 328
22 108 316
24 114 332
24 113 330
25 112 327
27 114 332
33 138 403
27 109 317
29 111 324
31 117 342
34 123 360
35 123 358
37 126 367
40 132 385
41 132 386
40 126 368
42 129 377
42 125 366
45 130 380
45 125 366
46 126 368
48 128 372
50 131 382
50 127 370
53 131 383
53 130 378
52 124 361
54 127 369
55 126 368
56 125 364
60 133 387
59 128 372
58 123 356
59 123 358
59 121 352
63 127 368
59 117 338
65 125 363
65 124 360
64 120 346
65 120 348
63 114 329
64 113 327
61 107 310
58 100 288
50 85 243
50 82 234
49 80 227
37 58 162
34 54 150
41 63 177
35 53 147
32 48 132
32 47 130
30 43 117
34 48 134
39 55 153
28 39 106
37 51 141
29 39 105
40 55 152
37 49 134
40 53 148
36 47 128
45 58 163
35 44 121
51 65 181
61 77 215
55 69 193
61 75 211
68 83 233
73 89 250
80 96 270
80 95 267
85 101 284
88 102 289
92 106 300
93 106 299
92 104 294
111 124 352
101 112 316
87 95 267
97 106 297
98 105 296
105 112 315
103 109 305
101 106 296
109 113 318
106 109 305
112 114 320
109 110 307
109 109 305
121 120 337
120 118 330
114 111 308
123 118 330
131 125 350
118 112 312
113 106 294
120 112 311
115 106 293
126 115 320
127 115 320
120 108 298
132 118 327
130 116 319
125 110 303
135 118 325
127 110 302
134 115 317
133 113 311
135 115 314
146 123 338
142 118 324
135 112 306
142 117 319
147 120 327
146 119 324
142 114 311
147 117 318
145 115 313
150 118 321
150 118 318
142 110 298
157 121 326
162 124 335
163 124 334
161 122 328
157 118 317
158 118 316
158 117 313
155 114 305
152 111 296
166 120 321
169 122 325
169 121 323
167 119 315
169 119 317
164 115 305
173 121 320
169 117 309
160 110 289
168 115 302
164 111 293
180 122 320
167 112 293
186 125 327
185 123 322
184 122 318
179 118 306
189 123 321
190 123 320
188 121 314
191 122 317
205 131 338
207 131 339
-184 122 303
-178 119 295
-174 116 290
-183 124 309
-175 119 297
-189 129 323
-176 121 303
-173 119 300
-167 116 292
-176 123 311
-166 117 296
-178 125 318
-176 125 317
-184 131 335
-161 116 295
-173 125 319
-164 120 307
-159 117 298
-165 122 313
-154 115 294
-165 123 317
-158 119 307
-154 116 300
-148 113 293
-139 107 277
-122 95 244
-117 92 237
-117 92 239
-100 80 205
-110 89 229
-134 107 279
-122 99 257
-132 107 280
-141 115 301
-130 108 282
-148 122 322
-143 119 314
-146 122 323
-147 124 329
-141 120 318
-139 119 316
-142 123 327
-135 118 313
-142 125 333
-136 120 320
-131 117 313
-126 114 304
-131 118 316
-129 118 315
-129 118 317
-133 124 332
-124 116 311
-133 126 338
-125 119 321
-124 119 320
-129 124 336
-127 124 334
-119 117 317
-119 118 319
-115 115 312
-113 115 311
-122 124 336
-112 115 314
-113 117 318
-105 110 301
-119 125 343
-113 120 329
-108 116 317
-110 120 328
-108 118 325
-112 124 340
-109 121 333
-103 117 321
-102 116 318
-98 113 312
-101 117 324
-104 121 335
-99 118 325
-102 122 337
-93 113 311
-96 117 324
-97 120 333
-94 118 327
-93 117 326
-84 107 297
-89 116 322
-79 104 287
-88 117 325
-85 114 317
-79 108 300
-83 114 318
-72 100 278
-76 107 298
-89 125 351
-86 123 345
-82 119 335
-77 114 320
-89 131 370
-83 125 351
-84 129 363
-84 130 367
-82 129 364
-83 132 373
-81 131 370
-79 128 363
-71 118 332
-74 125 353
-73 124 352
-70 122 346
-66 117 332
-70 125 355
-67 121 344
-68 125 356
-68 127 360
-66 125 356
-68 131 374
-66 129 367
-63 126 358
-63 129 367
-65 134 384
-58 122 348
-60 129 368
-57 126 360
-58 130 371
-54 123 352
-53 124 355
-53 126 360
-55 133 381
-55 135 387
-53 133 381
-51 133 380
-49 129 369
-48 131 375
-48 134 386
-47 132 380
-47 136 391
-44 131 378
-44 134 384
-42 133 383
-39 127 364
-39 129 372
-40 136 392
-36 128 368
-35 127 366
-34 128 369
-33 129 372
-29 121 347
-30 125 360
-29 127 366
-28 129 371
-26 125 359
-26 127 367
-23 122 351
-22 122 351
-23 133 383
-18 113 325
-19 123 356
-19 128 371
-17 122 352
-16 124 358
-15 123 355
-14 125 361
-12 119 343
-12 121 349
-11 127 367
-10 131 378
-7 109 314
-7 118 340
-6 116 335
-5 117 337
-4 115 331
-3 117 337
-2 113 325
-1 119 343
0 117 338
0 116 336
1 113 326
2 113 326
3 114 330
4 113 328
5 111 319
6 112 323
7 112 325
8 116 334
9 111 321
10 114 330
12 117 337
12 114 329
13 111 322
14 115 332
15 110 317
17 115 334
17 112 322
18 110 319
19 112 322
20 111 321
21 115 331
21 105 301
20 96 275
26 122 353
23 105 302
26 113 326
31 131 380
30 123 356
29 113 326
31 116 335
33 121 350
34 119 343
38 130 375
38 127 369
38 122 352
42 132 383
44 134 388
44 132 382
44 127 368
46 130 374
47 131 380
49 132 380
49 130 376
50 130 374
52 131 377
50 123 355
53 128 369
53 126 364
54 126 362
53 120 346
59 132 380
59 129 372
60 128 369
59 124 356
62 127 365
60 122 351
62 124 355
59 115 329
60 116 332
65 122 350
59 109 310
61 111 316
60 108 308
58 101 289
55 96 272
52 88 248
47 78 219
41 66 186
42 67 187
40 63 176
27 42 114
32 48 131
31 47 128
22 32 84
35 52 143
26 36 98
29 41 111
33 46 126
32 44 120
35 47 129
44 61 167
39 53 146
45 60 166
47 62 173
55 72 201
32 41 110
68 88 247
57 73 203
64 80 224
71 88 246
71 88 247
75 91 255
79 96 268
84 101 282
89 105 295
90 106 296
90 104 291
89 102 286
95 109 304
89 100 280
98 110 307
94 104 291
110 120 337
98 106 295
106 114 318
103 110 305
106 112 312
106 111 307
113 118 327
110 113 312
113 115 319
109 110 304
113 113 312
116 115 317
122 120 332
119 116 321
123 119 328
122 117 323
112 106 290
122 114 315
119 111 304
119 110 303
128 117 321
125 114 312
129 117 319
126 113 308
121 107 292
128 113 308
130 114 310
132 115 313
142 122 332
126 108 292
140 119 322
143 121 327
140 117 317
147 122 330
147 121 326
150 123 331
138 112 301
145 117 314
156 125 337
151 120 322
153 121 324
152 119 319
150 116 311
158 122 326
148 114 303
160 122 326
157 119 316
170 128 340
160 120 318
159 118 313
166 122 323
159 117 308
161 117 309
167 120 317
157 113 296
171 122 321
164 116 305
168 118 309
171 119 312
171 119 311
169 117 305
174 119 311
172 117 305
183 124 322
185 124 323
169 113 293
181 120 311
177 117 301
189 125 321
193 127 326
175 114 292
188 122 312
203 130 334
214 137 350
-177 118 290
-180 121 298
-174 118 290
-173 117 290
-174 119 295
-170 117 290
-175 121 302
-172 120 298
-167 117 292
-169 119 298
-183 130 325
-182 129 325
-172 124 311
-181 131 330
-162 118 297
-163 119 301
-166 122 309
-164 121 308
-162 121 306
-161 121 307
-165 125 318
-160 122 310
-149 114 292
-144 111 283
-137 107 273
-144 113 289
-130 103 263
-123 98 252
-97 78 199
-106 86 221
-111 91 233
-127 104 268
-135 111 287
-148 122 316
-155 128 334
-136 114 296
-142 120 313
-143 121 317
-130 111 291
-136 117 307
-137 119 311
-136 119 313
-138 122 320
-138 122 322
-139 124 328
-134 121 320
-129 117 310
-130 119 315
-126 116 308
-132 123 326
-130 122 325
-129 122 324
-130 124 330
-125 120 321
-126 122 327
-118 115 309
-116 114 305
-117 116 311
-113 113 303
-113 114 307
-119 121 326
-116 119 321
-114 118 319
-113 118 319
-110 116 313
-106 113 304
-115 124 335
-111 120 326
-107 117 318
-105 116 314
-106 119 323
-101 114 310
-106 121 329
-106 121 331
-106 122 334
-100 117 321
-97 114 312
-100 120 328
-100 121 330
-93 114 313
-94 117 320
-89 112 307
-94 119 327
-92 117 322
-85 110 302
-96 125 346
-91 120 332
-89 119 327
-87 118 326
-86 117 323
-75 105 288
-75 106 291
-78 110 305
-83 118 328
-75 110 304
-71 105 289
-76 113 314
-83 124 345
-72 110 306
-84 129 361
-84 131 366
-80 126 353
-82 132 369
-78 126 353
-80 131 368
-78 130 364
-72 122 342
-73 126 352
-73 127 356
-67 120 336
-64 116 326
-66 121 341
-64 120 338
-67 127 357
-65 124 350
-61 120 339
-65 130 365
-61 123 347
-58 119 336
-57 120 339
-58 124 349
-59 128 363
-58 129 366
-56 127 360
-56 130 367
-53 125 354
-53 128 364
-55 135 382
-50 126 356
-50 129 365
-51 133 379
-48 128 364
-47 129 367
-46 129 367
-45 129 368
-43 127 360
-42 128 365
-42 129 368
-41 132 375
-40 131 373
-37 125 355
-38 132 375
-35 126 359
-34 127 362
-34 130 371
-33 131 373
-33 136 389
-30 127 363
-28 124 355
-26 122 348
-27 129 370
-24 122 348
-24 125 356
-24 131 375
-21 124 354
-20 121 347
-19 123 351
-18 124 355
-17 124 356
-17 130 373
-15 124 356
-15 132 377
-13 124 354
-11 122 348
-10 119 340
-9 119 340
-8 115 328
-8 133 380
-6 125 359
-3 94 267
-2 94 267
-3 119 342
-2 117 334
-1 115 329
0 116 332
0 118 339
1 118 337
2 117 336
3 118 336
4 119 342
5 117 335
6 118 338
7 117 334
8 116 333
10 120 343
11 118 337
11 116 333
12 113 325
14 121 347
15 118 339
15 116 331
16 115 328
17 113 323
18 115 329
19 114 325
20 113 323
22 121 347
23 121 345
22 106 303
24 115 330
25 116 331
27 118 339
27 114 327
29 116 331
31 122 349
30 115 328
34 125 359
34 121 346
35 119 341
38 127 364
40 131 375
41 132 377
42 130 372
42 125 358
43 125 358
47 134 383
44 123 351
47 128 366
49 130 373
49 127 363
49 123 352
51 128 365
51 123 351
54 129 367
54 126 360
55 125 357
56 127 361
55 121 345
59 127 362
56 118 336
59 122 348
62 126 358
58 116 329
56 110 313
55 106 301
63 120 340
60 111 315
57 105 296
54 97 273
48 85 237
50 86 243
47 80 223
45 75 209
42 69 192
36 58 158
37 59 163
30 47 127
34 52 143
28 41 111
37 56 154
32 47 128
29 41 111
38 55 151
39 56 154
48 69 189
47 66 181
56 78 215
57 78 217
70 96 268
71 97 269
64 85 236
70 92 255
73 96 266
61 78 215
69 88 242
72 91 252
76 95 264
78 96 265
86 106 293
89 108 301
88 105 292
89 106 293
91 107 297
87 101 279
97 112 310
94 107 296
95 107 294
103 115 318
99 109 302
91 99 272
104 113 313
101 109 300
107 114 314
110 116 320
107 112 308
111 115 317
113 116 318
117 119 326
119 120 330
111 111 303
121 120 328
124 121 333
120 117 319
114 110 299
123 118 321
111 106 287
125 118 321
125 116 317
119 110 298
116 106 288
127 115 312
123 111 301
127 113 307
125 111 299
130 114 309
138 121 326
134 116 313
137 118 317
145 124 333
137 117 313
141 119 319
144 121 324
132 109 292
136 112 299
145 119 318
146 119 316
150 121 321
150 120 319
150 119 316
151 119 316
153 120 318
144 112 296
147 114 299
155 119 314
160 122 322
157 119 313
162 122 320
160 119 313
151 112 293
157 116 304
165 121 315
163 119 309
161 117 304
161 116 301
163 116 302
168 119 309
168 119 307
171 120 310
165 115 296
170 118 304
174 120 309
166 114 292
188 128 329
175 118 303
175 118 301
196 131 334
178 118 302
200 132 336
210 138 351
200 130 331
206 134 339
212 137 347
-176 119 288
-185 125 306
-176 120 293
-176 121 295
-155 107 262
-178 124 304
-173 121 297
-179 125 309
-171 121 298
-170 121 299
-181 129 320
-173 124 309
-175 127 316
-169 123 307
-162 119 296
-146 108 269
-158 118 294
-145 108 271
-153 115 288
-153 116 291
-147 112 282
-148 114 287
-156 120 304
-143 112 282
-142 111 282
-143 113 287
-126 101 255
-120 97 245
-96 79 198
-121 98 250
-116 95 242
-137 112 287
-132 109 280
-140 116 299
-146 122 314
-136 115 297
-133 114 293
-134 114 296
-136 117 304
-144 125 324
-134 117 305
-131 116 301
-140 124 325
-133 119 310
-133 120 313
-133 121 315
-131 120 315
-130 120 314
-124 115 302
-130 122 321
-125 118 310
-128 122 321
-123 119 313
-127 123 325
-122 119 315
-117 115 305
-114 114 301
-114 114 303
-117 118 314
-116 118 313
-120 123 327
-116 120 321
-115 120 321
-113 119 317
-107 114 305
-112 120 322
-109 118 317
-105 115 309
-113 124 334
-99 111 298
-113 127 342
-102 116 312
-105 121 325
-102 119 320
-99 117 315
-102 121 326
-101 121 327
-94 114 308
-95 116 313
-100 124 336
-98 122 332
-99 125 339
-92 117 319
-94 121 329
-91 118 322
-89 117 318
-89 119 324
-82 111 303
-83 114 310
-83 115 314
-82 115 314
-79 111 304
-78 111 304
-75 109 297
-74 109 300
-71 106 290
-88 132 363
-73 111 305
-84 129 357
-79 124 341
-78 124 342
-78 125 345
-86 139 386
-84 137 381
-82 135 376
-78 131 364
-74 127 352
-73 127 352
-68 120 334
-71 128 356
-69 126 349
-69 127 354
-68 127 354
-64 122 339
-63 122 340
-62 123 343
-61 123 343
-64 130 364
-59 123 343
-57 121 338
-57 124 347
-55 122 340
-58 130 363
-57 129 363
-54 126 354
-55 130 364
-54 131 368
-53 131 367
-50 126 353
-48 124 349
-48 128 359
-49 132 371
-48 133 375
-45 129 362
-43 126 356
-44 131 370
-44 134 377
-42 132 372
-40 129 364
-38 128 360
-37 127 359
-36 128 361
-37 134 380
-36 134 380
-33 129 365
-32 129 363
-32 134 379
-29 124 351
-31 135 383
-27 125 354
-26 125 352
-25 128 363
-24 128 362
-23 126 358
-22 127 360
-20 123 349
-20 127 359
-18 126 358
-17 126 357
-15 118 335
-15 122 346
-14 124 351
-12 122 346
-11 120 339
-10 116 329
-9 120 339
-8 121 343
-7 116 330
-7 129 365
-5 127 359
-4 122 347
-3 130 369
-2 134 381
-1 125 356
0 121 342
0 120 341
1 123 349
2 119 337
3 113 321
4 112 319
5 107 301
6 121 343
8 120 342
9 124 351
9 112 318
10 115 327
13 131 373
14 133 379
14 118 335
15 123 351
18 143 408
16 115 327
17 112 317
18 116 330
21 127 360
20 111 313
20 110 312
23 118 335
23 117 330
24 117 330
23 106 300
27 117 331
28 121 342
30 122 346
29 114 324
33 126 358
31 116 329
34 123 349
34 119 337
38 127 361
40 133 378
40 129 366
41 126 358
43 132 374
45 134 380
44 126 357
45 126 357
48 131 371
48 128 362
51 133 376
50 129 365
50 124 351
51 125 352
51 123 347
52 122 343
55 126 356
54 122 345
56 124 351
56 122 344
56 119 336
55 115 323
53 108 302
54 109 307
59 116 326
55 106 297
56 107 300
53 99 276
47 86 240
50 90 252
47 83 231
42 72 199
38 64 176
34 57 154
26 41 110
28 44 118
29 46 122
31 48 130
28 43 115
36 55 150
35 53 144
30 44 117
33 48 128
43 64 174
61 90 248
62 90 248
62 88 243
70 100 276
69 96 265
72 100 276
84 116 321
79 106 294
85 113 313
63 83 228
73 95 263
76 97 268
78 99 272
84 106 292
83 103 284
84 104 286
88 108 297
110 133 368
93 111 305
95 112 308
95 111 306
95 110 301
103 118 324
100 114 312
99 111 304
100 111 305
106 117 321
98 107 291
103 112 304
103 110 301
111 118 323
109 115 314
120 125 342
116 120 328
117 120 327
107 109 295
114 115 312
119 119 322
110 109 294
119 116 315
115 112 303
120 115 311
119 114 307
119 112 303
113 106 284
116 108 290
126 116 313
127 117 313
130 118 317
131 118 317
118 106 282
128 114 305
132 117 311
140 123 328
139 121 322
135 117 310
141 121 321
138 117 310
142 120 318
138 116 306
133 111 292
144 119 314
141 115 304
145 118 311
148 119 314
140 112 294
151 121 317
148 117 307
150 117 307
155 121 317
143 110 288
153 118 307
159 121 316
154 117 303
156 118 306
147 110 284
165 123 319
162 120 309
165 121 314
164 120 309
172 125 322
176 127 326
161 115 295
165 118 301
160 113 289
166 117 298
164 115 293
172 119 304
174 120 305
170 117 297
176 120 305
189 128 325
193 130 329
201 135 341
175 116 293
186 123 310
200 132 331
207 136 341
182 119 297
-183 125 301
-170 116 281
-173 119 288
-172 119 289
-165 115 279
-175 122 297
-171 121 294
-173 122 299
-177 126 308
-171 123 301
-180 129 318
-173 126 309
-180 131 324
-188 138 342
-166 123 303
-165 123 305
-149 112 277
-151 114 283
-139 106 262
-151 116 288
-156 120 299
-152 117 294
-147 115 287
-144 113 282
-131 104 259
-129 103 259
-125 101 252
-94 77 191
-101 83 208
-115 95 238
-121 100 253
-137 114 288
-131 109 278
-144 121 308
-144 121 310
-147 125 320
-145 124 318
-136 117 301
-143 124 319
-137 120 307
-130 115 296
-135 120 309
-130 117 301
-134 121 312
-129 117 303
-127 116 301
-125 115 298
-128 119 309
-120 113 292
-120 114 297
-129 123 321
-124 119 311
-124 120 313
-122 119 311
-120 118 310
-114 113 297
-115 115 303
-122 123 323
-115 117 308
-113 117 307
-116 120 316
-106 112 294
-111 117 310
-110 117 310
-107 115 304
-107 117 309
-106 117 309
-106 117 311
-109 121 323
-104 118 313
-101 115 307
-103 118 315
-107 123 329
-104 121 325
-103 121 325
-96 115 307
-97 117 313
-96 117 313
-96 118 316
-95 118 318
-98 122 330
-94 119 321
-87 112 301
-95 123 333
-94 123 333
-90 120 324
-91 123 332
-91 123 334
-89 122 330
-85 118 320
-81 114 308
-76 109 294
-73 106 286
-78 113 308
-80 118 322
-82 122 332
-70 107 291
-71 109 297
-71 111 301
-82 128 350
-74 119 324
-78 126 344
-67 110 300
-60 101 274
-75 126 346
-60 103 282
-64 112 307
-77 135 370
-71 126 347
-70 127 351
-76 138 381
-71 133 366
-66 125 345
-63 122 337
-64 125 346
-61 123 338
-62 126 347
-60 124 344
-61 128 353
-57 123 340
-60 131 362
-58 129 359
-56 126 350
-54 125 347
-53 125 346
-49 119 329
-53 129 357
-50 125 346
-49 126 350
-48 126 352
-49 131 364
-47 128 358
-43 121 338
-43 124 345
-43 127 354
-43 129 361
-42 129 359
-41 129 360
-40 130 364
-39 130 363
-38 130 364
-38 134 374
-33 123 343
-34 128 357
-31 123 343
-33 131 368
-31 131 368
-30 130 363
-29 132 371
-27 126 353
-25 124 348
-25 129 362
-23 125 351
-23 128 359
-21 126 352
-20 124 347
-21 134 375
-19 130 366
-17 125 350
-16 125 351
-14 122 343
-13 119 334
-13 126 355
-12 125 350
-11 126 354
-9 122 343
-8 124 349
-8 130 365
-6 122 343
-5 125 352
-4 121 340
-3 123 345
-2 122 343
-1 128 359
0 125 353
0 124 348
1 121 339
2 126 356
3 127 358
4 126 353
5 119 335
7 130 366
8 124 350
9 121 341
9 116 325
10 115 324
11 117 329
12 115 324
14 120 337
15 124 348
17 134 377
17 122 342
17 117 329
18 117 327
20 123 345
21 119 333
22 120 338
24 124 348
24 122 341
25 120 337
26 121 339
25 110 307
28 118 332
28 115 321
29 114 320
30 115 323
31 116 325
34 122 342
35 122 343
35 121 339
38 128 359
39 127 356
41 129 362
43 132 370
43 127 356
43 126 353
46 130 363
45 124 347
45 122 343
49 128 359
49 128 357
51 128 358
52 128 358
51 123 343
54 127 356
56 130 365
54 123 343
54 121 338
54 119 331
54 115 321
51 108 300
53 109 303
52 105 291
50 98 273
47 92 253
45 86 238
48 90 249
42 76 210
39 71 195
36 63 171
34 58 157
26 44 118
32 53 143
32 52 140
28 46 122
27 43 115
21 33 85
31 48 127
26 40 105
35 54 144
42 64 173
52 79 216
63 94 258
59 87 239
58 85 231
64 93 253
63 90 246
62 87 238
79 110 302
86 119 326
70 95 261
72 97 265
74 98 268
75 98 268
80 104 284
78 100 273
74 93 254
82 103 281
80 99 270
87 107 291
95 116 316
92 111 301
93 111 301
95 112 304
100 117 319
99 115 312
98 113 306
102 115 313
101 113 307
99 110 298
102 112 303
103 112 303
101 110 296
104 111 300
111 118 317
109 115 309
112 117 315
111 115 310
105 107 288
116 118 316
116 117 313
109 108 290
107 105 282
115 113 302
110 107 286
117 113 302
119 114 304
119 113 301
125 117 313
122 114 303
122 113 301
123 113 298
135 123 326
129 117 309
136 122 324
129 115 303
136 121 318
129 113 298
143 125 329
133 115 302
136 116 306
138 117 308
137 116 304
139 117 306
143 119 312
141 116 304
158 130 339
144 117 305
142 115 298
150 120 313
144 115 299
143 113 294
147 115 299
150 117 303
155 120 310
151 116 300
153 117 302
153 117 299
164 124 318
157 118 303
145 108 275
162 120 307
164 121 309
160 117 298
161 117 298
160 115 293
168 121 306
160 114 288
162 115 290
168 118 298
173 121 305
171 119 300
162 112 281
181 125 313
190 130 326
185 126 314
180 121 303
186 125 313
186 124 310
192 127 317
237 157 391
185 122 301
-163 112 267
-179 124 295
-168 117 279
-162 114 272
-176 124 297
-169 119 287
-170 121 291
-167 120 289
-170 122 296
-172 124 301
-169 123 298
-160 117 285
-167 123 301
-173 128 314
-167 125 306
-160 120 295
-146 111 271
-150 114 280
-142 109 268
-150 116 285
-150 117 288
-144 112 278
-149 117 290
-149 118 293
-129 103 256
-132 106 264
-115 94 233
-107 88 217
-103 85 211
-98 82 203
-115 96 240
-127 107 268
-118 100 250
-144 122 308
-124 106 267
-144 123 313
-138 120 303
-131 115 290
-125 110 278
-140 123 314
-135 120 306
-132 119 303
-138 124 318
-130 119 304
-134 123 315
-126 116 298
-125 117 300
-122 115 295
-128 121 311
-122 117 301
-123 118 305
-118 115 296
-120 117 303
-123 122 315
-123 122 317
-124 124 321
-112 113 294
-114 117 304
-107 110 287
-112 116 303
-105 110 287
-115 121 316
-111 118 308
-107 115 301
-108 118 308
-105 115 300
-100 111 291
-109 121 318
-106 119 314
-99 113 298
-103 118 312
-103 119 315
-101 118 311
-100 118 313
-102 121 322
-105 126 334
-96 117 309
-98 121 321
-98 122 324
-97 122 324
-94 119 318
-92 118 314
-95 123 329
-89 117 312
-90 119 317
-90 120 321
-96 130 348
-95 130 349
-86 119 320
-90 126 339
-88 124 333
-85 122 328
-83 121 325
-84 124 333
-79 117 315
-83 125 337
-80 122 330
-74 115 311
-64 101 273
-73 116 314
-70 112 304
-83 134 365
-76 125 339
-77 129 351
-74 126 343
-68 118 320
-72 125 340
-66 118 320
-73 130 355
-67 123 334
-73 135 368
-72 135 369
-68 131 357
-64 124 338
-65 129 352
-62 125 341
-60 124 339
-62 129 353
-59 125 341
-61 130 358
-57 126 346
-58 129 355
-53 122 333
-52 122 336
-54 128 352
-53 128 352
-53 130 357
-49 123 340
-49 127 351
-48 127 349
-48 130 358
-48 132 364
-45 128 352
-44 126 348
-43 127 352
-44 133 368
-44 137 380
-40 129 358
-41 133 368
-39 131 363
-38 131 363
-35 127 352
-36 132 365
-34 129 357
-33 132 365
-32 132 366
-30 127 352
-31 134 372
-31 138 383
-25 119 330
-26 126 350
-25 128 356
-23 124 343
-22 125 346
-21 125 348
-21 131 365
-20 129 360
-18 124 343
-18 131 365
-15 124 343
-14 119 332
-14 130 363
-12 122 339
-12 126 350
-10 121 337
-10 129 359
-8 126 351
-8 130 363
-6 121 336
-5 128 355
-4 129 358
-3 127 353
-2 126 350
-1 125 347
0 125 347
0 123 344
1 125 347
2 129 359
3 130 363
5 132 367
5 117 326
7 128 357
8 123 342
8 118 329
9 112 310
11 123 342
11 109 303
13 125 348
14 126 350
15 125 349
15 113 313
17 122 340
17 116 324
19 124 346
20 122 340
20 116 323
22 120 335
23 123 342
23 118 329
26 125 349
26 123 343
26 117 326
26 113 313
29 120 333
30 119 330
32 123 341
30 112 310
33 121 336
35 123 341
37 126 350
38 129 357
39 128 357
40 128 356
43 132 366
42 125 348
43 127 352
45 128 355
44 122 339
46 125 347
48 129 357
48 125 346
52 132 367
50 125 347
51 124 344
52 125 347
51 120 332
51 117 322
52 116 321
52 114 315
52 113 311
49 103 283
47 98 268
52 105 289
44 88 241
42 82 224
42 81 219
43 80 219
32 59 158
35 63 170
32 57 153
26 46 120
26 44 114
26 44 115
27 45 119
24 38 99
24 38 99
21 32 81
32 50 133
32 50 131
42 65 175
53 83 223
56 86 232
57 86 233
56 83 224
53 78 211
57 82 221
38 53 141
65 92 249
58 82 220
64 88 238
67 92 247
72 98 264
75 100 271
59 77 206
74 97 261
80 104 281
73 93 249
81 102 275
87 110 296
87 109 293
89 109 294
96 116 314
101 121 327
102 122 330
90 106 286
99 116 313
99 114 307
104 119 319
96 109 291
101 114 305
99 110 295
108 119 318
109 119 319
111 120 321
104 111 297
109 116 309
110 116 308
108 112 299
111 115 306
114 117 310
111 113 300
112 113 299
118 118 312
111 110 290
120 117 310
117 113 300
121 117 308
116 111 294
123 117 308
125 118 310
123 114 301
124 115 302
128 118 309
132 121 317
128 116 304
123 110 288
121 107 280
133 118 307
141 124 324
134 117 304
139 120 313
136 116 302
135 115 298
136 115 297
138 115 299
142 118 306
147 121 313
140 115 296
148 120 310
142 115 297
150 121 310
152 122 312
147 117 299
142 112 286
149 117 298
155 121 309
150 116 295
163 125 320
164 125 318
159 121 306
156 118 298
158 118 298
165 123 311
162 119 301
165 121 305
161 117 295
166 120 302
173 125 313
174 125 313
171 121 303
164 116 289
162 114 283
189 132 329
176 122 303
185 128 318
183 126 311
189 129 319
201 136 338
215 145 359
183 122 301
177 118 289
171 113 276
-169 117 276
-175 122 288
-161 113 267
-172 121 287
-155 110 262
-166 119 283
-165 119 283
-173 125 299
-154 112 268
-164 120 288
-170 124 300
-167 123 298
-171 127 307
-178 133 323
-172 129 314
-153 116 282
-157 120 292
-154 118 287
-147 113 276
-149 116 283
-147 115 281
-141 111 271
-142 113 276
-141 113 276
-140 113 277
-129 105 257
-127 104 255
-107 88 217
-91 77 187
-114 95 234
-112 95 234
-116 98 243
-124 106 263
-130 111 277
-140 121 302
-131 114 284
-143 125 313
-139 122 307
-130 115 290
-142 126 319
-128 115 291
-126 114 289
-135 123 311
-127 117 295
-126 116 295
-131 122 311
-129 121 309
-128 121 309
-125 120 305
-118 114 291
-121 118 301
-121 118 302
-118 116 298
-121 120 308
-116 117 300
-115 117 300
-118 120 309
-118 121 313
-113 118 304
-120 125 324
-116 123 317
-111 118 305
-107 115 298
-108 117 305
-109 119 309
-106 117 304
-108 120 313
-107 120 313
-105 119 310
-101 116 302
-102 119 310
-100 117 305
-104 123 322
-102 122 320
-99 119 311
-103 125 329
-94 115 303
-94 117 307
-99 124 327
-99 125 329
-101 129 340
-89 116 305
-98 128 339
-96 127 335
-89 118 313
-90 121 321
-96 130 347
-90 124 330
-87 121 323
-93 132 351
-88 126 336
-91 131 350
-85 125 333
-84 124 331
-84 126 338
-78 119 317
-86 132 354
-84 131 351
-74 118 315
-89 142 382
-82 132 354
-69 114 306
-62 104 277
-69 117 314
-65 112 301
-73 127 342
-80 140 379
-70 125 338
-67 122 328
-71 131 353
-64 119 322
-65 124 334
-63 123 331
-67 130 353
-65 129 350
-69 139 377
-62 128 348
-60 127 343
-60 127 346
-62 134 364
-57 126 342
-55 125 341
-55 126 344
-55 128 349
-54 128 349
-52 128 348
-49 123 335
-51 129 352
-48 125 342
-46 123 336
-46 126 344
-48 134 365
-43 122 332
-45 131 359
-45 134 367
-42 128 350
-41 128 351
-42 136 373
-38 127 346
-39 134 368
-37 130 356
-36 132 362
-36 133 364
-34 132 364
-33 133 364
-34 137 378
-31 130 358
-30 132 363
-27 125 344
-25 120 329
-25 127 349
-23 123 337
-21 117 320
-23 130 356
-22 131 360
-20 129 355
-19 129 356
-18 128 352
-16 123 339
-15 123 339
-15 127 351
-14 127 349
-12 125 345
-11 123 340
-11 129 355
-9 121 333
-9 130 358
-7 119 327
-6 121 333
-5 124 343
-4 124 343
-3 122 337
-2 125 343
-1 127 350
0 128 352
0 125 344
1 123 340
2 126 347
3 127 350
4 120 329
5 124 343
6 121 333
8 127 351
9 127 351
9 119 328
11 122 336
12 121 334
13 121 334
13 116 320
15 126 346
16 129 357
20 146 404
17 115 316
19 122 335
19 117 321
21 121 335
21 118 324
23 120 330
24 120 330
26 128 352
24 114 313
27 121 332
27 119 328
30 126 346
32 131 361
30 118 325
32 121 332
34 125 343
33 118 323
35 120 329
36 122 335
36 119 328
39 124 341
40 125 344
41 125 343
43 126 346
42 122 335
46 129 355
47 131 359
48 130 358
47 122 336
48 122 335
49 123 339
47 114 313
53 128 352
48 112 307
52 120 328
50 112 307
48 105 287
42 92 249
48 101 276
44 92 248
45 93 252
40 81 217
37 73 197
32 60 161
31 58 154
29 53 141
30 54 141
23 39 101
22 37 95
27 47 123
33 56 149
29 49 127
28 47 122
21 33 83
31 50 131
39 63 166
42 67 177
48 75 200
43 66 176
35 53 138
41 62 164
40 60 158
46 68 179
53 77 205
54 78 208
56 80 213
63 88 236
67 94 251
68 94 251
71 97 260
73 98 262
82 110 294
81 107 287
84 110 295
88 114 306
88 113 302
90 114 307
96 120 321
74 92 243
92 113 301
96 117 311
92 111 296
82 98 260
102 120 321
98 115 305
100 116 307
97 111 294
96 109 290
100 112 297
106 118 312
99 109 288
110 120 319
109 118 311
110 117 310
117 124 328
108 113 299
112 116 307
113 116 306
116 119 314
115 116 306
111 112 294
117 116 305
119 118 309
115 112 294
111 108 281
113 109 284
116 111 289
120 114 296
124 116 303
121 113 295
127 118 306
128 118 306
132 121 313
132 120 311
137 123 319
141 126 325
133 118 304
134 117 303
136 118 305
134 116 298
135 116 297
143 122 315
137 116 297
139 117 299
138 115 293
135 112 285
142 117 299
148 121 309
145 117 298
139 112 284
145 116 294
144 114 289
153 121 305
147 116 292
155 121 304
146 113 284
152 117 294
158 120 303
164 125 313
155 117 293
164 123 307
160 119 297
163 121 301
163 120 299
158 115 287
166 120 299
161 116 287
150 107 265
176 125 310
169 120 295
184 130 320
182 127 314
177 123 302
181 125 308
190 131 321
178 122 297
169 115 280
168 113 275
170 114 277
150 100 242
-169 118 276
-176 123 289
-167 118 277
-171 122 287
-170 122 287
-165 118 279
-173 125 296
-170 124 293
-164 120 286
-177 130 310
-173 128 305
-167 125 298
-158 119 284
-164 124 296
-172 130 314
-160 122 294
-153 118 284
-140 109 261
-142 111 268
-146 115 278
-147 116 281
-144 114 277
-142 114 276
-143 115 281
-141 114 279
-134 110 267
-122 101 245
-97 82 197
-103 86 210
-117 99 242
-109 93 227
-128 109 269
-125 107 265
-142 122 303
-126 109 270
-142 124 307
-139 122 304
-124 110 273
-126 112 279
-136 122 306
-126 114 284
-125 114 285
-130 120 300
-131 122 305
-126 118 295
-130 122 306
-127 120 303
-124 119 299
-120 116 292
-117 114 287
-122 119 302
-119 118 298
-121 120 305
-117 118 298
-119 121 307
-111 113 287
-116 119 305
-115 119 304
-111 116 296
-113 120 306
-106 113 288
-114 122 314
-116 125 322
-115 126 323
-115 127 327
-105 117 300
-105 118 305
-105 119 306
-103 118 305
-99 114 295
-106 124 321
-100 118 306
-101 121 313
-102 122 318
-100 121 315
-101 124 323
-95 117 305
-107 133 347
-103 130 340
-100 127 332
-101 129 339
-93 122 318
-96 126 330
-97 129 338
-93 125 329
-95 129 338
-96 131 346
-101 139 368
-86 122 320
-96 136 358
-92 132 350
-94 136 360
-89 131 347
-84 126 333
-86 130 345
-92 140 371
-82 127 338
-82 128 340
-89 141 376
-82 133 353
-82 134 356
-79 131 348
-81 135 361
-75 128 341
-84 144 385
-70 122 326
-79 140 375
-73 131 351
-66 121 323
-73 136 363
-76 142 380
-63 121 324
-65 126 338
-62 122 328
-68 137 369
-61 124 334
-63 131 351
-66 138 372
-58 126 339
-61 134 360
-58 130 351
-55 126 339
-55 128 344
-52 124 334
-54 129 349
-51 127 341
-49 123 331
-51 132 356
-49 127 344
-47 125 339
-46 125 339
-45 126 340
-44 127 343
-44 130 351
-43 131 355
-40 124 335
-40 128 348
-42 135 367
-40 134 365
-41 139 379
-37 131 356
-36 132 359
-36 134 363
-34 131 357
-34 137 372
-32 131 357
-29 127 345
-28 125 339
-29 134 366
-27 131 357
-25 126 343
-23 123 335
-22 121 329
-21 123 334
-21 126 343
-21 131 358
-19 126 345
-18 127 347
-17 130 354
-16 127 346
-14 123 334
-13 122 332
-13 130 354
-11 125 341
-10 124 339
-9 124 339
-8 123 335
-7 129 352
-6 123 334
-5 122 334
-4 126 344
-3 126 345
-2 128 350
-1 135 369
0 128 351
0 124 339
1 132 360
2 129 352
3 123 336
4 126 344
5 118 322
7 127 347
7 119 325
8 121 330
10 130 356
11 123 337
12 122 334
12 121 330
14 125 341
15 123 337
16 130 356
16 113 309
18 123 336
20 131 359
19 119 324
20 118 322
21 117 319
22 115 315
23 120 328
24 116 317
24 114 311
27 122 332
28 122 333
28 118 322
29 119 324
32 125 341
32 124 339
33 121 329
34 121 329
37 128 349
38 128 350
37 122 333
39 125 339
40 125 340
42 128 349
43 128 350
42 123 334
45 129 351
46 126 343
47 126 343
48 127 345
47 122 332
48 121 329
50 123 334
46 111 300
45 107 288
45 103 279
45 103 279
46 103 277
42 91 246
44 94 253
40 84 225
39 79 212
34 68 182
32 63 167
25 47 122
27 52 134
25 46 120
22 40 102
28 49 128
23 39 99
22 37 93
28 49 126
28 47 121
30 51 131
25 41 105
30 49 127
38 62 162
30 48 123
40 64 167
37 58 151
49 75 198
34 51 132
36 54 139
53 80 210
69 102 273
65 95 254
63 90 239
73 104 277
70 98 261
71 99 263
78 107 285
76 104 276
83 112 298
78 104 276
85 113 299
77 101 267
87 113 299
87 111 295
96 121 321
93 116 308
94 116 308
99 121 321
95 115 303
91 109 288
90 106 280
97 114 300
97 112 296
99 115 302
105 120 316
103 116 306
107 120 316
106 118 310
101 111 291
107 116 304
101 109 284
114 123 321
110 116 304
110 115 301
111 115 300
110 113 294
108 111 288
115 117 303
117 117 305
110 109 283
113 112 289
120 117 304
113 110 285
119 114 295
117 111 288
124 118 305
129 122 314
125 117 301
119 110 283
117 107 275
134 123 315
124 113 289
132 119 304
126 112 287
133 118 300
137 120 307
134 117 297
131 113 288
136 117 297
135 115 292
144 122 311
140 118 299
136 113 286
142 118 299
144 119 300
144 118 297
138 112 282
145 117 294
149 119 300
149 118 296
146 115 289
160 126 315
148 116 289
152 118 293
154 119 295
158 121 301
143 109 269
156 118 292
159 119 294
160 119 295
162 120 295
163 120 296
160 117 288
170 124 304
168 121 297
171 123 301
175 125 306
178 126 309
178 126 306
183 128 312
179 124 302
174 121 292
178 123 297
162 111 267
167 114 273
156 105 253
134 90 214
-167 117 272
-164 116 269
-162 116 269
-171 122 285
-166 119 279
-155 113 263
-160 117 273
-172 126 297
-161 119 280
-173 128 302
-169 126 297
-179 134 318
-170 128 304
-177 134 320
-161 123 292
-152 117 279
-135 105 249
-154 120 287
-137 108 257
-154 122 291
-138 110 264
-145 117 280
-141 113 273
-139 113 273
-137 112 270
-146 120 290
-127 106 256
-104 88 212
-81 69 165
-104 89 214
-121 104 252
-118 102 247
-126 109 265
-120 105 256
-144 126 308
-142 125 307
-137 122 300
-133 119 292
-127 114 282
-138 125 308
-131 120 297
-124 114 282
-121 112 278
-121 114 282
-124 117 292
-126 120 299
-123 118 294
-125 120 300
-120 117 292
-120 118 294
-118 117 292
-116 116 290
-119 119 300
-114 116 291
-117 119 301
-114 118 297
-114 118 299
-115 120 304
-114 120 304
-107 114 289
-107 115 291
-110 119 301
-111 121 307
-108 119 304
-104 116 296
-103 116 296
-106 120 307
-104 119 304
-106 122 312
-98 114 292
-107 126 322
-103 122 313
-102 122 313
-106 128 330
-103 125 323
-109 134 346
-103 128 331
-105 132 341
-105 133 345
-99 128 331
-101 131 339
-105 138 358
-100 132 343
-102 136 354
-101 136 355
-95 130 338
-94 130 338
-95 133 347
-94 132 346
-95 136 356
-94 136 356
-90 133 347
-97 144 378
-90 135 355
-93 141 370
-90 139 365
-83 129 339
-85 134 354
-85 136 358
-91 147 389
-82 134 353
-88 145 385
-84 142 374
-79 134 355
-83 143 379
-75 133 351
-71 127 335
-73 132 349
-75 138 367
-83 155 412
-75 143 379
-73 140 372
-62 122 325
-65 129 344
-61 123 328
-63 130 346
-57 121 320
-62 133 355
-62 135 359
-60 132 353
-62 140 373
-53 123 328
-53 124 331
-53 128 341
-52 127 339
-54 133 355
-52 131 351
-48 125 335
-51 134 359
-48 130 348
-47 130 349
-48 135 362
-44 128 344
-43 129 346
-45 135 364
-42 132 354
-40 129 348
-41 136 365
-40 136 366
-38 132 356
-38 134 361
-36 132 356
-34 130 351
-37 143 386
-33 133 357
-32 135 363
-31 133 360
-29 131 354
-28 131 353
-26 127 343
-26 132 356
-24 125 338
-22 125 338
-23 131 353
-21 127 343
-19 123 331
-18 126 340
-18 128 347
-16 125 337
-16 128 345
-14 124 336
-14 133 360
-13 129 349
-11 124 334
-10 123 333
-9 128 346
-8 127 344
-8 134 363
-6 125 338
-5 130 352
-4 125 338
-3 124 334
-2 131 354
-1 129 351
0 127 343
0 125 337
1 122 330
2 121 328
3 116 315
4 120 325
5 121 328
7 129 349
8 126 340
8 121 328
9 120 323
10 120 325
11 122 331
13 124 335
13 117 316
16 136 368
14 107 288
16 121 328
16 112 301
18 120 324
20 123 334
19 114 308
21 119 323
22 119 320
22 116 312
25 122 331
25 119 320
26 118 319
28 125 337
28 121 327
30 123 333
31 122 330
30 116 313
34 126 341
34 123 333
35 122 330
35 121 327
38 127 343
39 127 343
41 129 348
41 127 343
41 124 335
43 126 339
43 122 330
46 127 342
42 115 310
45 119 321
44 113 304
44 113 303
44 110 295
44 107 287
47 111 299
45 106 283
43 98 262
40 89 236
40 87 230
38 81 215
31 65 169
34 69 182
28 56 146
24 47 120
23 44 112
24 44 113
25 47 120
29 54 139
24 44 111
22 38 95
28 49 126
28 48 123
31 53 137
28 48 122
26 43 110
31 50 129
33 54 138
42 68 177
51 83 217
41 65 168
39 61 157
60 92 243
62 95 249
53 79 207
70 104 275
68 100 263
75 109 287
74 107 281
75 107 281
74 105 276
79 110 290
81 111 292
77 105 275
85 114 301
84 112 294
87 114 301
84 109 287
91 117 308
94 120 315
86 108 284
74 91 238
94 116 305
94 115 302
91 110 287
95 114 298
92 109 283
98 115 299
100 116 302
99 114 298
103 117 306
105 118 308
102 115 298
108 120 311
108 119 308
109 119 308
107 116 300
104 111 286
108 114 295
113 119 308
103 107 276
107 110 284
116 119 306
112 114 293
121 122 313
116 116 298
119 118 302
124 121 311
113 110 280
123 119 304
118 113 289
121 115 294
119 112 286
125 117 298
124 115 293
122 113 286
127 116 293
128 116 295
137 123 312
129 115 291
131 116 292
128 113 284
133 117 294
140 121 306
134 115 290
136 116 292
143 122 305
140 118 295
135 113 282
140 116 291
142 117 292
138 113 282
147 120 298
150 121 302
138 111 274
158 126 313
147 117 288
157 124 306
150 117 288
154 120 295
146 113 277
153 117 288
161 123 301
158 120 293
164 123 302
169 126 309
158 117 286
167 123 300
169 124 302
176 129 313
175 127 309
187 134 326
191 136 331
162 116 278
133 94 225
168 118 283
160 112 267
172 119 286
150 104 247
162 112 266
136 92 218
134 91 214
-171 121 278
-167 120 275
-171 123 284
-171 123 285
-168 122 283
-165 120 279
-163 120 278
-160 118 275
-166 124 288
-158 118 276
-161 121 284
-174 132 310
-169 129 303
-180 138 324
-152 118 277
-153 119 280
-151 118 279
-153 121 286
-150 119 281
-143 114 270
-143 115 273
-144 116 277
-136 111 264
-142 116 278
-138 113 271
-123 102 244
-126 106 253
-112 95 226
-93 80 190
-123 105 253
-109 95 227
-115 100 241
-124 108 261
-122 108 260
-132 117 284
-140 124 303
-139 125 304
-136 122 298
-132 120 294
-133 122 298
-132 122 299
-134 124 305
-125 117 287
-126 119 293
-125 119 292
-126 120 296
-121 117 288
-122 119 295
-119 117 289
-116 114 284
-121 121 300
-120 121 300
-116 117 292
-113 115 286
-114 118 293
-116 121 301
-114 119 297
-113 120 299
-104 111 278
-115 123 309
-112 121 304
-109 119 298
-111 122 307
-104 116 293
-107 120 304
-106 120 303
-109 124 315
-112 128 326
-106 123 313
-109 128 324
-104 123 313
-105 126 320
-104 125 319
-107 131 334
-105 129 329
-111 137 352
-107 134 344
-112 141 363
-104 133 341
-103 133 341
-102 133 342
-105 139 357
-106 141 364
-98 133 342
-98 134 345
-93 128 331
-96 134 346
-92 130 336
-94 134 346
-93 134 348
-86 126 327
-91 134 349
-90 134 349
-84 128 331
-84 129 336
-85 133 345
-85 134 349
-79 126 327
-84 136 354
-80 130 340
-86 142 370
-81 136 356
-74 127 332
-77 134 350
-78 137 359
-72 128 336
-77 139 365
-72 133 348
-73 135 356
-75 141 371
-77 148 389
-74 144 379
-66 130 343
-71 141 373
-71 145 383
-70 145 384
-69 145 382
-66 141 373
-58 126 334
-63 139 368
-57 130 344
-59 137 363
-54 128 338
-51 124 327
-55 134 356
-53 133 353
-50 128 338
-50 130 345
-50 132 352
-49 134 357
-47 132 351
-46 132 351
-45 132 350
-45 133 354
-43 133 354
-43 134 358
-41 133 355
-42 139 372
-41 139 371
-40 140 374
