VERSION 0.7
FIELDS x y z
SIZE 4 4 4
TYPE I I I
COUNT 1 1 1
WIDTH 3631
HEIGHT 1
VIEWPOINT 0.0 0.0 0.0 1.0 0.0 0.0 0.0
POINTS 3631
DATA ascii
-889 670 2537
-886 673 2554
-883 677 2571
-874 676 2570
-874 682 2595
-865 682 2596
-861 685 2608
-856 687 2619
-851 690 2633
-847 692 2645
-844 697 2665
-834 695 2660
-829 698 2673
-823 700 2683
-818 702 2693
-814 705 2709
-808 707 2719
-801 709 2727
-794 710 2734
-790 713 2749
-779 711 2742
-772 712 2750
-770 717 2772
-761 717 2773
-755 719 2784
-746 718 2781
-739 720 2791
-725 715 2772
-712 709 2753
-704 710 2759
-693 707 2748
-686 708 2753
-678 709 2757
-666 705 2744
-659 706 2751
-650 705 2747
-642 705 2751
-630 701 2736
-623 702 2744
-614 701 2742
-605 700 2737
-596 699 2736
-587 699 2736
-578 698 2733
-569 697 2731
-558 693 2719
-548 690 2709
-536 685 2690
-448 583 2288
-453 598 2349
0 0 0
0 0 0
0 0 0
0 0 0
0 0 0
0 0 0
0 0 0
0 0 0
-383 586 2314
0 0 0
0 0 0
-355 574 2267
0 0 0
0 0 0
-310 532 2105
0 0 0
0 0 0
0 0 0
-305 569 2255
-296 564 2238
-296 576 2285
-282 562 2229
-268 547 2171
-263 550 2182
-269 577 2292
-263 578 2298
-246 555 2207
-235 546 2170
-220 524 2083
-222 546 2171
-228 575 2289
-213 553 2201
-216 579 2304
-204 564 2247
-186 532 2118
-187 555 2210
-175 538 2143
-174 553 2206
-171 564 2251
-160 549 2189
-152 546 2177
-145 541 2158
-138 541 2159
-130 534 2132
-126 545 2175
-121 548 2189
-114 547 2186
-108 548 2189
-102 550 2199
-94 541 2161
-89 549 2193
-80 535 2139
-75 544 2176
-68 540 2160
-63 553 2211
-57 549 2198
-49 539 2158
-43 544 2177
-39 571 2285
-33 590 2363
-27 601 2406
-20 616 2468
-14 627 2511
-6 627 2512
0 625 2505
8 624 2502
15 625 2504
22 625 2506
30 623 2496
36 606 2430
41 577 2313
47 562 2250
53 560 2244
60 563 2255
67 566 2268
75 577 2310
85 600 2404
95 619 2480
102 618 2475
110 619 2482
117 619 2482
124 619 2481
131 617 2474
138 617 2473
146 619 2479
153 617 2474
160 616 2467
167 615 2465
175 617 2472
181 614 2460
189 615 2462
196 615 2463
203 614 2457
210 613 2455
217 613 2453
224 612 2451
231 611 2446
238 611 2444
245 610 2443
253 612 2450
260 611 2442
267 611 2442
273 607 2427
280 608 2433
287 608 2430
295 608 2430
301 606 2423
308 606 2421
315 605 2416
323 607 2425
329 605 2415
336 605 2415
342 603 2405
349 602 2402
357 604 2410
364 603 2405
371 603 2404
377 601 2394
385 603 2402
391 600 2392
398 600 2390
405 600 2389
410 598 2379
418 599 2384
425 598 2378
431 597 2372
439 598 2377
445 597 2372
453 598 2376
461 599 2378
460 589 2336
472 596 2362
480 596 2362
487 596 2363
494 595 2359
500 594 2354
507 595 2355
514 594 2352
518 591 2339
526 591 2338
533 592 2341
539 591 2333
545 590 2329
554 592 2335
561 592 2334
567 591 2328
573 590 2323
581 590 2325
588 590 2323
595 591 2324
601 589 2317
607 588 2312
614 589 2312
623 590 2315
628 588 2306
635 588 2307
642 588 2303
647 586 2296
656 588 2301
661 586 2292
668 586 2290
673 584 2281
680 585 2283
689 587 2287
694 585 2279
701 584 2275
709 585 2277
714 584 2271
723 586 2276
729 584 2269
736 585 2269
744 585 2269
748 583 2260
755 583 2258
763 584 2258
769 583 2253
777 584 2256
781 582 2245
789 583 2247
795 582 2242
802 581 2238
811 583 2243
818 583 2241
823 582 2233
830 582 2232
835 580 2223
842 580 2223
849 580 2220
857 581 2219
862 580 2214
867 579 2207
880 582 2219
884 581 2210
891 581 2208
898 580 2204
906 581 2205
912 580 2199
919 580 2198
926 581 2197
933 580 2193
939 580 2188
945 579 2185
953 580 2184
961 581 2184
966 579 2176
969 577 2166
984 581 2180
984 577 2162
1025 598 2236
1013 586 2191
1030 592 2210
1038 592 2207
1045 593 2206
1045 588 2188
1039 581 2157
1038 577 2138
1022 564 2088
972 533 1970
995 541 1999
944 511 1883
768 413 1517
698 373 1368
707 375 1375
715 377 1379
719 376 1376
751 391 1426
861 445 1624
926 476 1734
939 480 1745
944 479 1741
950 479 1739
966 484 1755
970 483 1749
972 482 1739
978 482 1737
982 481 1731
993 483 1738
999 483 1735
1004 483 1730
-1372 677 2319
-1339 664 2280
-1330 664 2282
-1323 664 2287
-1310 661 2281
-1299 660 2279
-1290 659 2280
-1283 659 2286
-1268 655 2276
-1249 649 2258
-1243 650 2266
-1233 649 2264
-1223 647 2263
-1208 643 2252
-1196 641 2248
-1190 641 2253
-1170 634 2232
-1164 635 2238
-1154 633 2236
-1144 632 2235
-1130 628 2225
-1119 626 2220
-1111 625 2221
-1097 621 2210
-1047 597 2128
-990 568 2028
-963 556 1987
-961 559 2000
-967 566 2029
-967 570 2046
-962 571 2051
-960 573 2064
-958 576 2076
-962 582 2102
-972 593 2142
-971 596 2157
-975 602 2183
-976 607 2204
-976 612 2225
-973 614 2236
-972 618 2253
-967 619 2259
-965 623 2275
-963 626 2289
-953 624 2286
-959 632 2319
-951 632 2320
-948 635 2334
-945 638 2346
-944 642 2366
-940 645 2378
-931 643 2375
-928 646 2390
-928 651 2411
-919 650 2409
-918 655 2429
-916 658 2445
-911 660 2456
-906 662 2466
-904 666 2482
-902 670 2500
-894 670 2503
-895 676 2528
-890 678 2539
-887 682 2556
-880 683 2560
-878 687 2579
-866 685 2572
-870 694 2609
-862 693 2609
-857 696 2621
-852 698 2634
-850 703 2653
-839 700 2646
-832 701 2652
-833 709 2683
-824 708 2683
-820 712 2699
-814 714 2708
-806 714 2710
-798 714 2714
-793 717 2728
-789 721 2743
-782 722 2751
-774 722 2752
-770 726 2770
-760 725 2768
-756 729 2787
-746 728 2783
-742 732 2801
-726 724 2773
-714 720 2760
-703 717 2752
-695 717 2754
-686 717 2753
-676 715 2748
-669 716 2756
-658 713 2746
-649 712 2744
-640 712 2743
-631 711 2742
-622 710 2739
-610 705 2724
-604 707 2732
-597 709 2740
-587 706 2732
-578 706 2732
-568 703 2722
-562 706 2736
-552 704 2729
-539 697 2706
-458 602 2334
-433 578 2244
0 0 0
0 0 0
0 0 0
0 0 0
0 0 0
0 0 0
0 0 0
0 0 0
-369 572 2228
0 0 0
0 0 0
0 0 0
0 0 0
0 0 0
0 0 0
0 0 0
-327 592 2314
0 0 0
0 0 0
0 0 0
-283 558 2184
-275 554 2172
-265 548 2148
-279 590 2315
-258 561 2200
-243 542 2128
-239 548 2149
-247 580 2277
-224 540 2122
-216 536 2107
-225 576 2263
-220 578 2274
-207 562 2209
-194 545 2142
-194 562 2209
-183 550 2165
-181 563 2216
-172 555 2184
-165 552 2173
-156 545 2145
-150 545 2147
-146 554 2183
-140 556 2190
-136 565 2228
-128 556 2194
-118 544 2147
-115 557 2199
-106 543 2142
-103 563 2221
-95 554 2186
-88 553 2185
-81 548 2163
-74 545 2153
-70 559 2209
-62 551 2176
-55 546 2157
-50 552 2181
-43 553 2187
-39 574 2271
-34 607 2402
-27 617 2439
-21 627 2481
-14 636 2517
-6 636 2515
0 635 2512
8 634 2510
15 634 2511
22 633 2505
30 633 2505
37 625 2472
43 611 2418
48 584 2310
53 567 2242
60 569 2251
67 570 2255
74 576 2280
82 585 2314
93 610 2414
102 625 2476
110 626 2477
117 625 2476
124 627 2483
132 626 2479
139 626 2479
146 624 2470
153 623 2466
160 624 2469
167 623 2467
174 622 2461
182 624 2468
189 623 2466
196 623 2464
203 622 2462
211 622 2462
217 619 2448
224 619 2446
232 621 2455
238 619 2446
246 619 2447
253 619 2446
260 619 2446
267 617 2437
273 616 2433
280 616 2432
287 615 2429
295 616 2432
301 614 2424
308 613 2419
316 615 2424
322 613 2418
329 613 2416
337 613 2416
345 614 2422
351 613 2415
357 611 2407
364 611 2405
371 611 2405
377 608 2392
384 609 2396
391 608 2391
398 608 2391
405 607 2387
413 609 2393
419 608 2388
426 607 2386
432 606 2379
439 605 2377
446 606 2376
453 605 2373
462 607 2381
462 599 2346
475 605 2371
481 604 2366
486 601 2355
494 603 2360
500 601 2351
507 601 2351
513 600 2346
521 601 2348
526 598 2337
534 600 2341
541 600 2340
548 600 2340
554 599 2332
561 598 2330
567 598 2327
574 598 2325
579 595 2314
588 598 2323
596 598 2325
602 598 2320
607 595 2310
615 596 2311
620 594 2301
628 596 2307
635 596 2306
641 594 2300
648 594 2296
654 593 2291
664 596 2300
668 593 2290
675 594 2289
683 594 2291
689 593 2284
695 593 2281
703 593 2281
708 592 2275
718 594 2283
724 593 2276
727 590 2262
736 592 2267
744 592 2267
748 590 2258
756 590 2257
764 591 2259
769 590 2251
777 591 2253
783 590 2249
789 589 2244
794 588 2237
804 590 2244
810 589 2238
815 588 2232
823 589 2232
832 590 2236
837 588 2227
844 589 2225
850 588 2221
856 587 2217
863 587 2213
869 586 2208
878 588 2212
885 588 2210
892 588 2209
897 587 2202
904 587 2199
911 586 2195
920 588 2200
927 588 2197
931 586 2187
940 587 2190
946 587 2185
954 587 2185
961 587 2182
965 586 2173
972 585 2170
995 595 2203
984 585 2162
1019 601 2219
1021 598 2205
1044 607 2238
1039 600 2209
1046 600 2205
1041 593 2178
1036 586 2150
1041 585 2143
1020 570 2083
975 541 1973
1001 551 2010
912 499 1817
729 397 1439
726 392 1422
708 380 1375
734 392 1416
718 380 1373
760 400 1443
880 461 1659
927 482 1735
941 486 1748
945 486 1742
954 487 1744
955 485 1734
967 488 1742
967 485 1728
977 487 1733
979 485 1725
992 488 1734
985 482 1709
1006 489 1732
-1352 675 2283
-1355 680 2305
-1332 672 2283
-1325 673 2289
-1312 670 2283
-1303 669 2284
-1297 670 2292
-1280 665 2278
-1265 661 2268
-1255 660 2267
-1242 657 2261
-1237 658 2269
-1225 656 2265
-1214 654 2261
-1198 649 2248
-1190 648 2251
-1170 641 2230
-1157 639 2224
-1161 645 2249
-1145 639 2234
-1134 637 2230
-1118 632 2216
-1114 634 2225
-1100 630 2215
-1064 614 2160
-1000 581 2047
-966 564 1992
-959 565 1995
-964 571 2022
-964 575 2037
-963 578 2051
-959 579 2059
-959 583 2077
-957 586 2089
-969 597 2133
-973 604 2159
-980 613 2195
-974 613 2199
-976 619 2223
-975 623 2238
-967 622 2240
-968 627 2261
-965 630 2272
-961 632 2284
-955 633 2289
-952 636 2302
-954 641 2326
-950 644 2337
-944 644 2343
-942 648 2358
-935 648 2362
-931 650 2373
-927 653 2385
-926 657 2404
-923 660 2417
-921 665 2435
-913 664 2437
-913 670 2460
-909 672 2471
-903 674 2479
-895 673 2481
-894 678 2502
-891 681 2516
-888 685 2531
-883 687 2543
-880 691 2560
-877 694 2575
-867 693 2572
-867 699 2596
-860 700 2602
-858 705 2624
-854 708 2636
-850 711 2651
-838 708 2643
-835 713 2662
-827 713 2665
-823 716 2680
-817 718 2689
-814 723 2709
-807 723 2712
-805 728 2735
-793 726 2726
-789 729 2742
-785 733 2759
-774 731 2753
-765 730 2752
-762 735 2773
-753 735 2774
-742 732 2766
-737 735 2779
-723 729 2759
-714 729 2760
-708 730 2768
-696 727 2756
-688 728 2761
-678 725 2754
-668 724 2749
-660 723 2750
-648 720 2739
-640 719 2739
-631 719 2740
-624 720 2746
-614 718 2738
-605 717 2738
-595 715 2729
-587 714 2730
-578 714 2730
-569 713 2729
-559 710 2718
-551 710 2719
-535 700 2682
-454 604 2316
-438 592 2269
0 0 0
0 0 0
0 0 0
0 0 0
0 0 0
0 0 0
0 0 0
0 0 0
0 0 0
0 0 0
-396 643 2479
0 0 0
0 0 0
0 0 0
-324 569 2197
-320 573 2214
-322 588 2274
0 0 0
0 0 0
0 0 0
-302 602 2330
-272 556 2151
-276 578 2237
0 0 0
-260 572 2216
-239 540 2092
-255 589 2284
-240 570 2212
-236 575 2232
-227 569 2209
-199 515 2000
-205 548 2127
-203 558 2168
-196 557 2165
-191 561 2182
-190 576 2241
-183 574 2231
-176 575 2236
-169 571 2223
-157 554 2157
-156 571 2225
-144 552 2149
-145 579 2256
-133 560 2183
-124 546 2128
-121 563 2193
-115 563 2195
-110 572 2229
-102 562 2191
-97 570 2223
-88 560 2186
-81 555 2167
-74 550 2145
-69 556 2169
-63 565 2206
-55 550 2148
-50 566 2210
-45 574 2241
-39 584 2280
-34 618 2414
-27 622 2431
-21 635 2483
-13 643 2514
-6 643 2514
0 643 2516
8 642 2508
15 640 2504
22 640 2504
30 639 2500
37 638 2495
44 636 2486
50 620 2426
55 588 2301
60 573 2241
67 576 2254
74 580 2268
82 590 2306
92 611 2390
102 633 2477
110 634 2479
117 635 2483
124 631 2469
131 632 2472
139 632 2472
146 631 2466
153 630 2465
160 631 2469
168 632 2470
175 632 2470
182 629 2459
189 630 2464
196 628 2453
203 628 2454
210 627 2451
217 627 2451
225 628 2453
230 624 2437
238 624 2438
245 624 2436
253 625 2440
259 624 2435
267 626 2442
274 624 2435
281 625 2438
288 623 2429
294 620 2419
301 620 2417
308 621 2420
316 621 2420
323 622 2422
329 619 2410
336 618 2407
345 622 2420
349 617 2402
358 620 2414
364 617 2401
371 617 2399
378 618 2401
384 616 2394
391 615 2391
399 616 2394
407 617 2397
413 616 2391
419 614 2384
425 613 2378
433 613 2379
440 613 2377
445 611 2369
456 616 2385
462 614 2378
460 603 2334
474 611 2365
481 612 2367
486 609 2354
494 610 2359
500 609 2352
507 608 2348
514 608 2348
521 608 2347
528 608 2344
534 607 2339
540 605 2333
549 608 2342
555 607 2335
562 606 2332
568 606 2329
575 605 2326
582 605 2325
589 605 2323
596 605 2322
601 603 2314
607 602 2308
613 601 2303
623 604 2312
627 602 2302
633 600 2296
642 602 2301
650 603 2303
654 600 2292
663 602 2298
668 600 2288
678 603 2297
682 600 2285
689 600 2283
695 600 2280
702 599 2276
710 600 2279
718 601 2279
722 598 2267
732 601 2276
735 597 2261
746 601 2272
752 600 2267
759 600 2266
765 599 2259
772 599 2258
777 597 2251
782 596 2245
790 597 2246
798 597 2245
807 599 2250
809 595 2234
818 597 2237
825 597 2234
831 596 2231
839 597 2231
847 597 2230
851 596 2223
857 595 2216
863 594 2212
869 593 2207
877 594 2208
887 596 2213
891 594 2203
898 594 2202
907 595 2203
914 595 2201
920 595 2197
925 593 2190
932 594 2189
941 595 2191
948 595 2188
956 595 2187
962 595 2182
967 594 2176
971 592 2167
978 592 2164
987 593 2165
995 594 2167
1038 615 2240
1024 602 2192
1040 608 2209
1047 607 2205
1045 602 2184
1037 593 2149
1042 593 2143
1018 575 2077
974 547 1971
1005 560 2018
883 489 1757
724 398 1428
725 396 1418
717 389 1391
708 382 1363
729 391 1393
776 413 1472
886 469 1669
933 491 1744
950 497 1762
944 490 1738
957 494 1748
964 495 1749
971 496 1748
977 496 1745
974 491 1726
983 493 1729
983 490 1716
998 494 1730
1002 494 1725
-1346 680 2271
-1345 683 2286
-1333 681 2284
-1326 681 2288
-1310 677 2278
-1302 676 2280
-1286 672 2270
-1284 675 2283
-1271 672 2276
-1251 665 2259
-1244 665 2263
-1228 661 2250
-1224 663 2262
-1213 661 2259
-1200 657 2251
-1187 654 2244
-1172 650 2232
-1162 648 2230
-1148 645 2221
-1144 647 2231
-1136 646 2234
-1125 644 2228
-1112 640 2221
-1100 638 2214
-1069 623 2168
-1009 593 2064
-967 572 1993
-963 573 2000
-964 577 2018
-964 581 2035
-965 586 2055
-963 588 2066
-958 590 2073
-957 593 2089
-965 602 2122
-976 613 2166
-968 612 2166
-974 621 2198
-974 625 2216
-976 631 2239
-970 631 2245
-972 637 2268
-962 635 2264
-964 641 2290
-952 638 2280
-955 644 2306
-952 648 2321
-947 649 2327
-944 652 2342
-940 654 2352
-937 657 2365
-932 658 2373
-929 662 2387
-923 662 2393
-921 667 2411
-918 670 2427
-912 671 2432
-913 677 2458
-907 678 2464
-904 682 2479
-899 683 2488
-894 685 2498
-894 692 2524
-886 692 2526
-885 697 2546
-884 702 2570
-879 704 2579
-870 703 2579
-869 709 2602
-861 709 2604
-860 714 2627
-849 712 2622
-842 713 2625
-840 718 2647
-836 721 2662
-829 722 2667
-825 726 2684
-818 727 2690
-816 733 2714
-810 734 2720
-802 734 2725
-797 737 2737
-789 738 2741
-784 741 2754
-777 742 2763
-768 741 2761
-760 741 2763
-756 745 2781
-747 745 2781
-739 746 2786
-727 742 2775
-713 736 2755
-707 738 2762
-695 735 2753
-684 732 2744
-678 734 2753
-668 732 2749
-658 730 2742
-649 729 2740
-643 731 2751
-632 728 2740
-622 726 2735
-615 727 2740
-603 722 2724
-596 724 2733
-588 724 2735
-579 723 2731
-567 719 2716
-559 718 2717
-550 718 2716
-537 711 2693
-477 642 2431
-437 597 2262
0 0 0
0 0 0
0 0 0
0 0 0
0 0 0
0 0 0
0 0 0
0 0 0
0 0 0
0 0 0
0 0 0
0 0 0
0 0 0
-314 547 2087
0 0 0
0 0 0
-318 589 2247
0 0 0
-294 568 2171
-305 601 2299
-284 573 2189
-284 587 2247
0 0 0
-255 554 2120
-267 592 2268
-240 546 2092
-243 570 2183
-231 554 2125
-234 579 2219
-221 562 2154
-228 597 2290
-217 584 2241
-203 565 2167
-195 559 2146
-191 568 2181
-187 575 2211
-176 560 2152
-176 581 2235
-167 573 2201
-160 572 2200
-152 564 2169
-150 581 2235
-146 591 2276
-137 584 2247
-128 573 2206
-117 552 2124
-117 579 2230
-107 562 2164
-104 581 2238
-98 585 2256
-90 575 2218
-82 568 2189
-77 574 2213
-71 581 2239
-61 557 2147
-56 567 2189
-51 580 2239
-44 579 2233
-38 582 2245
-33 612 2364
-27 618 2384
-20 641 2476
-13 639 2467
-6 650 2512
0 650 2509
8 649 2508
15 648 2502
23 649 2509
30 648 2503
37 647 2500
45 646 2498
51 640 2473
57 623 2407
61 594 2294
67 585 2261
76 601 2320
85 620 2395
94 635 2452
102 640 2475
110 642 2482
117 641 2479
124 641 2478
132 641 2477
138 638 2463
146 642 2478
153 639 2470
160 639 2467
168 638 2465
175 638 2465
182 637 2460
190 641 2476
196 637 2460
204 638 2465
211 636 2455
218 637 2458
225 636 2454
232 635 2451
239 633 2443
245 632 2439
253 633 2442
260 632 2439
267 633 2440
274 632 2437
281 631 2433
288 631 2430
295 630 2429
303 632 2433
309 630 2427
316 628 2418
323 628 2418
330 627 2414
336 626 2410
343 626 2408
351 627 2411
356 624 2399
364 625 2404
371 625 2401
378 624 2398
386 625 2401
392 624 2397
399 623 2392
405 622 2385
412 622 2387
420 623 2387
426 622 2383
433 620 2377
439 619 2373
448 621 2379
455 622 2381
462 621 2377
464 615 2353
476 621 2374
480 618 2360
488 618 2360
495 618 2359
502 618 2358
507 616 2350
515 617 2353
520 614 2342
530 617 2351
534 614 2338
543 616 2343
546 611 2325
555 614 2333
560 612 2326
570 615 2335
575 612 2324
582 613 2326
590 613 2325
595 611 2318
602 611 2315
608 610 2310
615 610 2309
624 612 2314
630 611 2310
636 610 2303
642 609 2298
649 609 2297
655 608 2293
663 609 2293
669 608 2288
676 608 2289
685 609 2292
689 607 2280
694 605 2272
703 607 2278
710 607 2276
717 607 2274
722 605 2267
730 606 2267
737 606 2266
744 606 2264
751 606 2264
758 606 2262
764 605 2255
770 605 2252
779 606 2255
785 605 2250
791 604 2246
797 603 2240
805 605 2242
810 603 2235
816 602 2230
826 605 2236
834 605 2235
837 602 2223
845 603 2226
851 602 2219
860 604 2222
864 602 2213
867 599 2202
878 602 2210
885 602 2206
893 603 2207
898 601 2200
906 602 2201
913 602 2199
920 602 2195
930 604 2200
933 601 2189
939 601 2184
945 600 2180
957 603 2187
960 600 2176
963 598 2166
974 600 2171
975 597 2155
986 599 2162
1002 605 2178
1012 607 2183
1045 622 2236
1039 614 2204
1047 615 2205
1044 609 2179
1035 599 2143
1037 597 2131
1017 581 2072
973 552 1966
1008 568 2022
849 475 1687
712 396 1402
702 388 1371
708 389 1373
730 399 1405
722 392 1379
787 424 1491
899 481 1692
930 495 1737
950 502 1761
951 500 1749
950 497 1735
962 500 1743
964 498 1734
973 499 1736
974 497 1725
974 494 1713
992 500 1731
996 499 1725
1002 499 1723
-1338 683 2255
-1359 698 2308
-1331 687 2278
-1328 690 2290
-1306 682 2268
-1304 685 2282
-1286 679 2268
-1275 678 2266
-1276 682 2285
-1253 674 2260
-1250 676 2273
-1228 668 2250
-1217 666 2246
-1211 667 2252
-1197 663 2244
-1193 665 2253
-1171 657 2228
-1171 661 2245
-1157 657 2236
-1142 653 2225
-1135 653 2229
-1128 653 2232
-1108 645 2210
-1104 647 2219
-1088 642 2205
-1021 606 2085
-973 582 2004
-965 581 2003
-961 582 2012
-968 590 2042
-963 591 2049
-960 593 2059
-957 595 2069
-957 599 2086
-962 607 2115
-979 622 2170
-970 621 2169
-975 628 2197
-981 637 2231
-972 635 2228
-969 638 2240
-972 644 2266
-968 647 2277
-963 648 2285
-957 648 2289
-953 651 2301
-955 657 2326
-947 656 2326
-948 662 2349
-946 666 2365
-937 664 2364
-935 669 2381
-930 670 2389
-928 674 2405
-924 676 2417
-917 676 2420
-913 679 2433
-909 682 2445
-907 686 2462
-902 688 2473
-901 693 2494
-895 695 2501
-892 698 2517
-886 699 2524
-882 703 2538
-881 708 2560
-879 712 2577
-872 713 2584
-868 716 2596
-864 719 2612
-857 720 2615
-852 723 2628
-846 725 2638
-842 727 2650
-836 729 2659
-831 733 2674
-825 734 2681
-819 736 2690
-814 739 2703
-808 741 2714
-799 740 2713
-792 741 2718
-789 746 2739
-785 750 2756
-775 749 2754
-769 751 2763
-760 750 2761
-755 753 2777
-746 753 2778
-740 755 2789
-727 750 2771
-713 745 2753
-708 748 2767
-696 744 2754
-688 744 2758
-676 740 2744
-668 740 2746
-659 739 2744
-650 738 2741
-643 739 2749
-634 739 2748
-623 736 2738
-614 735 2737
-605 734 2735
-595 732 2728
-586 730 2724
-578 731 2727
-571 732 2734
-561 729 2726
-552 728 2722
-537 719 2689
-485 660 2469
-435 602 2252
0 0 0
0 0 0
0 0 0
0 0 0
0 0 0
-385 587 2202
0 0 0
-385 607 2283
0 0 0
0 0 0
0 0 0
-335 568 2138
0 0 0
0 0 0
-317 570 2147
0 0 0
0 0 0
-304 582 2196
-311 608 2297
-301 601 2268
0 0 0
-271 567 2145
-270 578 2187
-257 564 2132
-268 601 2276
-252 582 2203
-244 577 2186
-250 608 2303
-233 582 2205
-224 576 2182
-218 577 2189
-208 568 2153
-205 577 2189
-201 584 2214
-194 582 2208
-189 586 2226
-180 578 2196
-170 568 2159
-166 577 2192
-157 567 2153
-152 570 2168
-148 579 2202
-141 577 2193
-133 572 2176
-127 574 2185
-122 583 2217
-113 568 2163
-109 581 2211
-101 571 2174
-97 585 2228
-90 581 2212
-83 582 2217
-76 574 2189
-68 564 2149
-61 555 2117
-55 563 2144
-50 578 2203
-44 581 2214
-38 584 2228
-33 620 2364
-27 628 2397
-20 637 2431
-13 634 2419
-6 652 2489
0 655 2500
8 657 2509
15 657 2509
23 657 2509
30 656 2504
37 653 2494
45 655 2502
52 653 2494
59 647 2471
64 630 2404
69 611 2331
78 629 2400
88 648 2476
95 650 2481
103 652 2488
110 649 2477
117 650 2480
125 649 2477
132 648 2476
139 648 2474
146 648 2475
153 647 2471
161 648 2475
168 648 2472
175 646 2465
182 645 2461
189 644 2456
196 643 2452
203 643 2455
210 642 2450
217 642 2448
225 643 2452
231 641 2443
238 640 2439
246 641 2444
253 640 2440
260 640 2439
267 639 2436
274 639 2434
281 638 2431
288 637 2425
296 640 2437
302 638 2427
309 637 2425
316 637 2423
322 634 2413
330 635 2414
337 635 2414
344 635 2415
351 635 2412
358 633 2406
364 631 2398
372 633 2403
378 631 2395
385 631 2395
392 631 2392
399 630 2389
407 631 2393
412 629 2384
419 628 2380
426 628 2379
433 628 2377
439 627 2372
447 627 2374
457 632 2389
464 632 2388
464 622 2351
475 627 2370
481 626 2364
489 626 2363
495 625 2357
502 626 2359
508 624 2350
515 624 2351
520 621 2337
528 623 2344
534 621 2338
541 621 2335
548 621 2333
554 620 2328
561 619 2325
568 619 2325
573 617 2316
584 621 2329
591 621 2327
597 620 2324
602 618 2312
610 620 2318
616 618 2310
623 618 2311
630 618 2308
637 618 2306
643 617 2302
650 617 2299
657 617 2297
662 615 2289
671 617 2294
677 616 2290
683 615 2286
690 615 2282
696 614 2279
703 614 2278
712 616 2282
715 612 2266
726 615 2276
730 613 2266
738 614 2268
746 614 2268
753 615 2268
756 611 2252
765 613 2256
772 613 2256
779 613 2252
787 614 2254
792 612 2247
799 612 2244
806 612 2243
812 611 2237
818 610 2233
826 611 2233
831 610 2227
838 610 2225
845 610 2223
851 610 2219
859 610 2219
864 609 2212
872 609 2211
878 609 2207
887 610 2210
891 608 2201
899 608 2199
907 609 2201
914 609 2198
923 611 2201
928 610 2195
933 608 2187
940 608 2185
947 608 2182
954 608 2178
963 609 2181
967 608 2173
977 609 2177
976 604 2156
988 608 2165
1000 610 2172
1018 617 2193
1010 608 2158
1042 623 2210
1049 623 2207
1039 613 2167
1038 608 2147
1038 604 2131
1017 588 2070
981 563 1980
1003 572 2010
828 469 1645
739 416 1454
711 398 1388
717 398 1389
708 391 1360
750 411 1431
807 440 1529
913 495 1717
943 508 1759
941 503 1743
947 504 1741
958 507 1748
963 506 1743
965 504 1735
977 507 1743
973 502 1722
979 502 1720
992 506 1730
997 505 1725
1000 504 1717
-1357 701 2286
-1343 697 2279
-1332 695 2277
-1317 691 2268
-1303 688 2261
-1290 685 2256
-1274 680 2244
-1264 679 2244
-1259 680 2252
-1247 678 2248
-1233 674 2239
-1219 670 2230
-1212 671 2235
-1210 674 2248
-1205 675 2256
-1189 670 2245
-1180 669 2244
-1170 668 2242
-1151 661 2223
-1148 663 2236
-1131 657 2219
-1124 658 2223
-1120 659 2232
-1108 657 2227
-1084 646 2195
-1032 619 2106
-977 591 2011
-957 582 1985
-961 589 2010
-966 596 2038
-964 598 2049
-960 600 2058
-960 604 2074
-952 603 2075
-959 612 2108
-973 625 2155
-971 628 2168
-974 635 2195
-978 641 2221
-973 643 2229
-973 648 2249
-968 649 2257
-965 651 2267
-963 655 2284
-955 655 2285
-953 658 2298
-949 660 2310
-949 665 2329
-946 668 2342
-943 671 2357
-938 673 2364
-932 673 2370
-932 679 2392
-928 681 2403
-921 682 2409
-914 682 2412
-911 686 2427
-906 687 2436
-904 692 2454
-905 698 2479
-899 700 2487
-897 704 2504
-891 705 2511
-890 710 2532
-887 714 2550
-880 715 2554
-875 717 2566
-870 720 2577
-863 720 2580
-866 729 2615
-856 728 2612
-851 730 2625
-844 731 2630
-837 732 2636
-833 735 2649
-826 736 2655
-824 742 2678
-817 742 2683
-816 749 2710
-810 751 2717
-801 751 2719
-800 757 2746
-786 752 2729
-782 756 2746
-775 757 2753
-771 761 2768
-762 761 2769
-754 761 2771
-745 760 2771
-742 765 2793
-726 758 2766
-714 754 2756
-704 752 2749
-695 751 2748
-688 752 2755
-676 748 2741
-670 751 2754
-658 746 2738
-651 748 2748
-643 748 2748
-631 744 2735
-623 744 2738
-615 744 2740
-606 743 2737
-596 741 2730
-586 739 2725
-577 738 2722
-568 736 2718
-561 738 2724
-550 734 2714
-534 724 2676
-492 676 2502
-426 596 2205
-430 611 2260
0 0 0
-425 623 2307
0 0 0
0 0 0
0 0 0
-386 605 2247
0 0 0
0 0 0
0 0 0
-351 591 2197
0 0 0
-346 605 2253
-338 601 2239
-324 590 2196
0 0 0
-316 597 2227
-295 570 2126
-322 636 2374
-305 615 2298
-282 583 2176
-272 574 2145
-281 609 2276
0 0 0
-278 632 2363
-250 582 2178
-239 572 2139
-239 588 2200
-227 574 2148
-235 609 2283
-227 606 2272
-225 620 2323
-212 604 2264
-192 565 2120
-199 605 2270
-183 575 2158
-179 583 2187
-174 586 2200
-164 577 2165
-159 579 2173
-150 572 2148
-150 594 2232
-136 565 2123
-128 559 2101
-126 577 2170
-122 589 2215
-114 579 2176
-108 580 2182
-100 573 2155
-97 592 2229
-90 590 2222
-82 582 2191
-77 589 2219
-69 583 2195
-63 588 2213
-55 571 2151
-50 588 2215
-43 579 2182
-38 592 2232
-32 615 2320
-26 627 2363
-19 631 2381
-13 636 2399
-6 657 2477
1 666 2512
8 665 2507
15 664 2506
23 664 2504
30 662 2497
37 663 2503
45 663 2501
52 661 2494
59 659 2486
66 653 2464
73 649 2448
81 655 2472
89 661 2493
96 659 2487
103 658 2484
110 657 2480
117 657 2479
125 656 2477
132 656 2475
139 657 2479
146 655 2472
153 654 2469
160 653 2464
168 654 2468
175 655 2469
182 652 2460
190 654 2464
197 654 2464
204 653 2461
211 652 2458
218 649 2448
224 648 2442
232 650 2450
240 650 2449
246 648 2443
252 646 2433
261 648 2442
267 647 2437
275 648 2439
281 645 2429
288 646 2429
295 644 2425
303 645 2426
309 643 2420
316 642 2414
324 645 2424
331 644 2419
338 643 2417
344 642 2413
352 643 2415
358 641 2406
365 640 2401
372 640 2401
378 639 2396
385 639 2395
392 638 2390
399 637 2388
406 637 2386
412 636 2382
418 634 2375
427 637 2383
434 636 2380
440 634 2372
447 635 2374
458 640 2393
462 635 2374
465 630 2351
476 635 2371
481 633 2361
486 630 2351
496 634 2363
502 632 2355
508 631 2349
516 632 2352
520 628 2338
530 632 2350
534 628 2335
543 630 2341
547 627 2329
554 627 2326
561 627 2325
568 627 2325
575 626 2321
582 626 2319
590 627 2322
596 626 2316
603 627 2317
608 624 2308
617 626 2314
624 626 2313
631 626 2309
637 625 2304
643 624 2299
650 624 2298
656 623 2293
664 624 2295
669 622 2287
677 623 2289
686 624 2291
691 623 2285
696 621 2275
704 622 2279
709 620 2270
717 621 2272
724 621 2270
732 622 2271
738 621 2267
743 619 2257
750 619 2257
760 622 2264
765 620 2256
773 620 2256
779 620 2252
788 621 2256
789 616 2235
798 618 2240
807 620 2244
812 619 2238
818 617 2231
825 617 2229
833 619 2231
840 618 2228
847 618 2226
852 617 2218
858 616 2214
862 614 2205
872 616 2210
878 615 2204
889 618 2213
892 615 2200
902 618 2206
907 616 2199
914 616 2197
922 617 2197
927 616 2190
933 615 2185
940 615 2183
949 616 2184
956 616 2182
962 615 2177
967 614 2170
973 613 2165
976 611 2155
990 616 2168
1008 622 2189
1007 617 2167
1035 630 2210
1042 630 2207
1045 628 2197
1038 619 2164
1038 615 2147
1041 612 2134
1011 591 2056
985 572 1987
1000 577 2003
778 446 1542
716 408 1408
709 401 1382
696 391 1346
716 400 1376
703 390 1339
826 455 1563
917 503 1724
937 510 1747
947 513 1753
945 508 1736
953 510 1737
962 511 1740
978 516 1755
971 510 1730
985 514 1742
993 515 1742
992 512 1728
999 512 1727
1009 514 1731
-1371 716 2308
-1351 709 2291
-1331 702 2273
-1331 706 2290
-1308 699 2269
-1295 695 2262
-1282 693 2257
-1278 694 2267
-1253 685 2240
-1264 695 2276
-1239 685 2249
-1225 681 2240
-1209 677 2228
-1213 683 2252
-1208 684 2260
-1190 678 2244
-1174 673 2231
-1164 671 2228
-1161 674 2241
-1145 669 2228
-1136 668 2227
-1125 666 2223
-1114 663 2220
-1107 663 2222
-1090 658 2207
-1045 634 2132
-988 604 2032
-960 591 1990
-959 594 2005
-964 601 2031
-966 606 2052
-959 606 2054
-957 609 2066
-956 612 2080
-955 616 2097
-970 630 2147
-969 634 2163
-970 639 2182
-975 647 2213
-977 652 2236
-973 655 2247
-970 658 2259
-963 657 2262
-963 662 2280
-960 665 2294
-954 666 2299
-950 668 2309
-949 673 2329
-946 676 2342
-940 676 2346
-934 677 2353
-933 682 2373
-929 685 2384
-925 687 2394
-922 690 2408
-918 693 2421
-913 695 2431
-909 697 2442
-901 697 2444
-904 705 2475
-898 706 2481
-895 710 2496
-891 713 2511
-890 718 2530
-881 717 2531
-877 721 2545
-876 726 2566
-874 731 2586
-868 733 2595
-863 735 2606
-858 737 2617
-851 738 2622
-848 743 2641
-842 744 2647
-837 747 2660
-832 749 2672
-825 751 2680
-823 756 2701
-815 757 2705
-807 756 2706
-801 758 2716
-791 756 2711
-790 764 2740
-783 765 2747
-772 762 2738
-768 767 2756
-763 770 2770
-755 770 2773
-748 772 2782
-743 775 2794
-727 767 2769
-715 764 2758
-706 762 2754
-694 759 2744
-687 759 2749
-679 760 2752
-669 758 2748
-659 756 2743
-651 757 2746
-642 756 2745
-632 754 2738
-625 754 2743
-615 752 2735
-606 752 2736
-595 748 2726
-587 748 2725
-578 747 2724
-569 746 2721
-560 744 2717
-551 743 2716
-538 737 2692
-497 692 2528
-446 630 2303
0 0 0
0 0 0
-426 631 2312
0 0 0
0 0 0
0 0 0
0 0 0
0 0 0
0 0 0
-349 584 2144
-360 612 2249
-358 620 2281
-356 628 2311
0 0 0
0 0 0
-336 630 2319
0 0 0
0 0 0
-293 585 2158
0 0 0
0 0 0
0 0 0
-273 599 2211
-266 597 2204
0 0 0
-249 586 2168
-243 588 2175
-246 612 2265
-231 591 2186
-216 570 2108
-217 587 2173
-219 611 2262
-207 596 2208
-201 596 2208
-192 588 2182
-195 618 2293
-173 570 2114
-167 571 2119
-163 580 2152
-164 604 2244
-149 573 2127
-149 598 2220
-139 586 2176
-136 600 2230
-128 592 2200
-118 577 2143
-116 595 2213
-111 604 2246
-107 618 2299
-97 598 2226
-92 610 2270
-82 590 2197
-76 592 2204
-71 599 2230
-62 584 2173
-56 584 2176
-51 596 2220
-45 604 2248
-38 605 2252
-33 628 2339
-26 630 2349
-19 632 2357
-12 640 2386
-6 665 2478
1 673 2510
8 674 2512
15 673 2510
23 671 2501
30 670 2499
38 672 2505
45 671 2501
52 669 2497
59 667 2489
67 668 2490
74 667 2488
82 669 2495
89 670 2497
96 667 2488
103 666 2483
111 668 2490
118 665 2482
125 665 2480
132 665 2481
139 664 2475
147 665 2479
154 662 2467
161 661 2465
168 660 2460
176 662 2468
182 661 2462
190 661 2464
197 659 2456
204 660 2458
211 659 2455
218 658 2450
225 658 2449
233 658 2451
239 655 2440
246 654 2435
253 655 2439
260 655 2437
267 654 2434
276 657 2445
282 655 2437
289 654 2431
295 652 2424
302 652 2422
310 653 2428
315 648 2408
323 651 2417
330 650 2415
338 651 2416
343 647 2403
351 648 2404
358 647 2401
365 648 2403
372 648 2402
379 647 2398
385 645 2392
393 646 2395
398 643 2383
406 644 2386
414 646 2393
420 644 2383
428 645 2384
434 643 2378
440 642 2372
449 644 2381
459 648 2393
460 640 2364
465 637 2350
477 643 2373
481 640 2360
488 639 2355
494 637 2348
501 638 2350
509 639 2352
516 639 2351
523 639 2348
529 637 2341
536 637 2342
543 637 2340
548 634 2328
556 636 2334
562 634 2327
569 634 2325
578 637 2333
583 634 2321
591 635 2325
596 634 2317
603 633 2313
609 632 2308
618 634 2314
624 633 2310
631 633 2307
637 632 2304
644 632 2303
652 633 2302
657 630 2293
665 632 2296
672 631 2293
678 630 2288
685 630 2287
691 629 2282
698 629 2280
705 630 2281
712 630 2279
716 627 2265
725 629 2271
732 629 2269
737 627 2262
745 628 2262
753 628 2263
759 628 2259
767 629 2261
771 626 2249
778 626 2248
788 628 2254
792 626 2243
799 626 2242
806 626 2239
814 627 2240
820 626 2235
826 625 2230
836 627 2235
842 627 2232
844 623 2215
856 626 2226
857 623 2210
861 620 2199
868 620 2198
881 625 2211
889 625 2212
895 625 2207
899 623 2198
909 624 2201
914 623 2195
921 623 2191
930 624 2194
938 625 2194
943 624 2187
950 624 2185
954 621 2174
961 622 2173
968 622 2170
976 622 2169
981 621 2163
990 622 2165
1003 626 2176
1037 643 2230
1030 634 2198
1045 639 2212
1047 636 2199
1038 626 2161
1037 621 2141
1040 619 2131
1002 592 2036
987 580 1991
988 576 1975
779 452 1544
736 424 1446
730 418 1424
721 410 1395
717 405 1375
743 417 1415
836 466 1581
923 511 1732
935 515 1743
936 512 1730
956 520 1753
962 520 1752
963 517 1740
972 519 1744
976 518 1737
980 517 1731
991 520 1737
994 519 1730
999 518 1725
997 514 1709
-1379 728 2319
-1354 719 2294
-1342 716 2290
-1323 710 2276
-1315 710 2278
-1296 703 2262
-1289 704 2266
-1262 693 2236
-1256 694 2243
-1260 700 2267
-1228 687 2227
-1244 700 2273
-1214 687 2235
-1213 690 2250
-1189 681 2222
-1187 684 2237
-1177 682 2236
-1160 676 2219
-1158 680 2234
-1145 676 2225
-1139 677 2232
-1120 670 2212
-1112 669 2213
-1100 666 2207
-1093 666 2210
-1059 650 2158
-999 617 2053
-962 598 1992
-958 600 2000
-962 606 2024
-962 611 2042
-961 614 2056
-959 617 2068
-957 620 2082
-956 624 2097
-965 634 2134
-974 644 2171
-974 649 2191
-981 658 2226
-976 659 2233
-975 663 2248
-969 664 2254
-966 667 2267
-963 670 2280
-958 671 2288
-952 672 2294
-952 677 2314
-948 679 2324
-943 681 2333
-934 680 2331
-939 688 2364
-935 691 2376
-932 694 2389
-925 694 2393
-921 697 2405
-918 701 2420
-911 700 2421
-910 705 2442
-907 709 2456
-902 711 2468
-899 715 2483
-895 718 2495
-892 722 2512
-889 725 2525
-884 727 2537
-880 731 2551
-872 731 2554
-871 737 2576
-867 739 2588
-861 741 2596
-854 742 2603
-853 748 2627
-849 752 2642
-841 751 2643
-837 755 2659
-829 755 2662
-823 757 2671
-819 761 2686
-812 762 2693
-807 765 2706
-799 765 2709
-793 767 2716
-788 770 2730
-783 773 2743
-780 778 2764
-769 776 2756
-764 780 2773
-755 778 2771
-747 779 2776
-735 775 2764
-727 776 2767
-715 771 2753
-706 771 2754
-695 768 2744
-690 771 2758
-677 767 2744
-672 770 2758
-658 763 2737
-651 764 2741
-644 766 2750
-633 762 2738
-622 760 2731
-612 758 2725
-608 762 2742
-597 759 2733
-586 755 2721
-579 756 2725
-570 755 2725
-560 753 2716
-553 754 2722
-538 744 2689
-507 713 2578
-450 643 2323
0 0 0
0 0 0
0 0 0
0 0 0
0 0 0
-387 610 2210
0 0 0
0 0 0
-378 627 2276
-355 601 2181
-336 578 2099
-375 657 2391
-349 623 2267
0 0 0
-316 588 2141
-331 628 2287
0 0 0
0 0 0
0 0 0
-280 579 2111
-293 620 2261
-277 600 2189
-265 587 2143
-265 602 2198
-258 600 2192
-260 620 2266
-242 592 2165
-234 590 2156
-235 608 2224
-234 621 2271
-230 629 2302
-206 582 2130
-212 617 2259
-207 622 2280
-203 629 2307
-183 589 2160
-180 600 2201
-169 583 2137
-169 605 2221
-164 610 2240
-154 600 2201
-147 598 2197
-143 606 2227
-137 608 2235
-129 603 2216
-121 594 2183
-116 605 2225
-113 621 2281
-101 594 2185
-94 591 2175
-87 588 2162
-82 594 2183
-74 584 2149
-68 587 2159
-62 588 2165
-57 606 2230
-50 602 2217
-44 600 2209
-38 604 2224
-33 638 2352
-26 645 2375
-19 640 2356
-12 645 2377
-6 673 2480
1 680 2505
8 680 2506
15 678 2499
23 682 2514
30 679 2501
37 677 2496
45 677 2497
52 677 2495
59 675 2488
67 676 2493
74 675 2490
81 674 2486
89 678 2499
96 675 2489
103 673 2482
110 673 2481
117 670 2471
125 670 2469
133 674 2484
139 671 2475
147 671 2472
154 670 2471
161 671 2472
168 670 2468
175 668 2462
183 669 2465
190 668 2459
197 669 2465
203 665 2448
211 665 2448
218 666 2451
225 665 2449
233 665 2450
240 665 2446
246 662 2436
254 664 2443
261 662 2437
268 663 2438
275 663 2438
282 661 2430
289 662 2433
296 660 2426
303 660 2425
310 659 2423
316 658 2417
324 659 2419
331 659 2418
337 657 2410
344 655 2405
351 656 2406
359 656 2407
365 655 2400
372 655 2402
379 654 2397
386 654 2395
393 653 2393
399 652 2387
405 651 2381
413 652 2385
421 653 2387
428 652 2383
434 650 2376
441 650 2375
448 651 2377
458 654 2387
460 647 2359
468 648 2363
475 648 2365
482 648 2363
488 646 2355
495 646 2353
503 648 2357
509 646 2350
515 644 2342
522 645 2343
530 645 2344
536 645 2341
543 644 2336
548 641 2327
556 643 2331
562 641 2324
570 643 2328
577 642 2326
586 644 2331
591 643 2325
597 641 2318
603 640 2313
611 641 2313
616 639 2306
624 640 2309
631 640 2306
640 641 2310
644 638 2298
649 637 2291
660 640 2301
664 638 2292
671 638 2290
680 639 2293
684 637 2283
693 638 2286
698 637 2280
707 638 2284
711 636 2272
718 636 2272
725 635 2268
733 637 2271
738 635 2263
748 637 2268
754 636 2263
761 636 2263
767 635 2257
774 635 2256
781 635 2253
786 634 2246
794 634 2246
799 633 2239
807 634 2240
814 633 2237
821 633 2235
826 632 2228
832 631 2224
840 632 2226
847 632 2223
853 631 2217
860 631 2215
862 628 2201
874 632 2212
882 632 2210
888 631 2206
896 632 2206
903 632 2204
908 631 2198
913 629 2191
925 633 2199
929 631 2190
935 630 2186
943 631 2186
948 629 2178
959 632 2186
961 629 2172
966 627 2163
974 628 2163
981 628 2161
993 631 2170
1032 652 2237
1024 642 2202
1036 645 2209
1040 643 2200
1045 641 2191
1036 632 2156
1036 627 2137
1035 623 2118
1003 599 2036
992 589 1997
956 564 1910
771 451 1525
708 412 1389
689 399 1342
706 406 1364
732 418 1403
748 424 1422
857 483 1620
926 519 1737
936 521 1742
947 524 1749
951 523 1743
958 524 1743
967 525 1745
967 522 1732
975 523 1734
983 524 1734
986 523 1727
998 527 1736
1008 529 1740
1010 526 1730
-1371 731 2304
-1359 729 2300
-1354 730 2309
-1341 727 2303
-1314 717 2274
-1312 720 2288
-1311 724 2304
-1280 711 2267
-1273 711 2272
-1240 697 2229
-1242 702 2249
-1225 696 2236
-1207 690 2219
-1206 694 2235
-1184 685 2211
-1186 691 2232
-1175 688 2229
-1171 690 2239
-1159 688 2234
-1132 676 2199
-1125 676 2201
-1127 681 2223
-1115 678 2217
-1094 670 2194
-1091 672 2205
-1069 663 2177
-1005 628 2063
-967 608 2001
-956 605 1994
-960 612 2020
-965 619 2047
-961 620 2054
-962 625 2073
-955 625 2076
-952 627 2086
-963 639 2128
-971 649 2163
-971 654 2183
-977 662 2215
-975 666 2229
-971 667 2238
-969 671 2252
-965 673 2263
-964 677 2279
-955 676 2280
-957 683 2304
-952 684 2312
-948 686 2322
-946 691 2339
-940 691 2344
-937 695 2358
-931 695 2362
-926 697 2371
-927 704 2397
-922 706 2406
-919 709 2420
-915 711 2432
-911 715 2445
-910 719 2464
-904 720 2470
-900 724 2484
-896 727 2497
-894 731 2515
-887 732 2520
-883 734 2532
-878 737 2544
-876 742 2562
-869 743 2568
-864 745 2579
-860 748 2593
-858 754 2614
-847 751 2606
-848 759 2636
-843 762 2649
-839 765 2663
-826 761 2651
-824 766 2672
-820 770 2689
-816 774 2704
-808 774 2707
-803 777 2718
-792 775 2714
-784 775 2715
-781 780 2737
-776 783 2748
-766 782 2746
-765 789 2775
-755 787 2769
-746 787 2771
-744 793 2795
-726 784 2763
-714 779 2750
-706 780 2754
-697 778 2750
-687 777 2746
-677 775 2741
-669 775 2745
-659 773 2740
-651 773 2740
-644 775 2750
-635 773 2746
-624 770 2735
-613 767 2727
-605 767 2727
-598 768 2733
-589 767 2731
-580 767 2732
-569 763 2720
-562 763 2723
-551 760 2714
-537 752 2686
-507 720 2574
-446 645 2304
-440 646 2310
-430 642 2295
0 0 0
0 0 0
0 0 0
0 0 0
0 0 0
0 0 0
0 0 0
0 0 0
0 0 0
0 0 0
-331 598 2151
-326 602 2164
0 0 0
0 0 0
0 0 0
-303 606 2183
-292 596 2149
0 0 0
-283 604 2179
-276 604 2178
-279 625 2255
0 0 0
-264 621 2244
-257 618 2234
-238 589 2128
-239 609 2200
-224 586 2121
-217 584 2113
-231 639 2311
-211 602 2179
-213 627 2272
-203 616 2231
-198 623 2257
-180 585 2120
-187 628 2277
-170 593 2150
-169 612 2219
-166 627 2275
-158 621 2252
-144 590 2140
-147 629 2284
-136 612 2222
-131 621 2254
-119 594 2158
-114 599 2175
-105 586 2130
-103 613 2227
-94 594 2160
-86 586 2130
-86 627 2281
-73 584 2125
-69 598 2176
-62 593 2156
-54 584 2124
-51 610 2221
-44 608 2211
-39 636 2315
-33 656 2390
-26 655 2386
-19 648 2361
-12 654 2382
-6 680 2479
1 691 2518
8 688 2509
16 689 2509
23 685 2496
30 686 2501
38 686 2501
45 686 2498
52 685 2497
60 684 2491
67 683 2489
74 684 2493
81 681 2482
89 683 2489
96 684 2494
103 682 2486
111 681 2482
118 680 2478
125 678 2471
132 680 2476
139 678 2472
147 678 2471
154 679 2473
161 677 2468
169 678 2469
176 677 2465
183 676 2461
190 675 2459
197 676 2461
205 676 2461
212 677 2464
218 672 2447
226 674 2453
233 674 2452
239 670 2439
247 671 2442
254 671 2440
260 669 2434
268 670 2437
275 671 2438
283 671 2439
289 669 2430
295 666 2420
303 668 2428
311 669 2430
317 667 2421
324 666 2418
331 665 2413
338 665 2414
346 666 2416
351 662 2401
360 665 2412
366 664 2407
372 661 2396
379 662 2397
386 662 2396
394 662 2398
401 661 2394
407 660 2388
414 659 2385
421 659 2383
428 660 2385
435 659 2381
441 657 2374
450 661 2385
457 660 2383
456 649 2341
469 656 2367
476 656 2365
483 656 2363
488 653 2353
494 652 2349
502 653 2351
510 654 2353
515 652 2344
523 653 2347
528 650 2335
538 653 2345
543 651 2336
550 651 2336
556 650 2330
563 650 2329
570 649 2324
578 651 2330
581 646 2311
590 648 2317
598 649 2318
603 647 2312
611 648 2311
618 648 2312
624 647 2308
632 648 2309
636 645 2297
645 646 2300
651 646 2297
658 645 2293
666 646 2295
671 645 2288
678 645 2286
685 645 2284
691 644 2280
701 647 2289
707 646 2283
713 644 2276
720 644 2274
727 644 2272
733 644 2269
739 642 2262
745 642 2259
754 644 2264
758 641 2252
767 643 2257
773 642 2252
782 643 2255
787 641 2246
796 643 2251
799 640 2237
808 641 2241
814 641 2237
820 640 2232
827 640 2230
835 640 2230
843 641 2230
846 638 2218
856 640 2223
861 639 2216
865 637 2207
871 636 2202
882 639 2209
888 638 2205
897 640 2208
903 639 2203
910 639 2200
915 637 2192
922 638 2192
929 638 2189
937 638 2187
947 640 2193
954 640 2191
956 637 2176
964 637 2175
970 637 2171
974 635 2161
983 636 2163
1009 649 2204
1014 647 2195
1013 642 2175
1038 653 2212
1044 653 2207
1046 649 2191
1038 640 2158
1039 636 2143
1031 627 2108
998 603 2025
997 598 2006
926 552 1848
735 435 1453
730 430 1432
715 418 1391
698 405 1347
746 430 1429
756 434 1438
878 500 1657
927 525 1737
938 528 1745
946 529 1746
954 531 1748
958 529 1741
967 531 1743
968 529 1733
977 530 1736
983 531 1734
981 526 1716
995 530 1727
998 529 1720
1004 529 1718
-1377 742 2311
-1361 738 2302
-1359 741 2316
-1338 734 2297
-1329 733 2299
-1322 733 2304
-1305 728 2292
-1299 729 2298
-1287 726 2294
-1257 714 2259
-1239 707 2242
-1237 711 2256
-1228 710 2256
-1201 698 2224
-1211 708 2260
-1170 688 2200
-1163 689 2205
-1159 690 2213
-1147 688 2209
-1138 686 2208
-1133 688 2215
-1128 689 2224
-1113 684 2211
-1099 680 2202
-1097 684 2215
-1067 669 2172
-1007 636 2066
-970 617 2006
-957 612 1995
-960 619 2019
-964 625 2042
-962 628 2056
-960 631 2067
-955 632 2074
-955 636 2092
-961 645 2122
-968 654 2157
-972 661 2183
-976 669 2210
-980 676 2237
-973 676 2241
-970 679 2252
-964 680 2260
-963 684 2276
-959 686 2285
-959 691 2305
-951 691 2306
-946 693 2316
-946 698 2337
-939 698 2339
-939 703 2361
-935 706 2371
-928 706 2374
-924 709 2388
-921 712 2400
-921 718 2422
-914 718 2426
-905 717 2425
-908 725 2456
-905 729 2471
-900 731 2481
-897 735 2498
-892 737 2508
-888 740 2521
-886 745 2538
-880 747 2548
-872 746 2549
-870 751 2568
-866 754 2581
-861 757 2592
-856 760 2604
-854 765 2625
-845 765 2626
-841 767 2639
-839 773 2661
-830 772 2659
-826 776 2676
-821 779 2688
-818 784 2709
-805 779 2694
-807 790 2732
-794 785 2718
-788 787 2728
-781 788 2733
-776 792 2749
-768 792 2751
-759 792 2752
-753 793 2760
-748 798 2777
-742 800 2788
-728 794 2767
-714 787 2747
-706 788 2752
-696 786 2746
-688 786 2749
-679 786 2748
-669 783 2743
-660 783 2743
-653 783 2747
-643 782 2742
-632 778 2730
-623 777 2730
-616 779 2739
-606 777 2731
-595 773 2720
-587 773 2722
-578 772 2719
-572 774 2730
-561 770 2717
-552 770 2718
-539 762 2691
-509 731 2581
-445 650 2298
0 0 0
0 0 0
-440 673 2383
0 0 0
0 0 0
-399 642 2274
0 0 0
0 0 0
0 0 0
-362 626 2222
0 0 0
-341 611 2171
-335 612 2175
0 0 0
0 0 0
0 0 0
0 0 0
-303 613 2184
0 0 0
0 0 0
0 0 0
-292 644 2298
-273 618 2206
-271 628 2241
-269 639 2282
-237 579 2067
-243 609 2176
-248 638 2282
-227 601 2148
-221 602 2153
-215 601 2150
-224 644 2306
-204 606 2169
-206 632 2264
-188 599 2144
-187 613 2195
-175 596 2136
-180 635 2276
-170 623 2233
-160 610 2189
-157 625 2243
-144 597 2144
-144 626 2249
-135 614 2203
-132 631 2266
-123 620 2226
-117 620 2227
-108 610 2191
-104 623 2240
-97 618 2222
-87 598 2150
-82 607 2184
-73 589 2118
-70 615 2212
-62 605 2176
-58 627 2255
-50 613 2207
-45 629 2262
-38 623 2243
-33 658 2368
-26 661 2381
-19 654 2356
-12 663 2387
-6 689 2483
1 696 2508
8 698 2514
16 696 2508
23 694 2500
30 695 2503
38 694 2499
45 694 2500
52 692 2494
60 692 2495
67 692 2495
75 694 2500
82 692 2492
89 689 2484
97 693 2497
104 691 2489
111 690 2485
118 688 2478
125 687 2474
132 686 2470
139 685 2468
147 686 2473
154 685 2467
162 686 2471
168 684 2464
175 683 2459
183 685 2467
190 682 2456
197 683 2459
204 682 2455
211 681 2452
218 679 2444
226 681 2450
232 679 2442
240 679 2441
247 679 2443
254 677 2436
261 677 2433
268 677 2435
275 675 2428
283 678 2435
289 676 2430
296 675 2425
303 674 2420
311 676 2426
317 673 2416
324 673 2416
330 671 2407
338 673 2414
345 672 2411
353 672 2411
359 671 2405
366 670 2400
373 670 2401
379 669 2395
387 669 2395
394 670 2397
401 669 2394
408 668 2391
413 665 2379
422 668 2389
428 667 2381
435 667 2382
442 666 2379
451 668 2384
458 669 2386
454 652 2324
470 665 2370
477 665 2368
484 664 2365
489 662 2356
495 661 2352
502 660 2346
510 661 2352
517 661 2351
521 658 2336
529 659 2339
538 660 2343
544 659 2339
551 659 2337
557 658 2332
564 658 2332
570 656 2324
577 657 2324
586 659 2329
590 656 2317
598 656 2316
605 656 2315
610 654 2309
618 655 2309
625 655 2308
630 653 2300
639 655 2305
645 653 2298
652 653 2297
657 652 2289
665 653 2291
672 652 2288
679 653 2288
685 651 2282
693 652 2282
697 650 2274
706 651 2277
713 651 2274
719 650 2270
727 651 2271
733 650 2266
742 652 2270
748 651 2266
754 650 2261
761 650 2260
768 650 2256
774 649 2252
784 652 2259
787 648 2245
793 648 2241
802 649 2244
809 649 2241
816 649 2241
821 648 2233
828 648 2232
835 648 2229
842 648 2227
848 646 2220
852 645 2212
859 645 2210
867 645 2209
876 647 2212
880 645 2204
890 647 2209
898 647 2207
902 645 2198
912 648 2204
916 645 2194
921 644 2187
929 644 2186
939 647 2192
946 646 2188
950 644 2178
957 644 2176
961 642 2166
969 643 2168
977 644 2166
984 644 2163
992 645 2164
1035 668 2239
1022 655 2194
1040 661 2213
1044 659 2203
1046 657 2191
1038 647 2156
1039 643 2140
1033 635 2111
994 607 2014
1006 610 2023
895 539 1783
743 445 1468
719 428 1408
719 425 1397
698 410 1346
699 408 1336
773 448 1469
892 514 1683
933 534 1746
934 532 1735
950 537 1751
955 537 1748
958 535 1740
962 534 1733
968 534 1731
977 536 1734
977 533 1722
992 538 1734
992 535 1722
1001 536 1724
1006 536 1719
-1380 752 2315
-1367 749 2309
-1351 744 2299
-1339 742 2297
-1330 741 2297
-1327 744 2311
-1301 734 2283
-1288 730 2277
-1288 735 2294
-1266 726 2271
-1253 723 2266
-1237 718 2253
-1233 720 2263
-1230 723 2277
-1198 708 2234
-1195 711 2245
-1181 707 2237
-1158 698 2211
-1146 694 2204
-1133 691 2196
-1127 691 2202
-1113 687 2192
-1112 691 2209
-1094 685 2190
-1086 684 2191
-1072 679 2180
-1012 645 2073
-974 626 2013
-958 619 1995
-962 626 2020
-964 632 2042
-963 635 2055
-959 637 2064
-955 639 2073
-951 640 2080
-958 649 2114
-968 661 2154
-979 673 2197
-979 678 2216
-982 684 2240
-974 684 2243
-970 686 2252
-966 688 2261
-969 696 2289
-962 696 2292
-956 697 2298
-947 695 2296
-950 702 2322
-945 705 2332
-940 706 2340
-937 709 2353
-935 713 2369
-932 717 2383
-925 717 2388
-925 723 2409
-925 728 2431
-913 725 2424
-911 730 2440
-905 731 2448
-903 735 2465
-898 737 2474
-895 741 2490
-894 747 2511
-889 749 2521
-882 750 2526
-879 754 2542
-875 757 2555
-870 759 2566
-863 761 2573
-865 769 2605
-856 768 2602
-849 769 2608
-847 774 2629
-838 774 2630
-838 781 2656
-829 780 2656
-824 783 2669
-818 785 2677
-811 786 2684
-808 790 2701
-800 792 2707
-798 797 2729
-787 795 2722
-782 798 2736
-774 799 2741
-770 803 2757
-763 804 2763
-754 804 2764
-750 808 2781
-739 805 2774
-731 806 2779
-718 800 2761
-708 798 2756
-698 797 2754
-688 794 2747
-678 793 2742
-671 794 2748
-661 792 2742
-651 790 2739
-641 788 2734
-635 790 2744
-624 787 2732
-616 787 2735
-607 786 2735
-598 785 2731
-591 787 2739
-580 783 2729
-571 781 2724
-563 781 2725
-552 778 2716
-540 772 2695
-509 739 2582
-460 678 2369
-439 659 2303
0 0 0
-427 661 2312
0 0 0
0 0 0
0 0 0
-375 621 2176
0 0 0
0 0 0
0 0 0
-374 664 2332
-340 616 2163
-359 662 2329
-316 596 2095
-320 614 2161
-331 649 2283
0 0 0
-322 657 2315
0 0 0
-300 639 2254
-277 606 2136
-287 640 2259
-279 638 2253
0 0 0
-268 644 2276
-260 641 2263
-238 602 2129
-249 647 2286
-231 617 2183
-238 654 2313
-216 612 2166
-210 613 2169
-220 660 2338
-200 622 2204
-192 615 2179
-185 614 2177
-182 628 2225
-176 627 2223
-168 623 2207
-163 628 2227
-153 614 2178
-149 624 2214
-142 623 2211
-139 638 2265
-130 630 2237
-126 639 2270
-117 630 2240
-113 643 2285
-102 619 2201
-93 601 2136
-85 592 2103
-83 626 2224
-75 614 2183
-68 603 2144
-63 621 2209
-57 620 2204
-50 616 2191
-42 599 2132
-38 633 2251
-33 665 2369
-26 667 2374
