VERSION 0.7
FIELDS x y z
SIZE 4 4 4
TYPE I I I
COUNT 1 1 1
WIDTH 3779
HEIGHT 1
VIEWPOINT 0.0 0.0 0.0 1.0 0.0 0.0 0.0
POINTS 3779
DATA ascii
482 376 1035
487 377 1039
495 381 1047
493 377 1034
503 382 1047
503 379 1037
510 381 1042
514 382 1044
519 383 1045
523 384 1045
524 381 1037
528 382 1038
530 381 1033
537 383 1038
536 380 1029
545 384 1038
550 385 1038
554 386 1038
559 386 1039
561 385 1034
569 389 1041
567 385 1030
569 384 1025
572 384 1023
581 387 1031
586 388 1032
589 388 1029
589 386 1022
603 392 1038
601 389 1027
611 393 1035
616 394 1036
613 389 1023
-592 385 975
-586 383 971
-578 381 966
-561 371 944
-550 366 934
-545 365 932
-548 369 944
-539 366 937
-538 367 942
-535 367 943
-528 364 938
-525 364 940
-523 365 944
-524 368 953
-517 366 948
-513 365 948
-510 365 950
-511 367 958
-510 369 964
-510 372 973
-511 375 982
-507 374 982
-499 371 975
-496 371 976
-491 370 975
-484 367 968
-478 364 963
-469 360 954
-469 362 961
-465 362 961
-462 362 963
-458 361 962
-460 365 975
-453 363 969
-453 365 976
-444 360 965
-444 363 973
-440 362 973
-437 362 973
-436 364 980
-433 364 981
-438 371 1002
-450 383 1037
-451 387 1050
-446 386 1048
-425 371 1008
-416 365 993
-408 361 983
-402 359 978
-400 360 983
-397 360 984
-395 361 988
-391 361 988
-389 361 989
-390 365 1002
-383 361 993
-381 362 997
-376 361 994
-375 363 1001
-369 360 995
-369 363 1003
-367 364 1008
-363 363 1007
-358 362 1004
-356 362 1006
-351 361 1003
-352 365 1017
-346 362 1009
-343 363 1011
-340 362 1010
-339 365 1020
-334 363 1014
-330 362 1014
-328 363 1018
-323 361 1013
-322 364 1021
-321 366 1029
-317 365 1025
-312 363 1022
-311 365 1029
-308 365 1030
-306 367 1036
-302 366 1035
-295 362 1024
-295 365 1032
-291 364 1031
-286 362 1025
-281 360 1021
-281 364 1032
-278 364 1035
-275 364 1034
-271 363 1034
-268 363 1035
-265 363 1035
-262 364 1039
-259 364 1038
-257 365 1043
-252 363 1038
-250 365 1042
-248 367 1050
-245 367 1049
-239 363 1041
-237 365 1047
-231 361 1035
-227 360 1032
-225 361 1036
-221 359 1033
-220 363 1043
-216 361 1039
-212 360 1035
-210 361 1041
-206 360 1038
-203 362 1043
-198 358 1033
-195 359 1035
-193 359 1037
-191 362 1046
-187 361 1045
-183 360 1041
-181 361 1046
-176 358 1037
-175 362 1050
-171 359 1041
-169 361 1048
-164 359 1043
-162 361 1049
-160 363 1053
-157 363 1056
-154 364 1058
-150 362 1054
-147 362 1054
-144 363 1056
-140 362 1053
-137 361 1052
-133 360 1049
-129 359 1045
-127 359 1048
-124 363 1057
-121 361 1053
-118 363 1060
-115 364 1062
-112 364 1063
-106 354 1035
-99 340 994
-91 323 944
-85 312 912
-81 307 898
-76 300 877
-70 288 841
-71 300 876
-65 288 843
-63 288 842
-60 288 844
-55 278 812
-57 295 864
-49 269 786
-47 271 792
-46 280 820
-43 277 810
-42 286 836
-38 278 813
-38 294 863
-34 285 834
-30 271 793
-30 286 838
-27 288 844
-25 289 849
-21 275 807
-19 278 815
-18 297 872
-16 304 891
-14 317 930
-11 332 977
-9 340 998
-6 347 1021
-3 357 1050
0 358 1053
2 358 1052
5 358 1053
8 356 1046
12 358 1052
15 355 1045
18 357 1050
21 358 1052
24 356 1047
27 357 1051
31 357 1050
34 357 1049
37 358 1054
40 357 1049
43 359 1056
47 360 1059
50 359 1057
53 359 1057
56 359 1057
59 358 1051
63 359 1056
66 359 1055
69 358 1052
72 360 1057
75 360 1058
78 357 1049
81 358 1051
84 358 1051
88 359 1054
91 359 1053
95 360 1057
97 359 1055
101 359 1055
104 361 1060
107 360 1058
110 359 1055
113 359 1053
116 359 1052
120 359 1052
123 360 1056
125 357 1046
130 362 1061
132 359 1051
136 361 1057
139 360 1053
143 361 1058
146 360 1055
149 360 1052
153 361 1058
155 360 1051
158 359 1050
161 359 1049
166 362 1057
168 359 1050
171 361 1053
174 359 1049
178 361 1054
181 360 1051
185 362 1055
189 363 1058
192 363 1057
194 361 1052
197 361 1050
201 363 1055
204 361 1051
209 364 1059
209 358 1041
213 360 1045
217 361 1048
221 362 1051
224 363 1052
227 361 1048
231 364 1054
232 360 1044
235 359 1040
240 362 1047
243 363 1049
246 361 1044
249 362 1045
254 364 1052
257 363 1047
261 364 1050
263 362 1045
265 362 1042
270 363 1045
272 362 1041
276 363 1043
281 365 1049
284 365 1048
288 365 1048
288 361 1037
293 364 1044
297 365 1045
297 361 1034
302 363 1039
308 367 1049
310 365 1042
312 364 1038
318 366 1045
319 364 1037
324 366 1043
327 365 1039
330 365 1038
335 367 1042
338 367 1042
341 366 1039
342 364 1031
349 368 1042
353 368 1042
354 366 1036
358 367 1038
362 368 1040
364 367 1034
370 369 1041
373 369 1040
376 368 1036
380 369 1037
382 368 1034
389 372 1043
391 371 1038
395 371 1039
397 370 1034
401 370 1034
406 372 1037
408 371 1034
417 375 1046
419 374 1042
422 374 1041
422 371 1030
431 376 1044
434 376 1041
436 375 1037
437 373 1031
444 376 1037
447 376 1037
448 373 1028
452 374 1029
456 374 1029
458 373 1025
465 376 1031
467 375 1028
474 378 1033
475 377 1029
478 376 1025
486 380 1034
486 377 1025
492 379 1030
497 380 1032
506 384 1041
510 385 1041
507 380 1028
514 383 1034
517 382 1031
520 382 1029
522 381 1025
529 384 1030
530 382 1023
533 381 1020
535 381 1017
543 384 1024
549 386 1027
550 383 1020
557 386 1026
559 385 1021
567 388 1028
568 387 1023
570 386 1018
575 387 1019
583 390 1026
584 388 1018
594 392 1029
596 391 1024
599 391 1021
603 391 1021
610 393 1025
614 394 1024
-583 383 958
-577 381 956
-571 379 954
-561 375 944
-546 367 926
-545 368 930
-542 368 932
-540 369 936
-535 368 936
-529 366 931
-529 368 939
-524 367 937
-519 366 936
-516 365 936
-516 368 945
-509 365 938
-510 368 948
-504 366 945
-508 371 960
-506 372 963
-506 375 972
-503 374 973
-504 378 983
-499 376 981
-485 368 962
-479 366 956
-476 366 958
-471 365 957
-465 363 953
-460 361 950
-458 362 954
-457 363 958
-453 363 958
-450 363 961
-450 365 968
-445 364 966
-442 364 967
-435 361 960
-431 360 960
-429 361 964
-433 367 982
-436 372 997
-450 387 1036
-443 384 1030
-435 380 1021
-422 371 998
-409 363 978
-407 364 981
-404 363 981
-398 361 976
-394 361 976
-394 363 983
-388 361 979
-386 361 982
-385 364 989
-380 362 985
-379 364 992
-375 363 991
-372 363 991
-372 366 1001
-371 368 1009
-364 365 999
-360 364 998
-355 362 995
-351 360 991
-349 362 995
-348 364 1003
-346 365 1008
-343 365 1008
-337 363 1003
-336 365 1008
-330 362 1002
-329 364 1010
-326 364 1010
-320 361 1003
-320 364 1013
-316 364 1012
-314 365 1015
-312 367 1022
-306 363 1011
-305 365 1019
-304 368 1028
-302 369 1033
-295 365 1021
-290 362 1015
-289 365 1024
-285 364 1022
-283 365 1026
-280 366 1027
-275 364 1023
-273 365 1027
-270 366 1030
-268 366 1032
-263 364 1028
-262 367 1036
-256 363 1027
-254 364 1030
-251 364 1031
-247 364 1031
-245 366 1037
-243 367 1041
-238 365 1036
-234 363 1032
-231 364 1034
-227 362 1028
-224 363 1032
-219 360 1023
-216 360 1026
-215 362 1032
-210 360 1027
-207 361 1029
-206 363 1036
-201 361 1030
-200 364 1040
-194 360 1029
-193 362 1037
-190 363 1040
-185 360 1030
-182 360 1032
-179 361 1034
-175 359 1031
-173 360 1034
-170 361 1036
-167 361 1038
-164 362 1041
-161 362 1040
-158 363 1044
-153 359 1033
-151 361 1040
-148 362 1041
-146 363 1047
-142 362 1042
-139 362 1043
-135 361 1040
-133 362 1045
-129 361 1043
-126 362 1046
-122 359 1037
-120 362 1047
-117 363 1051
-115 365 1056
-109 358 1037
-105 353 1020
-97 339 981
-89 321 929
-84 314 907
-80 309 895
-74 296 856
-71 292 844
-69 294 852
-64 287 832
-63 290 839
-57 278 805
-56 281 813
-54 286 828
-52 286 828
-50 292 847
-46 282 816
-45 289 838
-42 287 831
-39 284 822
-36 282 817
-34 284 825
-31 279 809
-30 290 841
-26 275 799
-25 290 842
-22 286 831
-20 300 872
-18 297 864
-15 304 884
-13 318 924
-11 333 968
-9 344 1002
-6 350 1019
-3 357 1040
0 359 1046
2 358 1042
5 359 1045
9 360 1050
12 359 1046
15 358 1044
18 359 1045
21 360 1048
24 356 1038
27 357 1041
30 358 1043
34 359 1044
37 360 1050
40 359 1045
43 360 1050
46 360 1049
50 361 1051
53 361 1050
56 359 1045
59 359 1047
62 359 1047
65 358 1041
69 362 1053
71 356 1037
74 358 1041
78 359 1046
81 359 1046
84 359 1044
88 361 1050
90 359 1044
94 362 1052
96 358 1042
100 359 1044
103 359 1044
106 360 1047
110 361 1050
113 362 1052
115 359 1042
119 360 1045
122 361 1048
125 359 1043
129 362 1049
132 360 1046
135 362 1049
139 362 1050
141 360 1042
144 360 1044
148 362 1049
151 361 1047
155 363 1053
157 361 1045
161 362 1046
164 362 1047
167 361 1044
171 363 1048
174 362 1046
176 360 1041
180 361 1044
183 360 1040
186 361 1042
190 362 1045
192 360 1039
196 361 1041
200 364 1049
202 361 1041
206 362 1042
210 363 1046
213 363 1046
215 361 1037
218 361 1039
222 362 1041
226 363 1043
228 362 1040
231 361 1035
235 363 1041
238 362 1037
241 362 1038
244 362 1037
247 361 1034
251 363 1038
256 365 1043
259 364 1041
261 363 1036
264 363 1034
268 364 1036
270 363 1033
273 362 1032
277 363 1032
280 362 1030
283 362 1030
288 365 1037
291 365 1035
292 362 1028
298 365 1035
300 364 1031
304 365 1032
309 367 1039
311 365 1033
316 367 1036
318 366 1033
319 363 1024
325 366 1032
326 364 1026
329 364 1024
334 366 1029
336 365 1025
340 365 1024
346 368 1032
349 368 1030
352 367 1029
357 369 1033
360 369 1032
361 366 1023
369 371 1036
370 369 1029
374 370 1029
376 368 1025
384 373 1036
384 370 1027
387 370 1025
391 370 1026
392 368 1020
398 371 1026
401 370 1023
408 374 1034
411 374 1031
412 371 1022
421 377 1037
424 376 1034
426 375 1030
427 373 1023
433 375 1028
435 375 1025
440 376 1028
445 377 1029
449 378 1030
449 375 1021
451 374 1017
457 376 1021
460 376 1020
461 374 1013
468 377 1019
472 377 1020
476 377 1019
480 378 1019
484 379 1021
491 382 1027
494 381 1024
498 382 1024
501 382 1022
505 382 1023
504 378 1011
508 379 1012
512 379 1011
517 381 1013
524 383 1018
526 382 1015
531 383 1016
534 383 1014
532 379 1002
542 384 1012
548 386 1015
550 385 1012
555 386 1013
558 385 1010
562 386 1010
574 392 1023
573 389 1014
576 388 1011
581 390 1013
586 390 1013
585 387 1004
589 388 1003
596 390 1008
603 392 1012
606 392 1010
-584 387 960
-573 381 947
-569 381 948
-563 380 947
-545 369 922
-538 367 917
-536 368 921
-537 371 931
-528 366 922
-524 365 921
-523 367 927
-516 365 922
-519 369 935
-511 365 926
-509 366 930
-509 368 937
-505 367 938
-505 370 945
-506 373 955
-499 370 948
-505 377 969
-505 379 976
-501 378 975
-494 376 969
-486 372 962
-480 370 958
-474 368 954
-464 363 942
-460 362 942
-460 364 949
-456 363 947
-448 360 939
-449 363 949
-446 363 951
-441 361 948
-441 364 956
-439 365 959
-434 364 958
-431 363 959
-427 363 958
-428 366 969
-430 370 981
-455 395 1048
-451 394 1046
-428 377 1004
-422 375 998
-405 362 966
-407 367 981
-400 363 971
-398 365 976
-392 362 970
-390 362 972
-386 362 971
-384 363 976
-381 363 976
-379 364 980
-377 365 985
-374 365 986
-370 365 986
-366 364 985
-362 363 984
-360 364 988
-359 366 994
-353 363 988
-349 362 985
-346 363 988
-343 363 989
-342 364 995
-340 365 999
-335 363 994
-329 361 989
-329 364 998
-325 363 996
-323 364 1001
-322 366 1007
-316 364 1001
-315 366 1009
-310 363 1001
-307 364 1004
-304 363 1003
-303 366 1011
-300 366 1013
-298 368 1019
-294 367 1017
-291 367 1018
-288 367 1020
-284 366 1018
-281 367 1020
-278 367 1021
-276 368 1026
-270 363 1013
-269 367 1023
-265 366 1021
-262 366 1022
-258 365 1022
-256 366 1025
-250 362 1014
-248 364 1020
-246 365 1024
-244 368 1031
-239 364 1023
-236 364 1023
-234 366 1029
-228 362 1019
-226 363 1023
-221 361 1016
-218 361 1018
-215 362 1020
-213 363 1023
-207 358 1011
-207 363 1025
-202 361 1020
-199 361 1021
-195 358 1014
-194 362 1026
-190 361 1023
-187 362 1026
-182 358 1014
-180 360 1021
-176 359 1018
-174 361 1025
-171 360 1023
-168 361 1026
-165 361 1028
-162 361 1026
-161 366 1041
-156 361 1030
-153 361 1029
-149 360 1027
-147 361 1030
-143 360 1028
-141 363 1036
-137 359 1027
-135 363 1037
-132 363 1036
-129 363 1037
-124 360 1030
-122 363 1038
-118 360 1032
-116 362 1037
-113 362 1036
-109 360 1030
-103 350 1004
-95 335 959
-88 319 913
-83 311 890
-80 311 890
-75 303 867
-70 293 839
-66 288 825
-63 283 812
-62 290 832
-57 279 801
-57 291 836
-52 280 802
-50 281 805
-48 283 813
-45 277 794
-41 267 765
-40 281 806
-37 274 786
-36 285 818
-33 280 804
-32 291 837
-28 278 800
-26 283 814
-24 289 831
-21 279 803
-18 268 771
-18 302 868
-15 304 876
-13 317 912
-11 331 954
-9 345 993
-6 352 1014
-3 359 1034
0 359 1035
2 357 1028
5 359 1036
8 359 1034
11 354 1021
15 358 1032
18 359 1035
21 362 1045
24 361 1041
27 360 1039
30 360 1037
34 361 1041
36 357 1030
40 360 1040
43 358 1033
46 357 1028
49 362 1043
52 357 1028
55 360 1038
59 361 1041
62 361 1040
65 362 1043
68 362 1045
71 360 1037
74 357 1029
77 359 1036
81 361 1041
84 363 1046
87 359 1036
90 359 1035
94 363 1047
97 362 1042
99 361 1038
103 363 1044
106 361 1038
110 363 1046
113 363 1045
115 361 1037
118 359 1031
123 364 1048
125 361 1038
128 362 1040
131 361 1037
135 363 1044
137 361 1037
140 360 1033
144 362 1039
148 364 1045
150 362 1039
153 361 1036
157 364 1042
160 362 1038
163 361 1035
166 361 1035
169 361 1034
173 363 1040
174 359 1029
179 363 1038
181 361 1033
185 362 1036
188 361 1032
191 361 1030
194 361 1031
198 362 1034
201 362 1034
203 361 1028
207 362 1031
210 362 1030
214 363 1035
216 361 1027
221 364 1035
222 361 1026
227 363 1032
229 361 1025
232 361 1025
234 360 1022
240 363 1031
241 361 1023
245 362 1027
250 365 1033
252 362 1025
254 360 1020
260 364 1030
263 364 1029
265 363 1025
270 366 1033
275 367 1036
276 365 1030
278 363 1024
281 363 1023
285 364 1025
290 366 1029
291 363 1020
296 366 1026
299 366 1026
304 367 1030
305 365 1023
310 367 1027
312 366 1023
315 366 1022
319 367 1024
322 366 1021
327 368 1027
330 368 1026
333 368 1024
337 368 1025
340 368 1023
343 368 1021
345 367 1018
350 369 1023
353 368 1019
358 370 1023
361 370 1023
366 371 1026
368 370 1022
371 370 1020
373 369 1016
377 369 1016
378 367 1010
385 371 1019
385 368 1011
390 370 1014
397 373 1022
403 375 1027
403 373 1019
409 375 1023
411 374 1019
413 373 1016
417 373 1016
420 373 1015
424 374 1016
429 375 1018
432 375 1017
436 376 1017
440 376 1017
445 378 1020
447 376 1014
453 379 1020
449 373 1003
455 375 1008
461 377 1012
463 376 1008
470 379 1016
474 380 1016
475 377 1008
480 379 1010
486 381 1016
489 381 1014
492 380 1010
494 380 1007
507 387 1025
505 382 1012
506 381 1007
508 380 1002
514 381 1005
517 382 1004
525 385 1010
526 383 1006
528 382 1001
530 381 997
540 386 1007
541 384 1001
551 389 1012
547 384 998
553 386 1001
559 387 1004
566 390 1009
566 388 1001
575 391 1008
574 388 998
577 388 996
577 385 989
590 392 1004
597 394 1008
595 391 997
600 391 998
-570 381 936
-564 379 932
-557 377 928
-553 376 928
-539 368 911
-536 369 914
-536 371 921
-530 369 917
-523 366 912
-523 368 919
-520 368 921
-516 368 920
-512 367 920
-507 365 918
-504 366 920
-505 368 929
-498 366 924
-503 372 941
-500 372 942
-499 374 949
-499 376 956
-500 379 966
-497 379 967
-492 378 965
-491 379 971
-483 376 963
-477 373 959
-462 364 937
-459 364 938
-450 360 928
-450 362 935
-448 363 938
-447 365 945
-442 363 941
-439 363 943
-443 369 960
-435 365 950
-430 363 947
-430 366 956
-426 365 954
-425 367 961
-430 373 980
-444 388 1021
-445 393 1034
-439 390 1028
-435 389 1027
-410 370 978
-404 367 970
-395 362 958
-394 364 963
-391 364 966
-387 363 964
-383 362 963
-381 364 968
-377 362 967
-376 364 972
-372 363 971
-371 366 978
-364 362 969
-363 364 975
-362 366 983
-358 364 980
-356 366 984
-352 365 982
-348 365 983
-343 362 977
-341 364 983
-340 366 990
-337 366 991
-337 369 999
-330 365 990
-327 364 989
-325 366 994
-322 366 996
-321 368 1003
-316 367 1000
-314 367 1002
-309 366 998
-307 367 1003
-303 366 1000
-300 366 1003
-297 366 1004
-293 365 1002
-292 368 1010
-289 367 1010
-285 367 1009
-282 366 1008
-276 363 1000
-275 366 1009
-271 364 1004
-269 366 1012
-266 366 1011
-262 365 1010
-259 365 1010
-254 362 1003
-253 366 1014
-249 365 1011
-247 365 1013
-243 364 1011
-240 365 1015
-238 366 1017
-233 364 1013
-229 361 1006
-225 361 1006
-222 361 1005
-221 363 1014
-218 364 1017
-213 361 1010
-211 363 1014
-207 361 1010
-203 359 1005
-202 363 1016
-198 361 1013
-195 362 1014
-191 361 1012
-189 361 1014
-185 360 1012
-182 360 1012
-180 362 1017
-176 360 1013
-172 360 1012
-171 362 1020
-167 362 1018
-165 363 1023
-161 362 1021
-158 363 1024
-154 361 1017
-151 360 1017
-149 364 1027
-145 361 1020
-143 362 1023
-140 362 1024
-136 360 1017
-133 360 1020
-130 363 1026
-127 360 1021
-123 360 1020
-120 360 1021
-118 361 1025
-114 360 1020
-113 367 1041
-108 360 1022
-101 347 984
-93 332 941
-87 319 904
-82 312 887
-81 316 896
-74 300 852
-71 297 842
-68 296 840
-66 298 846
-63 297 842
-58 288 817
-54 277 786
-51 274 779
-50 281 799
-49 288 818
-46 290 825
-42 279 793
-40 282 802
-38 281 799
-35 279 794
-34 293 835
-31 285 811
-28 279 795
-26 283 805
-23 278 793
-21 281 800
-19 292 831
-18 315 897
-15 305 871
-13 317 905
-11 329 938
-8 341 974
-6 348 992
-3 357 1021
0 356 1017
2 358 1023
5 359 1026
8 361 1031
11 357 1021
15 360 1029
18 359 1027
21 359 1025
24 357 1020
27 358 1024
30 360 1029
33 359 1025
36 361 1032
39 360 1030
43 360 1029
46 360 1028
49 360 1028
52 361 1032
55 360 1028
58 360 1027
61 361 1030
64 360 1027
68 361 1032
70 360 1028
73 358 1022
76 359 1023
80 359 1025
83 362 1032
86 359 1025
89 360 1027
93 361 1031
96 361 1029
99 362 1034
102 361 1030
105 361 1028
108 362 1032
112 364 1039
114 361 1028
118 363 1034
121 362 1030
124 362 1031
127 363 1034
130 362 1031
134 364 1036
136 360 1025
139 360 1024
144 364 1036
146 362 1028
149 361 1027
151 360 1021
155 361 1024
159 363 1032
161 360 1023
165 363 1031
168 362 1028
171 362 1027
174 363 1028
177 362 1025
181 363 1027
183 362 1024
186 362 1023
190 363 1028
194 364 1029
194 359 1015
199 361 1020
204 365 1031
206 362 1023
210 365 1030
211 361 1018
215 362 1020
219 364 1026
222 363 1022
225 364 1023
228 362 1019
231 362 1018
234 362 1017
236 361 1013
243 366 1029
246 366 1027
247 363 1017
251 364 1019
254 364 1020
258 366 1024
260 364 1017
265 366 1023
267 364 1018
269 363 1013
273 364 1016
278 366 1021
281 366 1020
283 365 1016
286 365 1016
291 366 1019
293 366 1017
297 366 1018
300 366 1017
303 366 1016
305 364 1010
309 366 1012
311 364 1008
317 367 1015
320 368 1016
323 367 1013
328 369 1018
327 364 1005
333 367 1011
336 367 1010
339 367 1009
347 372 1021
348 369 1014
353 372 1020
355 370 1014
359 371 1017
359 368 1007
366 372 1015
369 371 1013
373 372 1014
373 369 1006
380 372 1014
382 371 1010
387 373 1015
391 373 1014
391 371 1006
394 371 1005
398 371 1005
403 373 1008
408 375 1012
411 374 1010
414 374 1007
415 372 1000
419 372 1001
425 375 1006
430 376 1010
434 377 1010
438 377 1010
439 376 1005
444 377 1008
447 377 1005
449 376 1002
453 376 1001
459 379 1007
460 376 999
466 379 1006
470 380 1005
472 378 1001
476 379 1001
485 384 1012
485 381 1003
489 381 1003
496 384 1010
496 381 1001
499 381 999
501 381 996
505 381 996
510 382 996
515 383 998
513 380 987
519 381 990
522 381 989
529 384 993
533 385 994
535 383 990
541 385 993
543 384 989
548 385 990
551 385 988
554 385 985
563 389 994
570 391 998
570 389 991
576 390 994
579 390 991
589 394 1000
592 394 998
591 392 990
597 393 992
-553 373 906
-555 376 916
-545 371 906
-545 373 913
-542 374 916
-539 374 918
-530 370 908
-521 366 901
-519 366 904
-518 368 908
-517 369 914
-516 371 920
-509 368 915
-510 371 923
-504 368 919
-503 370 924
-499 369 924
-497 370 928
-494 370 930
-495 374 940
-494 375 944
-497 380 959
-492 378 956
-488 378 956
-490 382 968
-486 381 968
-476 376 956
-464 369 940
-456 365 931
-449 362 924
-449 365 932
-442 361 926
-441 363 931
-442 366 940
-439 366 941
-433 364 938
-433 366 944
-428 365 942
-426 365 945
-424 366 949
-423 368 956
-424 372 965
-436 385 1002
-439 391 1018
-453 405 1059
-439 396 1036
-411 374 979
-400 367 961
-394 364 954
-395 368 966
-393 369 970
-389 368 968
-381 363 957
-376 362 955
-373 362 956
-373 365 965
-370 365 966
-366 364 964
-362 363 962
-361 364 968
-356 362 964
-353 363 966
-353 366 975
-347 364 970
-342 361 963
-341 364 972
-338 363 971
-337 365 978
-333 365 977
-332 366 984
-325 362 972
-323 364 978
-319 363 977
-320 368 990
-316 366 988
-313 366 988
-311 367 992
-306 365 988
-303 366 990
-300 365 988
-299 368 998
-294 366 994
-295 371 1007
-292 371 1009
-286 368 1001
-282 366 998
-278 365 994
-276 366 999
-271 363 992
-269 365 998
-266 365 998
-264 366 1002
-259 364 998
-256 364 999
-254 365 1001
-253 368 1010
-249 367 1009
-245 366 1006
-242 366 1007
-240 368 1013
-237 367 1011
-231 363 1001
-227 361 997
-224 362 1000
-222 363 1003
-217 361 998
-214 361 999
-211 360 997
-209 363 1004
-204 359 994
-202 362 1003
-200 362 1005
-198 365 1012
-193 361 1002
-190 362 1006
-187 362 1005
-182 358 995
-182 363 1010
-178 363 1010
-175 361 1006
-172 363 1011
-168 361 1007
-165 361 1007
-162 361 1007
-159 361 1007
-156 360 1007
-154 362 1013
-150 362 1011
-147 361 1009
-143 359 1006
-141 361 1010
-138 361 1010
-135 362 1013
-131 359 1006
-128 360 1010
-125 360 1009
-123 361 1014
-119 359 1006
-116 358 1006
-114 363 1020
-111 365 1025
-106 357 1002
-101 349 982
-93 332 934
-86 318 893
-80 308 865
-75 297 834
-72 295 828
-69 295 830
-66 290 816
-62 285 800
-61 292 822
-56 281 791
-55 284 799
-53 286 806
-49 282 794
-46 276 776
-44 280 788
-43 285 803
-41 287 808
-37 276 778
-34 274 773
-33 281 793
-31 289 814
-28 286 807
-26 286 806
-23 277 781
-22 294 831
-19 293 826
-17 298 843
-15 304 858
-13 314 887
-11 327 924
-8 341 963
-6 350 989
-3 357 1009
0 357 1010
2 359 1016
5 359 1016
8 359 1017
11 359 1016
15 359 1015
18 359 1017
21 360 1020
24 360 1020
27 357 1011
30 360 1020
33 358 1013
36 358 1012
39 357 1010
42 359 1016
45 359 1017
48 360 1019
52 362 1024
55 361 1023
57 359 1017
61 361 1021
64 359 1017
67 361 1023
70 359 1016
73 359 1017
76 361 1021
80 365 1032
82 361 1021
86 361 1021
89 361 1019
92 362 1024
95 361 1021
98 361 1019
101 361 1018
104 362 1022
107 361 1018
110 361 1020
113 361 1019
117 362 1022
120 361 1018
123 361 1017
127 364 1025
130 363 1025
133 364 1026
136 363 1023
138 360 1015
142 363 1023
144 361 1015
148 362 1019
151 363 1022
154 361 1016
158 363 1021
160 361 1015
163 362 1016
166 362 1017
168 360 1010
172 361 1014
176 363 1020
178 361 1012
182 363 1018
186 365 1022
188 361 1011
192 363 1016
195 364 1018
198 363 1017
201 363 1016
203 361 1009
208 365 1019
210 362 1011
214 363 1014
217 363 1012
220 364 1014
224 365 1017
227 364 1014
230 365 1016
234 365 1016
235 362 1006
237 361 1004
241 362 1005
246 364 1012
247 362 1004
252 365 1012
257 367 1016
259 365 1011
261 364 1007
266 367 1015
266 362 1002
272 366 1011
274 365 1007
278 365 1009
280 364 1005
284 366 1008
287 365 1006
291 366 1007
295 367 1010
298 366 1007
298 363 998
305 368 1011
306 365 1002
310 366 1004
312 365 999
317 367 1005
320 366 1001
324 368 1005
327 368 1004
331 369 1005
334 368 1002
338 369 1005
339 367 998
342 367 997
349 370 1006
353 372 1009
353 368 997
358 370 1002
360 369 999
365 370 1001
369 372 1004
370 369 997
377 373 1005
379 372 1001
382 371 999
386 372 1000
388 371 996
394 373 1001
397 374 1002
401 374 1002
403 373 998
404 371 991
411 374 999
417 377 1006
421 377 1004
420 374 994
425 376 998
428 375 996
431 375 993
437 377 999
440 377 997
442 376 994
446 377 993
454 381 1003
451 375 988
456 377 990
458 376 986
463 377 989
468 379 991
472 379 991
478 381 995
486 385 1004
484 381 992
490 383 997
489 380 986
499 385 998
499 382 990
500 381 984
510 386 996
509 382 985
513 383 986
514 381 979
520 383 983
524 384 984
528 384 984
531 384 980
537 385 984
536 383 975
542 384 977
545 384 976
551 386 979
560 390 987
559 387 977
565 389 981
570 390 982
573 389 979
579 391 982
579 389 975
587 392 981
587 390 973
-545 371 892
-545 373 899
-538 370 895
-541 374 906
-537 374 906
-533 373 906
-524 369 897
-516 365 891
-518 369 900
-516 369 904
-513 369 906
-509 369 906
-511 372 916
-503 369 909
-501 370 914
-497 369 912
-493 368 912
-492 370 917
-493 373 927
-488 372 926
-496 380 947
-494 381 952
-491 381 953
-491 383 961
-484 380 955
-482 381 958
-474 378 951
-466 373 941
-455 367 927
-448 364 922
-445 364 922
-441 364 922
-443 367 933
-434 363 922
-434 365 930
-431 365 932
-427 365 931
-426 366 937
-422 365 935
-421 367 941
-420 368 947
-418 370 952
-432 385 992
-435 391 1008
-429 388 1002
-436 397 1026
-411 377 977
-397 367 952
-392 365 949
-398 374 971
-390 369 961
-384 367 956
-380 365 953
-376 364 952
-372 364 951
-372 367 961
-367 365 957
-363 364 956
-361 365 959
-358 365 959
-358 368 969
-353 366 964
-348 365 962
-344 363 960
-343 365 966
-341 366 969
-338 367 971
-334 365 968
-330 365 969
-326 363 966
-326 366 975
-321 364 970
-319 366 976
-317 366 978
-315 368 983
-313 370 988
-308 367 983
-305 367 984
-301 367 983
-298 367 984
-296 367 985
-294 369 993
-293 371 998
-292 373 1006
-285 369 995
-283 370 998
-279 369 997
-273 365 985
-270 365 987
-268 367 993
-265 367 994
-262 367 995
-259 367 996
-256 368 998
-253 367 996
-250 367 997
-246 366 997
-242 365 993
-241 367 1000
-238 368 1003
-233 364 994
-229 363 990
-227 365 996
-223 363 992
-221 364 997
-217 364 997
-215 366 1002
-212 365 1000
-207 363 995
-204 362 993
-202 363 997
-199 364 1001
-195 363 997
-192 363 998
-188 361 994
-185 360 992
-182 362 996
-180 363 1002
-177 363 1000
-174 363 1002
-169 360 993
-167 361 998
-164 360 995
-161 362 999
-158 361 997
-155 362 1002
-151 360 995
-149 361 999
-147 363 1006
-143 361 1000
-139 359 996
-136 359 996
-132 356 988
-130 359 997
-127 361 1002
-125 361 1004
-121 361 1002
-118 359 999
-115 360 1000
-114 365 1016
-111 367 1023
-105 356 992
-99 347 965
-91 328 914
-84 314 875
-81 311 866
-77 306 853
-73 301 838
-71 304 846
-65 288 802
-63 293 816
-60 290 809
-58 290 810
-55 289 805
-53 292 813
-49 282 787
-45 273 760
-43 276 768
-41 275 767
-39 281 785
-36 278 775
-35 284 793
-32 283 790
-28 268 748
-29 293 818
-26 287 801
-25 303 846
-22 301 841
-19 296 828
-16 293 820
-15 307 858
-13 316 883
-10 327 914
-8 338 948
-6 351 983
-3 359 1007
0 360 1010
2 361 1012
5 360 1010
8 358 1004
11 361 1013
14 359 1008
17 359 1006
21 364 1020
24 359 1006
27 359 1006
30 360 1009
33 360 1010
36 357 1002
39 359 1007
42 358 1003
45 363 1019
48 362 1014
51 360 1011
54 362 1016
57 361 1012
60 362 1014
64 362 1014
67 363 1016
70 362 1015
73 364 1019
76 362 1015
79 361 1012
82 362 1013
85 361 1012
88 363 1016
91 363 1016
94 362 1012
98 363 1016
101 364 1018
104 362 1013
107 362 1013
109 361 1009
112 360 1005
116 363 1014
119 364 1016
122 362 1012
125 363 1015
128 361 1009
132 363 1014
133 359 1003
138 364 1016
141 363 1012
144 364 1015
148 365 1016
151 364 1015
154 365 1018
156 362 1009
159 362 1008
163 365 1016
166 364 1014
169 365 1014
173 366 1017
174 362 1005
177 361 1004
181 362 1007
184 364 1010
187 363 1008
190 362 1005
194 364 1009
195 361 999
200 364 1009
203 363 1006
205 361 1000
209 363 1004
211 361 999
214 361 998
218 363 1002
221 364 1004
224 362 999
228 364 1003
232 365 1007
234 363 1002
236 363 999
242 366 1007
243 363 998
246 364 1000
252 367 1009
255 367 1009
257 366 1005
260 366 1003
263 365 1001
267 367 1004
270 367 1004
271 364 996
275 365 997
281 368 1006
282 365 998
285 366 998
291 369 1005
291 365 994
296 367 999
301 369 1005
302 368 999
306 368 999
307 365 991
311 366 993
316 369 1001
320 370 1001
323 370 1001
324 368 994
330 370 1000
331 368 994
334 368 993
338 368 993
342 370 995
344 369 992
349 370 994
354 372 999
354 369 990
362 374 1003
360 369 988
367 372 995
368 370 990
371 370 989
376 372 992
379 371 989
383 372 991
387 373 991
386 369 980
393 373 990
398 374 992
400 374 990
405 375 992
409 376 993
412 376 991
414 375 988
420 377 992
420 374 984
426 376 989
427 374 983
431 375 984
439 380 994
438 375 982
443 377 985
450 380 992
451 379 987
453 377 982
457 378 983
457 375 974
465 379 984
472 382 989
473 380 983
476 381 983
483 383 988
486 383 987
488 382 981
489 381 977
498 385 987
497 381 976
500 381 974
505 382 977
512 385 982
514 384 979
514 382 971
519 383 972
522 383 971
528 385 974
529 383 969
537 386 974
542 388 976
543 386 971
546 386 969
554 389 974
558 389 974
565 392 979
561 387 966
572 392 977
569 387 963
575 390 967
583 393 974
584 391 967
-531 364 869
-534 368 879
-529 367 878
-528 368 882
-527 369 887
-522 368 886
-521 370 892
-515 368 888
-511 367 887
-508 367 889
-504 366 890
-508 371 903
-504 370 903
-501 371 905
-498 371 906
-498 373 914
-496 374 918
-496 376 924
-494 377 927
-493 379 934
-489 378 934
-486 378 935
-487 381 944
-488 384 954
-488 387 963
-488 389 969
-474 381 950
-459 371 927
-453 369 922
-450 369 924
-440 363 912
-437 363 913
-436 365 917
-436 368 927
-433 367 928
-429 366 926
-425 366 925
-423 366 928
-420 367 931
-417 367 932
-418 370 941
-416 371 947
-419 377 961
-433 392 1003
-440 401 1026
-454 417 1069
-401 372 953
-398 371 953
-392 369 949
-388 368 947
-386 368 949
-384 370 954
-380 369 953
-373 365 943
-372 367 951
-367 365 947
-361 362 941
-361 365 949
-358 365 949
-354 364 948
-353 366 956
-350 367 957
-350 369 964
-343 365 955
-339 364 953
-336 364 955
-336 367 963
-332 366 963
-329 366 964
-325 365 962
-323 367 967
-319 366 965
-316 365 964
-312 364 963
-310 366 968
-308 367 971
-306 368 975
-303 368 977
-298 366 972
-295 366 972
-296 370 986
-293 370 987
-291 372 993
-288 372 992
-282 368 984
-278 367 981
-275 368 983
-272 367 981
-269 367 982
-264 364 977
-262 365 980
-259 365 981
-256 366 985
-254 367 987
-250 366 986
-248 367 990
-244 367 989
-241 367 989
-240 369 995
-233 364 982
-232 366 989
-227 364 983
-225 365 989
-221 364 986
-218 363 985
-215 363 985
-211 362 983
-208 361 980
-206 364 989
-202 361 982
-200 363 987
-199 367 998
-193 363 987
-191 364 993
-189 365 995
-185 365 994
-181 361 985
-179 364 993
-175 361 987
-171 361 986
-169 361 988
-165 359 983
-164 364 997
-159 360 987
-156 359 983
-154 361 990
-152 364 998
-148 361 991
-144 360 987
-141 361 990
-138 360 988
-135 360 989
-132 359 987
-130 362 996
-126 361 993
-124 363 999
-121 362 996
-117 361 995
-115 363 1001
-112 363 999
-110 367 1013
-104 358 987
-97 343 946
-90 328 903
-81 307 846
-78 303 836
-76 307 848
-71 295 813
-67 291 804
-67 302 832
-63 293 809
-59 286 791
-57 287 791
-51 269 742
-51 283 783
-45 261 721
-46 283 781
-44 282 779
-40 271 748
-39 279 771
-35 268 739
-36 290 803
-31 277 765
-31 296 820
-28 285 788
-26 289 799
-23 289 799
-22 301 835
-19 297 824
-18 312 865
-15 306 848
-12 315 874
-10 328 909
-8 339 941
-5 348 965
-3 362 1006
0 360 1000
2 361 1003
5 361 1004
8 361 1002
11 361 1003
14 362 1005
17 359 996
21 361 1003
23 358 995
26 360 1000
30 360 1001
32 358 996
36 361 1004
39 361 1004
42 362 1005
45 360 1000
48 360 1000
51 362 1005
53 357 991
57 361 1003
60 360 999
63 360 1000
66 359 997
69 362 1004
72 361 1002
75 361 1001
78 360 1000
81 362 1003
84 361 1002
87 361 1001
91 364 1009
94 363 1006
96 361 1002
99 361 1001
103 362 1004
105 360 997
109 361 1001
111 360 998
115 361 1001
119 364 1009
122 365 1010
124 361 998
128 364 1008
131 365 1010
133 363 1002
137 363 1005
140 364 1005
143 363 1003
146 364 1004
150 365 1007
153 365 1007
155 364 1004
158 362 998
160 360 994
164 362 997
168 365 1007
171 364 1004
174 364 1002
177 365 1005
179 362 996
184 365 1005
185 363 997
189 363 998
194 367 1007
195 364 1000
198 364 1000
202 366 1003
203 362 991
209 366 1004
211 365 999
215 365 1001
218 365 1000
221 365 1000
222 363 993
228 367 1002
230 365 996
231 362 989
237 366 999
238 364 992
243 366 998
244 363 990
249 367 998
253 367 998
255 365 993
259 367 996
262 367 998
264 365 990
267 365 990
270 365 989
276 369 999
278 367 994
280 366 990
283 366 989
288 368 994
289 366 987
293 367 989
295 366 985
298 365 982
302 366 984
309 371 996
310 369 991
316 372 998
316 369 989
317 366 980
324 370 990
325 368 985
328 367 982
333 370 988
336 370 987
340 370 987
342 369 984
348 372 990
351 372 989
353 371 985
360 375 995
360 372 986
361 370 979
367 372 985
367 369 977
372 371 981
376 372 982
379 372 981
382 372 980
388 375 986
388 371 975
392 372 977
397 374 980
399 373 977
403 373 977
407 374 977
417 380 992
411 372 971
418 375 977
420 374 974
424 375 974
427 375 973
435 379 983
440 380 986
439 377 976
442 377 974
449 380 981
449 377 972
455 380 977
456 378 972
461 379 973
465 380 974
469 381 975
475 382 978
478 383 977
481 382 974
487 385 980
489 383 975
495 386 980
496 384 974
501 385 976
502 384 970
506 384 969
512 386 973
513 385 968
521 388 975
522 386 969
525 386 968
528 385 964
530 385 961
530 382 953
539 386 962
548 391 971
546 387 961
553 389 965
558 391 967
564 393 970
564 390 961
562 386 950
569 389 956
580 394 966
578 391 957
-529 366 863
-526 366 866
-520 364 862
-520 366 868
-519 367 873
-521 370 883
-513 367 877
-512 369 882
-509 369 884
-502 366 879
-508 372 895
-499 368 887
-497 368 889
-494 369 891
-496 372 902
-495 374 908
-497 377 917
-496 379 924
-500 384 938
-494 382 934
-492 383 938
-490 384 942
-492 388 953
-489 389 956
-487 389 958
-479 385 951
-472 382 944
-458 374 925
-450 369 915
-445 368 912
-439 365 908
-432 362 901
-431 364 907
-431 366 913
-428 366 915
-423 364 911
-422 366 918
-420 367 922
-418 368 926
-417 370 930
-415 371 935
-413 371 938
-411 373 942
-432 394 997
-433 398 1009
-430 398 1010
-402 375 954
-396 373 949
-390 370 942
-388 370 945
-387 373 952
-384 373 953
-377 369 946
-371 366 939
-370 368 945
-366 367 944
-361 365 939
-361 369 949
-352 362 932
-353 366 944
-351 367 947
-346 365 944
-343 365 946
-338 363 940
-334 361 938
-333 364 946
-330 364 947
-327 364 948
-327 367 956
-325 368 960
-320 366 957
-318 367 960
-315 368 962
-313 368 965
-307 365 958
-306 367 962
-302 367 963
-302 369 971
-299 370 974
-292 365 962
-293 370 976
-291 371 980
-289 373 984
-284 370 977
-281 370 978
-278 371 981
-274 369 977
-270 367 974
-265 365 970
-264 368 977
-260 366 972
-257 367 975
-254 366 975
-251 367 978
-249 368 980
-247 369 984
-242 366 978
-239 366 979
-238 370 990
-232 365 976
-230 366 980
-228 368 985
-223 365 979
-221 367 985
-216 363 976
-212 361 971
-210 363 975
-208 364 980
-204 363 977
-201 363 978
-198 363 979
-196 366 986
-192 362 978
-190 365 984
-186 362 978
-182 362 977
-179 362 978
-177 364 985
-174 364 984
-171 363 983
-168 362 981
-164 362 980
-162 363 985
-159 363 984
-156 363 985
-152 362 982
-150 364 988
-146 361 981
-144 362 985
-140 360 979
-137 362 984
-134 360 981
-131 359 978
-128 360 980
-125 361 985
-123 363 990
-120 364 993
-117 364 993
-114 362 988
-113 369 1007
-109 365 996
-103 355 969
-97 344 941
-89 327 893
-83 317 866
-74 293 801
-76 307 839
-74 310 848
-69 301 822
-63 286 781
-62 291 795
-58 283 775
-56 285 779
-52 281 767
-50 278 761
-46 273 746
-45 278 762
-43 281 770
-41 281 769
-38 276 754
-37 286 782
-35 287 787
-32 281 769
-30 284 778
-27 277 759
-26 294 805
-23 289 794
-20 286 785
-19 294 807
-16 294 808
-14 306 840
-12 316 867
-10 327 900
-8 343 943
-5 354 973
-3 359 989
0 360 990
2 359 987
5 359 988
8 359 988
11 361 992
14 359 988
17 360 992
20 360 992
23 361 994
26 362 996
29 362 995
32 361 995
36 362 997
38 357 982
41 361 993
44 360 992
48 364 1001
50 361 992
54 362 995
56 361 993
60 362 996
63 362 995
66 364 1001
69 363 997
72 362 996
75 362 996
78 363 998
81 362 995
84 363 996
87 362 996
90 361 992
93 364 999
96 362 995
99 363 997
103 367 1007
105 363 996
108 362 992
112 366 1003
115 365 1001
117 361 991
121 364 997
123 361 990
126 363 995
130 363 996
133 364 996
136 365 1000
139 363 994
143 366 1001
145 363 993
148 364 997
151 364 996
155 366 1000
157 365 996
162 367 1004
163 363 990
167 365 997
169 363 990
172 363 991
176 366 998
177 362 986
183 367 999
184 364 990
188 365 993
191 365 994
194 364 990
196 362 985
201 366 994
203 365 991
207 365 992
207 360 978
213 366 992
217 367 995
219 366 991
221 364 986
225 365 988
229 366 991
230 363 981
236 368 993
237 365 986
240 365 985
243 365 984
246 365 985
250 366 985
255 369 993
255 365 982
258 364 979
262 365 982
266 366 984
269 367 986
273 368 987
274 365 979
277 365 979
282 368 984
284 366 980
288 367 981
291 367 981
294 367 980
298 368 982
301 368 982
304 369 982
310 371 989
309 366 975
316 372 988
319 371 985
322 371 985
320 366 969
328 370 980
331 370 980
335 371 981
337 370 978
341 371 980
344 371 978
345 368 970
351 372 978
355 373 981
358 373 980
359 370 972
367 376 985
371 376 985
370 372 973
372 371 970
376 371 970
378 371 967
383 372 970
387 373 972
391 375 974
393 373 970
401 378 980
401 374 970
400 371 961
408 376 971
410 374 967
415 376 969
420 377 972
422 377 970
428 379 974
427 376 965
432 377 968
439 380 974
441 379 969
444 379 968
448 379 968
450 378 965
453 378 964
461 382 973
466 384 974
467 382 968
471 383 969
473 381 965
477 383 966
479 381 962
489 387 974
485 381 958
492 384 965
495 383 962
498 384 961
498 381 953
509 387 966
511 386 962
509 382 950
515 384 955
519 385 955
527 388 961
526 385 952
528 384 949
534 386 952
540 388 955
541 386 950
549 390 957
553 390 956
559 392 960
560 390 953
562 389 950
568 392 953
569 390 947
582 396 961
-525 366 856
-521 366 856
-519 366 859
-518 368 865
-518 369 870
-516 371 875
-515 372 879
-512 372 881
-510 373 885
-505 371 882
-502 371 884
-491 365 871
-488 365 872
-486 366 876
-486 368 883
-483 368 885
-485 371 894
-483 373 898
-484 375 907
-487 380 920
-484 380 921
-489 387 939
-484 385 937
-481 385 938
-481 388 946
-475 385 941
-469 383 937
-453 373 913
-446 369 906
-441 368 904
-436 366 900
-433 366 903
-431 366 905
-429 367 908
-424 366 907
-426 370 918
-420 368 913
-422 372 925
-417 370 922
-415 371 926
-408 368 918
-409 371 927
-405 370 927
-408 376 942
-405 375 943
-403 377 947
-394 371 934
-392 372 939
-388 371 937
-387 373 943
-384 373 945
-381 373 944
-378 373 946
-372 370 940
-365 366 930
-360 364 927
-358 365 930
-357 367 936
-353 366 935
-350 366 935
-348 367 940
-343 365 936
-340 365 937
-338 366 940
-336 367 943
-331 365 939
-328 365 941
-327 366 945
-323 366 946
-320 366 946
-317 365 946
-317 369 956
-312 367 951
-309 367 951
-307 368 955
-305 369 959
-303 370 963
-299 369 961
-295 368 959
-292 368 961
-290 369 963
-290 373 974
-285 370 969
-282 370 970
-277 368 965
-275 369 968
-270 367 962
-268 367 965
-263 365 961
-263 369 972
-258 366 965
-256 368 970
-253 368 971
-249 367 967
-248 369 975
-243 366 967
-240 367 970
-236 365 965
-235 367 973
-231 367 972
-227 365 970
-226 367 975
-221 365 969
-217 364 967
-214 363 965
-213 366 974
-207 361 960
-206 364 969
-204 366 976
-201 365 975
-196 363 969
-195 365 976
-190 363 971
-186 360 964
-184 363 971
-181 362 968
-178 362 969
-175 362 969
-174 365 979
-169 362 972
-167 365 980
-166 367 987
-161 364 978
-158 363 976
-155 363 977
-152 364 980
-148 361 972
-145 362 976
-143 363 978
-140 364 980
-136 360 972
-133 361 975
-130 361 975
-127 361 974
-124 362 977
-122 363 980
-120 365 988
-115 361 977
-113 363 982
-111 367 993
-107 362 979
-101 352 953
-95 344 930
-88 327 885
-82 313 848
-77 306 828
-73 301 816
-72 304 823
-68 301 816
-63 290 785
-63 300 812
-58 289 783
-56 287 778
-52 281 762
-50 282 763
-48 283 768
-45 281 761
-42 274 744
-42 288 781
-38 280 759
-36 280 760
-35 288 782
-31 280 759
-30 294 798
-27 287 780
-24 278 756
-23 290 788
-21 300 816
-18 293 796
-17 305 829
-15 313 852
-12 319 869
-10 329 895
-8 344 936
-5 352 959
-3 359 978
0 361 984
2 360 980
5 363 989
8 361 986
11 361 986
14 360 981
17 363 990
20 363 991
23 362 988
26 360 983
29 363 990
32 359 979
35 362 986
39 365 995
41 361 984
44 363 989
47 362 987
50 364 992
53 363 988
56 363 990
59 362 986
62 360 982
65 358 977
68 361 983
71 362 986
75 364 992
77 360 980
80 360 981
83 363 990
87 364 992
89 363 988
92 361 983
95 363 989
98 363 988
101 363 987
105 365 992
108 365 992
111 364 989
114 364 989
117 364 988
119 363 986
123 364 989
126 363 987
128 361 980
131 361 980
134 362 983
138 364 987
141 365 991
143 362 982
148 366 992
151 366 991
153 365 989
156 365 989
159 365 988
163 366 991
164 361 977
168 364 985
171 364 985
174 365 985
176 362 977
180 364 981
182 362 977
186 364 982
189 365 983
193 365 985
196 365 984
199 365 983
202 366 985
205 365 982
206 363 975
211 366 983
216 368 988
216 364 977
221 367 985
222 364 976
226 365 977
231 368 986
232 365 977
236 367 981
240 368 985
242 366 979
244 365 975
248 366 976
252 367 980
253 365 973
257 366 974
260 366 973
263 365 972
268 368 978
269 366 972
273 367 976
276 367 975
279 366 971
281 365 967
286 368 975
289 367 972
291 367 970
295 368 973
297 367 969
303 370 977
306 370 975
309 369 972
313 370 975
315 369 972
319 370 973
322 370 972
326 371 973
328 370 970
332 371 973
336 372 974
337 370 968
343 373 976
348 375 978
349 373 972
352 372 970
354 372 967
360 374 973
361 372 967
364 373 967
370 375 972
375 377 977
374 373 965
376 372 960
380 373 963
382 372 958
391 377 972
388 372 957
392 372 957
396 373 959
404 377 967
407 377 967
410 377 965
414 378 966
420 381 972
422 380 969
422 377 960
425 377 958
433 381 967
434 379 962
440 381 967
442 381 964
442 378 955
448 380 959
450 379 955
455 381 959
463 384 967
463 382 958
470 385 966
477 388 971
477 386 965
477 383 957
482 384 958
485 384 957
487 383 953
492 385 955
494 384 952
496 383 948
504 387 956
505 385 950
511 387 954
508 382 941
516 385 947
521 387 950
526 388 951
525 385 942
530 387 944
535 387 945
541 389 948
539 386 937
543 386 937
549 388 941
551 387 937
562 393 948
562 391 941
570 393 947
570 391 940
-527 370 858
-520 368 853
-514 366 850
-514 368 857
-515 370 865
-511 370 864
-512 373 873
-505 370 868
-504 371 873
-501 371 873
-495 369 871
-491 368 870
-486 366 867
-478 363 861
-479 366 869
-477 367 873
-471 364 868
-469 365 872
-469 367 878
-470 370 887
-472 374 898
-467 372 896
-468 376 905
-469 379 915
-465 378 914
-462 378 915
-459 378 916
-449 372 904
-445 371 903
-439 369 898
-435 368 898
-432 368 898
-427 366 896
-425 367 899
-424 369 905
-422 370 908
-421 371 914
-421 374 921
-414 370 914
-410 370 914
-406 368 911
-404 370 916
-403 371 920
-401 372 924
-398 372 926
-395 373 928
-391 371 926
-388 371 926
-387 373 932
-385 374 937
-381 373 936
-377 372 933
-375 373 939
-367 368 926
-363 367 925
-359 366 922
-357 367 927
-356 369 933
-348 364 921
-347 366 928
-344 366 927
-342 367 932
-339 367 932
-335 365 930
-332 365 930
-327 363 927
-327 367 936
-325 368 941
-323 369 944
-318 366 937
-316 368 942
-314 369 947
-309 366 941
-306 366 941
-306 370 951
-302 369 950
-298 368 948
-298 371 957
-295 371 958
-290 368 951
-285 366 947
-284 368 954
-284 372 965
-280 372 964
-278 372 966
-272 368 956
-269 369 959
-268 371 965
-261 366 953
-259 366 955
-257 369 962
-255 370 965
-251 368 961
-246 365 956
-245 367 961
-240 365 956
-239 367 963
-234 365 957
-233 368 966
-228 364 957
-227 367 965
-224 367 965
-219 365 961
-217 366 963
-213 364 958
-210 363 958
-207 364 959
-203 362 956
-201 363 959
-197 363 959
-197 367 970
-194 367 970
-189 363 963
-186 363 962
-182 361 957
-178 360 955
-176 361 959
-173 361 960
-171 363 964
-167 361 961
-165 363 966
-163 365 972
-159 362 963
-157 365 972
-154 365 972
-151 365 973
-148 364 971
-144 361 963
-142 363 969
-139 363 969
-135 361 965
-132 361 964
-129 362 967
-126 360 964
-124 364 974
-120 359 962
-117 361 968
-114 360 964
-113 365 977
-109 363 974
-106 361 969
-100 351 941
-93 338 907
-86 323 867
-79 307 824
-77 310 831
-74 307 823
-69 295 792
-66 293 786
-63 292 784
-61 294 788
-59 294 790
-56 291 782
-55 296 796
-53 298 802
-47 281 755
-44 276 741
-42 277 744
-40 282 759
-38 282 759
-38 295 794
-34 287 773
-32 288 774
-30 292 787
-28 298 804
-24 283 763
-21 276 742
-21 293 789
-18 297 800
-16 298 802
-14 303 816
-12 316 853
-10 325 877
-8 341 921
-5 354 957
-2 359 969
0 361 976
2 362 978
5 363 979
8 362 978
11 361 976
14 361 974
17 362 978
20 362 979
23 361 975
26 363 980
29 361 974
32 362 978
35 362 979
38 363 982
41 364 983
44 362 978
47 365 986
50 362 978
53 363 980
56 365 986
59 361 976
62 362 977
65 363 981
68 363 979
71 364 982
73 362 976
76 361 975
79 360 970
82 362 977
86 364 982
89 363 980
91 361 973
95 365 984
98 363 979
100 361 973
104 365 983
106 361 973
110 364 981
112 362 975
115 362 974
118 363 977
121 362 975
125 365 981
128 365 983
130 362 975
133 363 976
137 365 980
140 364 978
143 365 980
147 367 986
149 365 979
152 366 982
155 365 978
157 363 974
161 365 978
164 365 979
166 363 972
172 369 987
173 365 976
176 365 976
180 366 980
182 365 975
185 364 973
189 366 977
191 365 974
195 366 977
198 366 977
200 365 974
204 366 976
206 364 971
210 367 978
214 367 978
215 366 972
219 366 973
221 364 967
224 365 970
228 367 973
231 367 973
236 369 978
237 367 971
240 367 971
242 365 966
248 369 976
250 367 971
251 365 964
254 365 963
259 368 970
262 368 969
266 368 971
266 365 960
274 371 975
274 367 965
278 368 966
279 365 959
284 368 966
285 366 959
289 367 960
293 368 962
297 370 967
300 369 964
300 366 956
305 368 959
308 368 959
315 372 969
317 371 966
321 372 968
325 373 969
325 370 961
331 373 967
334 373 967
335 371 961
340 373 965
340 370 956
344 370 957
347 370 956
352 373 960
355 373 960
354 369 948
362 373 960
367 375 963
367 372 954
369 371 950
376 375 959
379 375 958
380 372 951
386 376 958
389 376 958
394 377 960
395 375 954
400 377 957
401 375 950
407 378 958
410 377 956
415 380 960
415 377 951
421 379 956
423 378 952
430 381 959
430 379 952
434 380 953
438 380 954
444 382 958
443 379 949
445 378 945
449 379 944
460 385 960
459 382 950
463 382 950
470 386 958
471 384 950
476 385 953
476 383 946
480 383 945
484 384 945
488 385 947
492 385 946
493 384 941
501 387 949
503 386 944
505 386 941
504 382 932
510 384 936
512 383 932
519 387 938
525 388 941
530 389 942
531 388 936
533 387 933
536 387 931
539 387 930
544 388 931
547 388 928
552 389 930
555 389 929
561 391 931
571 396 941
-524 371 851
-520 371 852
-516 370 852
-514 371 855
-512 371 858
-507 370 856
-504 370 858
-507 374 869
-501 372 866
-499 372 869
-494 371 867
-487 368 861
-480 365 856
-474 362 852
-474 365 859
-475 367 867
-468 365 861
-466 366 865
-462 365 865
-461 366 869
-464 370 881
-456 367 874
-455 368 879
-455 370 885
-461 378 904
-456 376 901
-451 374 899
-447 374 898
-445 374 901
-438 371 896
-436 372 899
-432 371 898
-427 369 894
-422 368 893
-419 367 892
-422 373 908
-417 371 905
-417 374 912
-414 374 914
-410 373 912
-401 368 901
-401 370 908
-399 371 911
-399 373 919
-398 375 924
-395 375 926
-388 372 919
-383 370 915
-383 373 923
-383 375 930
-380 375 932
-378 376 935
-371 373 928
-366 370 923
-361 368 919
-357 367 917
-355 368 920
-353 369 923
-348 367 920
-343 365 916
-342 367 921
-337 364 916
-334 364 917
-334 368 928
-331 367 927
-327 366 925
-328 371 938
-323 368 932
-321 370 937
-318 369 937
-316 370 941
-312 370 940
-308 368 937
-305 368 939
-300 366 933
-298 367 937
-296 368 941
-295 371 948
-293 371 951
-287 367 941
-285 369 947
-283 370 949
-280 370 949
-276 369 948
-274 370 952
-270 368 949
-266 367 944
-264 368 950
-257 363 937
-257 367 949
-254 367 948
-251 367 951
-249 368 953
-245 366 949
-244 370 958
-237 364 945
-236 366 951
-233 367 953
-231 367 955
-228 367 956
-224 366 954
-221 365 952
-219 368 959
-216 367 958
-214 369 962
-208 363 950
-205 365 953
-203 366 958
-200 366 957
-197 365 955
-193 363 952
-191 364 954
-189 367 962
-184 362 951
-182 365 958
-178 363 953
-175 363 954
-172 362 952
-170 363 957
-168 366 964
-164 363 958
-161 364 960
-158 363 958
-155 362 957
-151 360 951
-148 361 954
-146 363 960
-143 364 961
-140 363 960
-137 362 958
-134 361 957
-131 361 956
-129 364 965
-126 363 962
-122 362 960
-120 363 962
-117 363 962
-113 361 959
-111 364 965
-109 367 974
-104 358 951
-98 349 928
-91 335 891
-83 313 832
-79 310 825
-71 288 765
-72 302 804
-68 296 786
-64 286 761
-62 291 773
-58 279 743
-55 278 740
-54 284 756
-53 289 770
-49 280 746
-46 278 740
-44 279 743
-42 283 755
-39 278 740
-38 281 750
-36 286 761
-33 278 742
-32 291 776
-28 278 740
-27 285 759
-25 292 780
-22 284 757
-21 296 789
-17 287 765
-16 301 805
-14 305 815
-12 313 837
-10 327 875
-8 341 912
-5 354 946
-2 362 969
0 360 964
2 363 972
5 366 979
8 360 965
11 361 967
14 362 969
17 360 965
20 366 980
23 362 968
26 363 971
29 361 966
32 359 961
35 364 974
37 359 962
40 361 966
44 362 970
46 361 966
50 364 974
52 362 970
56 364 973
59 365 977
61 363 971
64 363 971
67 364 974
70 364 973
73 361 966
76 363 972
79 365 975
82 363 969
85 363 970
88 363 969
91 363 971
95 366 977
97 362 967
99 362 966
103 365 973
106 364 971
109 365 974
112 364 972
115 363 969
117 363 968
120 362 966
124 364 971
127 364 969
131 367 978
133 365 973
136 365 971
139 365 973
142 366 973
144 363 965
