VERSION 0.7
FIELDS x y z
SIZE 4 4 4
TYPE I I I
COUNT 1 1 1
WIDTH 3573
HEIGHT 1
VIEWPOINT 0.0 0.0 0.0 1.0 0.0 0.0 0.0
POINTS 3573
DATA ascii
0 0 0
0 0 0
0 0 0
0 0 0
0 0 0
0 0 0
0 0 0
0 0 0
0 0 0
0 0 0
0 0 0
1046 -298 2877
1058 -299 2884
1064 -298 2874
1071 -298 2867
1093 -301 2900
1100 -301 2891
1092 -297 2845
1085 -292 2802
1109 -296 2838
1105 -293 2803
1090 -287 2741
1088 -284 2713
1103 -286 2726
1098 -283 2690
1089 -278 2645
1086 -276 2616
1104 -278 2635
1107 -277 2621
1090 -271 2560
1106 -273 2576
1097 -269 2533
1104 -268 2527
1117 -270 2537
1104 -265 2486
1106 -263 2470
1108 -262 2455
1117 -262 2455
1118 -261 2438
1109 -257 2399
1107 -255 2375
1113 -255 2369
1111 -253 2346
1114 -252 2333
1111 -249 2310
1116 -249 2301
1116 -247 2284
1124 -247 2281
1120 -245 2255
1104 -240 2206
1113 -240 2207
1108 -238 2181
1115 -238 2178
1124 -239 2178
1129 -238 2172
1129 -237 2155
1131 -236 2143
1127 -234 2119
1131 -233 2112
1127 -231 2087
1124 -229 2066
1125 -228 2053
1131 -228 2049
1132 -227 2036
1131 -225 2018
-479 -83 831
-489 -85 854
-483 -85 849
-467 -82 827
-467 -83 835
-476 -85 855
-465 -84 843
-472 -85 861
-485 -88 892
-455 -83 844
-480 -88 897
-500 -93 940
-610 -114 1157
-1058 -200 2020
-1080 -206 2078
-1074 -206 2081
-1067 -206 2084
-1058 -205 2082
-1052 -206 2086
-1039 -204 2076
-1036 -205 2087
-1033 -206 2096
-1028 -206 2102
-1020 -206 2102
-1012 -206 2102
-999 -204 2091
-993 -205 2096
-986 -205 2098
-978 -204 2098
-973 -205 2102
-962 -204 2095
-957 -204 2102
-951 -204 2105
-939 -203 2096
-914 -199 2057
-912 -200 2070
-908 -201 2075
-896 -200 2066
-891 -200 2071
-884 -200 2072
-872 -199 2062
-848 -194 2021
-836 -193 2010
-851 -198 2063
-845 -198 2066
-841 -199 2073
-833 -199 2073
-829 -199 2080
-811 -196 2054
-806 -197 2058
-801 -197 2064
-781 -194 2029
-776 -194 2036
-772 -195 2043
-778 -198 2076
-775 -199 2089
-766 -198 2084
-750 -196 2058
-738 -194 2044
-734 -195 2052
-723 -193 2039
-733 -198 2087
-722 -197 2075
-722 -198 2095
-714 -198 2093
-709 -198 2097
-700 -197 2090
-685 -195 2065
-670 -193 2041
-676 -196 2079
-672 -197 2087
-661 -196 2076
-658 -196 2086
-648 -195 2076
-639 -194 2067
-639 -196 2089
-628 -195 2076
-618 -194 2065
-614 -195 2074
-615 -197 2098
-608 -197 2097
-599 -196 2089
-597 -197 2105
-589 -197 2102
-584 -197 2106
-574 -196 2092
-570 -197 2105
-564 -197 2107
-561 -198 2120
-550 -196 2102
-543 -196 2101
-541 -198 2120
-531 -196 2103
-526 -197 2111
-521 -197 2116
-515 -198 2118
-508 -197 2116
-499 -196 2104
-490 -195 2096
-483 -195 2094
-477 -195 2095
-435 -180 1935
-429 -180 1934
-412 -175 1883
-417 -180 1935
-439 -192 2065
-409 -181 1953
-362 -163 1753
-351 -160 1728
-380 -176 1898
-375 -176 1900
-359 -171 1844
-263 -127 1378
-228 -112 1216
-246 -123 1327
-254 -129 1396
0 0 0
-702 -369 3963
-708 -378 4062
-708 -385 4136
-770 -426 4575
-820 -462 4956
-808 -463 4976
-793 -463 4973
-778 -463 4970
-766 -464 4985
-748 -462 4963
-736 -464 4984
-720 -463 4975
-8 -5 72
-4 -3 48
-10 -7 92
-13 -9 114
-7 -5 74
-7 -5 75
-32 -24 277
-134 -103 1121
-131 -103 1122
-109 -88 959
-108 -90 975
-110 -94 1021
-108 -95 1033
-121 -109 1188
-127 -118 1278
-140 -134 1453
-223 -218 2355
-220 -223 2405
-111 -117 1265
-104 -113 1226
-100 -113 1221
-93 -108 1178
-89 -108 1171
-87 -109 1187
-89 -116 1262
-81 -111 1201
-63 -91 995
-29 -45 496
-35 -57 630
-65 -108 1174
-61 -107 1160
-62 -115 1242
-57 -112 1212
-54 -112 1218
-49 -111 1199
-45 -108 1169
-44 -114 1237
-41 -116 1254
-38 -117 1268
-33 -113 1221
-30 -117 1264
-26 -116 1257
-23 -116 1256
-19 -114 1231
-15 -116 1255
-11 -114 1231
-9 -121 1305
-5 -118 1275
-1 -117 1264
2 -121 1309
5 -120 1295
9 -119 1281
12 -115 1239
16 -117 1264
21 -121 1303
24 -117 1267
28 -122 1314
31 -118 1275
36 -124 1333
38 -116 1255
44 -122 1317
45 -116 1247
50 -120 1289
52 -115 1239
55 -114 1225
60 -117 1257
65 -120 1290
68 -119 1281
74 -122 1315
76 -120 1283
74 -111 1196
82 -118 1268
87 -120 1282
89 -118 1261
93 -117 1257
100 -121 1301
107 -126 1347
105 -119 1275
0 0 0
0 0 0
0 0 0
355 -361 3830
355 -350 3712
357 -342 3621
352 -328 3474
357 -323 3422
364 -321 3395
367 -315 3332
352 -294 3113
349 -284 3000
368 -292 3087
371 -288 3042
391 -296 3129
383 -284 2995
355 -257 2713
373 -264 2784
399 -277 2922
409 -278 2928
421 -280 2950
434 -283 2984
439 -281 2957
451 -283 2979
450 -277 2916
439 -265 2789
431 -256 2686
436 -254 2667
455 -261 2733
461 -260 2722
466 -258 2706
473 -258 2698
478 -256 2680
444 -234 2446
358 -185 1936
340 -173 1809
340 -170 1780
356 -175 1836
349 -170 1773
334 -159 1668
338 -159 1664
371 -172 1800
382 -175 1828
376 -170 1772
288 -128 1334
254 -111 1157
243 -105 1094
236 -100 1044
231 -97 1011
189 -77 811
100 -39 418
160 -63 665
128 -49 522
0 0 0
105 -39 417
0 0 0
0 0 0
0 0 0
71 -24 264
32 -9 107
1274 -473 4845
1297 -477 4876
6 0 7
1312 -472 4817
0 0 0
0 0 0
0 0 0
0 0 0
1039 -354 3602
1030 -347 3532
1046 -349 3550
1032 -341 3464
1039 -340 3450
1036 -336 3406
0 0 0
0 0 0
0 0 0
0 0 0
0 0 0
0 0 0
0 0 0
0 0 0
0 0 0
0 0 0
0 0 0
0 0 0
0 0 0
0 0 0
0 0 0
0 0 0
0 0 0
1047 -289 2880
1050 -288 2863
1068 -290 2885
1075 -290 2877
1081 -289 2867
1084 -288 2848
1102 -290 2870
1098 -287 2836
1091 -283 2791
1099 -283 2788
1107 -283 2783
1087 -276 2710
1102 -277 2724
1093 -273 2678
1106 -274 2686
1109 -273 2670
1103 -270 2635
1105 -268 2616
1107 -267 2601
1097 -263 2555
1103 -262 2548
1094 -258 2506
1110 -260 2520
1118 -260 2518
1116 -258 2493
1117 -256 2475
1114 -254 2449
1114 -252 2430
1106 -249 2393
1113 -249 2389
1126 -250 2398
1110 -245 2345
1116 -245 2338
1116 -243 2321
1111 -241 2292
1116 -240 2285
1112 -238 2257
1114 -237 2245
1102 -233 2203
1107 -232 2196
1110 -232 2186
1113 -231 2175
1116 -230 2163
1126 -231 2167
1129 -230 2156
1126 -228 2134
1126 -226 2117
1135 -227 2119
1127 -224 2088
1124 -222 2067
1131 -222 2064
1135 -222 2056
1131 -220 2034
1135 -219 2026
-487 -82 845
-481 -81 840
-486 -82 855
-472 -80 837
-474 -81 848
-465 -80 836
-470 -82 852
-463 -81 846
-482 -85 887
-488 -86 905
-484 -86 904
-498 -89 937
-594 -107 1126
-1047 -192 1999
-1083 -200 2083
-1078 -200 2091
-1055 -197 2060
-1047 -197 2061
-1044 -197 2070
-1045 -199 2088
-1041 -200 2098
-1033 -199 2097
-1027 -199 2101
-1023 -200 2109
-1012 -199 2102
-999 -198 2091
-994 -198 2099
-984 -198 2093
-978 -198 2097
-972 -198 2101
-963 -198 2099
-959 -198 2106
-949 -197 2102
-942 -197 2103
-920 -194 2071
-912 -194 2069
-900 -193 2058
-897 -193 2070
-889 -193 2068
-873 -191 2047
-867 -191 2051
-832 -185 1984
-845 -189 2031
-850 -192 2061
-848 -193 2073
-840 -192 2072
-836 -193 2080
-834 -194 2093
-814 -191 2061
-812 -192 2074
-799 -190 2058
-775 -186 2016
-760 -184 1995
-778 -190 2060
-775 -191 2069
-769 -191 2072
-759 -190 2065
-752 -190 2065
-740 -188 2051
-730 -187 2040
-726 -188 2049
-728 -190 2075
-723 -191 2079
-719 -191 2086
-711 -191 2085
-705 -191 2086
-701 -191 2094
-678 -187 2047
-685 -191 2088
-672 -189 2068
-672 -191 2088
-661 -189 2074
-651 -188 2065
-642 -187 2058
-642 -189 2078
-637 -190 2085
-633 -190 2092
-615 -187 2057
-614 -188 2073
-616 -191 2104
-610 -191 2105
-598 -189 2087
-598 -191 2110
-588 -190 2099
-579 -189 2090
-567 -187 2069
-567 -190 2093
-562 -190 2099
-555 -190 2096
-549 -190 2099
-546 -191 2113
-537 -190 2105
-528 -189 2092
-529 -192 2122
-521 -191 2118
-514 -191 2114
-510 -192 2124
-500 -191 2112
-495 -191 2115
-492 -192 2134
-478 -189 2097
-448 -180 1996
-411 -167 1855
-415 -171 1901
-418 -175 1942
-389 -165 1830
-409 -176 1952
-376 -164 1824
-400 -177 1967
-370 -166 1848
-336 -153 1705
0 0 0
0 0 0
-232 -111 1237
-219 -106 1185
-249 -123 1369
0 0 0
-702 -357 3961
-705 -365 4047
-709 -373 4140
-771 -413 4583
-818 -446 4949
-807 -448 4969
-792 -448 4969
-778 -448 4971
-763 -448 4971
-751 -449 4983
-735 -449 4975
1 0 2
-9 -6 79
-12 -8 105
-8 -6 81
-8 -5 78
-5 -4 59
-8 -6 84
-34 -25 294
-115 -86 969
-124 -95 1064
-108 -85 955
-115 -92 1038
-114 -94 1059
-109 -93 1045
-126 -110 1235
-121 -109 1220
-146 -135 1513
-238 -226 2520
-219 -215 2389
-107 -109 1220
-104 -110 1229
-100 -109 1224
-96 -108 1215
-95 -111 1245
-95 -116 1297
-87 -110 1234
-78 -104 1160
-52 -74 831
-23 -35 404
-48 -74 839
-66 -107 1194
-64 -109 1219
-61 -109 1222
-55 -105 1178
-56 -113 1261
-51 -111 1236
-49 -115 1289
-43 -109 1215
-43 -117 1308
-37 -113 1265
-34 -113 1266
-29 -110 1226
-27 -114 1270
-23 -113 1260
-19 -113 1261
-16 -116 1289
-11 -110 1228
-8 -114 1274
-5 -114 1273
-1 -108 1202
2 -110 1225
5 -111 1242
9 -110 1228
13 -116 1293
17 -115 1281
19 -110 1226
24 -115 1278
28 -118 1310
32 -116 1293
35 -114 1272
37 -110 1219
41 -112 1244
45 -112 1241
53 -122 1355
54 -117 1303
60 -120 1334
62 -117 1302
66 -117 1299
63 -106 1180
73 -117 1301
76 -116 1288
79 -114 1266
83 -115 1276
90 -119 1321
88 -112 1240
95 -116 1283
94 -110 1223
102 -116 1284
109 -119 1318
0 0 0
357 -376 4112
349 -356 3892
361 -356 3900
356 -341 3727
351 -326 3565
352 -318 3473
355 -311 3402
355 -303 3311
367 -305 3327
343 -278 3033
358 -282 3079
359 -276 3013
371 -279 3040
384 -282 3071
391 -281 3060
361 -253 2758
385 -264 2875
406 -273 2969
412 -271 2947
418 -270 2932
431 -273 2964
438 -272 2948
445 -271 2936
455 -272 2945
443 -260 2816
435 -250 2714
437 -247 2673
446 -247 2678
457 -249 2697
464 -249 2695
471 -249 2687
476 -247 2668
434 -222 2394
351 -176 1898
347 -171 1847
335 -162 1753
349 -167 1802
350 -165 1778
321 -148 1601
338 -154 1666
363 -164 1763
370 -165 1771
362 -158 1705
286 -123 1323
266 -112 1212
232 -96 1041
264 -109 1170
0 0 0
196 -78 843
132 -51 557
0 0 0
138 -52 564
139 -52 563
125 -46 499
0 0 0
0 0 0
0 0 0
0 0 0
22 -5 69
1280 -461 4868
1282 -457 4820
1312 -462 4875
16 -3 45
74 -23 255
0 0 0
0 0 0
0 0 0
1014 -335 3518
1026 -336 3522
1042 -337 3536
1034 -331 3470
1036 -329 3441
1064 -335 3497
0 0 0
0 0 0
0 0 0
0 0 0
0 0 0
0 0 0
0 0 0
0 0 0
0 0 0
0 0 0
0 0 0
0 0 0
0 0 0
0 0 0
0 0 0
0 0 0
0 0 0
1059 -284 2915
1054 -280 2875
1063 -280 2872
1078 -282 2887
1089 -283 2890
1091 -281 2867
1086 -277 2830
1090 -276 2816
1077 -271 2757
1095 -273 2779
1096 -271 2756
1084 -267 2703
1100 -268 2719
1096 -266 2687
1097 -264 2664
1101 -263 2653
1097 -260 2621
1094 -258 2592
1113 -260 2613
1097 -255 2556
1097 -253 2534
1102 -252 2524
1104 -251 2509
1117 -252 2517
1092 -245 2441
1108 -247 2455
1107 -245 2434
1113 -245 2428
1104 -241 2388
1091 -237 2342
1107 -239 2358
1109 -237 2343
1110 -236 2326
1095 -231 2277
1121 -235 2313
1108 -231 2268
1120 -232 2274
1103 -227 2224
1101 -225 2201
1111 -226 2204
1106 -224 2178
1120 -225 2188
1125 -225 2182
1124 -223 2163
1130 -223 2159
1119 -220 2121
1127 -220 2120
1127 -219 2104
1131 -218 2095
1128 -216 2076
1123 -214 2050
1133 -215 2053
1129 -213 2031
1131 -212 2020
-485 -78 841
-483 -79 844
-480 -79 845
-474 -78 841
-471 -78 841
-465 -78 837
-459 -77 833
-461 -78 843
-484 -82 891
-471 -80 873
-476 -82 889
-504 -87 949
-534 -93 1012
-1004 -178 1919
-1068 -190 2055
-1059 -190 2053
-1047 -189 2045
-1053 -191 2074
-1062 -194 2108
-1054 -194 2107
-1044 -193 2104
-1035 -193 2101
-1020 -192 2088
-1018 -192 2099
-1011 -192 2102
-1003 -192 2101
-990 -191 2091
-987 -192 2101
-979 -191 2099
-969 -191 2095
-965 -191 2104
-957 -191 2103
-950 -191 2104
-947 -192 2115
-926 -189 2084
-912 -187 2070
-900 -186 2060
-892 -186 2057
-895 -188 2082
-893 -189 2095
-869 -185 2056
-828 -178 1976
-854 -185 2054
-862 -188 2090
-852 -187 2085
-845 -187 2086
-833 -186 2074
-830 -187 2083
-810 -184 2052
-806 -184 2060
-799 -184 2059
-785 -182 2042
-765 -179 2007
-782 -185 2071
-787 -187 2101
-772 -185 2079
-761 -184 2069
-752 -184 2064
-734 -181 2033
-740 -184 2068
-717 -180 2025
-727 -184 2071
-726 -185 2087
-722 -186 2095
-722 -187 2116
-704 -184 2082
-697 -184 2084
-693 -185 2091
-679 -183 2071
-670 -182 2062
-666 -183 2070
-657 -182 2065
-655 -183 2079
-647 -183 2075
-644 -184 2085
-637 -184 2086
-622 -181 2058
-617 -181 2063
-617 -183 2084
-614 -184 2097
-608 -184 2099
-598 -183 2086
-595 -184 2101
-584 -183 2083
-577 -183 2083
-572 -183 2089
-570 -184 2105
-562 -184 2100
-558 -185 2108
-551 -184 2107
-541 -183 2092
-541 -185 2118
-534 -185 2117
-530 -186 2127
-520 -185 2115
-515 -185 2121
-507 -184 2113
-498 -183 2101
-494 -184 2114
-485 -183 2100
-471 -180 2069
-439 -170 1956
-439 -173 1981
-423 -168 1935
-425 -172 1974
-406 -166 1913
-416 -173 1986
-386 -163 1871
-377 -161 1853
-339 -147 1694
-378 -166 1913
0 0 0
0 0 0
-244 -112 1297
0 0 0
-240 -114 1322
0 0 0
-684 -337 3861
-705 -353 4049
-708 -361 4137
-770 -399 4578
-818 -432 4946
-807 -434 4969
-794 -434 4978
-779 -434 4978
-762 -433 4966
-748 -433 4966
-736 -435 4983
-721 -435 4986
-12 -8 105
-8 -5 75
-5 -4 59
-8 -5 80
-7 -5 77
-8 -6 82
-38 -27 324
-119 -86 998
-116 -86 1001
-112 -85 991
-113 -88 1023
-110 -88 1021
-112 -92 1073
-126 -106 1232
-126 -109 1268
-163 -146 1687
-232 -213 2452
-216 -205 2356
-115 -113 1308
-108 -110 1279
-95 -100 1163
-94 -103 1198
-91 -104 1203
-88 -104 1207
-82 -101 1172
-65 -84 977
-37 -51 596
-35 -51 596
-62 -92 1069
-68 -105 1217
-64 -105 1214
-60 -104 1207
-54 -99 1152
-52 -103 1189
-51 -107 1236
-47 -107 1232
-46 -112 1297
-40 -106 1229
-36 -106 1226
-34 -110 1269
-32 -116 1344
-26 -106 1229
-22 -106 1219
-19 -110 1265
-16 -110 1267
-12 -110 1271
-8 -112 1287
-5 -110 1268
-1 -111 1277
2 -112 1293
5 -106 1226
9 -111 1283
13 -114 1316
16 -110 1271
21 -113 1304
24 -114 1308
26 -104 1192
31 -111 1279
33 -105 1203
39 -111 1278
42 -109 1258
46 -111 1274
49 -109 1252
55 -114 1305
57 -111 1272
61 -113 1291
63 -109 1247
71 -115 1322
73 -113 1295
75 -111 1266
81 -114 1305
82 -110 1260
88 -113 1295
93 -115 1315
97 -115 1314
101 -116 1321
103 -113 1290
107 -113 1294
0 0 0
0 0 0
353 -348 3939
347 -331 3744
357 -330 3732
360 -324 3657
350 -306 3452
354 -301 3394
352 -291 3283
348 -280 3158
345 -270 3049
362 -276 3113
353 -263 2968
371 -270 3037
382 -271 3054
384 -267 3002
383 -260 2927
359 -238 2681
393 -256 2876
406 -259 2910
420 -262 2946
431 -264 2960
436 -262 2935
442 -260 2919
454 -262 2938
444 -252 2822
433 -241 2697
439 -240 2690
447 -240 2685
449 -237 2650
465 -241 2697
477 -244 2718
470 -236 2639
431 -213 2376
352 -171 1905
340 -162 1811
339 -159 1776
353 -163 1823
347 -158 1761
325 -146 1626
341 -151 1677
370 -162 1798
378 -163 1809
361 -153 1701
318 -133 1478
243 -99 1106
267 -108 1204
231 -92 1022
223 -87 973
229 -88 986
156 -59 658
175 -65 730
102 -36 413
0 0 0
92 -32 362
142 -50 560
0 0 0
0 0 0
70 -22 258
0 0 0
1265 -441 4812
1281 -442 4817
1312 -448 4876
1316 -445 4835
0 0 0
0 0 0
0 0 0
0 0 0
0 0 0
1046 -331 3588
1042 -327 3535
1033 -321 3469
1042 -320 3461
0 0 0
0 0 0
0 0 0
0 0 0
0 0 0
0 0 0
0 0 0
0 0 0
0 0 0
0 0 0
0 0 0
0 0 0
0 0 0
983 -266 2834
0 0 0
0 0 0
0 0 0
0 0 0
1060 -275 2917
1056 -272 2879
1068 -273 2886
1072 -272 2871
1087 -273 2884
1085 -271 2853
1084 -268 2825
1096 -269 2830
1087 -265 2783
1082 -262 2747
1094 -263 2751
1087 -259 2711
1098 -260 2715
1084 -254 2657
1091 -254 2650
1086 -251 2616
1104 -254 2638
1108 -253 2626
1099 -249 2581
1089 -245 2536
1089 -243 2515
1090 -242 2498
1098 -242 2494
1083 -237 2441
1104 -240 2468
1105 -238 2449
1098 -235 2415
1100 -234 2400
1095 -232 2370
1102 -231 2365
1109 -231 2362
1101 -228 2326
1096 -226 2298
1113 -228 2315
1116 -227 2303
1115 -225 2283
1110 -223 2255
1099 -219 2216
1099 -218 2199
1107 -218 2197
1107 -217 2181
1111 -216 2172
1117 -216 2166
1126 -217 2167
1123 -215 2146
1121 -213 2125
1122 -212 2110
1121 -211 2094
1117 -209 2070
1132 -210 2082
1127 -208 2058
1133 -208 2054
1131 -207 2035
1134 -206 2025
-482 -75 837
-480 -75 839
-478 -76 843
-471 -75 836
-474 -76 847
-464 -75 836
-469 -76 851
-473 -77 865
-480 -79 883
-485 -80 900
-477 -79 891
-473 -79 892
-508 -86 964
-943 -161 1802
-1052 -181 2026
-1069 -185 2073
-1072 -187 2095
-1067 -187 2101
-1060 -187 2103
-1051 -187 2102
-1040 -186 2096
-1031 -186 2095
-1023 -186 2095
-1019 -186 2103
-1011 -186 2102
-1003 -186 2102
-994 -185 2099
-986 -185 2100
-980 -185 2104
-970 -184 2099
-965 -185 2105
-958 -185 2107
-955 -185 2116
-944 -185 2109
-924 -182 2081
-913 -181 2073
-909 -182 2080
-892 -180 2058
-891 -181 2073
-887 -181 2081
-864 -178 2044
-838 -174 1999
-842 -176 2026
-850 -179 2064
-847 -180 2073
-844 -181 2084
-830 -179 2066
-826 -179 2075
-810 -177 2053
-805 -178 2058
-805 -179 2075
-785 -176 2042
-751 -170 1972
-774 -176 2050
-775 -178 2070
-774 -179 2087
-765 -179 2080
-749 -177 2056
-746 -177 2067
-730 -175 2043
-722 -175 2038
-734 -179 2091
-730 -180 2100
-719 -179 2089
-714 -179 2093
-713 -180 2112
-699 -178 2089
-698 -180 2108
-680 -177 2074
-665 -175 2048
-667 -177 2074
-657 -176 2064
-657 -178 2086
-642 -175 2060
-647 -178 2095
-638 -178 2089
-627 -176 2073
-619 -176 2071
-617 -177 2087
-611 -177 2089
-613 -179 2116
-594 -176 2074
-596 -178 2105
-590 -178 2105
-580 -177 2092
-572 -177 2089
-571 -178 2110
-564 -178 2108
-555 -177 2099
-549 -177 2099
-544 -178 2105
-536 -178 2102
-529 -177 2100
-524 -178 2104
-523 -180 2128
-513 -178 2111
-508 -179 2117
-495 -176 2092
-490 -177 2099
-485 -177 2101
-473 -175 2079
-445 -167 1981
-432 -164 1949
-435 -168 1993
-404 -158 1878
-411 -163 1938
-393 -158 1878
-380 -155 1841
-364 -151 1793
-364 -153 1817
-381 -162 1930
-333 -144 1715
0 0 0
-256 -114 1364
-226 -102 1226
-203 -93 1117
0 0 0
-702 -335 3969
-702 -340 4036
-710 -350 4152
-780 -391 4635
-817 -417 4944
-807 -419 4971
-793 -419 4974
-779 -420 4977
-762 -419 4965
-749 -420 4976
-734 -419 4972
-724 -422 5004
-5 -3 56
-9 -5 82
-7 -5 73
-5 -3 55
-11 -7 106
-6 -4 64
-37 -25 319
-124 -87 1044
-125 -90 1078
-111 -81 981
-113 -85 1022
-109 -84 1016
-107 -85 1029
-117 -95 1144
-119 -100 1205
-160 -138 1654
-231 -205 2445
-218 -200 2382
-114 -108 1300
-104 -103 1236
-97 -99 1188
-95 -101 1211
-92 -101 1215
-87 -100 1197
-63 -75 904
-43 -55 663
-31 -42 508
-48 -66 793
-71 -102 1217
-68 -102 1221
-63 -100 1202
-60 -101 1212
-59 -106 1266
-52 -98 1179
-52 -106 1272
-46 -100 1199
-43 -103 1228
-38 -99 1182
-37 -105 1256
-33 -104 1248
-29 -103 1237
-26 -103 1232
-21 -97 1156
-19 -107 1272
-15 -105 1256
-12 -107 1279
-8 -104 1247
-4 -105 1255
-1 -108 1285
2 -107 1271
5 -103 1233
9 -102 1216
12 -103 1228
16 -104 1245
20 -106 1259
24 -110 1310
27 -106 1265
29 -100 1194
34 -104 1235
39 -108 1280
41 -104 1238
45 -105 1248
48 -103 1226
55 -111 1318
56 -106 1257
60 -105 1250
65 -108 1280
67 -106 1252
72 -108 1277
79 -112 1327
81 -110 1300
83 -108 1283
85 -106 1253
93 -112 1320
97 -111 1316
98 -108 1275
100 -106 1253
96 -98 1165
0 0 0
0 0 0
357 -341 3984
363 -336 3924
351 -314 3671
358 -312 3638
340 -287 3347
339 -278 3243
354 -283 3303
355 -276 3217
341 -258 3011
365 -270 3142
370 -267 3110
371 -261 3040
388 -267 3103
398 -267 3110
381 -250 2912
375 -241 2805
396 -249 2893
413 -255 2956
424 -256 2975
430 -255 2956
435 -252 2927
444 -253 2935
450 -252 2916
442 -242 2807
439 -236 2735
443 -234 2709
446 -232 2678
459 -235 2711
462 -232 2680
469 -232 2673
466 -226 2611
425 -203 2342
353 -165 1910
337 -155 1795
335 -152 1755
351 -157 1809
342 -150 1735
317 -137 1583
290 -124 1426
348 -147 1689
366 -152 1753
356 -146 1677
300 -121 1391
273 -108 1249
268 -105 1208
249 -96 1104
255 -97 1117
223 -83 963
183 -67 774
139 -50 577
0 0 0
80 -27 318
107 -36 425
0 0 0
0 0 0
34 -9 118
85 -27 318
57 -17 206
7 0 11
1279 -427 4808
1295 -428 4813
1328 -434 4878
0 0 0
0 0 0
0 0 0
0 0 0
0 0 0
0 0 0
0 0 0
1047 -315 3515
1043 -310 3466
0 0 0
0 0 0
0 0 0
0 0 0
0 0 0
0 0 0
0 0 0
0 0 0
0 0 0
0 0 0
0 0 0
0 0 0
0 0 0
1022 -268 2948
934 -242 2668
0 0 0
0 0 0
0 0 0
1028 -258 2829
1060 -264 2890
1065 -263 2877
1075 -264 2879
1086 -264 2883
1084 -262 2850
1088 -261 2837
1094 -260 2827
1072 -253 2746
1073 -251 2724
1090 -253 2742
1085 -250 2706
1115 -255 2757
1081 -246 2651
1080 -243 2624
1076 -241 2593
1097 -244 2622
1092 -241 2586
1098 -241 2581
1083 -236 2524
1077 -233 2489
1074 -230 2461
1106 -236 2514
1086 -230 2448
1092 -230 2442
1089 -227 2415
1086 -225 2389
1081 -223 2358
1096 -224 2373
1087 -221 2334
1083 -219 2307
1100 -221 2326
1073 -214 2250
1107 -219 2303
1101 -217 2272
1107 -217 2267
1116 -217 2267
1106 -214 2230
1097 -211 2195
1102 -210 2188
1104 -209 2175
1109 -209 2168
1119 -210 2171
1125 -210 2165
1126 -209 2151
1123 -207 2129
1124 -206 2115
1124 -205 2099
1130 -204 2095
1117 -201 2055
1132 -203 2068
1123 -200 2036
1128 -199 2029
1131 -199 2020
-484 -73 841
-479 -73 838
-476 -72 838
-470 -72 835
-475 -73 849
-473 -73 852
-473 -74 858
-464 -73 849
-479 -76 883
-473 -75 877
-470 -75 878
-491 -79 925
-508 -82 964
-1016 -167 1942
-1082 -180 2084
-1082 -181 2101
-1075 -181 2101
-1066 -180 2100
-1057 -180 2098
-1051 -180 2102
-1042 -180 2102
-1033 -179 2099
-1026 -179 2101
-1017 -179 2099
-1014 -180 2109
-1000 -178 2096
-996 -179 2104
-987 -179 2102
-980 -179 2104
-969 -178 2098
-967 -179 2109
-959 -178 2108
-954 -179 2114
-941 -177 2102
-926 -176 2086
-902 -173 2049
-907 -175 2076
-905 -176 2089
-893 -175 2078
-884 -174 2074
-864 -172 2045
-840 -168 2005
-847 -171 2039
-850 -173 2063
-850 -174 2082
-845 -174 2086
-832 -173 2072
-823 -172 2066
-820 -173 2078
-804 -171 2056
-801 -172 2066
-785 -170 2042
-772 -168 2026
-766 -168 2028
-773 -171 2065
-771 -172 2078
-765 -173 2082
-750 -170 2059
-734 -168 2035
-730 -169 2042
-743 -173 2097
-725 -171 2068
-731 -174 2102
-715 -171 2077
-716 -173 2099
-710 -173 2102
-698 -172 2087
-695 -173 2098
-681 -171 2078
-671 -170 2067
-662 -169 2060
-659 -170 2071
-650 -169 2063
-647 -170 2074
-646 -172 2093
-634 -170 2078
-632 -171 2090
-615 -169 2058
-617 -171 2086
-611 -171 2087
-604 -171 2087
-600 -171 2094
-597 -172 2108
-590 -172 2107
-577 -170 2084
-572 -170 2088
-575 -173 2125
-564 -172 2107
-559 -172 2114
-547 -171 2094
-547 -173 2117
-535 -171 2097
-533 -172 2116
-529 -173 2125
-522 -173 2124
-512 -172 2110
-509 -173 2124
-498 -171 2105
-492 -171 2104
-489 -172 2119
-472 -169 2075
-457 -165 2037
-429 -157 1937
-421 -156 1927
-413 -156 1919
-417 -159 1962
-397 -154 1896
-395 -155 1917
-385 -154 1896
-379 -153 1891
-377 -155 1912
-374 -156 1924
-299 -127 1566
-217 -93 1155
-206 -90 1119
0 0 0
0 0 0
-694 -319 3922
-705 -330 4051
-711 -338 4156
-779 -377 4632
-818 -403 4948
-808 -405 4980
-793 -405 4980
-779 -405 4980
-764 -406 4982
-748 -405 4970
-736 -406 4990
1 0 3
-12 -7 101
-11 -6 96
-8 -5 77
-3 -2 44
-3 -2 42
-7 -4 72
-29 -19 251
-131 -88 1095
-111 -76 953
-109 -77 968
-115 -84 1045
-111 -83 1031
-109 -84 1042
-112 -88 1100
-135 -110 1363
-148 -124 1531
-236 -202 2496
-220 -195 2403
-114 -105 1305
-104 -99 1228
-94 -92 1150
-93 -96 1188
-81 -86 1075
-63 -70 877
-41 -48 610
-29 -36 460
-46 -58 729
-70 -92 1150
-77 -106 1313
-71 -103 1280
-66 -101 1253
-60 -97 1209
-59 -101 1249
-54 -100 1239
-48 -95 1182
-46 -97 1200
-43 -98 1217
-41 -101 1257
-36 -98 1211
-31 -95 1175
-30 -103 1271
-26 -100 1245
-23 -103 1269
-19 -100 1243
-15 -101 1252
-12 -102 1260
-8 -104 1280
-4 -102 1265
-1 -98 1213
2 -105 1292
5 -100 1239
9 -105 1292
13 -101 1246
16 -99 1224
20 -100 1235
24 -102 1256
27 -100 1236
30 -99 1218
35 -103 1269
40 -106 1310
41 -100 1227
47 -106 1300
48 -100 1226
55 -107 1314
56 -102 1255
61 -105 1290
66 -106 1304
69 -104 1282
73 -105 1294
76 -105 1291
80 -105 1286
83 -104 1277
88 -106 1294
93 -107 1310
95 -106 1294
101 -108 1319
104 -107 1304
105 -104 1270
0 0 0
345 -329 3978
0 0 0
0 0 0
347 -300 3626
345 -289 3499
360 -293 3546
364 -288 3484
355 -274 3309
351 -264 3184
360 -263 3177
348 -248 2992
364 -253 3057
374 -255 3069
386 -256 3086
403 -262 3154
389 -247 2974
367 -228 2744
396 -241 2897
411 -245 2942
417 -243 2924
429 -245 2946
439 -246 2955
443 -244 2925
451 -244 2923
437 -232 2779
432 -225 2694
438 -224 2683
445 -224 2676
457 -226 2699
463 -225 2687
470 -224 2679
471 -221 2640
415 -192 2289
352 -159 1906
336 -150 1791
348 -153 1824
342 -148 1765
336 -143 1707
287 -120 1433
265 -109 1303
339 -138 1647
367 -148 1756
355 -141 1675
299 -116 1386
247 -94 1128
236 -89 1061
266 -99 1183
228 -84 998
0 0 0
164 -58 695
0 0 0
0 0 0
127 -42 511
113 -37 450
0 0 0
0 0 0
113 -36 432
105 -33 397
29 -7 96
1271 -415 4838
1285 -415 4832
1294 -413 4808
25 -5 78
0 0 0
0 0 0
0 0 0
0 0 0
0 0 0
0 0 0
0 0 0
0 0 0
0 0 0
0 0 0
0 0 0
0 0 0
0 0 0
0 0 0
0 0 0
0 0 0
0 0 0
0 0 0
0 0 0
0 0 0
0 0 0
0 0 0
1060 -268 3058
0 0 0
0 0 0
0 0 0
0 0 0
1037 -252 2856
1060 -255 2893
1066 -255 2881
1071 -254 2869
1080 -254 2868
1077 -251 2834
1098 -254 2862
1068 -245 2760
1076 -245 2755
1044 -236 2650
1079 -242 2715
1063 -237 2653
1078 -239 2667
1042 -229 2555
1111 -242 2701
1071 -232 2582
1081 -232 2584
1073 -229 2542
1104 -234 2593
1068 -225 2488
1063 -222 2457
1110 -230 2544
1126 -232 2561
1097 -224 2473
1101 -224 2462
1080 -218 2396
1070 -215 2355
1095 -218 2390
1071 -212 2319
1074 -211 2307
1061 -207 2260
1107 -215 2340
1082 -209 2269
1105 -212 2299
1110 -211 2291
1108 -210 2270
1101 -207 2238
1085 -203 2188
1100 -204 2201
1103 -204 2190
1103 -202 2174
1111 -203 2172
1114 -202 2161
1124 -202 2164
1122 -201 2143
1121 -200 2126
1116 -198 2101
1124 -198 2099
1117 -195 2072
1126 -196 2073
1120 -194 2046
1126 -194 2041
1121 -192 2018
1128 -192 2016
-477 -69 828
-480 -70 841
-479 -70 844
-480 -71 852
-470 -70 841
-469 -70 846
-466 -70 846
-468 -71 857
-486 -74 895
-468 -72 870
-485 -75 908
-493 -77 929
-596 -93 1131
-1082 -172 2069
-1089 -174 2099
-1082 -174 2101
-1071 -173 2095
-1063 -173 2096
-1056 -173 2098
-1046 -173 2094
-1040 -173 2098
-1032 -173 2098
-1026 -173 2101
-1016 -172 2098
-1007 -172 2096
-1003 -172 2103
-996 -172 2105
-984 -171 2097
-977 -171 2098
-974 -172 2108
-963 -171 2101
-960 -172 2111
-952 -172 2111
-946 -172 2115
-926 -169 2086
-916 -169 2080
-917 -170 2100
-901 -169 2081
-892 -168 2076
-883 -168 2074
-868 -166 2055
-851 -164 2032
-856 -166 2061
-849 -166 2061
-840 -166 2058
-836 -166 2065
-834 -167 2079
-824 -166 2070
-811 -165 2055
-811 -166 2073
-804 -166 2074
-784 -163 2041
-772 -162 2027
-784 -166 2077
-774 -165 2068
-770 -166 2076
-758 -165 2064
-755 -166 2075
-735 -162 2037
-731 -163 2046
-726 -163 2050
-726 -165 2071
-721 -165 2075
-720 -166 2092
-716 -167 2102
-705 -166 2090
-698 -166 2089
-691 -166 2087
-674 -163 2057
-667 -163 2055
-664 -164 2066
-664 -165 2086
-655 -165 2080
-650 -165 2084
-643 -165 2086
-640 -166 2096
-629 -164 2083
-616 -163 2062
-619 -165 2095
-615 -166 2101
-608 -166 2102
-599 -165 2092
-600 -167 2118
-587 -165 2098
-578 -164 2088
-570 -164 2084
-565 -164 2087
-562 -165 2100
-559 -166 2113
-551 -166 2108
-545 -166 2112
-542 -167 2126
-532 -166 2111
-527 -166 2116
-519 -166 2111
-510 -165 2100
-505 -165 2109
-500 -165 2111
-495 -166 2117
-487 -166 2115
-476 -164 2091
-445 -155 1983
-436 -154 1969
-423 -151 1936
-421 -153 1958
-404 -149 1906
-398 -149 1904
-345 -131 1675
-378 -145 1861
-360 -140 1797
-413 -164 2096
-336 -135 1733
-296 -121 1551
-260 -108 1383
-215 -90 1164
-187 -80 1033
0 0 0
-701 -311 3962
-706 -318 4059
-710 -326 4153
-779 -364 4634
-817 -388 4949
-809 -392 4989
-794 -391 4982
-780 -392 4991
-762 -390 4969
-747 -390 4967
-735 -391 4983
0 0 19
-10 -5 88
-10 -5 87
-7 -4 71
-5 -3 58
-6 -4 66
-4 -2 49
-35 -22 301
-120 -78 1006
-108 -72 934
-102 -70 906
-117 -82 1056
-111 -80 1030
-111 -82 1065
-129 -98 1263
-120 -94 1216
-161 -130 1664
-236 -195 2499
-211 -181 2311
-108 -96 1234
-111 -102 1315
-92 -87 1125
-76 -75 971
-52 -54 707
-35 -38 500
-37 -42 558
-48 -56 732
-74 -89 1149
-74 -94 1208
-76 -101 1295
-68 -95 1219
-64 -94 1213
-60 -94 1209
-60 -99 1271
-53 -94 1204
-51 -97 1253
-48 -99 1267
-44 -96 1239
-39 -93 1200
-37 -96 1239
-33 -96 1233
-28 -93 1200
-26 -98 1265
-24 -103 1327
-19 -97 1248
-15 -98 1258
-11 -94 1211
-8 -99 1265
-4 -94 1208
-1 -96 1230
2 -98 1257
5 -98 1253
9 -96 1225
13 -99 1272
16 -96 1225
20 -96 1223
23 -97 1247
28 -101 1295
31 -100 1276
34 -96 1223
38 -98 1255
43 -100 1282
47 -101 1294
52 -106 1346
52 -97 1242
57 -99 1266
60 -99 1264
67 -103 1318
66 -97 1231
69 -96 1229
77 -102 1298
81 -102 1301
85 -103 1314
87 -101 1279
88 -98 1246
95 -101 1283
99 -101 1285
94 -93 1182
111 -106 1342
0 0 0
359 -330 4140
379 -337 4225
355 -306 3835
366 -306 3835
336 -272 3413
345 -271 3398
352 -269 3375
359 -268 3350
359 -260 3260
359 -253 3170
362 -249 3115
362 -243 3038
371 -243 3043
389 -249 3110
387 -242 3023
364 -222 2778
382 -229 2857
400 -235 2928
411 -236 2941
423 -238 2967
430 -238 2956
440 -238 2963
448 -238 2958
454 -237 2940
437 -223 2776
442 -222 2757
439 -217 2689
437 -212 2626
450 -214 2655
467 -219 2709
474 -218 2705
478 -217 2679
430 -192 2373
350 -153 1897
342 -147 1823
339 -143 1777
348 -145 1796
335 -137 1698
273 -110 1362
283 -112 1391
346 -136 1678
366 -142 1753
360 -138 1698
294 -110 1365
259 -96 1183
262 -95 1181
247 -88 1094
264 -94 1157
171 -59 733
0 0 0
163 -55 682
0 0 0
0 0 0
0 0 0
140 -44 554
0 0 0
0 0 0
90 -26 336
91 -26 335
1259 -397 4791
1283 -400 4825
14 -1 37
47 -12 160
0 0 0
0 0 0
0 0 0
0 0 0
0 0 0
0 0 0
0 0 0
0 0 0
0 0 0
0 0 0
0 0 0
0 0 0
0 0 0
0 0 0
0 0 0
0 0 0
0 0 0
0 0 0
0 0 0
953 -239 2830
0 0 0
0 0 0
1025 -250 2957
1043 -253 2981
0 0 0
0 0 0
0 0 0
1045 -245 2877
1050 -244 2865
1075 -248 2906
1073 -246 2875
1088 -247 2889
1070 -241 2814
1056 -236 2754
1077 -239 2784
1062 -234 2720
1077 -235 2733
1062 -230 2673
1081 -233 2696
1035 -221 2559
1083 -230 2656
1073 -226 2610
1062 -222 2561
1078 -224 2576
1111 -229 2634
1051 -215 2469
1120 -228 2611
1094 -221 2529
1127 -226 2584
1035 -206 2353
1074 -212 2422
1100 -216 2461
1076 -210 2387
1123 -218 2472
1124 -216 2454
1069 -204 2315
1150 -219 2472
1096 -207 2336
1168 -219 2470
1124 -209 2357
1110 -205 2311
1111 -204 2293
1105 -202 2263
1106 -201 2249
1099 -198 2217
1097 -197 2195
1097 -196 2179
1104 -196 2176
1108 -195 2167
1119 -196 2172
1124 -196 2164
1119 -194 2139
1129 -194 2142
1116 -191 2101
1113 -189 2080
1125 -190 2087
1122 -188 2065
1116 -186 2038
1129 -188 2048
1123 -186 2022
1134 -186 2026
-490 -68 851
-481 -67 841
-484 -68 853
-470 -67 835
-459 -65 822
-468 -67 844
-471 -68 855
-469 -68 857
-473 -69 872
-477 -70 885
-477 -71 892
-506 -76 954
-695 -105 1319
-1086 -166 2077
-1085 -167 2092
-1074 -166 2086
-1066 -166 2086
-1063 -167 2097
-1053 -166 2091
-1050 -167 2102
-1039 -166 2095
-1034 -166 2102
-1022 -165 2093
-1019 -166 2105
-1011 -166 2103
-1003 -166 2104
-995 -166 2104
-986 -165 2102
-977 -165 2098
-971 -165 2102
-963 -165 2101
-956 -165 2103
-954 -166 2116
-945 -165 2112
-925 -163 2086
-910 -161 2068
-908 -162 2079
-903 -163 2086
-884 -160 2059
-886 -162 2081
-866 -159 2052
-857 -159 2048
-858 -160 2066
-861 -162 2091
-852 -162 2087
-848 -162 2094
-839 -162 2091
-822 -160 2065
-816 -160 2068
-811 -160 2075
-806 -160 2079
-778 -156 2025
-770 -156 2024
-779 -159 2064
-776 -159 2075
-776 -161 2093
-747 -156 2034
-741 -156 2037
-745 -158 2066
-740 -159 2072
-729 -158 2061
-724 -158 2066
-726 -160 2092
-713 -158 2074
-711 -159 2087
-707 -160 2096
-697 -159 2087
-681 -157 2059
-670 -156 2046
-674 -158 2079
-669 -159 2083
-661 -158 2078
-657 -159 2087
-648 -158 2079
-648 -160 2102
-638 -159 2089
-627 -158 2076
-616 -156 2061
-619 -159 2094
-614 -159 2099
-611 -160 2112
-601 -159 2100
-594 -159 2098
-580 -157 2074
-583 -160 2107
-573 -158 2094
-569 -159 2104
-567 -160 2122
-554 -158 2095
-554 -160 2119
-545 -159 2111
-537 -159 2104
-533 -160 2117
-523 -159 2101
-517 -159 2105
-508 -158 2095
-506 -159 2111
-501 -160 2118
-492 -159 2105
-487 -159 2114
-474 -157 2083
-434 -146 1933
-442 -150 1998
-429 -148 1964
-414 -145 1922
-412 -146 1943
-390 -140 1864
-375 -137 1822
-369 -136 1815
-401 -151 2005
-386 -147 1956
-364 -141 1878
-326 -128 1708
-291 -116 1550
0 0 0
-213 -88 1174
0 0 0
-699 -298 3951
-707 -307 4063
-712 -314 4163
-784 -352 4663
-820 -375 4968
-808 -377 4985
-790 -375 4963
-778 -376 4977
-765 -377 4987
-750 -377 4987
-733 -375 4968
1 0 4
-11 -5 92
-7 -4 68
-6 -3 66
-2 -1 36
-1 -1 30
-6 -3 65
-25 -15 225
-98 -61 825
-84 -54 731
-98 -64 869
-109 -74 991
-109 -75 1015
-111 -79 1061
-112 -82 1100
-125 -94 1263
-170 -131 1752
-244 -194 2580
-216 -178 2361
-103 -88 1180
-97 -86 1150
-77 -71 952
-44 -43 582
-23 -24 332
-41 -43 586
-64 -69 931
-76 -85 1143
-71 -83 1113
-72 -89 1185
-71 -91 1220
-64 -87 1165
-68 -97 1291
-60 -90 1205
-55 -89 1187
-53 -90 1202
-50 -92 1228
-46 -90 1199
-44 -93 1239
-39 -90 1198
-35 -89 1187
-33 -94 1251
-29 -92 1230
-26 -95 1267
-23 -96 1281
-19 -95 1263
-15 -95 1272
-11 -93 1239
-8 -93 1239
-4 -92 1223
-1 -98 1311
2 -98 1298
6 -97 1290
9 -96 1281
13 -96 1277
16 -92 1221
20 -96 1273
24 -97 1293
28 -96 1277
32 -99 1318
35 -96 1276
38 -95 1263
41 -93 1236
45 -95 1257
50 -97 1280
53 -96 1273
56 -94 1240
60 -96 1267
61 -91 1212
68 -96 1265
75 -101 1341
77 -98 1300
81 -98 1297
80 -93 1228
85 -95 1255
92 -99 1304
99 -102 1340
94 -93 1222
96 -91 1203
107 -99 1303
0 0 0
360 -318 4144
350 -300 3900
362 -300 3904
349 -280 3649
348 -272 3533
352 -267 3472
344 -253 3292
354 -254 3296
352 -245 3188
349 -237 3083
360 -239 3102
365 -236 3062
370 -234 3031
394 -244 3156
385 -232 3008
389 -229 2971
354 -204 2642
399 -226 2922
409 -227 2932
419 -227 2939
430 -229 2954
438 -228 2949
449 -230 2963
453 -227 2931
441 -217 2803
441 -213 2748
440 -209 2691
446 -208 2681
456 -209 2693
461 -208 2676
477 -212 2725
474 -207 2662
429 -184 2365
358 -151 1936
335 -138 1781
344 -140 1805
341 -137 1756
341 -135 1733
338 -132 1690
314 -120 1548
359 -136 1742
375 -140 1794
350 -129 1649
264 -95 1225
211 -74 961
244 -85 1096
238 -82 1056
271 -93 1188
181 -60 775
0 0 0
117 -37 482
0 0 0
0 0 0
0 0 0
0 0 0
0 0 0
0 0 0
0 0 0
20 -4 64
1275 -387 4852
1284 -386 4831
21 -3 63
49 -12 167
0 0 0
0 0 0
0 0 0
0 0 0
0 0 0
0 0 0
0 0 0
0 0 0
0 0 0
0 0 0
0 0 0
0 0 0
0 0 0
0 0 0
0 0 0
0 0 0
0 0 0
0 0 0
0 0 0
1041 -252 3092
0 0 0
0 0 0
1022 -241 2949
1029 -240 2942
0 0 0
0 0 0
0 0 0
1046 -236 2880
1058 -237 2887
1071 -238 2895
1072 -237 2871
1083 -237 2875
1077 -234 2835
1088 -235 2837
1131 -242 2925
1100 -234 2819
1052 -222 2672
1015 -212 2554
1081 -224 2698
1136 -234 2811
1098 -225 2694
1138 -231 2769
1125 -227 2712
1092 -219 2611
1116 -222 2646
1104 -218 2595
1116 -219 2602
1118 -218 2584
1135 -219 2603
1106 -212 2516
1123 -214 2533
1100 -208 2460
1105 -208 2452
1164 -217 2562
1152 -214 2516
1136 -210 2461
1111 -203 2387
1131 -206 2411
1139 -206 2409
1102 -198 2311
1112 -198 2314
1123 -199 2320
1129 -199 2313
1136 -199 2310
1101 -192 2221
1098 -190 2197
1108 -191 2201
1109 -189 2185
1113 -189 2178
1116 -188 2166
1117 -188 2152
1127 -188 2154
1123 -186 2131
1115 -184 2100
1121 -184 2095
1118 -182 2073
1118 -181 2059
1125 -181 2056
1132 -181 2053
1122 -179 2021
1127 -179 2014
-475 -63 826
-484 -65 847
-485 -66 855
-479 -65 850
-476 -65 852
-479 -66 864
-473 -66 859
-468 -65 856
-471 -66 868
-492 -69 913
-475 -68 890
-511 -73 963
-755 -110 1434
-1087 -159 2080
-1086 -160 2093
-1078 -160 2095
-1076 -161 2106
-1063 -160 2097
-1055 -160 2097
-1048 -160 2098
-1039 -159 2097
-1031 -159 2096
-1024 -159 2098
-1019 -160 2105
-1008 -159 2099
-1002 -159 2102
-993 -159 2100
-989 -159 2107
-979 -159 2103
-970 -158 2101
-961 -158 2099
-962 -159 2117
-952 -159 2112
-934 -157 2088
-920 -156 2075
-907 -154 2061
-900 -154 2062
-893 -154 2063
-895 -156 2084
-881 -155 2070
-870 -154 2060
-863 -154 2062
-860 -154 2071
-865 -156 2100
-848 -154 2077
-845 -155 2089
-835 -155 2082
-825 -154 2074
-812 -153 2059
-801 -152 2050
-801 -153 2067
-776 -149 2020
-766 -149 2012
-785 -154 2081
-782 -154 2093
-772 -154 2083
-769 -154 2093
-755 -153 2076
-729 -149 2022
-722 -149 2023
-718 -149 2029
-716 -150 2043
-719 -152 2070
-716 -153 2083
-704 -152 2067
-700 -152 2075
-692 -152 2072
-678 -150 2050
-684 -153 2089
-674 -152 2076
-667 -152 2076
-661 -152 2078
-659 -153 2093
-649 -152 2082
-650 -154 2107
-630 -151 2065
-627 -151 2076
-620 -151 2076
-621 -153 2100
-613 -153 2096
-608 -153 2101
-602 -153 2103
-599 -154 2116
-583 -152 2084
-579 -152 2092
-570 -152 2085
-570 -153 2107
-565 -154 2113
-557 -153 2107
-550 -153 2105
-543 -153 2104
-543 -155 2129
-535 -154 2124
-523 -153 2104
-517 -153 2106
-511 -153 2107
-504 -153 2106
-500 -153 2115
-496 -154 2123
-485 -152 2105
-475 -151 2087
-456 -147 2035
-430 -141 1944
-434 -144 1987
-418 -140 1942
-414 -141 1951
-424 -147 2027
-388 -136 1884
-380 -135 1869
-387 -140 1935
-405 -148 2052
-355 -132 1827
-301 -113 1576
-287 -110 1528
0 0 0
0 0 0
0 0 0
-689 -283 3898
-707 -295 4064
-710 -301 4152
-790 -341 4701
-818 -360 4957
2 1 -5
-794 -362 4985
-779 -362 4988
-762 -361 4970
-751 -363 4993
-735 -362 4987
1 1 1
-10 -5 90
-11 -5 95
-10 -5 90
-2 -1 38
-4 -2 48
-7 -4 75
-23 -13 205
-61 -36 522
-57 -35 505
-69 -44 621
-103 -67 936
-101 -67 944
-111 -76 1060
-127 -89 1243
-134 -97 1353
-149 -111 1544
-243 -186 2574
-203 -161 2224
-88 -73 1016
-68 -58 818
-49 -43 617
-38 -36 511
-46 -44 626
-75 -74 1040
-82 -85 1181
-89 -95 1323
-81 -91 1268
-74 -87 1210
-69 -85 1185
-71 -92 1287
-65 -89 1243
-63 -91 1265
-57 -88 1228
-54 -89 1232
-50 -89 1233
-48 -91 1271
-43 -87 1215
-42 -93 1286
-38 -93 1286
-34 -92 1278
-28 -86 1202
-25 -88 1219
-22 -90 1254
-19 -91 1262
-15 -87 1210
-12 -95 1321
-8 -91 1257
-4 -88 1227
-1 -90 1242
2 -93 1291
6 -93 1291
9 -90 1247
13 -90 1249
16 -88 1225
20 -90 1243
24 -92 1266
28 -95 1311
32 -93 1291
35 -93 1287
37 -88 1218
43 -95 1310
47 -95 1311
48 -89 1223
53 -92 1268
57 -92 1274
61 -93 1278
63 -90 1241
66 -89 1231
70 -90 1233
80 -98 1345
79 -92 1262
81 -90 1240
80 -85 1175
95 -98 1346
93 -91 1255
101 -96 1322
101 -92 1266
94 -83 1134
0 0 0
0 0 0
360 -296 4008
361 -288 3899
0 0 0
344 -258 3490
350 -255 3452
364 -258 3483
365 -252 3400
336 -225 3042
347 -227 3067
355 -227 3057
365 -227 3064
373 -227 3056
386 -230 3094
401 -233 3140
389 -221 2976
374 -207 2792
395 -215 2892
415 -221 2968
423 -221 2967
429 -220 2948
439 -220 2955
448 -221 2958
452 -218 2927
446 -211 2831
434 -202 2703
445 -204 2726
445 -200 2673
455 -201 2686
461 -200 2678
471 -201 2686
469 -197 2633
424 -175 2340
352 -142 1903
343 -137 1826
340 -133 1783
348 -134 1795
360 -137 1829
344 -129 1721
352 -130 1732
365 -133 1772
374 -135 1793
345 -122 1627
283 -98 1311
261 -89 1194
269 -91 1214
234 -78 1039
256 -84 1122
222 -72 959
0 0 0
182 -57 762
164 -50 675
137 -41 556
0 0 0
0 0 0
0 0 0
0 0 0
0 0 0
49 -12 176
1270 -371 4833
1273 -368 4790
39 -9 132
1316 -373 4838
0 0 0
0 0 0
0 0 0
0 0 0
0 0 0
0 0 0
1003 -264 3406
1014 -264 3408
1029 -265 3419
0 0 0
0 0 0
0 0 0
0 0 0
0 0 0
0 0 0
0 0 0
0 0 0
0 0 0
0 0 0
0 0 0
0 0 0
0 0 0
1047 -238 3021
1014 -228 2899
0 0 0
0 0 0
0 0 0
1030 -224 2837
1055 -228 2879
1068 -229 2888
1088 -231 2915
1083 -228 2876
1091 -228 2871
1092 -227 2849
1110 -229 2871
1078 -220 2761
1096 -222 2783
1112 -224 2801
1089 -218 2719
1103 -219 2730
1107 -218 2716
1124 -220 2734
1098 -213 2647
1116 -215 2669
1131 -217 2682
1102 -210 2592
1112 -210 2592
1122 -210 2595
1144 -213 2623
1132 -209 2575
1108 -203 2500
1145 -209 2563
1121 -203 2489
1121 -202 2468
1132 -202 2473
1127 -200 2442
1136 -201 2442
1130 -198 2409
1136 -198 2403
1124 -194 2358
1141 -196 2375
1126 -192 2326
1117 -190 2290
1123 -190 2284
1110 -186 2240
1094 -182 2191
1098 -182 2182
1103 -182 2175
1109 -182 2170
1113 -181 2161
1123 -182 2164
1113 -179 2128
1118 -179 2121
1117 -177 2104
1120 -177 2095
1116 -175 2070
1117 -174 2057
1112 -173 2033
1120 -173 2032
1120 -172 2016
1122 -171 2006
-490 -63 851
-482 -62 844
-472 -61 833
-469 -61 833
-470 -62 842
-471 -62 849
-470 -62 855
-469 -63 859
-470 -63 866
-494 -67 918
-496 -68 928
-488 -67 920
-779 -108 1479
-1090 -153 2085
-1088 -154 2098
-1085 -155 2109
-1073 -154 2100
-1064 -153 2099
-1053 -153 2094
-1045 -153 2092
-1043 -153 2104
-1029 -152 2092
-1023 -153 2098
-1017 -153 2100
-1008 -152 2099
-1001 -152 2100
-995 -152 2105
-986 -152 2102
-975 -151 2096
-973 -152 2107
-963 -152 2104
-955 -151 2102
-955 -153 2119
-938 -151 2099
-923 -150 2081
-912 -149 2074
-899 -148 2060
-892 -148 2060
-895 -149 2085
-876 -147 2059
-867 -147 2053
-856 -146 2045
-858 -147 2067
-857 -149 2083
-851 -149 2086
-842 -148 2082
-829 -147 2067
-825 -148 2075
-816 -147 2070
-808 -147 2067
-806 -148 2081
-778 -144 2026
-767 -143 2016
-779 -146 2065
-781 -148 2090
-774 -148 2089
-771 -148 2099
-747 -145 2054
-742 -145 2059
-719 -142 2013
-729 -145 2061
-718 -144 2049
-718 -146 2067
-713 -146 2073
-703 -145 2063
-708 -148 2099
-693 -146 2073
-691 -147 2088
-687 -147 2097
-670 -145 2066
-665 -145 2072
-661 -146 2080
-657 -146 2088
-646 -145 2074
-647 -147 2099
-634 -145 2078
-630 -146 2086
-616 -144 2064
-619 -146 2094
-618 -148 2114
-608 -147 2104
-598 -146 2091
-592 -146 2093
-587 -146 2099
-572 -144 2070
-573 -146 2095
-571 -147 2112
-562 -146 2102
-560 -148 2118
-552 -147 2114
-549 -148 2129
-539 -147 2113
-530 -147 2107
-525 -147 2109
-520 -147 2117
-509 -146 2098
-506 -147 2112
-500 -147 2114
-497 -148 2127
-486 -147 2109
-478 -146 2102
-467 -145 2083
-423 -133 1912
-432 -137 1981
-400 -129 1859
-418 -137 1972
-401 -133 1919
-404 -136 1961
-408 -139 2007
-376 -130 1881
-417 -147 2115
-384 -137 1980
-336 -122 1759
0 0 0
0 0 0
0 0 0
0 0 0
-692 -273 3917
-705 -283 4058
-711 -290 4160
-793 -329 4719
-821 -347 4973
-809 -348 4988
-793 -348 4986
-777 -347 4973
-764 -347 4984
-748 -347 4979
-735 -347 4985
2 1 0
-9 -4 79
-5 -2 53
-7 -3 71
-5 -3 60
-6 -3 64
-6 -3 64
-13 -7 124
-38 -22 337
-48 -29 430
-59 -36 530
-92 -57 840
-94 -60 878
-96 -63 925
-108 -73 1067
-116 -81 1175
-121 -87 1264
-235 -173 2488
0 0 0
-43 -34 510
-37 -31 458
-51 -43 640
-64 -57 832
-87 -80 1158
-85 -81 1176
-88 -86 1254
-81 -83 1206
-81 -87 1258
-76 -86 1244
-73 -87 1259
-72 -90 1300
-66 -86 1252
-63 -87 1261
-56 -83 1204
-56 -88 1272
-47 -79 1143
-47 -86 1244
-43 -84 1224
-41 -87 1262
-36 -84 1218
-34 -89 1283
-29 -84 1219
-26 -86 1244
-23 -88 1277
-19 -88 1274
-15 -86 1250
-11 -86 1248
-9 -92 1332
-4 -86 1240
-1 -84 1217
2 -84 1208
6 -92 1322
10 -92 1326
13 -88 1272
16 -87 1259
21 -90 1295
25 -92 1324
27 -87 1259
32 -89 1285
39 -99 1418
41 -95 1368
42 -87 1257
46 -89 1275
52 -94 1345
53 -88 1258
56 -87 1246
61 -89 1281
64 -89 1274
72 -94 1344
72 -89 1282
77 -91 1302
82 -92 1322
82 -88 1256
91 -94 1342
92 -90 1294
92 -87 1244
95 -86 1231
101 -88 1262
109 -92 1319
0 0 0
350 -286 4031
344 -272 3830
347 -266 3740
337 -250 3525
351 -253 3557
353 -247 3480
364 -248 3486
355 -235 3311
361 -233 3274
358 -225 3161
367 -225 3158
363 -217 3049
370 -216 3033
392 -224 3136
399 -223 3120
372 -203 2840
364 -194 2716
390 -204 2855
409 -210 2931
416 -209 2919
430 -211 2955
438 -211 2948
444 -210 2933
452 -210 2925
443 -202 2812
438 -196 2728
442 -194 2707
446 -192 2680
455 -193 2688
464 -194 2694
470 -193 2682
468 -189 2626
431 -171 2379
353 -137 1913
335 -128 1784
339 -128 1778
343 -127 1770
348 -127 1769
349 -126 1744
356 -127 1756
369 -129 1794
375 -129 1793
357 -122 1684
307 -103 1424
254 -83 1160
250 -81 1125
253 -81 1124
244 -77 1069
202 -62 871
0 0 0
134 -39 556
0 0 0
135 -39 545
0 0 0
0 0 0
0 0 0
0 0 0
63 -15 230
46 -11 164
1265 -356 4817
1287 -358 4842
1307 -360 4860
43 -9 142
0 0 0
0 0 0
0 0 0
0 0 0
0 0 0
1040 -266 3572
1013 -256 3442
1026 -257 3446
1037 -257 3446
1058 -260 3482
0 0 0
0 0 0
999 -238 3185
1025 -242 3235
0 0 0
0 0 0
0 0 0
0 0 0
0 0 0
0 0 0
0 0 0
0 0 0
1025 -224 2958
0 0 0
0 0 0
0 0 0
0 0 0
1043 -218 2873
1062 -221 2898
1064 -219 2876
1077 -220 2885
1079 -219 2865
1087 -219 2862
1088 -217 2838
1081 -214 2795
1088 -214 2789
1089 -213 2767
1089 -211 2742
1081 -208 2698
1088 -208 2693
1099 -208 2698
1097 -206 2668
1099 -205 2650
1098 -204 2626
1105 -203 2619
1098 -201 2582
1111 -202 2591
1102 -199 2549
1114 -200 2556
1097 -195 2496
1117 -197 2521
1108 -194 2479
1112 -194 2469
1114 -193 2452
1113 -191 2431
1105 -189 2394
1113 -189 2393
1117 -188 2381
1118 -187 2365
1117 -186 2344
1119 -185 2330
1105 -182 2282
1120 -183 2296
1111 -180 2259
1107 -179 2234
1092 -175 2186
1097 -175 2180
1093 -173 2155
1107 -174 2167
1113 -174 2161
1120 -174 2158
1122 -173 2145
1110 -171 2106
1114 -170 2099
1114 -169 2082
1109 -167 2058
1115 -168 2055
1108 -165 2025
1119 -166 2031
1119 -165 2016
1112 -163 1987
-486 -59 845
-468 -58 820
-483 -60 852
-468 -58 832
-471 -59 844
-477 -60 860
-476 -60 864
-469 -60 858
-491 -63 905
-484 -63 899
-479 -62 896
-530 -70 1000
-796 -106 1512
-1092 -147 2091
-1081 -146 2086
-1078 -147 2095
-1071 -147 2097
-1064 -147 2100
-1056 -147 2100
-1047 -146 2098
-1035 -146 2091
-1030 -146 2095
-1022 -146 2097
-1016 -146 2099
-1008 -146 2100
-1001 -146 2101
-995 -146 2104
-987 -146 2104
-983 -146 2113
-970 -145 2102
-965 -145 2108
-960 -146 2114
-953 -146 2115
-944 -145 2111
-927 -144 2092
-914 -143 2078
-900 -142 2063
-893 -141 2064
-893 -143 2082
-882 -142 2074
-874 -142 2071
-862 -141 2060
-865 -142 2084
-858 -142 2086
-847 -141 2075
-845 -142 2090
-833 -141 2077
-814 -139 2047
-806 -139 2044
-804 -140 2057
-796 -140 2056
-771 -136 2009
-765 -136 2011
-788 -142 2090
-781 -141 2089
-776 -142 2094
-760 -140 2071
-747 -139 2054
-729 -137 2025
-729 -138 2041
-727 -139 2057
-725 -140 2071
-727 -141 2095
-711 -139 2069
-707 -140 2078
-714 -143 2118
-696 -140 2085
-686 -139 2075
-679 -139 2072
-678 -140 2090
-670 -140 2086
-660 -139 2077
-652 -139 2071
-652 -140 2094
-645 -140 2093
-644 -142 2113
-623 -138 2063
-617 -138 2068
-618 -140 2091
-614 -141 2102
-606 -140 2097
-598 -140 2093
-594 -140 2099
-582 -139 2082
-576 -139 2081
-571 -139 2087
-569 -140 2105
-565 -141 2115
-559 -141 2116
-552 -141 2115
-546 -141 2117
-542 -142 2126
-531 -140 2108
-527 -141 2118
-519 -141 2112
-507 -139 2092
-507 -141 2116
-499 -140 2109
-489 -139 2096
-489 -141 2125
-472 -138 2077
-454 -135 2024
-432 -130 1954
-441 -134 2021
-445 -137 2067
-400 -125 1886
-405 -129 1940
-403 -130 1955
-381 -125 1879
-397 -132 1987
-380 -128 1931
-384 -131 1978
0 0 0
0 0 0
0 0 0
-286 -104 1571
0 0 0
-692 -261 3915
-707 -272 4070
-711 -278 4164
-794 -316 4730
-820 -332 4971
-806 -332 4972
-790 -332 4967
-776 -332 4972
-765 -334 4994
-747 -332 4970
-736 -334 4996
-722 -334 4998
-12 -5 103
-12 -6 107
-10 -5 92
-4 -1 46
-7 -3 72
-4 -2 53
-18 -9 164
-42 -23 369
-39 -22 351
-45 -26 416
-76 -45 696
-83 -51 785
-82 -52 795
-83 -54 823
-74 -49 757
-60 -41 637
0 0 0
-15 -11 188
-58 -44 679
-75 -59 899
-89 -72 1099
-94 -79 1204
-88 -77 1171
-90 -82 1240
-89 -84 1270
-83 -82 1242
-79 -81 1233
-77 -83 1259
-69 -78 1184
-67 -80 1218
-66 -82 1248
-61 -81 1224
-59 -83 1257
-54 -81 1223
-51 -83 1256
-45 -79 1195
-43 -81 1229
-39 -81 1218
-35 -79 1195
-31 -79 1192
-27 -77 1158
-26 -83 1251
-22 -82 1233
-19 -85 1286
-16 -86 1299
-12 -83 1257
-8 -83 1246
-5 -87 1317
-1 -84 1260
2 -80 1213
11 -235 3490
22 -246 3663
32 -237 3520
41 -230 3426
52 -237 3527
61 -233 3461
71 -234 3475
81 -234 3468
90 -231 3434
98 -226 3351
89 -185 2753
88 -169 2505
88 -155 2305
91 -149 2214
71 -108 1605
67 -94 1400
62 -81 1217
65 -81 1218
73 -87 1294
78 -88 1321
80 -86 1292
86 -89 1327
84 -83 1239
90 -85 1274
95 -87 1291
99 -86 1288
105 -89 1319
96 -78 1164
0 0 0
375 -294 4318
352 -267 3925
353 -259 3807
349 -249 3652
342 -237 3472
354 -238 3490
338 -220 3232
364 -231 3390
346 -214 3140
357 -215 3153
360 -211 3097
367 -210 3078
376 -211 3085
394 -216 3158
408 -218 3191
368 -192 2811
371 -190 2771
400 -200 2924
409 -201 2928
420 -202 2946
436 -205 2993
440 -203 2960
447 -203 2950
453 -202 2936
442 -193 2809
435 -187 2711
438 -184 2679
443 -183 2662
455 -185 2685
470 -188 2730
479 -189 2731
472 -183 2647
423 -161 2332
352 -131 1903
334 -122 1776
335 -121 1754
346 -123 1787
351 -123 1785
351 -121 1754
359 -122 1770
377 -127 1833
370 -123 1770
346 -113 1634
295 -94 1367
250 -79 1142
0 0 0
260 -80 1155
252 -76 1103
158 -46 676
0 0 0
0 0 0
0 0 0
0 0 0
0 0 0
0 0 0
0 0 0
0 0 0
107 -27 402
67 -16 245
10 0 24
1272 -340 4787
1314 -347 4885
23 -3 69
0 0 0
0 0 0
0 0 0
0 0 0
0 0 0
0 0 0
1011 -245 3435
1021 -245 3431
1032 -246 3432
1040 -245 3420
0 0 0
0 0 0
1044 -239 3330
1000 -227 3155
0 0 0
0 0 0
0 0 0
0 0 0
0 0 0
0 0 0
0 0 0
0 0 0
0 0 0
0 0 0
0 0 0
0 0 0
0 0 0
1051 -211 2895
1055 -210 2881
1060 -210 2866
1078 -212 2889
1083 -211 2876
1092 -211 2875
1094 -210 2855
1097 -209 2838
1098 -207 2815
1075 -201 2732
1088 -202 2739
1080 -199 2695
1102 -202 2727
1100 -200 2700
1111 -201 2703
1094 -196 2639
1102 -196 2635
1099 -194 2607
1104 -194 2596
1108 -193 2585
1106 -191 2559
1099 -189 2520
1098 -187 2498
1120 -190 2527
1107 -187 2478
1110 -186 2463
1102 -183 2427
1110 -183 2426
1118 -183 2423
1106 -180 2378
1115 -181 2379
1116 -180 2361
1112 -178 2334
1098 -174 2286
1092 -172 2255
1092 -171 2239
1093 -170 2224
1075 -167 2170
1091 -168 2185
1090 -167 2166
1088 -165 2145
1104 -167 2161
