VERSION 0.7
FIELDS x y z
SIZE 4 4 4
TYPE I I I
COUNT 1 1 1
WIDTH 3299
HEIGHT 1
VIEWPOINT 0.0 0.0 0.0 1.0 0.0 0.0 0.0
POINTS 3299
DATA ascii
471 -347 2185
475 -346 2175
480 -344 2165
487 -345 2167
495 -346 2172
502 -346 2174
509 -347 2176
517 -348 2180
533 -354 2219
541 -355 2223
552 -359 2242
562 -361 2254
569 -361 2252
577 -362 2256
580 -359 2240
585 -359 2235
595 -361 2246
602 -361 2247
605 -359 2230
616 -361 2245
623 -361 2242
628 -361 2238
636 -362 2241
646 -363 2249
648 -361 2233
654 -361 2228
664 -362 2236
667 -361 2224
679 -363 2238
676 -358 2207
684 -359 2207
674 -350 2152
680 -350 2150
685 -349 2143
697 -352 2160
698 -349 2140
704 -349 2138
711 -349 2137
715 -348 2128
722 -349 2129
726 -348 2120
732 -347 2116
742 -349 2125
748 -349 2121
750 -347 2106
757 -347 2105
767 -349 2115
769 -347 2099
778 -348 2104
786 -349 2108
794 -349 2109
807 -352 2124
807 -350 2106
810 -349 2096
817 -349 2095
831 -352 2111
834 -351 2101
844 -352 2107
856 -354 2117
862 -354 2115
858 -350 2086
858 -347 2070
889 -357 2125
865 -345 2051
880 -349 2069
897 -353 2092
910 -355 2103
915 -355 2097
919 -354 2089
934 -357 2107
925 -351 2068
923 -348 2047
939 -352 2065
939 -350 2049
959 -354 2076
959 -352 2060
987 -360 2102
1003 -364 2119
980 -353 2054
980 -351 2038
986 -350 2035
989 -349 2025
940 -330 1908
892 -311 1796
893 -309 1785
895 -308 1775
904 -309 1779
908 -309 1773
913 -308 1769
921 -309 1770
922 -308 1759
929 -308 1760
935 -308 1758
945 -310 1762
953 -311 1764
955 -309 1754
961 -309 1752
968 -310 1752
968 -308 1739
968 -306 1726
981 -309 1737
-1300 -374 2234
-1285 -372 2224
-1273 -371 2220
-1260 -369 2213
-1247 -368 2207
-1232 -365 2196
-1230 -367 2209
-1216 -365 2200
-1202 -363 2191
-1199 -364 2201
-1194 -365 2209
-1173 -360 2187
-1164 -360 2187
-1154 -359 2183
-1138 -356 2170
-1129 -356 2170
-1119 -355 2167
-1116 -356 2178
-1102 -354 2167
-1088 -352 2156
-1079 -351 2154
-1071 -351 2156
-1065 -351 2161
-1049 -348 2144
-1044 -349 2151
-1034 -348 2148
-1022 -346 2139
-1010 -344 2131
-1004 -344 2135
-1009 -348 2163
-1002 -348 2165
-1000 -350 2178
-980 -345 2151
-975 -346 2158
-979 -350 2185
-995 -358 2239
-992 -360 2250
-998 -364 2282
-988 -363 2277
-986 -366 2293
-980 -366 2299
-975 -367 2307
-977 -370 2329
-971 -371 2335
-966 -372 2343
-966 -374 2362
-958 -374 2364
-953 -375 2372
-956 -379 2400
-950 -380 2407
-943 -380 2410
-937 -381 2417
-935 -383 2432
-933 -385 2448
-931 -388 2467
-927 -389 2477
-917 -388 2474
-919 -392 2500
-908 -391 2494
-906 -394 2513
-902 -395 2525
-898 -397 2537
-893 -398 2546
-885 -398 2547
-883 -400 2566
-879 -402 2581
-874 -404 2591
-866 -404 2593
-866 -407 2618
-858 -407 2619
-854 -409 2632
-846 -409 2635
-841 -411 2647
-836 -412 2658
-831 -413 2667
-819 -412 2657
-822 -417 2696
-809 -415 2681
-810 -420 2713
-798 -418 2702
-794 -420 2717
-784 -419 2711
-768 -415 2689
-753 -411 2663
-744 -410 2663
-734 -409 2658
-727 -410 2662
-716 -408 2653
-709 -409 2657
-699 -407 2649
-689 -406 2643
-682 -407 2647
-671 -405 2636
-661 -404 2631
-654 -404 2635
-645 -404 2633
-634 -401 2618
-626 -401 2620
-617 -401 2616
-608 -400 2610
-600 -400 2611
-589 -398 2601
-582 -398 2604
-573 -397 2598
-565 -397 2598
-556 -396 2595
-546 -394 2583
-539 -395 2586
-532 -395 2591
-524 -395 2589
-515 -394 2583
-505 -392 2573
-496 -391 2566
-490 -392 2575
-481 -391 2568
-472 -390 2563
-464 -390 2563
-455 -389 2556
-448 -389 2554
-439 -388 2551
-432 -388 2552
-424 -388 2550
-416 -387 2546
-408 -387 2548
-400 -386 2540
-392 -386 2537
-384 -386 2538
-375 -384 2528
-367 -383 2525
-361 -384 2531
-353 -384 2528
-344 -383 2522
-337 -383 2521
-329 -382 2518
-321 -382 2515
-314 -382 2516
-304 -379 2498
-297 -379 2500
-290 -379 2500
-283 -380 2507
-275 -379 2496
-267 -378 2493
-260 -379 2497
-252 -376 2483
-244 -375 2476
-237 -376 2481
-229 -376 2478
-222 -375 2477
-214 -374 2468
-207 -374 2467
-199 -373 2464
-192 -374 2468
-184 -372 2457
-177 -371 2450
-170 -373 2458
-163 -372 2455
-155 -370 2441
-148 -371 2450
-141 -371 2447
-134 -371 2445
-126 -370 2444
-119 -370 2440
-112 -369 2434
-105 -369 2434
-98 -369 2436
-91 -370 2438
-83 -369 2432
-76 -367 2422
-69 -367 2423
-62 -367 2421
-55 -366 2415
-48 -366 2415
-41 -366 2413
-34 -366 2415
-27 -365 2409
-20 -366 2410
-13 -365 2403
-6 -366 2409
0 -364 2398
7 -364 2395
14 -363 2393
21 -364 2399
28 -363 2391
35 -362 2383
42 -361 2379
49 -363 2388
56 -363 2386
62 -363 2387
69 -362 2382
76 -361 2377
83 -361 2375
90 -361 2375
97 -361 2373
103 -359 2357
109 -358 2354
117 -359 2359
123 -358 2352
130 -357 2346
137 -358 2353
143 -358 2347
150 -358 2347
157 -358 2350
163 -356 2337
169 -356 2331
176 -356 2331
183 -356 2334
190 -356 2332
196 -355 2323
202 -354 2314
210 -355 2323
216 -355 2319
223 -355 2323
230 -355 2320
236 -354 2315
243 -355 2318
250 -356 2322
256 -354 2313
262 -353 2304
270 -354 2311
275 -353 2303
281 -352 2296
288 -353 2299
296 -354 2302
302 -353 2300
308 -352 2291
315 -353 2294
322 -353 2294
328 -352 2287
335 -353 2292
341 -352 2287
347 -352 2284
353 -351 2275
360 -351 2275
366 -351 2273
373 -351 2274
379 -351 2271
387 -351 2273
392 -351 2267
402 -353 2284
415 -359 2319
420 -358 2308
425 -356 2295
424 -350 2255
429 -348 2246
436 -349 2248
439 -346 2224
442 -343 2209
446 -341 2193
451 -340 2185
456 -339 2177
458 -336 2157
467 -337 2165
473 -337 2163
481 -339 2171
488 -339 2172
496 -341 2180
504 -342 2184
517 -346 2211
529 -350 2234
540 -353 2250
555 -358 2284
570 -364 2317
571 -360 2292
578 -360 2289
572 -352 2236
585 -356 2262
590 -355 2252
593 -353 2239
595 -350 2218
606 -353 2235
618 -356 2252
625 -356 2252
630 -355 2244
639 -356 2250
644 -356 2244
651 -356 2244
663 -359 2258
671 -359 2261
675 -358 2250
682 -358 2251
684 -356 2232
689 -355 2224
675 -344 2156
675 -341 2134
685 -343 2143
694 -344 2149
699 -343 2143
700 -341 2127
710 -342 2134
714 -341 2125
721 -342 2125
726 -341 2121
733 -341 2119
741 -342 2122
747 -342 2119
750 -340 2106
758 -341 2109
770 -344 2122
773 -342 2112
780 -343 2111
782 -341 2097
793 -343 2108
807 -346 2125
801 -341 2090
816 -345 2112
825 -345 2114
827 -344 2103
824 -340 2076
846 -346 2112
843 -343 2087
868 -350 2131
849 -340 2067
863 -343 2081
881 -347 2107
876 -343 2078
869 -338 2044
895 -346 2087
896 -343 2071
901 -343 2066
919 -347 2089
925 -347 2085
945 -352 2114
927 -343 2056
951 -350 2092
949 -347 2072
958 -348 2075
954 -344 2049
986 -353 2102
1007 -358 2129
981 -347 2058
982 -345 2044
1016 -354 2097
990 -343 2028
942 -324 1913
897 -307 1808
890 -302 1779
906 -306 1797
905 -304 1782
911 -304 1779
915 -303 1775
921 -303 1771
926 -303 1769
926 -302 1755
934 -302 1755
941 -303 1756
946 -303 1752
958 -305 1760
962 -304 1755
970 -305 1757
970 -303 1743
968 -301 1727
982 -303 1739
-1292 -365 2221
-1285 -365 2226
-1274 -364 2222
-1257 -361 2208
-1256 -363 2223
-1236 -359 2204
-1235 -361 2219
-1213 -357 2196
-1209 -358 2204
-1203 -358 2211
-1186 -355 2195
-1171 -353 2184
-1162 -352 2184
-1157 -353 2191
-1145 -351 2185
-1127 -348 2168
-1128 -350 2185
-1108 -347 2164
-1099 -346 2162
-1093 -346 2166
-1081 -344 2159
-1066 -342 2146
-1056 -341 2142
-1049 -341 2146
-1041 -341 2145
-1027 -338 2134
-1020 -338 2135
-1016 -339 2144
-1006 -338 2141
-1012 -343 2171
-1000 -341 2162
-996 -342 2170
-984 -340 2162
-977 -340 2164
-982 -344 2193
-996 -352 2242
-996 -354 2261
-994 -356 2274
-991 -357 2286
-986 -358 2295
-985 -361 2311
-979 -361 2317
-970 -360 2313
-968 -363 2330
-963 -363 2337
-964 -367 2360
-959 -367 2368
-954 -368 2374
-950 -370 2387
-947 -371 2400
-943 -373 2411
-939 -374 2421
-933 -375 2428
-932 -377 2446
-927 -379 2457
-922 -379 2464
-915 -380 2468
-916 -384 2495
-913 -385 2509
-905 -385 2511
-901 -387 2523
-897 -388 2534
-893 -390 2548
-889 -392 2561
-882 -392 2566
-880 -395 2583
-874 -396 2590
-869 -397 2601
-864 -398 2611
-855 -398 2612
-852 -400 2627
-845 -401 2634
-843 -404 2653
-832 -402 2647
-828 -404 2660
-824 -406 2675
-817 -407 2682
-811 -408 2689
-806 -409 2700
-798 -410 2703
-792 -411 2712
-783 -410 2710
-764 -405 2676
-751 -402 2660
-742 -401 2655
-733 -401 2654
-726 -401 2658
-718 -401 2659
-707 -399 2649
-697 -399 2644
-687 -397 2638
-678 -397 2635
-671 -397 2637
-662 -396 2635
-649 -394 2618
-644 -395 2629
-633 -393 2616
-624 -393 2614
-616 -393 2615
-609 -393 2617
-598 -391 2605
-591 -391 2608
-581 -390 2601
-572 -389 2597
-566 -390 2602
-558 -390 2602
-547 -387 2588
-540 -388 2595
-531 -387 2587
-524 -388 2593
-514 -386 2579
-506 -386 2581
-498 -386 2581
-491 -386 2582
-481 -384 2571
-474 -384 2573
-463 -382 2559
-456 -382 2559
-448 -382 2558
-441 -382 2560
-432 -381 2557
-423 -380 2547
-416 -380 2549
-407 -378 2538
-400 -379 2546
-391 -378 2534
-384 -378 2535
-375 -376 2526
-368 -376 2528
-360 -377 2531
-352 -376 2523
-345 -376 2528
-336 -374 2517
-328 -374 2513
-321 -374 2511
-313 -373 2507
-305 -372 2504
-297 -372 2500
-290 -371 2498
-282 -371 2493
-274 -370 2491
-267 -371 2495
-259 -369 2483
-252 -371 2493
-244 -369 2480
-237 -369 2480
-229 -368 2478
-221 -366 2463
-214 -366 2465
-207 -367 2467
-200 -368 2475
-192 -366 2464
-185 -366 2462
-177 -365 2456
-170 -365 2454
-163 -365 2455
-155 -364 2451
-148 -365 2457
-141 -364 2452
-134 -365 2458
-126 -363 2444
-119 -362 2436
-112 -363 2443
-105 -362 2433
-98 -362 2435
-90 -360 2424
-83 -361 2426
-76 -361 2426
-69 -360 2424
-62 -361 2425
-55 -360 2421
-48 -361 2425
-41 -360 2420
-34 -359 2411
-27 -359 2410
-20 -358 2408
-13 -357 2403
-6 -358 2407
0 -357 2399
7 -357 2401
14 -357 2400
21 -357 2398
28 -357 2400
35 -356 2390
42 -357 2394
49 -355 2384
56 -356 2386
63 -356 2389
69 -356 2388
76 -355 2383
83 -354 2372
90 -354 2371
96 -353 2369
103 -352 2359
110 -353 2362
116 -351 2353
124 -353 2364
130 -351 2349
137 -352 2355
145 -354 2369
151 -354 2366
157 -352 2352
162 -347 2317
168 -346 2310
176 -349 2331
184 -350 2339
189 -348 2323
195 -347 2316
203 -349 2330
210 -349 2327
216 -348 2321
223 -348 2323
230 -349 2323
236 -347 2315
243 -348 2316
249 -347 2311
256 -348 2314
262 -346 2304
270 -348 2312
276 -347 2308
282 -347 2304
289 -347 2303
295 -346 2299
303 -347 2303
308 -346 2296
315 -346 2297
321 -345 2287
328 -346 2293
335 -346 2288
340 -345 2281
348 -346 2287
354 -345 2281
360 -345 2278
366 -344 2273
373 -344 2275
380 -344 2273
386 -344 2269
391 -343 2259
404 -348 2293
412 -350 2303
421 -352 2314
430 -353 2324
430 -348 2287
432 -344 2262
441 -346 2273
441 -341 2238
446 -339 2226
448 -336 2202
448 -331 2171
453 -330 2164
460 -331 2168
466 -331 2164
473 -331 2163
482 -333 2175
496 -338 2206
503 -339 2209
515 -343 2234
531 -348 2269
541 -351 2284
550 -352 2293
561 -355 2307
565 -353 2294
567 -350 2274
570 -348 2260
571 -345 2234
579 -345 2237
584 -345 2232
591 -345 2229
599 -346 2235
607 -346 2237
612 -345 2229
621 -347 2239
632 -349 2251
639 -350 2251
644 -349 2245
652 -350 2248
657 -349 2240
669 -352 2257
672 -349 2241
680 -350 2243
684 -349 2234
693 -350 2239
679 -340 2171
676 -335 2139
683 -335 2138
691 -336 2143
697 -336 2139
703 -336 2136
710 -336 2134
716 -336 2131
722 -336 2130
729 -336 2129
737 -337 2133
745 -337 2133
744 -334 2112
752 -335 2115
758 -335 2109
762 -334 2103
768 -334 2099
784 -338 2124
785 -336 2107
788 -334 2094
799 -336 2106
805 -336 2102
820 -340 2122
818 -336 2098
833 -340 2119
833 -337 2099
836 -336 2087
844 -336 2091
848 -336 2083
866 -340 2108
871 -340 2103
875 -339 2094
881 -339 2091
881 -336 2072
899 -341 2098
899 -338 2080
902 -337 2068
917 -340 2087
913 -336 2060
929 -340 2079
912 -331 2025
942 -340 2073
950 -341 2075
957 -341 2073
971 -343 2086
984 -346 2099
1009 -352 2134
980 -340 2055
979 -337 2039
1001 -343 2068
988 -336 2024
947 -320 1925
895 -300 1804
895 -298 1789
903 -299 1793
899 -296 1770
906 -297 1771
917 -298 1779
922 -298 1774
922 -296 1761
927 -296 1756
934 -296 1756
943 -298 1761
951 -298 1761
953 -297 1752
950 -295 1734
962 -297 1743
964 -296 1734
978 -298 1746
983 -298 1741
-1302 -360 2240
-1280 -356 2217
-1280 -358 2233
-1263 -356 2221
-1249 -354 2213
-1245 -355 2222
-1229 -352 2209
-1208 -348 2188
-1202 -348 2193
-1191 -348 2190
-1180 -346 2186
-1169 -345 2182
-1160 -345 2181
-1149 -343 2176
-1140 -343 2176
-1130 -342 2174
-1118 -340 2166
-1104 -338 2155
-1102 -340 2168
-1090 -338 2162
-1077 -337 2153
-1070 -336 2155
-1057 -335 2146
-1045 -333 2138
-1036 -332 2137
-1028 -332 2136
-1022 -332 2140
-1015 -332 2144
-1012 -333 2153
-1015 -337 2176
-1016 -340 2198
-1002 -337 2185
-985 -334 2164
-976 -333 2163
-985 -338 2200
-995 -344 2241
-998 -348 2266
-995 -349 2278
-986 -349 2276
-981 -349 2283
-979 -351 2297
-972 -351 2301
-975 -355 2326
-969 -356 2333
-972 -359 2359
-960 -358 2351
-956 -359 2362
-951 -360 2370
-952 -363 2393
-952 -366 2413
-946 -366 2419
-940 -367 2424
-938 -369 2441
-937 -372 2461
-931 -372 2467
-925 -373 2474
-920 -374 2483
-913 -375 2487
-909 -376 2499
-906 -378 2514
-900 -379 2522
-899 -382 2542
-891 -381 2542
-889 -384 2563
-882 -384 2565
-878 -386 2579
-869 -386 2576
-864 -387 2589
-863 -390 2610
-858 -392 2622
-849 -391 2621
-846 -393 2637
-839 -394 2641
-839 -398 2668
-829 -397 2665
-825 -399 2679
-819 -400 2688
-812 -400 2693
-801 -399 2687
-799 -402 2707
-791 -402 2711
-781 -401 2703
-763 -396 2673
-749 -393 2654
-741 -393 2653
-732 -393 2653
-723 -392 2648
-711 -390 2636
-708 -392 2654
-696 -390 2643
-689 -390 2644
-678 -389 2635
-668 -388 2628
-662 -389 2636
-651 -387 2623
-644 -388 2631
-634 -386 2622
-627 -386 2625
-616 -385 2614
-609 -385 2619
-600 -384 2613
-591 -383 2608
-583 -384 2612
-575 -383 2608
-564 -381 2596
-557 -382 2601
-547 -380 2590
-539 -380 2589
-531 -380 2589
-523 -380 2590
-514 -378 2581
-507 -379 2585
-499 -378 2584
-490 -378 2580
-482 -377 2577
-471 -375 2562
-462 -373 2550
-456 -375 2562
-447 -373 2554
-439 -373 2549
-431 -373 2550
-423 -372 2547
-416 -372 2550
-406 -371 2537
-400 -372 2545
-393 -372 2546
-383 -370 2534
-375 -369 2531
-368 -369 2531
-361 -370 2536
-352 -368 2525
-344 -368 2524
-336 -367 2516
-328 -367 2516
-321 -367 2515
-313 -367 2515
-305 -366 2509
-297 -364 2501
-290 -365 2505
-282 -365 2502
-275 -364 2498
-267 -363 2495
-260 -363 2492
-252 -362 2487
-245 -363 2490
-236 -361 2479
-229 -362 2482
-222 -361 2477
-214 -360 2473
-207 -360 2475
-200 -360 2474
-192 -359 2462
-185 -359 2464
-177 -358 2460
-170 -358 2456
-163 -359 2464
-156 -358 2457
-148 -357 2453
-141 -357 2451
-133 -356 2445
-126 -356 2448
-119 -356 2444
-112 -355 2437
-105 -355 2437
-97 -353 2425
-90 -355 2434
-83 -354 2429
-76 -353 2425
-69 -355 2433
-62 -353 2425
-55 -353 2424
-48 -352 2418
-41 -352 2415
-34 -352 2417
-27 -350 2403
-20 -352 2412
-13 -352 2411
-6 -351 2409
0 -350 2401
7 -351 2405
14 -350 2397
21 -350 2397
28 -349 2391
35 -349 2393
42 -347 2379
49 -349 2389
56 -348 2385
63 -349 2386
70 -349 2391
76 -348 2384
83 -347 2372
90 -347 2371
96 -347 2370
103 -345 2359
110 -345 2355
117 -346 2363
123 -345 2358
130 -343 2344
137 -346 2362
144 -346 2362
150 -344 2344
156 -342 2334
161 -339 2309
167 -336 2289
175 -339 2310
183 -342 2331
190 -343 2339
197 -342 2332
204 -342 2331
210 -342 2328
216 -341 2322
224 -342 2327
230 -341 2321
237 -342 2326
243 -341 2316
250 -342 2323
257 -342 2320
263 -341 2311
270 -341 2313
278 -342 2322
283 -340 2307
289 -340 2304
295 -339 2299
302 -339 2296
309 -340 2300
315 -339 2294
323 -340 2300
329 -340 2300
335 -339 2292
341 -338 2284
348 -339 2287
356 -340 2293
362 -340 2291
368 -339 2285
373 -338 2276
379 -337 2270
386 -338 2272
392 -337 2267
403 -341 2291
414 -344 2313
420 -344 2309
430 -346 2323
438 -348 2332
441 -345 2311
446 -343 2300
445 -337 2259
452 -338 2259
454 -334 2236
452 -328 2190
457 -327 2182
464 -327 2183
472 -328 2191
481 -330 2200
495 -335 2233
503 -337 2241
515 -340 2263
528 -344 2288
536 -345 2292
542 -344 2287
551 -346 2297
555 -344 2282
560 -343 2275
563 -341 2261
564 -338 2235
574 -340 2248
582 -341 2250
592 -343 2264
593 -339 2239
597 -338 2228
609 -341 2246
611 -338 2227
620 -339 2233
628 -341 2239
639 -343 2251
645 -342 2247
654 -344 2255
663 -345 2262
664 -342 2239
673 -343 2245
683 -345 2255
686 -343 2241
691 -342 2232
682 -335 2181
679 -330 2148
683 -329 2141
689 -329 2137
701 -331 2152
707 -331 2150
710 -330 2137
716 -330 2134
722 -329 2131
727 -329 2124
736 -330 2130
741 -329 2122
745 -328 2116
752 -328 2114
762 -330 2122
771 -331 2127
776 -331 2122
787 -333 2132
786 -330 2110
796 -331 2116
812 -335 2140
814 -333 2126
814 -331 2108
815 -328 2092
820 -328 2085
832 -330 2098
849 -334 2122
853 -334 2114
849 -329 2085
858 -330 2089
864 -330 2086
885 -336 2117
881 -332 2090
885 -331 2082
901 -335 2102
901 -332 2085
920 -337 2111
900 -327 2047
924 -334 2085
930 -334 2083
934 -333 2074
946 -335 2084
952 -334 2079
960 -335 2081
960 -333 2064
990 -341 2111
1006 -344 2129
984 -335 2065
995 -336 2073
998 -335 2062
991 -331 2031
947 -314 1925
904 -297 1822
891 -291 1783
896 -291 1779
910 -294 1792
909 -292 1778
913 -291 1770
915 -290 1762
923 -291 1763
927 -291 1758
939 -292 1766
942 -292 1759
942 -290 1745
953 -292 1753
956 -291 1746
957 -289 1734
971 -292 1746
980 -293 1751
982 -292 1741
-1303 -353 2243
-1280 -349 2219
-1270 -348 2219
-1264 -349 2224
-1250 -347 2215
-1236 -345 2208
-1225 -344 2203
-1215 -343 2202
-1201 -341 2193
-1203 -344 2213
-1179 -339 2184
-1175 -340 2195
-1154 -336 2170
-1146 -336 2172
-1138 -335 2174
-1127 -334 2169
-1116 -333 2164
-1108 -333 2165
-1103 -333 2172
-1084 -330 2152
-1081 -331 2162
-1071 -330 2158
-1062 -329 2157
-1055 -329 2160
-1043 -328 2152
-1037 -328 2156
-1028 -327 2155
-1026 -329 2168
-1031 -333 2196
-1031 -335 2212
-1029 -337 2225
-1011 -333 2205
-983 -326 2161
-978 -327 2168
-980 -330 2190
-995 -337 2243
-997 -341 2265
-993 -342 2275
-990 -343 2285
-987 -344 2298
-983 -346 2308
-977 -346 2314
-974 -347 2325
-973 -350 2342
-963 -349 2339
-964 -352 2363
-956 -352 2363
-958 -355 2388
-951 -355 2391
-943 -355 2391
-945 -359 2418
-939 -359 2425
-934 -360 2432
-933 -363 2453
-930 -364 2465
-926 -366 2477
-916 -365 2474
-915 -368 2494
-912 -370 2508
-902 -369 2505
-901 -371 2524
-892 -371 2523
-888 -373 2536
-889 -376 2563
-881 -376 2565
-876 -377 2574
-875 -380 2596
-866 -380 2594
-857 -380 2594
-853 -381 2607
-847 -382 2614
-846 -385 2638
-840 -386 2645
-833 -387 2651
-826 -387 2657
-823 -390 2675
-816 -390 2680
-804 -389 2669
-805 -393 2699
-792 -391 2686
-787 -392 2699
-776 -390 2688
-763 -388 2674
-748 -385 2651
-739 -384 2648
-729 -383 2641
-721 -383 2642
-716 -384 2655
-705 -383 2644
-694 -381 2634
-689 -383 2646
-681 -383 2649
-671 -381 2640
-662 -381 2638
-651 -379 2628
-642 -379 2625
-635 -379 2629
-626 -378 2622
-618 -378 2622
-607 -376 2612
-602 -378 2623
-589 -375 2602
-585 -377 2619
-572 -373 2597
-566 -375 2606
-557 -374 2600
-549 -374 2600
-540 -373 2595
-532 -373 2595
-524 -373 2596
-515 -372 2590
-506 -371 2584
-499 -371 2585
-490 -370 2579
-480 -368 2569
-471 -367 2561
-463 -367 2561
-455 -366 2558
-446 -365 2548
-441 -367 2565
-432 -366 2556
-421 -363 2535
-414 -363 2536
-408 -365 2550
-401 -365 2553
-393 -364 2547
-384 -363 2537
-376 -363 2538
-367 -361 2527
-360 -362 2533
-353 -362 2533
-344 -361 2526
-336 -360 2517
-329 -360 2520
-322 -361 2528
-313 -359 2514
-306 -359 2516
-297 -357 2501
-291 -358 2510
-281 -356 2494
-275 -356 2498
-267 -356 2493
-260 -357 2498
-253 -356 2497
-244 -355 2488
-237 -354 2483
-229 -353 2474
-222 -354 2478
-214 -352 2470
-206 -351 2462
-199 -352 2468
-192 -352 2470
-184 -351 2461
-177 -351 2459
-170 -352 2467
-163 -351 2459
-155 -351 2457
-148 -350 2457
-141 -349 2448
-134 -350 2451
-127 -350 2451
-119 -350 2451
-112 -349 2447
-105 -348 2439
-97 -347 2433
-90 -347 2428
-83 -347 2431
-76 -347 2429
-69 -347 2429
-62 -347 2427
-55 -345 2420
-48 -346 2425
-41 -346 2422
-34 -346 2420
-27 -345 2418
-20 -345 2417
-13 -345 2414
-6 -345 2415
0 -344 2407
7 -343 2402
14 -342 2394
21 -343 2397
28 -343 2398
35 -343 2397
42 -342 2387
49 -343 2395
56 -341 2385
63 -343 2393
70 -343 2399
76 -342 2389
83 -342 2386
90 -340 2375
97 -340 2372
103 -338 2360
110 -340 2368
117 -339 2362
124 -339 2365
131 -339 2364
137 -339 2364
145 -341 2375
147 -330 2298
154 -331 2302
161 -331 2301
167 -330 2296
175 -333 2315
183 -336 2336
190 -336 2333
198 -338 2349
205 -338 2349
210 -336 2331
217 -336 2330
224 -336 2333
230 -335 2328
237 -336 2328
243 -334 2317
251 -335 2325
257 -335 2319
263 -334 2315
270 -335 2319
276 -333 2306
285 -337 2329
288 -333 2300
296 -333 2304
302 -333 2302
311 -335 2315
315 -333 2297
321 -332 2292
329 -333 2297
336 -333 2299
341 -332 2289
348 -332 2286
356 -333 2293
361 -332 2287
372 -336 2310
374 -332 2281
380 -331 2275
386 -331 2272
392 -330 2265
404 -334 2294
416 -339 2323
425 -341 2335
431 -340 2332
439 -341 2334
449 -344 2354
452 -341 2331
452 -336 2296
450 -329 2248
461 -333 2272
470 -335 2282
474 -332 2265
478 -330 2251
490 -334 2277
489 -329 2242
500 -332 2257
506 -332 2256
514 -332 2257
522 -333 2263
530 -335 2269
544 -339 2298
545 -335 2270
554 -337 2279
555 -334 2256
562 -334 2256
567 -333 2247
581 -337 2274
588 -337 2274
585 -332 2238
592 -332 2235
601 -333 2243
610 -335 2250
614 -333 2241
620 -333 2236
629 -334 2242
637 -335 2244
643 -334 2240
652 -336 2247
657 -335 2240
664 -335 2241
675 -337 2252
683 -338 2256
689 -338 2250
695 -337 2246
688 -331 2201
682 -325 2159
689 -325 2158
695 -325 2155
709 -328 2176
707 -325 2150
717 -326 2157
721 -325 2147
725 -324 2139
734 -325 2146
739 -325 2138
744 -324 2132
757 -327 2149
764 -327 2149
766 -325 2134
772 -325 2131
763 -319 2088
781 -324 2116
787 -324 2114
802 -327 2134
804 -325 2120
820 -329 2144
820 -326 2123
822 -325 2110
834 -327 2123
836 -325 2107
854 -330 2136
861 -330 2134
860 -327 2114
863 -326 2103
870 -326 2101
880 -327 2106
886 -327 2105
890 -326 2096
898 -327 2097
904 -327 2093
911 -327 2093
918 -327 2091
927 -328 2094
911 -320 2040
938 -328 2084
951 -330 2095
962 -332 2103
947 -324 2053
968 -329 2082
986 -333 2103
1007 -338 2132
983 -328 2065
972 -322 2025
991 -326 2049
989 -323 2028
941 -306 1914
904 -292 1824
892 -286 1785
896 -285 1779
907 -287 1787
905 -285 1770
912 -285 1769
919 -286 1771
924 -286 1767
932 -286 1767
936 -286 1762
942 -286 1761
940 -284 1743
950 -285 1748
961 -287 1756
964 -286 1749
975 -288 1755
979 -287 1750
980 -286 1738
-1300 -345 2238
-1282 -342 2223
-1267 -340 2215
-1258 -340 2214
-1244 -338 2206
-1235 -337 2206
-1220 -335 2196
-1219 -337 2210
-1208 -336 2206
-1191 -333 2192
-1181 -333 2190
-1170 -331 2185
-1166 -332 2194
-1147 -329 2175
-1141 -329 2181
-1128 -328 2173
-1124 -328 2181
-1120 -329 2191
-1106 -327 2178
-1100 -328 2184
-1091 -327 2183
-1086 -328 2189
-1087 -330 2209
-1080 -330 2211
-1066 -328 2199
-1053 -326 2191
-1052 -328 2206
-1058 -332 2236
-1049 -332 2235
-1034 -329 2219
-1024 -328 2217
-1004 -324 2190
-981 -319 2159
-974 -319 2160
-986 -325 2205
-1002 -333 2258
-995 -333 2261
-989 -333 2265
-987 -335 2279
-980 -335 2283
-980 -337 2302
-981 -340 2325
-979 -342 2340
-970 -342 2337
-967 -343 2349
-963 -344 2360
-960 -346 2373
-958 -348 2388
-953 -349 2397
-946 -349 2399
-943 -351 2415
-941 -353 2430
-937 -354 2441
-933 -355 2452
-928 -356 2461
-926 -358 2478
-919 -359 2483
-916 -361 2497
-910 -361 2503
-906 -363 2516
-902 -365 2530
-899 -366 2545
-889 -365 2540
-889 -368 2562
-881 -369 2565
-879 -371 2585
-876 -373 2601
-868 -373 2603
-865 -375 2618
-858 -376 2624
-853 -377 2633
-846 -378 2640
-842 -379 2653
-834 -379 2657
-829 -381 2666
-822 -381 2672
-811 -380 2663
-809 -383 2685
-799 -382 2680
-792 -382 2685
-786 -384 2697
-775 -382 2685
-767 -382 2689
-751 -378 2663
-739 -376 2647
-731 -376 2650
-739 -384 2708
-720 -378 2670
-714 -379 2678
-694 -373 2637
-707 -385 2717
-681 -375 2649
-669 -372 2633
-661 -372 2633
-636 -363 2568
-641 -370 2620
-633 -370 2621
-627 -371 2629
-617 -369 2619
-611 -371 2628
-602 -370 2627
-591 -368 2612
-583 -368 2612
-574 -367 2608
-566 -367 2607
-557 -366 2600
-549 -366 2604
-540 -365 2596
-532 -365 2595
-524 -365 2594
-514 -363 2585
-507 -363 2586
-498 -363 2582
-489 -362 2576
-482 -362 2577
-474 -362 2580
-465 -361 2572
-455 -359 2558
-448 -359 2562
-440 -359 2558
-433 -359 2562
-424 -358 2555
-415 -357 2545
-407 -357 2546
-400 -357 2550
-392 -356 2541
-383 -355 2535
-376 -356 2540
-368 -355 2533
-361 -355 2537
-353 -354 2533
-344 -353 2526
-337 -354 2530
-328 -351 2512
-320 -351 2510
-312 -350 2506
-305 -351 2509
-298 -351 2512
-290 -350 2504
-283 -350 2505
-275 -349 2500
-267 -349 2494
-259 -348 2487
-252 -349 2497
-244 -348 2488
-236 -347 2483
-230 -348 2488
-221 -346 2475
-214 -346 2475
-207 -346 2476
-199 -345 2472
-192 -345 2469
-184 -344 2464
-177 -345 2467
-169 -343 2456
-162 -343 2452
-155 -343 2457
-148 -344 2459
-140 -342 2446
-134 -342 2450
-126 -342 2448
-119 -342 2449
-112 -341 2441
-105 -342 2446
-98 -341 2443
-90 -340 2430
-83 -340 2429
-76 -340 2431
-69 -339 2425
-62 -339 2423
-55 -339 2423
-48 -340 2429
-41 -338 2420
-34 -340 2428
-27 -340 2432
-20 -339 2421
-13 -338 2417
-6 -338 2415
0 -337 2406
7 -336 2401
14 -336 2401
21 -336 2400
28 -335 2394
35 -336 2395
42 -336 2396
49 -334 2386
56 -334 2386
63 -335 2387
70 -336 2393
77 -337 2399
83 -335 2390
90 -334 2380
97 -334 2377
103 -331 2358
110 -332 2366
117 -332 2362
123 -331 2355
131 -332 2363
137 -332 2364
145 -334 2376
150 -330 2343
154 -323 2298
160 -322 2285
166 -321 2277
175 -326 2315
183 -329 2332
189 -327 2323
197 -329 2333
205 -331 2351
208 -326 2309
217 -328 2327
224 -329 2329
230 -328 2326
238 -329 2331
244 -329 2330
250 -327 2315
258 -329 2330
264 -328 2321
270 -328 2317
274 -324 2290
283 -328 2314
287 -325 2292
296 -326 2304
302 -327 2303
310 -327 2308
316 -327 2305
323 -327 2307
330 -328 2307
336 -327 2299
342 -327 2297
350 -327 2302
358 -329 2310
363 -327 2295
371 -328 2303
375 -326 2285
379 -324 2272
385 -323 2267
392 -323 2265
402 -326 2284
418 -334 2336
423 -332 2323
432 -334 2336
440 -336 2344
449 -337 2354
449 -332 2317
460 -334 2333
456 -327 2279
465 -329 2292
469 -327 2278
479 -329 2288
487 -330 2295
498 -333 2314
505 -333 2312
505 -329 2283
512 -329 2283
518 -328 2277
523 -327 2268
531 -328 2272
534 -326 2255
542 -327 2261
546 -326 2249
559 -329 2271
561 -326 2251
571 -329 2265
575 -327 2253
588 -331 2277
588 -327 2246
589 -324 2227
599 -326 2238
609 -328 2249
611 -325 2230
621 -327 2239
631 -329 2250
636 -328 2241
642 -327 2238
654 -330 2254
658 -329 2245
670 -331 2260
677 -332 2261
683 -331 2255
688 -330 2247
694 -331 2246
675 -318 2160
675 -315 2138
697 -322 2185
694 -318 2154
702 -319 2156
710 -320 2160
718 -320 2163
724 -320 2158
718 -314 2119
734 -319 2147
746 -321 2160
768 -328 2202
759 -321 2157
756 -317 2127
767 -319 2138
772 -319 2132
783 -320 2142
796 -323 2158
799 -322 2147
807 -323 2149
821 -326 2167
815 -321 2131
821 -320 2126
827 -320 2123
835 -321 2125
837 -319 2112
846 -320 2116
851 -320 2109
857 -319 2106
866 -320 2110
873 -321 2108
878 -320 2102
884 -320 2099
892 -321 2101
897 -320 2096
902 -320 2090
911 -321 2093
917 -321 2089
927 -322 2094
931 -321 2086
938 -321 2084
944 -321 2081
943 -318 2061
955 -320 2071
968 -323 2082
982 -325 2096
1008 -332 2134
984 -322 2068
987 -320 2056
996 -321 2058
989 -317 2030
934 -297 1900
895 -283 1805
889 -279 1780
901 -281 1790
904 -280 1782
906 -279 1773
908 -278 1763
920 -280 1772
921 -279 1761
928 -279 1761
934 -280 1759
942 -280 1761
944 -279 1752
956 -281 1759
955 -279 1745
962 -280 1745
969 -280 1745
972 -279 1737
982 -281 1742
-1290 -335 2222
-1273 -332 2209
-1272 -334 2224
-1260 -333 2219
-1247 -332 2213
-1236 -331 2209
-1221 -328 2199
-1216 -329 2206
-1207 -329 2206
-1206 -330 2220
-1190 -328 2208
-1173 -325 2192
-1170 -327 2204
-1167 -328 2214
-1154 -326 2206
-1139 -324 2194
-1145 -327 2222
-1136 -327 2221
-1142 -331 2251
-1126 -328 2237
-1116 -327 2233
-1109 -327 2236
-1079 -321 2194
-1087 -325 2228
-1072 -323 2213
-1056 -320 2198
-1038 -317 2178
-1037 -319 2192
-1022 -316 2178
-1014 -316 2178
-998 -313 2161
-998 -315 2179
-981 -312 2159
-974 -312 2161
-985 -318 2203
-996 -324 2246
-1001 -327 2275
-990 -326 2268
-986 -327 2279
-982 -328 2288
-984 -332 2314
-977 -332 2316
-977 -334 2334
-965 -333 2326
-970 -337 2358
-961 -336 2357
-961 -339 2377
-952 -338 2375
-953 -341 2398
-950 -343 2413
-944 -344 2418
-939 -344 2426
-936 -346 2440
-933 -348 2454
-930 -350 2469
-925 -351 2478
-915 -350 2474
-914 -352 2493
-913 -355 2514
-906 -355 2518
-901 -356 2527
-900 -359 2547
-890 -358 2544
-888 -361 2562
-882 -361 2569
-879 -363 2584
-872 -364 2589
-868 -365 2602
-862 -366 2610
-858 -368 2624
-851 -368 2630
-844 -369 2633
-836 -369 2636
-831 -370 2647
-825 -371 2654
-816 -371 2655
-815 -374 2679
-806 -373 2678
-803 -376 2694
-788 -373 2675
-785 -375 2693
-772 -372 2676
-765 -373 2684
-749 -369 2656
-739 -368 2649
-731 -368 2652
-706 -360 2590
-697 -359 2586
-702 -365 2635
-687 -362 2610
-693 -369 2665
-683 -368 2657
-646 -352 2545
-671 -370 2677
-651 -364 2629
-643 -363 2628
-636 -364 2632
-625 -362 2623
-618 -363 2627
-608 -362 2619
-601 -362 2620
-591 -361 2614
-583 -360 2612
-572 -358 2601
-565 -359 2604
-558 -359 2606
-550 -359 2610
-542 -359 2605
-533 -358 2603
-525 -358 2599
-516 -357 2594
-506 -355 2584
-499 -356 2587
-491 -355 2587
-482 -354 2579
-472 -353 2567
-464 -353 2568
-456 -352 2567
-449 -352 2566
-440 -352 2563
-432 -351 2557
-423 -350 2549
-415 -350 2549
-408 -350 2551
-399 -349 2544
-392 -349 2548
-384 -349 2543
-375 -347 2529
-367 -346 2527
-360 -347 2533
-352 -346 2527
-345 -347 2530
-336 -345 2522
-328 -345 2519
-320 -343 2508
-313 -344 2511
-306 -344 2515
-298 -344 2513
-290 -343 2503
-283 -343 2509
-273 -341 2490
-266 -340 2487
-260 -342 2503
-253 -343 2508
-246 -343 2504
-237 -340 2489
-229 -339 2477
-222 -340 2486
-215 -340 2484
-207 -338 2472
-199 -337 2465
-192 -338 2468
-184 -336 2456
-176 -335 2449
-170 -337 2463
-163 -337 2463
-156 -337 2463
-148 -336 2458
-140 -335 2449
-133 -335 2451
-126 -335 2452
-119 -334 2443
-112 -334 2438
-105 -334 2440
-97 -333 2437
-90 -334 2438
-83 -333 2434
-76 -333 2432
-69 -333 2430
-62 -332 2427
-55 -332 2427
-48 -332 2422
-41 -332 2424
-34 -331 2417
-27 -332 2421
-20 -331 2418
-13 -332 2420
-6 -332 2419
0 -329 2398
7 -328 2391
14 -329 2399
21 -330 2404
28 -328 2395
35 -328 2392
42 -330 2405
49 -328 2389
56 -329 2394
63 -330 2402
70 -329 2398
77 -329 2393
83 -328 2389
90 -326 2373
97 -327 2377
103 -324 2361
110 -324 2358
117 -325 2361
123 -324 2359
131 -325 2362
138 -326 2368
146 -328 2384
149 -322 2336
152 -313 2273
159 -314 2277
168 -318 2305
175 -319 2315
183 -321 2330
192 -324 2352
198 -323 2342
205 -324 2350
217 -332 2402
217 -322 2331
224 -323 2335
231 -322 2332
238 -323 2333
244 -322 2325
250 -322 2324
257 -321 2321
264 -322 2323
271 -322 2323
274 -318 2292
282 -319 2302
287 -317 2288
296 -320 2304
304 -321 2315
310 -320 2306
317 -321 2308
322 -320 2301
329 -320 2299
333 -317 2277
341 -318 2285
349 -320 2298
354 -318 2286
363 -320 2296
369 -320 2292
371 -316 2262
381 -318 2280
388 -319 2283
392 -317 2266
402 -320 2286
417 -326 2332
424 -327 2333
432 -327 2338
437 -326 2324
448 -329 2348
447 -323 2303
454 -324 2307
458 -322 2293
461 -319 2269
467 -318 2265
474 -319 2269
480 -318 2261
485 -318 2256
493 -318 2257
499 -318 2255
503 -317 2243
513 -319 2255
522 -320 2266
525 -318 2250
531 -317 2242
538 -318 2245
548 -320 2259
557 -321 2266
565 -322 2268
572 -322 2270
576 -321 2255
581 -320 2248
588 -320 2249
591 -318 2232
603 -321 2253
611 -322 2255
612 -319 2232
616 -318 2223
628 -320 2241
643 -324 2266
642 -321 2240
651 -322 2245
662 -324 2260
670 -325 2263
678 -325 2264
680 -323 2245
690 -325 2256
694 -324 2246
678 -313 2170
677 -310 2146
685 -310 2147
697 -313 2164
708 -315 2175
714 -315 2171
719 -314 2166
712 -308 2124
734 -315 2166
742 -316 2171
744 -314 2155
748 -313 2147
747 -310 2123
770 -317 2168
755 -308 2105
772 -312 2131
793 -318 2170
789 -314 2139
794 -313 2133
802 -314 2135
805 -313 2125
815 -314 2130
820 -313 2125
830 -315 2131
837 -315 2130
840 -314 2120
849 -315 2125
852 -313 2113
862 -315 2118
866 -314 2110
875 -315 2115
880 -314 2108
887 -315 2108
892 -314 2102
902 -315 2107
904 -314 2094
915 -315 2102
921 -315 2099
928 -315 2097
935 -316 2096
939 -315 2087
947 -316 2089
950 -314 2078
968 -318 2100
960 -313 2067
984 -319 2101
1010 -326 2140
982 -314 2063
987 -314 2057
995 -314 2058
990 -311 2031
930 -290 1893
892 -276 1801
890 -274 1782
900 -275 1789
909 -276 1794
904 -273 1770
914 -275 1776
914 -273 1762
922 -274 1764
931 -274 1767
931 -273 1754
950 -277 1777
941 -273 1746
949 -273 1747
952 -273 1740
957 -273 1737
968 -274 1744
969 -273 1733
982 -275 1743
-1297 -330 2236
-1284 -328 2229
-1272 -327 2224
-1264 -327 2227
-1259 -328 2235
-1245 -326 2226
-1241 -327 2235
-1233 -327 2238
-1222 -325 2234
-1231 -330 2267
-1206 -325 2239
-1211 -328 2264
-1204 -329 2268
-1182 -325 2244
-1169 -323 2236
-1161 -323 2237
-1160 -324 2252
-1143 -322 2236
-1141 -323 2249
-1119 -319 2224
-1115 -320 2233
-1095 -316 2210
-1092 -318 2220
-1068 -313 2188
-1067 -315 2205
-1052 -312 2191
-1044 -312 2191
-1031 -310 2180
-1013 -307 2160
-1010 -308 2170
-998 -306 2163
-994 -307 2170
-978 -304 2152
-969 -304 2152
-988 -312 2211
-997 -317 2250
-999 -320 2272
-991 -320 2272
-988 -321 2285
-985 -322 2297
-987 -325 2320
-975 -324 2313
-975 -326 2331
-967 -326 2332
-967 -329 2353
-965 -330 2367
-958 -331 2371
-958 -333 2392
-949 -332 2388
-952 -336 2418
-947 -337 2426
-940 -338 2431
-935 -338 2438
-931 -340 2450
-927 -341 2460
-922 -342 2471
-917 -343 2478
-917 -346 2501
-915 -348 2520
-909 -349 2528
-905 -350 2538
-898 -350 2543
-894 -352 2555
-886 -352 2559
-883 -354 2574
-878 -355 2582
-874 -357 2596
-871 -359 2614
-864 -359 2618
-852 -357 2607
-850 -360 2627
-844 -361 2635
-838 -362 2644
-835 -364 2661
-828 -364 2665
-818 -363 2661
-813 -365 2673
-808 -366 2685
-798 -366 2681
-793 -367 2693
-781 -365 2681
-774 -366 2685
-765 -365 2685
-751 -362 2663
-743 -362 2666
-731 -360 2652
-724 -361 2655
-730 -368 2709
-703 -358 2642
-698 -360 2652
-687 -358 2642
-679 -358 2645
-670 -358 2642
-660 -356 2631
-639 -349 2581
-644 -356 2635
-636 -356 2633
-626 -355 2626
-618 -355 2625
-609 -354 2623
-601 -354 2622
-593 -354 2621
-579 -351 2599
-574 -352 2609
-565 -351 2603
-557 -351 2606
-550 -351 2608
-539 -350 2595
-532 -350 2599
-521 -348 2583
-515 -349 2593
-506 -347 2583
-499 -348 2587
-489 -346 2575
-482 -347 2583
-472 -345 2569
-463 -344 2561
-458 -346 2577
-447 -343 2557
-440 -344 2559
-432 -344 2559
-425 -344 2562
-416 -343 2557
-408 -342 2551
-400 -342 2551
-392 -342 2547
-383 -340 2534
-376 -341 2542
-369 -341 2541
-360 -339 2532
-352 -339 2528
-344 -339 2529
-336 -337 2518
-329 -338 2527
-321 -338 2524
-313 -337 2518
-305 -336 2509
-298 -336 2512
-290 -336 2512
-282 -335 2503
-275 -335 2503
-268 -336 2508
-260 -335 2506
-252 -335 2500
-244 -333 2486
-236 -332 2483
-230 -333 2491
-222 -333 2487
-214 -332 2479
-206 -330 2468
-200 -331 2477
-192 -330 2467
-184 -330 2463
-177 -330 2464
-170 -330 2468
-162 -329 2458
-155 -329 2458
-147 -327 2446
-141 -328 2453
-133 -328 2450
-127 -329 2457
-119 -327 2445
-112 -328 2449
-105 -328 2447
-97 -326 2438
-90 -326 2435
-83 -326 2434
-76 -326 2436
-69 -326 2434
-62 -327 2441
-55 -326 2436
-48 -325 2424
-41 -324 2420
-34 -326 2436
-27 -326 2430
-20 -324 2418
-13 -324 2417
-6 -324 2419
0 -323 2412
7 -322 2399
14 -323 2407
21 -323 2405
28 -321 2391
35 -322 2402
42 -321 2390
49 -320 2384
56 -319 2379
62 -320 2381
70 -321 2392
77 -322 2394
83 -321 2386
91 -323 2401
97 -320 2378
103 -319 2368
110 -318 2360
117 -318 2366
123 -317 2357
130 -317 2356
138 -319 2365
145 -321 2382
146 -308 2284
156 -314 2329
161 -311 2310
166 -308 2286
174 -311 2304
183 -314 2331
194 -322 2387
197 -316 2339
204 -315 2335
209 -313 2318
217 -316 2335
224 -316 2334
230 -315 2328
237 -315 2327
243 -314 2323
250 -315 2325
258 -316 2330
264 -314 2320
270 -314 2316
277 -315 2320
283 -314 2314
288 -312 2300
297 -314 2315
304 -314 2313
310 -314 2310
317 -314 2313
323 -314 2306
329 -313 2299
335 -312 2295
338 -309 2266
348 -312 2291
356 -313 2296
362 -313 2294
370 -313 2297
375 -312 2287
380 -311 2277
387 -311 2276
392 -310 2267
401 -312 2279
409 -313 2284
421 -317 2317
427 -317 2312
433 -316 2307
436 -313 2282
442 -313 2281
450 -314 2283
456 -314 2281
451 -306 2224
465 -311 2258
471 -310 2254
479 -311 2259
481 -308 2237
484 -306 2216
502 -313 2267
504 -310 2247
510 -310 2243
521 -313 2259
523 -310 2238
527 -309 2229
529 -306 2208
545 -311 2244
556 -314 2262
564 -315 2265
571 -315 2266
578 -315 2264
578 -312 2239
584 -311 2232
589 -311 2227
599 -312 2238
604 -312 2232
614 -313 2242
624 -315 2250
629 -314 2242
639 -316 2255
644 -315 2246
647 -313 2234
658 -315 2245
667 -316 2251
673 -316 2247
679 -316 2244
683 -315 2234
692 -316 2239
678 -306 2170
675 -302 2140
689 -306 2161
687 -302 2134
701 -305 2154
717 -310 2183
717 -306 2159
726 -308 2166
725 -305 2142
729 -304 2134
738 -305 2137
742 -304 2129
753 -306 2140
747 -301 2104
765 -305 2134
776 -307 2145
771 -303 2112
788 -307 2136
791 -306 2127
799 -306 2127
807 -307 2129
811 -306 2122
818 -306 2122
825 -306 2119
833 -307 2123
840 -307 2121
845 -307 2115
852 -307 2115
860 -308 2115
865 -307 2109
871 -307 2105
877 -307 2101
885 -307 2103
891 -307 2099
897 -307 2096
902 -307 2090
912 -308 2096
914 -306 2084
926 -308 2094
931 -308 2088
938 -308 2086
943 -308 2080
949 -308 2078
957 -308 2077
963 -308 2074
984 -312 2101
1009 -319 2139
984 -308 2068
986 -307 2057
995 -308 2058
988 -304 2029
930 -284 1894
893 -271 1804
884 -266 1772
896 -268 1781
893 -266 1762
905 -268 1772
915 -269 1777
917 -268 1768
921 -267 1762
926 -268 1759
929 -267 1752
935 -267 1749
940 -267 1745
948 -267 1747
959 -269 1754
967 -270 1755
967 -268 1743
976 -269 1746
973 -267 1727
-1313 -326 2264
-1314 -328 2282
-1306 -328 2286
-1285 -325 2264
-1286 -327 2283
-1275 -326 2281
-1262 -325 2274
-1261 -326 2289
-1253 -326 2292
-1227 -321 2261
-1211 -319 2248
-1203 -319 2251
-1189 -317 2242
-1175 -316 2232
-1157 -313 2215
-1159 -315 2235
-1156 -316 2247
-1141 -314 2234
-1122 -311 2213
-1110 -309 2206
-1094 -307 2193
-1088 -307 2197
-1083 -308 2205
-1064 -305 2182
-1066 -307 2203
-1052 -305 2191
-1038 -303 2179
-1028 -302 2176
-1014 -300 2162
-1008 -301 2168
-1002 -301 2171
-995 -301 2173
-983 -299 2165
-973 -298 2160
-984 -304 2204
-996 -310 2249
-992 -311 2257
-994 -314 2280
-988 -314 2285
-984 -315 2296
-978 -315 2301
-980 -318 2325
-977 -320 2336
-970 -320 2340
-969 -322 2357
-969 -324 2378
-962 -325 2380
-957 -326 2391
-950 -326 2394
-945 -327 2402
-949 -331 2433
-941 -331 2435
-937 -332 2445
-936 -334 2464
-932 -335 2474
-927 -336 2484
-920 -337 2489
-916 -338 2502
-913 -340 2516
-908 -341 2526
-904 -342 2537
-899 -343 2548
-894 -344 2557
-892 -347 2576
-884 -346 2577
-879 -347 2586
-873 -349 2596
-870 -350 2612
-862 -351 2614
-855 -351 2617
-849 -352 2626
-841 -352 2627
-838 -354 2645
-833 -355 2655
-824 -354 2653
-817 -355 2660
-811 -356 2667
-806 -357 2679
-799 -358 2685
-790 -358 2684
-781 -357 2680
-773 -357 2684
-762 -356 2676
-748 -353 2656
-725 -346 2600
-735 -354 2668
-723 -353 2656
-715 -352 2654
-705 -352 2651
-698 -352 2656
-688 -351 2648
-681 -351 2651
-672 -351 2648
-662 -350 2644
-650 -348 2627
-644 -348 2635
-636 -348 2634
-624 -346 2618
-618 -347 2627
-610 -347 2629
-601 -346 2622
-591 -345 2615
-583 -345 2613
-574 -344 2610
-567 -345 2615
-558 -344 2611
-551 -344 2613
-540 -343 2601
-531 -341 2594
-524 -342 2597
-516 -342 2599
-507 -341 2591
-497 -339 2579
-490 -339 2581
-480 -338 2569
-473 -338 2576
-464 -337 2569
-456 -337 2568
-447 -336 2557
-440 -337 2565
-431 -336 2556
-425 -337 2566
-417 -336 2562
-407 -334 2545
-401 -335 2554
-392 -334 2546
-384 -334 2546
-375 -333 2537
-369 -333 2543
-360 -332 2533
-352 -331 2529
-346 -333 2538
-337 -331 2528
-329 -331 2525
-321 -330 2522
-314 -330 2522
-305 -329 2511
-298 -329 2511
-289 -328 2503
-283 -329 2516
-275 -328 2502
-268 -328 2508
-261 -328 2508
-253 -328 2508
-245 -326 2494
-237 -326 2490
-230 -327 2495
-222 -326 2488
-214 -324 2474
-207 -325 2481
-199 -323 2466
-191 -323 2465
-185 -324 2474
-177 -322 2464
-170 -323 2464
-162 -322 2462
-155 -321 2455
-148 -322 2459
-140 -320 2448
-134 -321 2456
-126 -320 2447
-119 -321 2449
-112 -321 2448
-105 -321 2449
-97 -319 2438
-90 -319 2440
-83 -319 2438
-76 -319 2436
-69 -319 2438
-62 -318 2429
-55 -317 2422
-48 -319 2431
-41 -319 2432
-34 -319 2432
-27 -317 2421
-20 -318 2423
-12 -317 2419
-6 -319 2431
0 -317 2417
7 -317 2418
15 -319 2433
21 -315 2402
28 -315 2399
35 -314 2394
42 -314 2391
49 -314 2388
56 -313 2386
63 -314 2388
70 -314 2388
77 -314 2391
83 -314 2386
91 -315 2396
97 -315 2391
104 -313 2380
110 -311 2366
117 -311 2362
124 -312 2370
131 -311 2364
138 -313 2375
145 -312 2369
151 -310 2353
155 -306 2318
162 -306 2324
167 -302 2289
175 -306 2317
184 -310 2348
191 -309 2340
197 -309 2341
204 -310 2343
210 -308 2329
218 -310 2341
225 -310 2344
231 -308 2331
238 -309 2331
244 -308 2329
250 -307 2319
257 -307 2320
263 -307 2317
271 -308 2323
277 -307 2317
286 -310 2337
293 -311 2341
297 -308 2316
303 -307 2310
310 -307 2306
317 -307 2307
323 -307 2305
329 -306 2296
335 -305 2290
342 -306 2293
348 -305 2290
356 -306 2298
362 -306 2290
369 -306 2292
374 -305 2284
380 -305 2280
387 -305 2278
393 -304 2275
400 -304 2275
411 -308 2299
419 -309 2303
424 -308 2296
429 -306 2284
433 -305 2270
439 -304 2264
447 -305 2272
453 -305 2268
459 -304 2262
464 -303 2250
472 -304 2256
479 -304 2259
481 -302 2238
494 -306 2265
496 -303 2242
504 -304 2248
508 -302 2233
516 -303 2239
521 -302 2233
528 -302 2231
530 -300 2210
546 -305 2250
554 -306 2254
561 -306 2253
565 -305 2240
572 -305 2243
579 -305 2242
583 -304 2230
588 -303 2224
594 -303 2218
601 -303 2219
608 -303 2219
618 -305 2230
619 -303 2210
630 -305 2224
636 -304 2220
642 -304 2216
651 -305 2223
656 -305 2216
663 -305 2214
670 -305 2215
678 -306 2217
696 -311 2253
684 -302 2190
675 -296 2138
685 -297 2148
699 -301 2171
705 -300 2167
709 -299 2158
717 -300 2161
736 -306 2198
731 -300 2159
736 -300 2154
744 -301 2157
750 -301 2154
754 -300 2144
762 -300 2146
770 -301 2150
778 -301 2151
780 -300 2136
789 -301 2142
790 -299 2124
798 -299 2126
806 -300 2127
814 -300 2129
819 -300 2123
826 -300 2122
832 -300 2119
837 -300 2115
844 -300 2114
851 -300 2112
858 -300 2112
862 -299 2102
870 -300 2104
877 -300 2102
885 -301 2105
892 -301 2103
896 -300 2095
903 -300 2093
911 -301 2094
916 -300 2088
922 -300 2085
930 -301 2085
934 -300 2078
943 -301 2081
950 -301 2079
954 -300 2070
958 -300 2064
982 -305 2099
1012 -313 2146
987 -303 2076
986 -300 2056
999 -303 2067
989 -298 2030
922 -276 1878
891 -265 1801
888 -262 1780
898 -263 1786
900 -262 1777
909 -263 1780
907 -261 1763
919 -263 1773
921 -262 1764
927 -262 1761
934 -262 1760
941 -263 1761
947 -263 1759
952 -263 1755
956 -263 1750
963 -263 1749
969 -263 1747
972 -262 1738
976 -262 1734
-1333 -324 2300
-1323 -323 2299
-1314 -323 2301
-1288 -318 2271
-1282 -319 2277
-1266 -317 2266
-1263 -318 2277
-1249 -316 2269
-1225 -312 2241
-1214 -311 2239
-1201 -309 2231
-1190 -309 2228
-1186 -309 2236
-1179 -310 2241
-1150 -304 2202
-1155 -307 2228
-1134 -303 2203
-1131 -304 2215
-1110 -301 2190
-1106 -302 2200
-1088 -298 2180
-1088 -301 2198
-1076 -299 2190
-1067 -299 2189
-1057 -298 2186
-1046 -297 2180
-1043 -298 2190
-1034 -297 2189
-1024 -296 2185
-1013 -295 2179
-1010 -296 2190
-995 -294 2176
-977 -291 2152
-974 -292 2164
-986 -297 2208
-1001 -304 2261
-997 -305 2271
-995 -307 2283
-988 -307 2286
-984 -308 2297
-984 -310 2315
-980 -311 2325
-974 -312 2332
-970 -313 2341
-973 -316 2367
-963 -315 2364
-959 -316 2375
-960 -319 2398
-956 -320 2408
-946 -320 2405
-944 -321 2420
-940 -323 2433
-939 -325 2451
-934 -326 2459
-932 -328 2477
-925 -328 2480
-921 -329 2491
-916 -330 2500
-913 -332 2516
-910 -334 2531
-904 -334 2539
-898 -335 2546
-895 -337 2562
-891 -338 2572
-881 -338 2570
-880 -340 2591
-873 -341 2597
-869 -342 2608
-861 -342 2611
-854 -343 2616
-852 -345 2635
-846 -346 2645
-836 -345 2639
-832 -347 2653
-825 -347 2657
-816 -347 2658
-813 -349 2676
-805 -349 2676
-798 -349 2682
-786 -348 2670
-779 -348 2675
-772 -348 2679
-766 -350 2689
-751 -347 2667
-747 -348 2681
-743 -350 2699
-725 -345 2661
-714 -344 2654
-709 -345 2664
-698 -344 2655
-688 -343 2648
-682 -344 2657
-670 -342 2644
-661 -341 2637
-650 -340 2628
-646 -342 2643
-637 -341 2642
-627 -340 2634
-619 -340 2633
-610 -339 2629
-601 -338 2624
-593 -339 2626
-583 -337 2616
-575 -337 2614
-569 -338 2623
-559 -337 2616
-550 -336 2611
-542 -336 2612
-532 -334 2599
-526 -335 2607
-516 -334 2598
-505 -332 2584
-498 -332 2587
-488 -331 2574
-482 -332 2583
-473 -331 2574
-463 -329 2566
-456 -329 2565
-449 -330 2572
-440 -329 2563
-432 -329 2564
-423 -328 2553
-416 -328 2559
-408 -328 2555
-400 -327 2550
-391 -326 2544
-384 -326 2544
-376 -325 2540
-368 -326 2542
-359 -324 2531
-351 -323 2522
-344 -324 2530
-336 -323 2524
-328 -323 2521
-321 -322 2518
-313 -322 2517
-305 -322 2515
-298 -322 2514
-289 -320 2500
-282 -321 2507
-275 -321 2505
-267 -320 2499
-259 -319 2493
-252 -320 2497
-245 -319 2497
-238 -321 2506
-230 -319 2492
-222 -318 2487
-215 -318 2486
-207 -317 2478
-199 -316 2469
-192 -316 2469
-184 -315 2465
-177 -315 2462
-170 -315 2462
-163 -316 2467
-154 -313 2447
-148 -315 2460
-140 -314 2453
-133 -314 2454
-127 -315 2462
-119 -315 2458
-112 -314 2455
-105 -313 2449
-98 -314 2451
-90 -313 2444
-83 -312 2441
-76 -312 2438
-69 -314 2449
-62 -313 2442
-55 -312 2436
-48 -312 2433
-41 -312 2434
-33 -310 2423
-27 -312 2431
-20 -311 2429
-12 -311 2427
-6 -312 2437
1 -310 2418
8 -310 2415
14 -309 2409
21 -309 2410
28 -307 2394
35 -307 2394
42 -308 2396
49 -307 2393
56 -306 2384
63 -308 2396
70 -311 2417
77 -310 2412
84 -310 2410
91 -307 2392
97 -308 2393
104 -306 2380
110 -305 2372
117 -305 2368
124 -305 2368
131 -304 2364
138 -305 2372
145 -306 2372
150 -303 2350
154 -296 2300
162 -299 2316
167 -297 2303
176 -300 2329
184 -302 2344
192 -305 2362
197 -302 2341
205 -303 2346
209 -300 2322
217 -302 2336
225 -303 2340
231 -302 2332
238 -302 2333
243 -300 2320
251 -302 2329
257 -301 2326
264 -301 2324
270 -301 2320
279 -303 2336
282 -299 2301
293 -304 2339
297 -301 2314
304 -301 2317
310 -300 2306
316 -300 2304
323 -300 2306
329 -299 2301
336 -300 2301
342 -299 2298
348 -299 2292
356 -299 2295
355 -293 2245
370 -300 2299
374 -298 2280
381 -299 2286
386 -297 2275
394 -298 2278
403 -300 2291
411 -301 2301
416 -300 2289
423 -300 2288
428 -299 2280
433 -298 2270
439 -297 2265
444 -296 2255
452 -297 2260
458 -297 2258
473 -302 2295
473 -298 2261
480 -298 2263
486 -298 2259
497 -301 2277
495 -296 2239
500 -295 2229
505 -294 2222
509 -292 2208
523 -296 2239
525 -294 2221
527 -292 2200
544 -297 2241
551 -298 2242
564 -301 2267
569 -300 2258
570 -297 2234
577 -298 2235
582 -297 2227
587 -296 2221
592 -295 2211
594 -293 2193
601 -293 2196
607 -293 2192
621 -297 2217
628 -297 2217
638 -299 2227
643 -298 2221
648 -297 2212
654 -297 2210
662 -297 2211
667 -297 2206
671 -296 2195
687 -300 2225
682 -295 2186
681 -292 2158
682 -290 2140
697 -293 2164
703 -293 2161
707 -292 2152
718 -294 2164
722 -293 2154
728 -293 2152
738 -294 2159
739 -292 2141
747 -293 2146
754 -293 2144
759 -292 2137
768 -293 2142
771 -292 2130
780 -293 2136
785 -293 2130
793 -293 2132
798 -293 2128
805 -293 2125
810 -292 2120
818 -293 2122
827 -294 2126
829 -292 2111
839 -294 2118
844 -293 2113
852 -294 2114
853 -292 2100
867 -295 2116
870 -293 2105
879 -294 2107
886 -294 2106
891 -294 2101
900 -295 2104
906 -295 2101
913 -295 2099
919 -295 2096
926 -295 2095
928 -294 2083
935 -294 2080
943 -295 2082
949 -294 2077
955 -294 2073
976 -299 2104
982 -299 2100
1010 -305 2141
988 -296 2078
986 -294 2057
996 -295 2063
990 -292 2034
934 -273 1903
893 -259 1804
892 -257 1788
894 -256 1779
906 -258 1790
911 -258 1785
910 -256 1769
920 -257 1775
924 -257 1769
930 -257 1768
934 -257 1762
935 -255 1750
945 -257 1756
950 -257 1752
958 -257 1753
962 -257 1748
969 -257 1748
980 -259 1754
976 -256 1734
-1332 -316 2299
-1298 -310 2257
-1296 -311 2269
-1274 -307 2248
-1276 -310 2267
-1271 -310 2275
-1249 -307 2254
-1242 -307 2257
-1221 -304 2235
-1217 -304 2245
-1197 -301 2224
-1190 -301 2228
-1177 -300 2221
-1167 -299 2219
-1161 -300 2224
-1152 -299 2223
-1140 -298 2218
-1130 -297 2215
-1115 -295 2202
-1115 -297 2220
-1105 -296 2215
-1091 -294 2204
-1088 -295 2216
-1073 -293 2202
-1071 -295 2215
-1054 -292 2198
-1049 -292 2204
-1032 -290 2185
-1029 -291 2197
-1013 -288 2181
