VERSION 0.7
FIELDS x y z
SIZE 4 4 4
TYPE I I I
COUNT 1 1 1
WIDTH 3595
HEIGHT 1
VIEWPOINT 0.0 0.0 0.0 1.0 0.0 0.0 0.0
POINTS 3595
DATA ascii
-270 294 1930
-265 295 1935
-262 298 1956
-254 295 1940
-251 298 1959
-242 294 1935
-239 297 1952
-233 297 1951
-228 297 1956
-221 297 1952
-216 297 1956
-211 298 1962
-206 298 1965
-199 296 1953
-195 299 1971
-187 296 1952
-181 296 1953
-176 296 1954
-171 298 1967
-164 295 1946
-158 295 1951
-153 297 1960
-146 293 1938
-145 302 1998
-140 305 2017
-128 292 1929
-122 288 1908
-107 266 1756
-89 233 1540
-83 229 1515
-80 235 1553
-75 234 1548
-71 234 1550
-66 233 1543
-64 240 1588
-59 240 1591
-56 248 1641
-53 253 1677
-50 262 1734
-47 276 1828
-44 290 1924
-40 299 1985
-34 297 1972
-29 299 1987
-23 299 1983
-17 300 1990
-11 302 2005
-6 300 1995
0 299 1984
5 300 1992
11 296 1970
16 298 1983
22 300 1996
28 298 1980
33 296 1968
40 301 2004
45 297 1974
51 300 1998
56 295 1960
62 297 1975
68 297 1978
74 298 1985
80 300 1999
85 297 1979
91 298 1984
98 300 1995
103 297 1979
108 297 1975
114 297 1974
122 302 2010
125 296 1972
131 297 1977
138 299 1989
143 299 1987
149 298 1981
156 301 2002
163 303 2019
169 303 2020
175 302 2013
179 299 1992
186 302 2011
194 305 2028
200 305 2027
203 301 2006
209 301 1999
217 304 2024
222 303 2017
230 306 2034
234 303 2013
241 305 2027
249 307 2040
249 300 1996
256 301 2004
264 303 2016
272 306 2031
280 308 2049
284 306 2034
289 305 2027
291 300 1995
300 304 2019
307 305 2025
307 300 1988
314 301 1996
323 303 2011
324 299 1980
332 301 1995
340 302 2005
349 305 2025
353 304 2012
359 304 2014
367 305 2020
371 304 2014
381 307 2031
387 307 2034
388 303 2004
396 305 2016
399 302 1998
409 306 2021
412 303 2003
423 307 2026
426 305 2011
433 306 2018
436 303 2002
444 305 2010
448 304 2002
456 305 2008
462 305 2008
473 308 2028
468 301 1982
481 305 2009
491 308 2024
496 307 2020
506 309 2034
503 304 1996
515 307 2019
517 305 2003
525 306 2011
532 307 2016
542 309 2029
547 309 2022
554 309 2024
558 308 2017
565 309 2020
566 306 2000
581 310 2029
583 308 2013
599 313 2046
601 311 2030
607 311 2029
616 312 2037
615 309 2014
628 312 2033
638 314 2045
641 313 2032
644 311 2022
646 309 2007
662 314 2038
669 314 2039
672 313 2027
684 315 2042
693 317 2049
709 321 2076
714 320 2071
719 320 2066
728 321 2072
732 320 2063
740 320 2065
736 316 2037
724 309 1985
729 308 1978
697 292 1875
647 269 1724
666 274 1758
725 296 1899
749 304 1944
771 310 1983
786 313 2004
801 317 2024
799 313 2001
806 314 2002
805 311 1981
813 312 1983
810 308 1961
815 308 1956
811 304 1929
810 302 1911
809 299 1891
807 296 1872
807 294 1855
807 292 1840
808 290 1827
803 286 1801
807 285 1795
811 285 1789
814 284 1781
805 279 1748
806 277 1736
806 275 1722
808 274 1712
806 272 1694
809 271 1687
810 269 1675
816 269 1675
817 268 1664
815 266 1647
818 265 1639
818 263 1627
818 261 1615
823 261 1613
827 261 1608
827 259 1596
830 259 1590
830 257 1577
837 258 1579
835 255 1562
855 260 1588
854 258 1574
864 259 1581
878 262 1595
893 265 1609
898 265 1607
926 271 1645
948 276 1673
-498 154 860
-504 156 876
-506 158 887
-490 154 865
-481 152 856
-473 150 848
-492 157 887
-481 154 876
-479 154 877
-496 161 915
-484 158 900
-494 162 926
-494 163 932
-486 161 924
-501 167 960
-495 166 955
-495 167 964
-504 171 989
-511 175 1009
-486 167 969
-489 169 981
-484 169 979
-513 180 1047
-488 172 1004
-500 178 1037
-507 181 1059
-489 176 1029
-509 184 1081
-490 179 1049
-494 181 1065
-489 180 1062
-490 182 1074
-511 191 1129
-513 193 1143
-493 187 1106
-502 192 1138
-526 202 1201
-510 197 1174
-526 205 1221
-494 194 1157
-514 203 1214
-513 204 1222
-505 203 1213
-507 205 1228
-535 217 1306
-610 249 1502
-712 293 1767
-757 313 1895
-743 310 1878
-745 313 1900
-744 315 1914
-742 317 1925
-726 313 1902
-723 314 1909
-712 311 1897
-710 313 1910
-702 312 1906
-702 315 1923
-682 308 1887
-681 310 1902
-676 311 1905
-672 312 1912
-664 310 1907
-652 307 1890
-650 309 1903
-649 311 1920
-640 310 1910
-636 311 1919
-632 311 1925
-623 310 1916
-613 308 1907
-613 311 1926
-607 310 1925
-603 311 1932
-597 311 1933
-589 310 1927
-584 310 1930
-584 313 1951
-569 308 1922
-566 310 1934
-568 314 1961
-559 312 1951
-551 311 1944
-544 310 1944
-536 309 1935
-534 311 1950
-530 312 1958
-527 313 1969
-515 310 1947
-517 315 1980
-510 314 1978
-505 315 1982
-499 314 1980
-495 315 1990
-493 318 2008
-479 313 1975
-480 317 2003
-472 316 1997
-468 317 2008
-458 314 1988
-450 312 1979
-440 310 1964
-433 308 1957
-427 309 1961
-421 308 1958
-412 306 1947
-408 307 1954
-401 306 1947
-391 303 1929
-393 309 1967
-386 308 1962
-381 308 1967
-371 305 1948
-370 308 1969
-364 309 1972
-356 306 1959
-356 312 1994
-349 311 1987
-351 317 2031
-338 311 1994
-324 304 1947
-307 293 1876
-297 289 1850
-287 284 1819
-282 284 1821
-268 275 1765
-265 278 1783
-261 279 1792
-266 290 1862
-267 297 1907
-260 295 1901
-256 297 1914
-251 298 1919
-247 299 1927
-241 299 1928
-235 299 1926
-232 302 1945
-225 300 1938
-217 297 1918
-213 299 1928
-207 298 1924
-203 300 1936
-195 297 1922
-191 299 1932
-184 296 1918
-180 300 1941
-172 296 1915
-169 300 1946
-163 300 1942
-157 299 1939
-150 297 1922
-145 297 1922
-143 304 1974
-139 308 1999
-127 293 1902
-118 286 1853
-102 259 1679
-87 233 1507
-82 233 1510
-79 237 1534
-74 233 1509
-70 236 1534
-66 237 1536
-62 237 1540
-58 240 1560
-54 245 1588
-53 258 1677
-50 266 1731
-46 273 1773
-42 283 1838
-39 296 1929
-34 302 1966
-28 303 1975
-22 299 1946
-17 299 1947
-11 301 1961
-5 302 1966
0 300 1952
5 303 1973
11 301 1964
16 299 1952
22 301 1963
28 302 1967
34 303 1976
39 300 1957
45 305 1991
51 303 1978
56 301 1964
63 304 1984
67 298 1944
73 302 1968
79 302 1968
84 300 1955
91 302 1971
95 298 1945
101 297 1941
107 300 1958
114 303 1979
117 296 1933
124 298 1946
132 304 1984
136 300 1960
141 299 1948
148 302 1974
153 300 1960
162 306 1998
167 305 1989
172 304 1986
178 304 1985
184 304 1987
190 304 1986
198 308 2012
203 307 2001
211 309 2017
213 304 1984
222 309 2017
226 306 1995
231 306 1992
237 305 1991
246 310 2020
247 304 1979
252 303 1972
261 306 1997
268 307 2002
274 307 2002
281 308 2008
288 310 2019
294 310 2019
298 308 2004
307 311 2027
308 306 1990
313 306 1988
320 306 1991
328 309 2007
333 308 2000
339 308 1999
344 306 1992
349 306 1987
358 309 2007
362 307 1996
367 306 1989
377 309 2008
380 307 1993
384 306 1985
387 304 1970
398 308 1995
402 306 1984
411 308 1996
414 306 1985
423 309 1999
425 305 1977
435 309 1998
438 306 1982
445 307 1987
448 305 1973
458 308 1990
462 306 1979
466 305 1972
484 313 2022
484 309 1996
491 310 1999
494 308 1987
498 307 1977
505 308 1983
517 311 2004
523 311 2002
534 314 2020
533 310 1994
541 311 1998
547 311 1997
555 312 2005
558 311 1993
566 311 1997
573 312 2000
581 313 2007
587 313 2004
590 312 1993
598 312 1998
605 313 1999
609 312 1993
620 314 2007
626 314 2004
635 316 2014
632 311 1984
645 315 2003
659 318 2026
664 318 2022
667 316 2009
670 315 2001
682 318 2017
683 315 2000
699 320 2027
711 322 2041
717 322 2041
724 322 2039
738 326 2061
735 322 2033
747 324 2047
742 319 2013
728 311 1959
719 304 1915
673 282 1775
647 270 1693
678 280 1758
730 299 1877
761 309 1937
779 314 1968
791 317 1980
798 317 1980
801 316 1971
804 314 1960
810 314 1959
815 314 1955
812 310 1929
816 309 1923
812 306 1897
809 302 1875
810 300 1861
811 299 1848
810 296 1831
805 292 1805
810 292 1800
807 289 1780
811 288 1774
806 285 1750
808 283 1739
806 281 1721
811 280 1717
809 278 1699
807 275 1681
813 275 1681
812 273 1666
809 270 1646
813 270 1641
813 268 1629
818 268 1627
818 266 1613
822 266 1609
821 264 1594
823 263 1586
826 262 1580
825 260 1566
831 261 1566
836 261 1563
835 259 1550
837 258 1541
844 258 1543
851 259 1544
865 262 1558
870 262 1556
879 263 1561
888 264 1564
-487 153 840
-489 155 851
-480 152 840
-477 152 841
-485 156 862
-481 155 862
-469 152 845
-486 159 883
-492 161 900
-494 163 912
-488 162 908
-488 163 915
-491 165 927
-485 164 922
-487 166 934
-503 172 971
-486 167 946
-495 172 971
-494 172 976
-495 173 985
-486 171 975
-482 171 975
-489 175 997
-497 179 1022
-487 176 1010
-505 184 1053
-491 180 1034
-513 189 1087
-497 184 1062
-503 188 1085
-491 185 1067
-512 194 1122
-504 192 1113
-501 192 1115
-485 187 1088
-517 201 1171
-488 191 1115
-509 200 1170
-499 198 1159
-496 198 1160
-493 198 1163
-503 204 1196
-509 208 1221
-525 216 1272
-609 252 1487
-736 306 1812
-755 316 1873
-745 314 1865
-734 312 1855
-738 316 1881
-739 319 1901
-722 314 1874
-716 314 1874
-710 314 1874
-710 317 1893
-701 315 1884
-699 317 1897
-686 313 1879
-680 313 1881
-676 314 1887
-672 314 1892
-668 315 1899
-662 315 1901
-648 311 1879
-644 312 1884
-641 313 1895
-638 315 1904
-632 315 1906
-618 310 1882
-614 311 1888
-614 314 1907
-597 308 1873
-599 312 1899
-595 313 1907
-588 312 1904
-580 311 1898
-577 312 1909
-575 314 1921
-566 312 1911
-562 313 1918
-553 311 1908
-554 315 1935
-544 313 1921
-535 311 1909
-539 316 1945
-525 312 1917
-520 312 1922
-516 313 1928
-513 315 1941
-506 314 1936
-501 314 1941
-498 316 1954
-490 315 1945
-482 313 1939
-480 315 1953
-481 320 1981
-465 313 1943
-464 316 1961
-464 320 1988
-451 315 1958
-446 316 1963
-435 312 1940
-433 314 1958
-416 307 1909
-412 308 1919
-411 311 1939
-405 311 1938
-400 311 1943
-392 310 1934
-389 311 1945
-379 308 1929
-375 309 1935
-368 308 1931
-361 307 1926
-360 311 1952
-352 309 1937
-349 311 1954
-350 318 1995
-349 322 2022
-330 309 1942
-321 307 1927
-303 295 1852
-295 292 1834
-281 284 1785
-276 283 1784
-272 285 1796
-260 278 1752
-262 285 1795
-261 290 1829
-263 298 1881
-258 298 1882
-254 300 1894
-249 300 1899
-244 301 1904
-241 305 1928
-234 302 1914
-228 303 1916
-223 303 1920
-215 300 1898
-207 296 1874
-205 300 1904
-199 300 1904
-193 300 1903
-190 304 1926
-182 300 1902
-178 302 1916
-171 299 1899
-166 300 1903
-162 304 1931
-155 301 1914
-149 299 1904
-143 298 1894
-139 303 1926
-135 304 1937
-121 285 1813
-113 279 1774
-98 254 1614
-85 233 1481
-80 232 1477
-78 237 1510
-72 233 1483
-68 234 1491
-66 241 1533
-61 241 1534
-58 244 1552
-54 249 1589
-51 255 1628
-48 265 1688
-45 274 1751
-42 287 1830
-38 295 1884
-33 300 1913
-28 303 1939
-22 303 1936
-16 303 1934
-11 303 1938
-5 304 1941
0 302 1932
5 303 1936
11 305 1951
16 303 1935
22 305 1950
28 304 1944
33 304 1945
39 305 1950
44 304 1945
50 304 1945
56 305 1955
61 304 1945
67 301 1928
73 304 1949
78 303 1942
84 304 1944
89 301 1927
95 302 1932
101 302 1936
107 304 1948
113 306 1959
117 301 1925
123 303 1941
130 305 1955
136 305 1955
140 302 1932
147 306 1959
152 304 1948
157 302 1933
164 306 1956
171 308 1972
176 306 1957
184 309 1979
187 305 1955
193 306 1957
201 310 1982
207 309 1978
212 308 1970
220 312 1995
225 311 1987
231 311 1987
237 311 1987
243 311 1992
245 307 1960
254 310 1985
263 314 2009
266 311 1990
271 310 1982
272 305 1948
282 310 1978
289 311 1985
293 308 1970
300 310 1979
304 308 1965
313 311 1987
315 307 1962
324 310 1979
331 312 1987
335 309 1973
338 307 1957
345 308 1962
354 311 1983
360 311 1980
364 310 1974
371 311 1978
380 313 1991
382 310 1971
390 312 1983
397 312 1987
399 309 1967
403 308 1956
409 308 1959
416 309 1961
423 310 1967
428 309 1964
434 309 1962
444 312 1980
446 310 1962
446 306 1936
461 312 1975
460 307 1947
467 308 1950
475 309 1957
480 309 1954
488 310 1961
492 309 1953
503 312 1972
512 314 1984
505 306 1933
524 314 1981
532 315 1987
532 312 1966
534 310 1950
553 317 1997
556 315 1983
563 316 1986
567 315 1979
576 316 1986
576 313 1967
580 312 1957
598 319 1997
593 313 1959
602 314 1967
612 316 1980
622 319 1993
626 317 1983
633 318 1986
644 320 2000
647 319 1989
655 320 1995
655 317 1975
663 318 1978
668 317 1973
676 318 1978
692 323 2006
701 324 2012
713 326 2026
719 327 2025
732 330 2042
733 327 2025
740 328 2027
743 326 2016
742 323 1995
734 317 1955
728 312 1922
719 305 1881
681 287 1764
650 272 1669
695 288 1769
742 305 1872
763 311 1910
783 317 1942
792 318 1948
797 318 1943
801 317 1936
809 317 1938
810 316 1925
815 315 1921
819 314 1913
815 311 1889
808 306 1857
811 304 1847
812 303 1834
810 300 1815
810 298 1800
808 295 1781
812 294 1776
806 290 1748
807 288 1736
809 287 1726
809 285 1712
806 282 1693
813 283 1693
809 279 1672
813 279 1668
812 277 1653
813 275 1641
814 274 1630
813 272 1617
815 271 1607
822 271 1609
822 270 1596
820 267 1580
820 265 1567
824 265 1563
822 263 1547
829 264 1550
828 261 1535
834 262 1536
833 260 1522
841 261 1525
844 260 1519
849 260 1517
864 263 1533
870 263 1532
-499 159 860
-475 153 825
-504 163 882
-471 153 830
-483 158 858
-483 159 865
-482 159 870
-488 162 887
-484 162 886
-481 162 887
-486 164 902
-473 161 885
-492 168 928
-476 164 904
-496 172 951
-492 172 951
-489 171 952
-497 175 974
-482 171 952
-501 179 996
-497 179 998
-498 180 1007
-513 187 1046
-502 184 1031
-508 187 1052
-502 186 1048
-501 187 1053
-481 181 1020
-486 184 1038
-487 185 1049
-506 194 1098
-494 190 1082
-489 190 1080
-521 203 1159
-477 188 1071
-519 205 1173
-498 198 1136
-504 202 1159
-495 200 1148
-523 213 1222
-504 207 1189
-503 208 1198
-507 211 1216
-527 221 1276
-623 262 1521
-733 310 1803
-748 319 1855
-741 319 1855
-733 318 1852
-724 316 1843
-729 320 1872
-720 319 1867
-721 322 1886
-708 319 1870
-700 318 1866
-696 319 1872
-689 318 1869
-683 318 1871
-671 315 1855
-663 314 1850
-657 313 1849
-657 316 1868
-653 317 1874
-635 311 1842
-634 313 1855
-637 317 1883
-631 317 1882
-621 315 1872
-614 314 1869
-607 313 1865
-606 316 1882
-598 315 1878
-588 312 1864
-593 317 1898
-578 313 1870
-579 316 1895
-574 316 1897
-566 315 1890
-567 319 1914
-558 317 1904
-547 314 1889
-543 315 1895
-532 312 1879
-530 314 1891
-530 317 1911
-520 314 1899
-508 311 1878
-511 316 1910
-504 315 1906
-497 314 1904
-494 315 1912
-491 317 1924
-487 319 1933
-479 317 1923
-478 320 1944
-472 320 1944
-468 321 1953
-457 317 1931
-458 322 1962
-448 319 1944
-440 318 1938
-427 312 1907
-418 309 1891
-419 314 1921
-408 310 1899
-408 314 1924
-402 314 1926
-393 311 1907
-387 311 1909
-378 309 1893
-376 311 1910
-371 312 1914
-365 311 1914
-360 312 1919
-351 309 1901
-350 313 1927
-346 315 1938
-342 315 1944
-333 313 1927
-327 312 1925
-310 302 1862
-295 292 1804
-290 292 1802
-283 290 1792
-278 290 1794
-267 285 1760
-269 293 1810
-263 291 1802
-265 300 1855
-267 307 1905
-257 303 1880
-251 302 1873
-248 306 1895
-240 303 1877
-235 302 1876
-229 302 1877
-227 307 1906
-219 303 1883
-215 305 1894
-207 301 1874
-200 300 1864
-199 305 1901
-193 305 1897
-185 301 1871
-180 302 1882
-175 303 1888
-171 306 1905
-163 301 1878
-158 301 1877
-155 307 1914
-148 302 1885
-143 303 1892
-138 305 1904
-130 300 1874
-117 282 1761
-107 270 1686
-93 247 1542
-84 233 1456
-80 235 1464
-75 234 1464
-71 234 1462
-67 235 1471
-64 241 1504
-60 240 1497
-57 244 1526
-53 249 1560
-52 263 1645
-48 269 1683
-44 272 1703
-41 283 1774
-37 298 1865
-32 302 1893
-27 304 1907
-22 306 1921
-16 305 1915
-11 305 1913
-5 303 1899
0 307 1928
5 307 1927
11 304 1909
16 305 1912
22 306 1922
27 304 1908
33 306 1921
38 305 1917
44 305 1916
50 306 1923
55 302 1899
61 306 1919
67 307 1931
71 303 1900
77 302 1900
82 303 1903
88 305 1917
93 302 1899
100 308 1933
106 307 1926
111 306 1923
116 305 1915
122 305 1915
129 309 1944
133 306 1921
138 303 1903
145 307 1931
150 304 1913
158 309 1943
160 304 1909
169 309 1941
175 309 1943
182 312 1962
187 312 1957
192 310 1947
199 311 1956
205 313 1964
211 313 1964
218 314 1972
224 315 1978
227 312 1956
231 309 1939
237 310 1942
243 310 1943
252 314 1969
257 313 1960
263 313 1964
269 314 1967
273 311 1952
280 313 1961
287 314 1966
293 314 1966
294 309 1933
301 311 1946
308 312 1953
313 311 1946
319 312 1950
323 309 1935
329 310 1938
336 311 1944
338 308 1923
348 311 1947
348 307 1917
361 313 1955
361 307 1920
368 309 1927
374 309 1928
389 316 1975
393 315 1966
393 311 1939
401 312 1948
406 312 1942
413 313 1948
418 312 1945
423 311 1937
423 307 1912
428 307 1909
442 312 1942
449 314 1951
456 314 1953
464 316 1963
469 315 1957
471 313 1941
474 311 1928
487 316 1957
491 314 1948
498 315 1950
506 316 1957
508 314 1942
514 314 1943
523 316 1954
533 318 1966
529 313 1931
542 317 1955
543 314 1937
554 317 1954
561 318 1958
570 319 1967
579 321 1975
584 320 1972
588 319 1964
594 319 1963
604 321 1973
606 319 1960
612 319 1959
619 320 1962
623 319 1954
627 318 1947
638 320 1960
652 324 1984
646 318 1945
661 322 1970
656 317 1936
664 318 1941
679 322 1965
684 322 1962
704 328 1999
712 330 2005
719 330 2005
727 331 2009
730 329 1997
738 330 2002
741 329 1991
740 326 1971
746 325 1968
734 318 1920
723 310 1872
723 308 1856
682 288 1736
669 280 1686
712 296 1780
750 309 1858
771 315 1893
785 319 1913
791 319 1910
796 318 1906
800 317 1899
811 319 1909
812 318 1896
819 318 1895
810 312 1860
820 314 1866
815 310 1840
816 308 1828
815 305 1810
812 302 1789
813 300 1777
809 296 1752
812 296 1745
807 292 1721
813 292 1720
807 288 1694
809 287 1685
812 286 1677
812 284 1664
810 281 1646
813 281 1640
817 280 1635
812 277 1612
813 275 1602
812 273 1589
817 273 1585
818 271 1574
823 271 1572
823 270 1561
821 268 1546
826 268 1544
830 267 1539
830 265 1527
832 265 1520
836 264 1515
837 263 1506
841 263 1502
843 262 1493
851 263 1497
-467 152 806
-473 155 821
-491 162 860
-476 158 840
-483 161 858
-465 156 832
-484 163 872
-494 167 898
-491 167 899
-478 164 882
-472 163 877
-497 172 931
-488 170 920
-502 176 954
-491 173 940
-486 172 937
-495 177 963
-487 175 955
-490 177 968
-491 178 977
-482 176 967
-488 180 987
-505 187 1030
-496 185 1019
-496 186 1027
-492 185 1025
-504 191 1059
-502 192 1064
-501 193 1070
-493 191 1062
-515 201 1118
-499 196 1093
-498 197 1098
-500 199 1111
-501 201 1125
-503 203 1137
-505 205 1151
-525 214 1207
-494 203 1146
-501 207 1170
-506 211 1194
-498 210 1185
-499 211 1197
-499 213 1207
-577 247 1407
-717 309 1763
-742 322 1841
-721 316 1804
-727 320 1834
-716 318 1825
-716 320 1838
-711 321 1844
-700 319 1832
-700 321 1849
-694 321 1849
-684 319 1838
-677 318 1837
-671 318 1836
-661 316 1826
-655 316 1828
-647 314 1823
-640 314 1820
-647 319 1856
-628 313 1821
-630 316 1842
-626 318 1851
-623 319 1859
-615 317 1854
-604 314 1838
-595 313 1830
-594 315 1845
-588 315 1844
-585 316 1853
-587 320 1878
-576 317 1863
-574 319 1877
-569 319 1879
-565 320 1887
-559 320 1887
-553 320 1889
-540 316 1864
-537 317 1872
-525 313 1853
-522 315 1863
-519 316 1874
-512 315 1868
-510 317 1883
-508 320 1899
-495 315 1871
-493 317 1885
-491 320 1902
-488 321 1913
-477 317 1892
-470 317 1890
-469 320 1909
-463 319 1908
-458 320 1910
-453 320 1916
-446 320 1912
-442 320 1918
-436 320 1918
-426 317 1900
-414 312 1871
-411 314 1883
-403 312 1876
-401 315 1893
-390 311 1869
-387 313 1881
-379 310 1867
-380 316 1901
-368 311 1873
-366 313 1889
-363 315 1904
-356 314 1896
-352 315 1905
-347 316 1910
-342 316 1911
-339 318 1926
-332 318 1922
-320 312 1888
-304 301 1825
-291 293 1777
-286 293 1779
-284 297 1804
-275 293 1778
-276 299 1817
-270 299 1817
-266 300 1823
-262 302 1837
-257 303 1840
-255 306 1860
-250 306 1862
-243 304 1852
-237 304 1851
-229 300 1828
-226 303 1846
-219 302 1840
-215 303 1849
-212 307 1871
-205 305 1861
-199 302 1847
-195 305 1864
-189 304 1860
-186 308 1884
-177 303 1852
-173 305 1866
-168 306 1870
-162 304 1862
-157 305 1866
-151 305 1866
-145 302 1850
-139 302 1848
-131 295 1807
-123 289 1771
-111 274 1679
-104 267 1638
-89 242 1483
-82 234 1436
-78 235 1437
-74 235 1439
-71 239 1464
-67 240 1470
-63 241 1478
-60 244 1498
-56 246 1507
-53 251 1541
-50 258 1584
-48 274 1683
-43 275 1690
-40 283 1743
-36 296 1818
-32 305 1879
-27 309 1900
-22 308 1896
-16 304 1874
-10 304 1872
-5 307 1892
0 306 1883
5 307 1889
11 309 1903
16 306 1883
22 309 1906
27 308 1900
32 306 1887
38 304 1874
43 306 1888
49 310 1912
54 303 1870
60 308 1900
66 309 1907
71 306 1885
77 307 1894
82 307 1896
88 308 1896
93 306 1888
99 309 1909
104 305 1884
109 306 1890
116 309 1904
120 305 1882
128 310 1915
131 307 1891
138 309 1905
143 308 1901
149 309 1907
155 311 1915
160 309 1907
166 309 1906
173 313 1928
181 317 1953
182 308 1899
191 313 1932
197 315 1942
205 319 1965
209 315 1939
214 314 1938
220 315 1940
224 312 1922
231 314 1934
236 313 1928
241 313 1925
249 315 1940
256 317 1952
261 316 1944
265 315 1936
267 310 1906
275 313 1924
279 311 1914
285 311 1913
290 310 1909
293 308 1891
305 314 1932
309 312 1919
315 313 1922
321 314 1926
323 310 1903
326 308 1888
339 314 1928
344 313 1922
351 314 1928
356 314 1925
364 316 1935
366 313 1919
372 313 1921
374 310 1899
384 314 1921
391 315 1927
397 315 1926
402 314 1922
403 310 1898
410 312 1905
416 312 1904
424 313 1914
435 318 1939
434 313 1908
444 316 1927
446 313 1907
450 312 1902
464 317 1934
465 314 1914
475 317 1931
476 314 1910
480 313 1904
495 319 1940
496 315 1917
502 316 1917
503 313 1901
516 318 1928
516 314 1904
529 318 1927
539 320 1942
538 316 1917
549 320 1936
556 320 1937
564 321 1944
572 323 1951
574 321 1937
581 321 1937
586 321 1935
592 321 1934
596 320 1927
608 323 1946
607 319 1922
616 321 1930
620 320 1923
629 321 1930
632 320 1920
653 328 1966
652 324 1943
654 322 1929
665 324 1942
669 324 1936
681 327 1953
691 329 1963
706 333 1987
709 331 1975
713 330 1970
731 336 2000
733 334 1987
740 334 1986
739 331 1967
745 331 1965
750 330 1960
746 326 1933
743 322 1907
736 316 1871
720 307 1815
670 284 1674
668 281 1655
723 301 1776
752 311 1830
772 317 1863
791 322 1892
794 321 1884
804 323 1892
808 322 1885
810 320 1875
816 320 1872
823 321 1872
824 319 1860
828 318 1853
823 314 1827
815 309 1795
815 306 1780
810 303 1755
817 303 1756
809 298 1724
811 297 1715
810 294 1699
813 294 1693
813 291 1678
809 288 1658
814 288 1653
818 288 1650
815 285 1631
815 283 1618
818 282 1612
815 279 1592
815 277 1581
818 277 1575
813 273 1553
815 272 1544
822 273 1546
824 272 1538
822 269 1523
826 269 1518
829 269 1513
833 268 1509
832 266 1497
833 265 1487
840 266 1488
840 264 1477
-473 157 814
-459 153 796
-476 160 833
-477 161 841
-477 162 847
-491 167 878
-466 160 840
-492 169 893
-481 167 880
-491 171 904
-480 168 892
-480 169 899
-492 174 927
-482 172 916
-492 177 942
-487 176 940
-490 178 953
-488 178 956
-481 177 949
-486 180 966
-507 189 1017
-501 187 1012
-491 185 1000
-498 189 1023
-493 188 1021
-507 194 1056
-485 187 1019
-491 191 1039
-485 190 1036
-484 191 1043
-493 195 1069
-492 197 1077
-523 210 1154
-497 201 1105
-492 200 1102
-501 205 1133
-508 210 1159
-494 206 1136
-489 205 1134
-508 214 1187
-504 214 1187
-503 215 1195
-517 223 1240
-568 246 1374
-632 276 1540
-692 304 1702
-720 318 1785
-720 321 1800
-711 319 1794
-712 322 1813
-702 320 1802
-693 318 1796
-697 323 1823
-695 324 1833
-683 321 1819
-670 318 1800
-672 321 1821
-662 319 1812
-657 319 1815
-647 317 1803
-644 318 1813
-638 318 1814
-628 316 1802
-624 316 1808
-623 319 1821
-621 320 1834
-607 316 1810
-604 317 1820
-602 319 1832
-591 316 1815
-587 317 1823
-580 316 1818
-573 315 1815
-574 319 1838
-565 317 1828
-566 320 1849
-564 322 1862
-556 321 1857
-553 322 1865
-546 321 1863
-527 314 1820
-530 318 1847
-523 318 1845
-518 318 1848
-516 320 1861
-512 321 1869
-505 320 1864
-493 316 1840
-491 318 1856
-487 319 1865
-481 319 1863
-477 319 1868
-474 321 1881
-468 321 1878
-461 320 1877
-454 319 1871
-448 318 1868
-443 319 1873
-440 321 1884
-440 325 1909
-430 322 1892
-416 315 1854
-411 316 1860
-404 314 1851
-401 316 1864
-391 313 1847
-392 317 1874
-381 313 1848
-379 316 1866
-372 314 1859
-366 314 1857
-360 314 1859
-360 318 1887
-353 317 1878
-343 313 1857
-336 311 1848
-338 319 1893
-333 319 1896
-328 320 1900
-311 308 1832
-305 308 1830
-292 300 1785
-283 296 1764
-280 298 1774
-277 300 1789
-270 299 1780
-268 301 1798
-262 302 1800
-258 303 1806
-259 309 1847
-250 305 1825
-245 306 1830
-239 305 1826
-236 308 1841
-229 306 1832
-223 305 1826
-219 307 1838
-213 306 1831
-208 307 1838
-204 308 1844
-198 307 1843
-191 305 1829
-186 306 1835
-180 304 1825
-175 305 1830
-173 310 1860
-165 306 1837
-161 308 1851
-156 309 1856
-149 305 1833
-144 305 1838
-135 299 1798
-126 290 1742
-118 284 1709
-107 268 1613
-99 260 1566
-89 245 1474
-82 238 1433
-78 239 1435
-74 238 1434
-70 240 1446
-67 242 1457
-63 243 1465
-59 246 1480
-55 248 1497
-52 253 1526
-50 264 1594
-48 276 1667
-43 276 1666
-39 286 1725
-36 296 1791
-31 300 1814
-27 312 1887
-21 308 1861
-16 311 1879
-10 307 1855
-5 310 1875
0 306 1853
5 309 1868
10 308 1861
16 312 1885
21 309 1870
27 312 1886
32 310 1873
37 307 1860
43 309 1871
48 308 1865
54 309 1872
59 307 1861
65 310 1875
71 311 1885
75 305 1848
81 309 1871
87 309 1870
92 309 1871
97 308 1867
103 310 1880
108 309 1870
115 312 1892
119 309 1873
125 309 1871
130 309 1874
136 310 1879
143 313 1893
148 312 1890
154 313 1895
160 313 1895
165 313 1897
171 314 1902
178 317 1919
185 318 1926
188 314 1903
194 315 1910
200 316 1914
208 319 1933
211 315 1905
216 315 1906
220 312 1890
227 314 1902
232 314 1899
235 310 1877
242 312 1889
246 310 1872
254 314 1895
260 314 1897
265 314 1894
269 311 1876
279 316 1908
280 311 1877
290 316 1905
298 319 1923
298 313 1886
304 313 1889
308 311 1878
317 315 1897
319 311 1877
330 317 1909
329 310 1869
336 311 1876
340 310 1869
352 316 1902
356 314 1891
363 316 1903
367 314 1890
373 315 1892
376 313 1879
383 313 1884
395 318 1914
394 313 1883
403 316 1897
409 317 1901
417 318 1910
420 316 1895
424 315 1887
434 318 1906
435 315 1887
446 318 1906
448 316 1892
454 317 1894
466 320 1917
468 318 1900
477 320 1914
479 318 1897
486 319 1903
487 315 1882
501 321 1914
506 320 1909
510 320 1904
517 320 1908
526 322 1917
531 322 1915
536 321 1909
538 319 1895
548 322 1910
552 320 1903
555 319 1891
567 323 1913
574 323 1914
576 321 1899
586 323 1914
593 324 1917
593 321 1896
606 325 1918
608 322 1904
615 323 1908
620 323 1902
627 323 1905
642 328 1931
644 326 1920
658 330 1941
650 323 1899
663 327 1917
666 325 1907
678 328 1925
692 332 1945
703 334 1958
712 336 1964
716 335 1958
721 334 1954
729 335 1956
736 336 1957
741 335 1954
751 337 1960
755 336 1953
751 332 1927
755 331 1919
741 322 1868
733 316 1830
723 309 1789
673 286 1651
668 282 1625
722 302 1740
748 310 1789
774 319 1835
790 323 1859
804 326 1876
806 325 1864
810 324 1857
817 324 1859
822 324 1854
824 322 1843
825 320 1830
825 318 1815
820 314 1789
821 312 1777
819 309 1760
814 305 1734
818 305 1729
810 300 1697
811 298 1687
814 297 1679
812 295 1663
812 292 1649
813 291 1638
816 290 1632
815 288 1618
815 286 1605
815 284 1593
816 283 1582
815 281 1568
815 279 1556
818 278 1549
816 276 1535
826 277 1541
825 276 1528
824 273 1514
825 272 1504
829 272 1500
830 271 1492
829 268 1478
835 269 1478
837 268 1471
-490 165 843
-498 169 864
-470 160 821
-479 164 843
-492 169 873
-476 165 850
-479 167 862
-474 166 861
-478 168 873
-482 171 888
-496 177 920
-489 175 915
-500 180 941
-483 175 917
-497 181 951
-498 183 961
-490 181 951
-486 181 952
-475 178 938
-492 185 979
-492 186 985
-496 189 1001
-509 195 1035
-502 194 1030
-501 194 1035
-499 195 1040
-499 196 1049
-513 203 1086
-504 201 1077
-489 196 1053
-496 200 1076
-491 199 1073
-515 210 1134
-490 202 1090
-514 213 1151
-501 209 1132
-511 215 1164
-506 214 1162
-495 211 1146
-486 208 1134
-494 213 1163
-503 219 1196
-569 249 1363
-634 279 1531
-633 281 1542
-623 279 1531
-704 317 1746
-705 320 1763
-705 322 1778
-702 323 1786
-697 323 1791
-687 321 1779
-685 323 1790
-688 327 1814
-681 326 1812
-673 325 1806
-666 324 1805
-655 321 1791
-655 324 1809
-636 317 1773
-632 318 1777
-624 316 1772
-623 319 1788
-620 320 1794
-618 321 1806
-606 318 1788
-603 319 1798
-599 320 1804
-595 321 1809
-588 320 1806
-575 316 1785
-574 318 1799
-569 318 1801
-558 316 1787
-558 318 1803
-564 325 1844
-550 320 1815
-547 321 1827
-549 325 1851
-532 319 1816
-528 319 1819
-520 318 1814
-515 318 1815
-517 323 1843
-514 324 1855
-504 322 1841
-496 320 1831
-488 318 1823
-488 321 1843
-483 322 1847
-472 318 1828
-469 320 1837
-467 322 1852
-457 319 1836
-450 318 1831
-449 321 1849
-445 322 1858
-437 320 1846
-433 321 1855
-428 322 1859
-424 323 1865
-415 320 1852
-402 314 1818
-395 313 1812
-395 317 1838
-389 316 1835
-382 315 1827
-375 314 1822
-371 315 1829
-364 314 1822
-359 314 1823
-349 310 1803
-349 314 1827
-345 315 1836
-335 311 1813
-331 312 1821
-331 318 1853
-323 315 1837
-317 315 1837
-310 313 1827
-297 305 1784
-287 300 1755
-282 300 1755
-277 300 1756
-272 300 1758
-264 297 1738
-259 298 1744
-255 299 1750
-257 307 1798
-251 306 1794
-248 309 1813
-243 308 1811
-236 307 1803
-231 307 1807
-226 307 1807
-222 309 1816
-216 308 1810
-209 305 1794
-207 309 1822
-201 308 1817
-196 310 1826
-191 309 1824
-186 310 1826
-180 310 1826
-175 309 1823
-169 309 1822
-162 305 1800
-158 308 1817
-154 310 1832
-147 306 1810
-143 309 1826
-132 298 1761
-121 284 1679
-113 275 1625
-104 266 1572
-97 259 1531
-87 245 1445
-81 239 1414
-76 235 1390
-74 244 1444
-70 242 1431
-66 244 1442
-62 245 1448
-58 248 1466
-55 249 1477
-52 256 1519
-50 268 1586
-46 271 1608
-42 277 1641
-39 288 1708
-35 293 1741
-31 303 1797
-26 309 1833
-20 304 1804
-15 309 1834
-10 308 1829
-5 310 1842
0 310 1843
5 310 1844
10 306 1821
16 311 1847
21 311 1849
26 311 1847
32 310 1845
37 309 1837
42 308 1834
48 310 1846
53 310 1845
59 310 1844
64 308 1833
69 309 1836
75 311 1847
80 309 1840
86 310 1846
91 312 1855
96 308 1834
101 308 1829
107 309 1841
114 315 1875
118 310 1846
122 306 1822
129 311 1853
134 311 1848
140 312 1853
145 310 1845
151 312 1856
157 313 1861
162 312 1854
168 313 1861
175 317 1884
181 318 1891
184 313 1862
190 313 1861
198 318 1889
202 316 1875
208 316 1880
215 318 1891
218 315 1873
225 316 1880
230 316 1876
235 316 1874
241 317 1880
248 318 1891
250 314 1861
257 316 1875
263 316 1877
265 312 1852
269 310 1840
276 312 1853
283 313 1859
287 312 1848
294 314 1862
299 313 1856
303 311 1845
310 313 1856
313 310 1838
321 313 1852
325 312 1845
332 314 1855
340 316 1870
342 312 1846
345 310 1831
354 313 1850
360 314 1853
373 320 1893
376 318 1880
382 318 1879
392 322 1901
391 317 1870
399 319 1878
402 317 1867
411 319 1882
415 318 1875
424 320 1886
427 318 1874
429 316 1861
436 317 1866
443 318 1869
447 317 1864
459 322 1889
463 320 1880
465 318 1864
471 318 1865
478 319 1868
487 321 1882
488 318 1864
502 323 1893
505 322 1884
510 321 1880
518 323 1886
526 324 1894
532 324 1894
534 322 1880
538 321 1875
542 320 1867
553 323 1884
563 325 1896
566 324 1886
577 327 1903
577 324 1882
587 326 1895
592 326 1892
592 323 1873
602 325 1884
612 327 1896
618 327 1895
624 327 1895
631 328 1898
637 328 1897
638 326 1880
646 327 1886
654 328 1890
655 325 1875
674 332 1911
691 337 1941
697 337 1939
710 341 1957
710 338 1939
717 338 1941
725 339 1944
731 339 1943
740 340 1948
741 338 1934
743 337 1923
752 338 1927
756 337 1920
763 337 1922
754 331 1883
744 324 1842
734 317 1800
712 305 1732
653 278 1572
654 276 1561
706 296 1673
742 309 1745
782 323 1822
794 325 1836
802 326 1839
806 325 1832
815 327 1838
819 326 1831
825 326 1830
831 326 1828
829 323 1810
828 320 1792
824 317 1770
821 313 1748
815 309 1722
818 308 1714
813 304 1691
810 301 1670
818 302 1674
812 298 1648
815 297 1642
809 293 1617
812 292 1610
821 293 1615
812 288 1585
820 289 1589
820 287 1576
819 285 1562
821 284 1555
824 283 1548
822 281 1533
820 279 1517
822 278 1509
817 274 1489
824 275 1491
827 274 1484
827 273 1475
831 272 1470
835 272 1466
-479 164 824
-472 163 819
-495 172 865
-481 168 847
-486 170 861
-494 174 882
-495 175 891
-474 169 860
-474 170 866
-494 178 909
-490 177 908
-477 174 892
-491 180 924
-496 183 941
-481 178 919
-478 179 921
-492 185 955
-496 188 971
-497 189 979
-494 189 981
-485 187 971
-494 191 997
-486 189 989
-488 191 1000
-503 199 1040
-489 194 1019
-476 190 999
-496 199 1049
-493 200 1052
-481 196 1035
-480 197 1041
-502 207 1097
-476 198 1050
-472 198 1048
-513 216 1149
-499 212 1126
-511 218 1163
-500 215 1147
-495 215 1147
-489 214 1143
-488 215 1150
-501 222 1191
-544 242 1302
-561 252 1355
-541 244 1318
-532 242 1307
-627 287 1553
-700 323 1751
-703 327 1773
-692 324 1760
-694 328 1782
-684 325 1772
-674 323 1762
-677 327 1785
-668 325 1778
-664 326 1784
-667 330 1809
-654 326 1787
-648 326 1788
-639 324 1782
-633 324 1781
-623 321 1768
-613 319 1756
-610 320 1764
-604 320 1765
-601 321 1774
-599 323 1784
-597 324 1796
-583 320 1773
-584 323 1793
-574 321 1780
-567 320 1776
-563 321 1784
-559 321 1788
-555 322 1793
-552 324 1805
-546 323 1802
-541 323 1804
-539 325 1817
-532 324 1812
-526 324 1812
-514 320 1791
-507 319 1787
-508 323 1812
-502 322 1810
-500 324 1824
-494 324 1823
-490 325 1830
-480 322 1812
-478 324 1826
-469 322 1815
-466 323 1825
-454 319 1801
-456 324 1830
-447 321 1816
-441 321 1817
-437 322 1822
-426 317 1800
-431 325 1843
-419 320 1818
-415 322 1826
-406 319 1811
-396 314 1788
-394 317 1805
-384 313 1784
-382 316 1801
-379 318 1811
-370 315 1795
-365 315 1800
-358 313 1789
-353 314 1794
-350 316 1805
-345 316 1809
-338 315 1800
-331 313 1792
-330 317 1815
-323 315 1805
-321 318 1825
-314 317 1816
-304 312 1791
-292 305 1749
-282 300 1724
-275 297 1709
-266 293 1684
-263 296 1701
-261 299 1720
-255 298 1713
-250 297 1711
-251 304 1754
-247 306 1764
-246 311 1795
-240 310 1790
-235 310 1791
-230 311 1795
-224 310 1789
-217 307 1773
-212 308 1778
-208 309 1789
-204 311 1799
-200 313 1809
-193 310 1797
-185 306 1771
-182 308 1787
-178 310 1799
-173 312 1807
-165 307 1783
-163 312 1812
-156 310 1799
-151 310 1798
-146 311 1803
-139 307 1780
-129 296 1718
-120 286 1663
-112 278 1612
-103 267 1549
-94 255 1479
-85 244 1414
-79 239 1385
-75 238 1383
-74 247 1435
-68 243 1409
-64 243 1411
-61 246 1432
-58 249 1447
-54 251 1460
-50 254 1478
-48 264 1539
-45 272 1586
-41 277 1613
-38 290 1693
-34 295 1721
-30 301 1757
-26 313 1825
-20 310 1807
-15 311 1816
-10 313 1825
-5 312 1819
0 313 1827
5 308 1797
10 314 1831
16 314 1832
21 313 1826
26 310 1810
31 311 1814
37 313 1827
42 310 1813
47 310 1809
53 315 1840
58 311 1819
63 310 1810
68 311 1818
74 311 1818
79 312 1821
84 310 1814
90 311 1818
96 314 1835
100 311 1820
107 316 1845
112 313 1831
116 309 1808
122 312 1824
127 311 1819
134 315 1838
139 316 1846
143 312 1822
149 314 1836
156 317 1849
161 317 1850
166 315 1838
174 320 1869
180 321 1874
183 317 1854
190 319 1862
197 322 1882
203 323 1884
210 325 1896
213 321 1872
218 320 1867
222 319 1859
227 318 1853
233 319 1860
238 317 1849
243 316 1846
245 313 1825
250 313 1822
257 314 1830
260 311 1815
268 315 1834
275 317 1845
277 313 1822
282 312 1817
290 315 1834
295 314 1829
303 317 1843
309 317 1847
310 313 1820
317 315 1832
322 314 1826
323 310 1801
327 308 1792
339 315 1831
337 308 1788
351 316 1835
356 316 1832
366 320 1856
371 319 1851
378 320 1858
381 318 1843
385 318 1840
397 322 1867
399 319 1849
403 318 1843
407 317 1837
415 319 1846
423 321 1858
424 317 1834
432 320 1848
444 324 1871
447 323 1862
453 322 1860
459 323 1861
465 323 1863
468 321 1851
471 320 1843
475 319 1836
481 319 1835
488 320 1841
502 325 1871
507 325 1868
515 327 1877
519 325 1866
521 323 1853
529 324 1860
536 325 1865
538 323 1850
547 326 1864
555 326 1868
556 324 1851
562 324 1851
573 327 1867
580 328 1871
582 326 1859
588 326 1857
597 328 1868
604 329 1872
605 326 1853
617 329 1871
616 326 1852
626 328 1862
636 331 1875
645 332 1882
642 327 1854
646 327 1850
664 333 1883
679 338 1908
697 343 1938
710 347 1957
711 344 1941
716 344 1937
722 344 1936
726 343 1927
734 344 1933
736 342 1921
734 338 1897
747 341 1913
746 338 1895
755 340 1902
756 338 1887
760 337 1881
759 333 1860
745 325 1810
732 317 1765
682 293 1629
611 260 1444
646 273 1516
713 300 1660
756 315 1745
783 324 1795
798 328 1813
809 330 1823
815 330 1821
817 329 1811
824 329 1811
831 330 1813
819 323 1771
835 326 1791
832 323 1771
826 319 1744
821 315 1719
823 313 1710
818 309 1686
814 306 1664
813 303 1649
815 302 1640
814 300 1626
815 298 1614
814 296 1601
817 295 1594
817 293 1582
816 291 1568
815 289 1555
816 287 1543
816 286 1533
819 285 1527
819 283 1514
823 283 1511
819 280 1493
822 279 1487
827 279 1483
824 277 1469
821 274 1452
826 274 1449
-482 168 829
-485 170 840
-483 170 843
-491 174 863
-461 164 817
-470 168 838
-478 172 859
-496 180 899
-474 173 866
-503 184 925
-474 175 879
-501 186 936
-482 180 907
-501 188 951
-494 186 944
-482 183 929
-496 189 962
-507 195 991
-507 196 999
-499 194 991
-486 190 972
-483 190 973
-490 194 997
-505 201 1034
-503 202 1038
-493 199 1027
-489 199 1027
-499 204 1055
-494 203 1053
-485 201 1042
-499 208 1081
-484 203 1056
-474 201 1045
-507 216 1125
-506 217 1133
-504 217 1138
-507 220 1153
-518 226 1188
-493 217 1141
-498 221 1163
-489 218 1150
-489 220 1162
-498 226 1193
-509 232 1228
-500 230 1218
-543 251 1333
-659 307 1633
-699 328 1746
-688 325 1734
-684 325 1738
-683 328 1752
-677 327 1752
-677 330 1769
-668 328 1760
-660 327 1756
-649 324 1741
-645 325 1747
-645 327 1764
-644 329 1777
-632 326 1762
-621 323 1746
-613 322 1740
-609 322 1744
-596 318 1725
-600 323 1753
-590 321 1741
-591 324 1761
-586 324 1763
-582 325 1770
-575 324 1764
-569 324 1766
-562 322 1759
-550 319 1742
-549 321 1756
-544 321 1757
-544 324 1778
-542 326 1788
-534 324 1781
-536 329 1808
-527 327 1798
-515 323 1777
-505 320 1760
-499 319 1757
-506 327 1804
-501 327 1807
-499 329 1819
-481 321 1775
-482 325 1797
-477 325 1802
-472 325 1803
-463 323 1792
-463 327 1813
-458 327 1817
-450 325 1805
-443 323 1799
-432 319 1777
-434 325 1811
-426 323 1801
-421 324 1804
-416 323 1804
-407 321 1791
-396 316 1765
-393 318 1777
-389 319 1783
-382 317 1777
-376 316 1770
-374 319 1790
-363 315 1764
-361 317 1777
-358 319 1791
-349 316 1774
-346 317 1783
-338 315 1770
-335 317 1782
-330 318 1788
-324 316 1782
-319 317 1786
-316 318 1795
-308 317 1785
-298 311 1754
-289 307 1734
-279 302 1706
-273 301 1698
-268 301 1702
-262 299 1693
-258 300 1698
-253 300 1699
-248 301 1703
-248 307 1737
-243 306 1735
-238 307 1740
-235 310 1757
-229 308 1749
-226 311 1766
-221 311 1765
-214 309 1754
-211 311 1768
-204 309 1758
-202 314 1784
-195 310 1762
-189 310 1762
-185 311 1769
-179 310 1762
-177 315 1794
-170 311 1773
-165 312 1780
-159 311 1773
-155 313 1784
-149 310 1768
-145 313 1784
-139 311 1773
-129 301 1718
-120 292 1664
-110 279 1592
-102 271 1545
-93 258 1475
-85 248 1414
-78 240 1369
-75 243 1386
-72 245 1398
-68 246 1407
-64 247 1411
-61 250 1427
-56 248 1415
-53 252 1442
-50 258 1478
-47 266 1521
-44 273 1563
-40 275 1577
-37 287 1643
-34 298 1706
-29 302 1733
-25 311 1785
-20 310 1780
-15 315 1807
-10 310 1781
-4 311 1782
0 314 1803
5 314 1802
10 311 1782
15 312 1793
21 314 1801
26 312 1793
31 314 1805
37 316 1817
41 308 1767
47 315 1806
52 312 1791
57 312 1790
63 313 1798
68 315 1809
73 315 1808
78 312 1791
84 316 1817
88 312 1791
95 316 1814
100 316 1814
104 313 1796
111 316 1817
114 311 1786
120 313 1800
128 319 1833
132 316 1815
139 321 1845
143 316 1817
149 319 1830
153 315 1807
160 318 1828
163 315 1807
172 322 1851
178 323 1855
181 319 1829
186 318 1827
193 321 1842
202 326 1870
207 325 1866
210 321 1844
214 320 1836
221 322 1850
226 322 1847
232 322 1848
232 315 1804
239 318 1821
247 320 1834
251 319 1827
256 318 1822
258 314 1799
261 312 1784
268 313 1792
278 318 1822
278 313 1789
283 312 1788
289 313 1790
296 315 1799
302 316 1807
305 313 1790
309 312 1785
317 315 1798
322 315 1797
327 314 1794
335 317 1809
339 315 1799
342 314 1789
354 319 1822
361 321 1830
367 321 1830
371 320 1821
379 322 1834
378 317 1805
387 320 1821
395 322 1830
397 319 1814
406 322 1830
407 319 1810
413 319 1812
419 319 1814
426 321 1820
432 321 1820
443 325 1844
442 320 1816
446 319 1807
459 325 1840
452 316 1788
470 324 1835
473 322 1824
479 323 1828
484 323 1824
490 323 1824
503 328 1852
509 328 1851
512 327 1842
522 329 1856
520 324 1828
531 328 1847
533 326 1834
534 323 1817
549 329 1848
555 329 1849
558 328 1839
566 329 1846
572 329 1844
583 332 1860
580 327 1832
592 331 1851
601 332 1858
601 329 1841
611 332 1854
617 332 1854
618 330 1839
632 334 1860
630 330 1837
639 331 1844
643 331 1840
652 333 1848
670 338 1879
688 345 1914
697 346 1920
706 348 1927
705 344 1906
708 343 1897
719 346 1910
726 346 1911
725 343 1890
738 346 1907
744 346 1905
741 342 1881
749 343 1885
755 343 1883
756 341 1870
761 340 1865
764 339 1856
758 334 1826
734 321 1751
717 311 1697
647 279 1518
625 267 1454
653 277 1505
729 307 1669
756 316 1716
790 328 1780
797 328 1779
811 332 1797
808 328 1775
819 331 1785
822 329 1777
828 330 1776
830 328 1766
841 330 1774
827 323 1732
826 320 1715
822 316 1694
823 315 1682
815 309 1652
810 306 1630
820 307 1637
810 302 1605
815 301 1601
811 298 1582
817 298 1580
820 298 1576
821 296 1566
818 293 1548
820 292 1539
819 290 1526
820 289 1516
824 288 1512
823 286 1499
823 284 1487
822 282 1474
828 283 1474
836 284 1477
829 280 1454
-476 169 819
-467 166 809
-473 169 825
-479 172 842
-483 175 856
-486 177 867
-496 182 892
-495 182 896
-504 187 921
-488 182 898
-491 184 910
-492 185 919
-480 182 903
-498 190 944
-494 189 943
-498 192 958
-480 186 931
-473 185 926
-491 193 968
-490 194 972
-487 194 974
-488 195 984
-509 205 1035
-499 202 1022
-480 196 992
-489 201 1019
-506 209 1061
-501 208 1060
-497 208 1059
-502 211 1078
-509 216 1102
-476 203 1040
-498 214 1096
-513 222 1138
-519 226 1161
-520 228 1174
-517 228 1176
-506 225 1161
-500 224 1156
-491 222 1147
-498 226 1171
-500 229 1186
-514 237 1229
-548 254 1322
-578 270 1406
-600 282 1472
-669 317 1657
-682 325 1704
-684 328 1722
-672 325 1709
-684 333 1753
-676 332 1748
-667 331 1742
-667 333 1757
-652 328 1733
-648 329 1738
-633 324 1714
-630 325 1721
-629 327 1735
-625 328 1741
-615 325 1729
-614 327 1741
-603 325 1728
-597 324 1728
-590 323 1722
-589 325 1736
-581 324 1730
-576 324 1733
-574 326 1744
-567 325 1741
-563 326 1746
-555 324 1739
-548 323 1735
-539 320 1722
-542 325 1750
-538 326 1756
-530 324 1748
-531 328 1770
-523 326 1763
-516 325 1759
-501 319 1727
-502 323 1748
-498 324 1756
-494 324 1760
-495 329 1784
-492 330 1793
-481 327 1775
-475 326 1772
-473 328 1787
-464 325 1773
-461 327 1784
-458 328 1791
-453 329 1795
-445 326 1784
-442 328 1794
-429 323 1765
-426 324 1776
-424 327 1790
-421 329 1802
-408 323 1770
-402 321 1765
-397 322 1770
-387 318 1749
-377 314 1729
-375 317 1743
-372 319 1754
-367 319 1756
-361 318 1751
-355 317 1749
-350 317 1749
-348 320 1765
-342 319 1765
-335 317 1755
-332 319 1765
-325 317 1755
-321 319 1765
-315 318 1762
-311 319 1770
-303 317 1755
-294 312 1733
-288 311 1725
-278 306 1697
-274 307 1706
-272 310 1721
-263 306 1702
-258 306 1701
-253 306 1702
-250 307 1711
-244 307 1710
-245 314 1748
-237 310 1729
-233 312 1738
-225 308 1718
-222 311 1735
-215 307 1716
-212 311 1734
-208 312 1740
-203 312 1741
-197 311 1738
-192 311 1737
-187 310 1736
-182 310 1737
-177 311 1743
-173 313 1753
-170 318 1779
-163 314 1761
-158 314 1763
-151 310 1735
-148 315 1766
-143 314 1760
-137 312 1751
-127 302 1695
-118 292 1640
-108 277 1556
-101 271 1522
-91 257 1443
-84 249 1399
-77 240 1348
-75 246 1380
-70 244 1369
-67 247 1386
-63 247 1385
-60 249 1398
-56 252 1415
-53 254 1429
-50 260 1461
-47 266 1495
-43 273 1535
-39 273 1539
-37 288 1620
-33 299 1687
-29 302 1700
-25 315 1773
-19 310 1750
-15 313 1765
-9 314 1773
-4 318 1791
0 315 1779
5 314 1772
10 317 1789
15 318 1793
20 313 1766
26 314 1771
31 315 1776
36 319 1800
42 318 1795
47 316 1786
52 316 1783
57 314 1775
62 314 1771
68 317 1789
71 311 1754
78 318 1798
83 318 1796
88 317 1790
93 313 1769
99 316 1784
104 316 1783
109 315 1781
114 314 1775
120 317 1792
124 316 1782
132 320 1808
134 313 1765
141 318 1793
145 316 1784
151 317 1788
159 322 1815
162 318 1795
168 319 1798
172 317 1791
181 324 1830
184 319 1799
191 323 1823
198 325 1833
207 332 1871
211 329 1856
214 326 1836
215 319 1798
221 319 1800
229 323 1821
233 321 1810
238 322 1812
243 321 1809
247 319 1799
254 321 1805
257 318 1793
260 315 1774
268 319 1796
274 319 1795
276 316 1778
279 313 1760
283 312 1756
291 315 1773
300 319 1791
301 315 1769
309 317 1783
318 321 1804
315 313 1757
324 317 1777
331 318 1783
333 315 1768
340 317 1776
345 316 1773
350 316 1774
359 320 1791
364 319 1789
372 321 1798
379 323 1805
381 320 1792
387 321 1794
395 323 1806
399 322 1799
407 324 1808
406 319 1780
412 319 1779
424 325 1812
430 324 1810
438 327 1822
441 324 1808
442 322 1792
450 324 1802
460 327 1819
464 326 1812
475 329 1831
472 324 1799
480 326 1809
482 323 1795
493 327 1812
495 325 1801
503 326 1810
512 329 1821
518 329 1819
521 327 1810
527 327 1810
537 330 1826
542 330 1824
544 328 1811
548 327 1803
558 330 1818
566 331 1824
574 332 1829
569 327 1797
579 329 1810
591 333 1829
593 330 1815
600 331 1819
614 336 1842
608 330 1808
619 333 1822
620 330 1806
637 336 1840
641 335 1833
649 337 1839
677 348 1898
695 354 1932
702 355 1934
704 353 1921
703 349 1900
704 347 1885
704 344 1867
707 342 1858
723 347 1883
728 347 1879
734 347 1879
740 347 1876
735 342 1848
742 343 1849
748 343 1849
757 344 1854
767 346 1862
766 343 1844
765 340 1826
745 329 1763
724 317 1698
696 303 1619
630 272 1452
618 265 1411
674 287 1528
727 307 1634
762 320 1701
790 329 1750
806 333 1769
805 330 1753
814 332 1758
819 332 1756
820 330 1743
826 330 1743
836 331 1748
837 330 1737
833 326 1714
827 321 1689
822 317 1666
820 314 1648
821 313 1639
817 309 1617
820 309 1611
817 305 1592
820 305 1587
819 302 1572
823 302 1567
825 301 1560
821 298 1541
821 296 1529
822 294 1519
817 291 1499
798 282 1451
807 284 1458
821 287 1472
827 287 1471
828 286 1462
825 283 1446
-491 177 844
-478 173 828
-470 171 820
-498 182 875
-469 173 830
-476 176 848
-477 178 858
-488 183 883
-478 180 873
-496 188 911
-481 183 890
-476 182 889
-481 185 905
-476 185 903
-496 193 947
-485 190 933
-501 198 971
-496 197 969
-492 196 968
-497 199 985
-479 194 958
-487 198 982
-496 203 1008
-491 202 1006
-499 207 1030
-519 216 1080
-496 208 1040
-487 206 1030
-514 218 1094
-507 217 1088
-504 217 1091
-508 220 1109
-535 234 1178
-548 241 1215
-565 250 1263
-559 249 1260
-536 240 1219
-496 224 1137
-496 226 1146
-497 228 1158
-499 231 1175
-517 240 1225
-543 254 1298
-563 265 1359
-581 276 1414
-613 293 1504
-656 316 1624
-678 329 1694
-680 332 1713
-675 332 1714
-673 333 1724
-670 335 1732
-659 332 1720
-647 329 1704
-644 329 1711
-639 330 1714
-636 331 1720
-625 328 1706
-616 326 1699
-618 330 1721
-607 326 1705
-599 325 1699
-596 326 1706
-588 324 1699
-583 324 1701
-581 326 1712
-574 325 1710
-569 325 1711
-564 325 1714
-562 327 1725
-553 325 1714
-551 326 1724
-543 325 1718
-534 322 1705
-530 323 1711
-527 325 1720
-519 323 1713
-518 325 1726
-511 324 1720
-510 327 1739
-504 326 1736
-502 329 1750
-487 322 1714
-488 326 1740
-484 326 1743
-487 332 1773
-479 331 1767
-478 333 1782
-470 331 1774
-460 328 1758
-461 332 1782
-452 330 1771
-447 330 1770
-444 331 1781
-435 329 1768
-432 330 1775
-424 328 1766
-416 326 1758
-412 327 1764
-406 326 1758
-396 322 1739
-392 323 1744
-385 322 1740
-380 322 1740
-379 326 1762
-368 320 1733
-364 321 1740
-358 320 1736
-353 320 1737
-346 319 1731
-342 320 1736
-338 320 1741
-332 320 1738
-328 321 1745
-322 320 1743
-313 316 1722
-314 322 1757
-307 321 1747
-299 318 1731
-291 315 1716
-285 312 1705
-273 305 1666
-271 308 1683
-265 307 1678
-261 309 1687
-256 308 1685
-251 308 1684
-246 308 1684
-244 312 1706
-238 311 1702
-235 313 1715
-229 312 1709
-226 314 1721
-218 310 1700
-213 310 1703
-209 311 1710
-205 313 1720
-200 313 1718
-194 312 1714
-192 315 1735
-185 314 1726
-181 314 1728
-175 313 1721
-170 313 1723
-164 311 1714
-161 315 1734
-157 317 1748
-150 313 1725
-145 312 1721
-140 313 1726
-135 313 1726
-126 303 1670
-118 296 1632
-107 280 1544
-99 270 1492
-89 256 1414
-82 248 1370
-76 243 1338
-73 244 1349
-71 249 1377
-66 247 1364
-62 247 1366
-58 248 1368
-56 253 1400
-52 254 1403
-49 258 1429
-45 264 1460
-43 275 1524
-38 274 1518
-36 288 1597
-33 298 1650
-29 305 1692
-24 314 1740
-20 317 1759
-14 318 1765
-9 318 1762
-4 317 1757
0 314 1740
5 314 1741
10 316 1753
15 318 1767
20 318 1764
26 317 1759
31 318 1762
36 317 1759
41 316 1752
46 318 1766
51 316 1752
56 317 1758
61 316 1757
66 317 1757
72 317 1761
76 316 1752
82 318 1767
87 316 1752
92 316 1754
97 315 1750
101 314 1742
109 320 1779
112 315 1752
116 312 1734
125 323 1791
129 320 1776
133 315 1751
