VERSION 0.7
FIELDS x y z
SIZE 4 4 4
TYPE I I I
COUNT 1 1 1
WIDTH 4013
HEIGHT 1
VIEWPOINT 0.0 0.0 0.0 1.0 0.0 0.0 0.0
POINTS 4013
DATA ascii
190 118 414
187 115 403
195 120 420
204 124 435
183 111 386
218 131 458
209 125 435
190 113 392
203 120 415
186 108 375
202 117 406
210 121 419
201 115 397
201 114 394
199 113 388
186 104 358
204 114 391
190 105 360
216 119 408
197 108 369
205 112 382
211 114 388
213 115 390
222 119 403
213 113 383
225 119 403
238 125 423
212 111 374
208 108 363
243 125 422
217 111 373
229 117 392
262 133 446
244 123 412
-2419 1247 4074
-2451 1270 4158
-2395 1248 4095
-2334 1223 4019
-2345 1236 4070
-57 33 100
-740 396 1303
-749 404 1329
-703 381 1257
-764 416 1377
-699 384 1271
-651 359 1191
-681 378 1257
-665 372 1236
-611 344 1145
-614 348 1159
-594 338 1130
-467 268 895
-330 192 638
-203 120 395
-147 88 290
-113 69 225
-94 58 189
-92 57 186
-82 52 167
-77 49 159
-77 50 160
-81 52 170
-89 57 187
-107 69 227
-246 155 523
-443 279 951
-506 320 1094
-539 343 1175
-585 374 1285
-595 383 1318
-594 386 1328
-595 389 1341
-588 387 1336
-590 391 1353
-591 395 1367
-590 397 1376
-584 396 1374
-584 398 1385
-578 397 1383
-575 398 1387
-568 397 1384
-568 399 1396
-563 399 1397
-559 399 1397
-562 405 1419
-549 398 1399
-544 398 1398
-544 401 1410
-544 404 1422
-535 401 1412
-532 402 1419
-526 401 1416
-524 402 1423
-520 403 1427
-512 400 1418
-511 402 1428
-506 402 1428
-507 406 1444
-503 407 1447
-495 404 1438
-496 408 1454
-493 409 1462
-488 409 1462
-486 411 1471
-479 409 1464
-476 410 1469
-470 409 1467
-468 411 1475
-465 412 1481
-459 411 1478
-455 411 1480
-451 411 1482
-442 407 1469
-443 413 1491
-438 412 1488
-431 410 1481
-428 411 1489
-425 413 1494
-420 412 1494
-418 415 1505
-413 414 1503
-408 413 1502
-406 417 1515
-403 418 1521
-396 415 1511
-395 419 1526
-392 421 1534
-383 416 1519
-382 419 1531
-376 419 1530
-375 422 1543
-368 420 1537
-365 422 1545
-361 422 1546
-357 423 1551
-350 420 1542
-346 421 1545
-341 420 1542
-336 420 1543
-334 423 1556
-325 418 1539
-322 420 1545
-315 417 1534
-306 411 1515
-299 407 1500
-281 390 1437
-252 355 1308
-227 325 1199
-153 225 827
-145 217 798
-144 219 806
-139 215 790
-130 204 751
-130 208 766
-128 208 767
-124 205 755
-123 208 767
-114 197 725
-110 193 712
-112 200 739
-109 199 735
-108 200 740
-99 189 696
-99 192 711
-92 183 678
-92 186 689
-84 174 644
-82 174 644
-81 176 652
-76 170 629
-72 166 613
-65 155 574
-64 155 573
-58 145 537
-59 153 566
-56 150 554
-53 145 536
-53 150 553
-51 149 553
-51 154 571
-46 143 527
-37 121 445
-34 117 430
-32 112 414
-30 111 407
-27 106 392
-25 104 383
-24 104 384
-23 102 375
-20 96 354
-19 97 358
-16 89 327
-16 94 345
-13 84 308
-14 90 331
-13 92 337
-12 93 342
-11 90 332
-9 87 321
-9 92 337
-8 88 325
-7 89 326
-5 86 314
-5 90 330
-4 92 337
-3 92 339
-2 89 328
-1 92 338
0 92 338
0 92 340
1 91 334
2 89 329
3 91 335
4 90 332
5 91 334
6 88 324
7 87 319
8 90 333
9 88 322
10 92 338
11 89 326
12 91 336
13 93 344
15 99 365
16 94 348
17 95 349
18 96 356
19 98 360
20 97 357
22 99 367
20 84 309
22 92 337
23 89 328
23 86 317
26 95 352
27 93 342
28 95 350
31 102 376
33 102 378
36 108 401
37 110 408
39 111 410
48 135 502
47 127 472
48 125 464
52 134 498
47 117 431
53 129 476
50 118 437
41 94 345
56 126 467
56 122 450
57 122 452
62 129 476
61 124 460
63 125 461
64 125 460
72 137 507
65 121 446
69 126 467
69 124 459
70 123 455
75 129 477
72 122 449
77 127 469
73 118 436
77 122 452
77 121 445
73 112 412
77 117 432
79 117 430
79 115 423
80 115 424
79 112 412
80 112 411
81 112 410
84 113 415
83 110 405
80 105 385
86 111 406
85 109 399
86 108 394
83 102 373
76 92 336
89 107 390
104 124 454
101 119 433
97 112 410
98 113 411
103 117 426
101 112 410
99 110 399
102 112 406
103 111 402
103 109 397
102 107 389
107 111 404
110 113 410
108 110 399
107 108 391
103 103 371
106 104 375
107 103 373
109 104 376
109 104 375
94 88 317
80 74 263
74 68 240
61 55 192
70 63 223
80 71 254
69 61 215
61 53 184
76 65 231
78 67 235
55 46 161
60 50 173
30 24 78
53 44 150
46 37 127
44 35 118
46 37 124
45 35 120
54 42 145
60 47 161
49 37 126
70 53 185
118 90 316
121 91 323
123 92 326
140 104 369
157 116 409
157 115 405
163 118 419
165 119 421
162 116 409
162 115 406
161 114 400
164 114 402
168 116 409
172 118 416
156 106 372
197 133 469
177 119 416
167 111 388
185 123 428
178 117 407
192 125 437
190 123 427
204 131 458
190 121 421
184 116 403
194 122 423
198 123 427
198 123 425
183 112 388
177 108 371
204 124 426
211 127 439
195 117 401
214 127 437
201 119 407
204 120 409
200 117 399
193 112 380
226 130 444
205 117 399
199 113 385
207 117 397
214 120 407
224 125 423
213 118 398
212 117 393
212 116 390
214 116 391
218 118 395
206 111 370
224 120 401
232 123 411
225 119 397
242 127 423
222 116 384
247 128 426
245 126 419
234 120 397
242 123 409
-2415 1259 4064
-2458 1288 4167
-2386 1257 4076
-2359 1250 4059
-2372 1264 4112
-34 21 60
-493 268 868
-620 338 1100
-692 379 1236
-687 379 1237
-656 364 1190
-673 376 1232
-649 365 1197
-642 363 1192
-631 359 1180
-629 360 1187
-550 317 1045
-503 292 963
-322 189 623
-212 127 414
-142 86 278
-109 67 217
-97 60 193
-89 56 179
-80 51 162
-81 52 166
-77 50 159
-79 52 166
-89 58 188
-96 62 203
-187 120 399
-415 264 889
-487 311 1052
-530 341 1154
-581 376 1277
-596 388 1320
-598 392 1336
-595 393 1341
-588 391 1336
-591 396 1354
-598 403 1381
-586 399 1366
-590 404 1386
-582 401 1379
-579 403 1385
-574 402 1385
-571 403 1389
-570 406 1400
-566 405 1401
-560 404 1400
-554 404 1398
-550 403 1399
-548 405 1408
-544 406 1410
-538 404 1407
-533 403 1406
-533 407 1419
-533 410 1432
-525 408 1425
-519 406 1423
-519 410 1436
-511 407 1426
-514 412 1448
-500 405 1425
-502 411 1445
-496 409 1439
-488 406 1433
-490 411 1452
-483 409 1445
-479 410 1449
-477 412 1456
-469 409 1447
-465 409 1448
-469 417 1479
-462 414 1470
-462 418 1486
-456 417 1482
-449 414 1475
-449 418 1491
-442 417 1486
-437 416 1485
-434 417 1490
-431 418 1496
-423 416 1488
-423 420 1505
-416 417 1494
-411 417 1497
-408 419 1503
-405 420 1509
-399 419 1505
-398 422 1519
-392 421 1515
-392 426 1534
-383 420 1516
-380 422 1523
-377 425 1534
-368 419 1515
-364 420 1518
-361 422 1527
-355 420 1522
-354 424 1537
-344 417 1513
-336 413 1498
-331 413 1499
-323 409 1484
-314 403 1463
-314 408 1485
-308 406 1476
-293 393 1429
-283 384 1398
-269 371 1353
-250 351 1279
-235 335 1221
-217 314 1144
-162 239 870
-148 224 813
-144 221 802
-130 203 738
-125 198 721
-131 212 770
-125 206 748
-120 202 734
-118 201 732
-112 196 714
-108 191 696
-97 177 643
-99 183 666
-98 185 676
-97 187 681
-83 165 602
-82 166 603
-73 151 549
-73 156 567
-71 155 565
-69 153 558
-63 145 527
-63 149 542
-57 139 506
-58 143 520
-57 144 527
-54 141 514
-51 137 499
-50 138 505
-51 146 532
-49 145 530
-48 147 537
-44 139 509
-39 129 472
-35 120 437
-31 113 412
-29 110 401
-28 110 402
-27 109 397
-24 105 384
-23 104 380
-20 96 349
-18 94 340
-17 93 339
-15 88 318
-14 90 326
-14 91 329
-12 88 318
-12 91 331
-10 88 321
-10 91 332
-8 88 318
-8 92 335
-7 90 328
-6 91 332
-5 90 326
-4 90 327
-3 92 334
-2 91 332
-1 93 339
0 90 326
0 89 324
1 92 333
2 91 332
3 91 333
4 93 338
5 94 343
6 91 333
7 92 334
8 87 317
9 87 316
10 87 315
11 90 329
12 92 336
14 96 349
15 95 345
16 95 344
16 93 338
17 93 340
19 97 353
21 99 363
21 97 353
21 91 332
22 93 338
24 93 340
22 84 307
25 91 331
28 98 357
29 98 356
30 98 359
33 103 377
34 104 381
37 110 402
37 107 389
44 125 457
48 130 477
45 119 437
47 121 444
48 119 437
54 132 482
49 117 427
50 115 422
51 115 421
49 108 394
61 131 478
61 128 468
59 121 441
58 117 426
65 128 468
64 123 448
65 122 447
72 134 489
68 123 447
72 127 465
70 122 446
71 122 444
76 127 464
75 124 452
72 116 423
76 120 436
76 119 433
75 115 418
80 121 441
80 118 428
79 115 416
79 113 411
82 116 421
82 114 415
80 110 397
85 115 418
86 114 412
83 109 395
84 108 391
86 110 397
87 109 392
88 109 394
82 100 359
90 108 389
94 111 401
100 117 423
98 114 410
101 116 417
100 113 408
102 114 411
102 112 403
101 110 395
103 111 398
107 114 408
106 112 401
105 109 391
106 109 391
107 108 387
109 110 393
104 104 370
112 110 391
100 97 345
88 84 299
76 72 254
71 66 233
36 33 111
70 64 224
59 53 184
53 48 164
59 53 182
60 53 183
57 50 171
64 55 192
41 34 115
45 37 126
49 40 137
45 37 125
46 38 128
44 35 119
42 33 112
47 37 125
60 48 163
63 50 169
56 43 147
89 69 238
115 89 309
131 100 351
141 107 373
146 110 385
159 118 414
174 129 450
146 108 375
153 112 389
157 113 395
154 111 385
175 124 433
165 116 404
159 111 386
174 121 418
169 117 405
178 122 423
181 123 425
172 116 401
172 115 397
172 114 392
180 119 409
183 120 412
187 121 416
184 119 408
176 112 385
191 121 416
168 106 361
173 109 370
174 108 367
191 118 403
206 127 432
217 132 451
201 122 414
197 119 402
200 120 405
193 115 388
189 111 376
164 96 321
192 112 377
193 112 374
206 118 398
208 118 397
218 124 414
210 118 396
245 137 460
218 121 405
220 122 405
222 122 407
224 122 406
224 122 403
229 124 409
216 116 383
195 104 342
212 112 370
201 106 348
222 116 381
231 121 395
234 121 396
228 118 384
-2416 1273 4063
-2461 1304 4168
-2439 1299 4162
-2380 1275 4092
-2352 1267 4075
-2435 1319 4250
-406 224 714
-524 289 929
-541 301 967
-594 332 1069
-637 357 1155
-550 311 1005
-574 326 1056
-551 315 1023
-543 313 1016
-572 331 1077
-554 323 1052
-469 276 899
-314 187 607
-183 110 356
-130 80 256
-105 65 207
-91 57 181
-85 54 171
-84 54 170
-73 48 150
-75 49 156
-82 54 170
-90 59 189
-97 64 205
-162 105 345
-367 237 787
-460 297 993
-488 317 1062
-574 376 1260
-592 390 1311
-604 401 1348
-601 402 1354
-593 399 1346
-587 398 1345
-589 402 1360
-589 405 1371
-588 407 1380
-584 407 1382
-578 406 1381
-574 407 1384
-569 406 1384
-566 407 1387
-560 405 1385
-560 409 1399
-555 409 1399
-550 408 1397
-547 409 1403
-542 408 1402
-537 408 1404
-535 410 1411
-536 414 1426
-526 409 1412
-525 412 1424
-521 413 1427
-517 412 1428
-516 416 1441
-510 414 1437
-510 418 1451
-501 414 1440
-494 412 1434
-492 414 1443
-490 416 1450
-482 413 1443
-479 414 1448
-476 415 1453
-478 421 1473
-470 418 1464
-462 414 1453
-464 421 1477
-460 421 1480
-452 418 1469
-451 421 1481
-451 425 1498
-441 420 1480
-440 424 1495
-435 422 1492
-428 421 1487
-426 423 1496
-423 424 1502
-418 424 1501
-410 420 1490
-406 421 1496
-405 425 1509
-399 423 1505
-394 423 1504
-388 421 1499
-385 422 1504
-380 422 1503
-370 416 1484
-367 417 1489
-359 414 1477
-354 412 1474
-349 412 1475
-338 405 1449
-327 396 1417
-322 396 1417
-312 389 1393
-299 378 1354
-298 381 1366
-297 385 1382
-294 387 1390
-290 387 1391
-292 395 1419
-283 389 1401
-282 393 1414
-261 370 1333
-233 335 1208
-204 300 1078
-167 250 899
-144 220 792
-128 199 713
-132 208 747
-120 193 692
-117 192 690
-113 189 681
-106 180 648
-96 167 600
-91 161 579
-89 161 577
-84 155 557
-84 159 570
-83 159 571
-81 159 573
-74 149 534
-76 157 564
-67 142 512
-67 144 518
-66 145 521
-63 143 515
-60 139 501
-57 136 490
-58 141 506
-59 146 528
-55 141 509
-54 142 512
-51 140 504
-50 142 511
-47 137 495
-48 142 513
-47 146 527
-41 133 481
-35 117 422
-35 122 440
-35 127 457
-30 114 410
-28 111 399
-27 111 400
-24 107 384
-22 103 371
-21 101 362
-19 96 345
-18 98 351
-15 90 324
-15 91 327
-15 97 348
-12 89 319
-12 93 334
-10 90 324
-10 93 334
-9 91 328
-8 92 329
-7 90 325
-6 92 330
-5 91 325
-4 92 329
-3 92 330
-2 91 326
-1 90 325
0 93 334
0 94 337
1 87 311
2 90 323
3 90 325
4 93 334
5 92 331
6 86 308
7 93 333
8 91 329
9 91 328
10 90 325
11 88 317
13 100 359
13 94 337
14 91 329
16 96 347
16 95 340
17 90 324
19 98 354
20 95 343
21 98 355
22 98 352
21 88 318
21 83 296
24 92 331
26 95 343
27 98 353
27 94 337
30 101 363
33 105 378
35 108 388
37 110 398
39 113 406
44 124 450
47 131 475
48 128 462
49 128 465
50 126 458
50 122 442
52 124 447
52 121 436
51 117 422
49 109 392
50 109 392
53 112 405
61 127 458
64 130 468
68 136 492
66 128 462
66 126 455
70 131 474
64 116 419
74 133 479
69 120 433
69 118 425
71 120 433
69 114 410
74 120 433
73 116 418
71 112 402
77 120 431
77 116 418
78 117 419
79 116 416
79 115 412
82 116 417
84 118 423
84 116 417
83 113 406
84 112 401
86 114 408
88 114 409
87 112 400
85 108 386
86 108 384
85 105 373
89 109 387
87 105 373
104 123 440
97 114 406
98 113 402
102 117 417
104 117 416
101 113 400
99 109 387
104 114 403
104 112 396
101 107 380
104 109 387
109 113 400
105 107 380
111 113 398
102 102 361
90 89 313
80 78 272
70 68 235
67 64 221
73 69 241
54 50 171
56 52 176
56 51 175
45 40 135
61 54 187
53 47 160
43 37 124
49 42 142
39 33 111
55 47 157
44 37 123
49 41 138
46 38 126
41 33 110
70 57 194
75 60 206
76 61 207
82 65 224
75 59 200
103 81 278
145 113 391
143 110 382
146 112 387
150 114 395
153 115 399
164 123 426
143 106 366
163 120 415
169 124 427
159 115 397
165 119 409
155 110 378
165 117 401
152 106 364
162 113 387
168 116 396
170 117 398
165 112 382
165 112 380
186 125 426
179 119 406
177 117 397
179 118 400
183 119 405
183 118 400
193 124 420
186 119 402
182 116 390
195 123 414
217 136 459
194 121 406
194 120 403
193 118 397
192 117 392
183 111 369
208 125 418
206 123 411
207 123 409
185 109 361
214 125 416
194 113 373
204 118 390
211 121 400
211 120 397
209 118 390
198 111 365
236 132 434
214 119 391
214 118 387
230 126 414
211 115 376
245 133 435
231 124 406
227 122 396
232 124 403
239 127 411
222 117 379
225 118 380
221 115 370
-2410 1283 4049
-2456 1315 4156
-2441 1315 4163
-2402 1301 4127
-2382 1297 4123
-2420 1326 4221
-154 87 270
0 0 0
-439 247 783
-467 264 840
-553 314 1003
-473 271 863
-532 306 979
-487 282 903
-507 295 948
-494 289 930
-500 295 950
-447 265 855
-288 173 556
-179 109 348
-124 77 243
-97 62 193
-90 58 180
-79 51 159
-78 51 159
-72 47 147
-74 49 154
-77 52 161
-87 58 182
-96 64 204
-145 96 310
-329 214 704
-428 280 923
-470 309 1022
-563 373 1235
-595 396 1316
-600 402 1337
-598 404 1344
-592 403 1342
-587 402 1343
-595 410 1373
-586 407 1362
-584 409 1370
-585 413 1385
-583 414 1392
-576 412 1388
-569 410 1382
-569 413 1395
-562 412 1391
-555 410 1385
-555 413 1397
-552 413 1401
-548 414 1405
-542 413 1403
-540 414 1410
-538 417 1419
-530 413 1409
-526 414 1413
-520 412 1409
-522 417 1428
-515 415 1422
-512 417 1428
-511 420 1440
-504 417 1432
-499 417 1434
-494 417 1434
-494 420 1447
-488 419 1443
-485 420 1449
-486 424 1466
-477 421 1456
-474 422 1460
-469 422 1461
-467 423 1468
-464 425 1474
-462 428 1486
-458 427 1486
-446 421 1465
-446 425 1481
-444 428 1491
-438 426 1486
-437 429 1498
-428 425 1486
-423 424 1484
-417 423 1481
-413 424 1485
-410 425 1489
-402 422 1480
-395 419 1472
-385 413 1451
-383 415 1459
-378 415 1459
-369 409 1441
-364 409 1442
-349 397 1401
-346 398 1406
-343 399 1410
-329 389 1373
-322 385 1359
-325 393 1391
-316 388 1372
-313 389 1376
-314 395 1400
-310 395 1400
-305 395 1400
-302 395 1404
-295 392 1392
-282 381 1354
-256 351 1247
-214 299 1062
-184 262 928
-154 223 791
-127 187 663
-120 180 636
-122 186 657
-117 182 646
-111 175 620
-92 148 524
-93 153 543
-91 152 537
-90 154 546
-87 150 532
-85 150 530
-78 141 499
-82 150 534
-78 146 518
-76 145 516
-72 142 503
-73 147 521
-69 141 501
-66 139 493
-60 128 453
-66 144 513
-64 143 508
-63 145 516
-59 139 496
-60 144 511
-57 141 500
-55 140 500
-53 138 493
-51 137 487
-49 136 484
-50 143 508
-48 140 499
-48 144 515
-44 138 491
-42 136 487
-39 132 471
-33 117 418
-38 137 491
-30 114 404
-28 111 396
-26 110 391
-24 107 380
-22 104 370
-22 106 378
-19 97 346
-17 94 335
-16 97 343
-15 94 334
-13 88 312
-12 89 317
-12 94 332
-11 93 329
-9 90 321
-9 95 337
-7 88 314
-6 90 319
-6 91 323
-4 87 310
-4 91 321
-3 94 334
-2 93 329
-1 95 337
0 94 335
0 93 332
1 91 324
2 91 324
3 97 344
4 95 336
5 90 322
6 93 329
7 92 329
8 88 313
9 92 326
10 92 328
12 101 359
13 107 381
11 77 273
14 93 329
16 97 346
16 95 339
18 96 343
18 92 329
20 100 357
21 97 344
22 98 347
22 92 328
24 97 346
23 88 313
26 97 347
27 98 348
28 96 342
30 100 358
31 99 353
34 107 382
36 109 388
39 115 412
46 133 476
44 122 435
47 128 458
48 127 454
50 129 461
48 118 422
50 120 428
54 128 456
52 120 430
50 111 396
43 93 331
60 128 459
59 123 439
62 126 451
62 125 446
61 120 429
66 127 453
64 120 427
64 118 420
71 130 462
66 118 419
72 126 450
67 113 403
76 128 455
71 116 413
74 119 425
77 123 438
78 122 435
81 125 443
83 126 448
79 118 418
84 123 436
82 118 418
85 121 429
85 119 422
84 116 410
85 116 410
86 115 408
88 115 408
88 114 402
87 112 394
89 112 396
90 113 397
102 126 444
93 113 399
70 84 293
87 103 363
95 112 392
112 129 456
101 115 404
102 115 404
102 113 398
105 116 406
105 114 402
106 113 397
104 111 387
103 108 379
112 116 406
96 98 342
85 86 297
73 73 252
70 69 237
62 60 205
77 74 256
48 46 153
64 61 207
51 47 159
55 50 170
44 40 133
51 46 155
46 41 137
49 44 146
46 40 131
46 39 131
45 38 126
52 44 148
43 36 117
75 63 213
77 64 218
96 80 272
85 70 237
88 72 243
62 49 165
86 68 231
105 83 283
121 95 325
136 106 362
141 109 372
156 120 412
153 116 398
161 122 418
166 124 425
152 113 386
143 106 359
141 103 349
134 97 329
154 111 376
151 108 366
162 115 389
157 111 374
164 115 388
160 111 375
160 110 371
192 131 444
183 124 419
166 112 376
181 121 407
200 132 445
196 129 433
185 121 405
183 119 397
167 108 359
189 121 403
194 123 411
191 121 402
191 120 398
187 116 385
181 112 371
214 132 437
194 118 391
193 117 387
209 126 415
194 116 381
206 123 403
197 116 381
191 112 367
214 125 410
216 125 410
203 117 381
226 129 423
220 125 407
193 109 354
212 119 387
195 109 351
224 124 403
225 124 402
196 107 345
226 123 398
206 112 358
213 115 367
231 124 397
203 108 345
231 122 390
225 118 377
-2406 1295 4038
-2432 1316 4112
-2426 1320 4133
-2400 1314 4120
-2391 1316 4135
-2396 1326 4174
-63 38 111
-212 122 376
-473 269 844
-416 238 748
-545 313 987
-516 298 941
-474 276 872
-522 305 966
-513 302 957
-513 304 965
-468 279 888
-436 262 833
-299 181 575
-191 118 371
-129 81 253
-98 63 194
-91 59 182
-86 56 173
-82 54 167
-73 49 150
-73 49 152
-78 53 163
-86 58 181
-95 64 200
-144 96 306
-325 214 695
-405 268 873
-454 302 988
-557 373 1221
-588 396 1299
-593 402 1321
-597 407 1342
-595 409 1349
-585 405 1337
-582 406 1341
-586 411 1361
-584 413 1369
-580 413 1371
-581 417 1385
-573 415 1380
-569 415 1381
-564 414 1381
-561 415 1387
-559 417 1393
-560 421 1409
-554 420 1408
-544 415 1394
-544 419 1408
-538 417 1403
-538 421 1416
-533 420 1416
-529 421 1419
-525 421 1422
-518 419 1417
-520 424 1435
-513 422 1431
-505 419 1423
-509 426 1447
-501 423 1437
-499 425 1445
-494 424 1445
-489 424 1447
-484 424 1447
-481 425 1451
-474 422 1444
-475 427 1463
-468 425 1457
-466 428 1467
-460 426 1461
-457 427 1467
-452 427 1468
-444 423 1456
-441 425 1464
-432 420 1449
-432 424 1464
-429 426 1472
-415 417 1440
-410 416 1439
-402 413 1428
-401 416 1440
-389 407 1412
-379 402 1395
-370 397 1378
-360 390 1356
-357 391 1360
-349 388 1348
-348 391 1360
-347 394 1373
-346 398 1387
-339 395 1377
-343 404 1410
-335 399 1394
-333 402 1405
-324 396 1386
-314 389 1363
-295 371 1297
-259 331 1157
-221 286 1001
-192 252 882
-167 224 781
-146 199 695
-130 180 626
-118 167 582
-102 147 510
-103 151 525
-108 160 559
-95 143 499
-96 147 513
-92 143 499
-85 135 470
-90 145 507
-90 147 514
-84 140 489
-83 141 491
-78 135 471
-77 136 476
-73 131 457
-72 132 462
-74 137 481
-68 129 452
-70 136 478
-72 142 499
-70 142 497
-66 136 476
-65 138 483
-66 143 503
-64 141 497
-60 136 479
-59 138 485
-59 140 494
-56 138 484
-55 137 483
-53 137 482
-51 135 476
-51 138 485
-50 139 491
-49 140 494
-46 137 483
-45 139 491
-43 138 486
-45 146 515
-38 130 458
-34 122 430
-30 113 396
-32 122 432
-28 113 397
-26 111 391
-25 111 391
-22 104 365
-20 101 356
-19 102 359
-17 97 341
-16 97 340
-15 98 343
-14 98 343
-12 92 321
-12 94 329
-10 91 318
-10 93 326
-8 89 311
-7 91 320
-6 91 319
-5 90 316
-5 92 321
-4 92 323
-3 93 327
-2 93 328
-1 91 321
0 93 326
0 93 327
1 92 325
2 90 315
3 95 335
4 93 325
5 88 308
6 90 316
7 93 328
8 93 326
9 94 331
10 93 326
12 101 356
13 98 346
11 76 266
14 94 330
15 95 335
16 95 335
17 94 330
18 94 332
19 95 333
20 92 323
21 96 337
22 92 323
22 91 318
25 97 343
27 102 359
27 96 339
30 104 367
29 98 344
31 103 362
33 104 368
36 109 385
37 109 384
38 109 383
47 133 472
47 128 451
51 136 482
48 125 442
51 128 453
50 121 429
52 123 435
49 114 402
55 126 445
50 111 392
54 117 413
47 98 343
58 120 423
59 119 420
64 127 449
67 131 462
64 122 430
70 132 464
71 130 457
72 129 456
70 123 434
68 118 413
68 115 405
75 124 438
76 124 438
73 118 413
76 121 424
80 125 439
77 117 412
80 120 422
83 123 431
85 124 436
84 120 421
84 118 413
85 118 413
87 120 420
88 118 414
86 115 401
88 115 403
92 119 415
91 116 405
82 104 361
97 120 419
83 101 352
92 111 386
99 118 412
77 91 314
88 103 356
101 116 404
103 117 405
102 115 397
105 117 405
103 113 392
105 114 394
106 114 395
112 119 413
93 98 337
102 105 363
77 78 267
59 59 199
59 59 197
31 30 95
58 56 190
55 53 176
43 41 134
38 35 114
36 33 108
47 43 141
39 35 115
44 39 129
57 51 170
40 35 113
45 39 129
41 35 115
43 36 118
71 61 205
85 73 244
93 78 264
102 86 290
100 83 281
93 77 258
79 64 214
99 80 270
118 95 321
123 98 332
146 116 391
134 105 356
151 117 397
160 123 417
148 113 381
144 109 367
153 115 388
148 110 370
161 119 402
145 106 357
153 112 374
157 113 379
154 110 369
150 107 357
165 116 388
158 111 370
175 122 407
172 119 396
162 111 368
175 119 395
194 131 435
172 116 383
182 121 402
182 121 399
187 123 406
184 120 395
182 118 388
175 112 369
173 110 362
171 108 355
175 110 361
172 107 351
195 121 396
209 129 423
197 121 393
194 118 385
195 118 383
198 119 387
206 123 400
209 124 401
203 120 387
210 123 397
213 124 401
217 126 405
213 123 395
204 116 373
208 118 378
203 114 365
209 117 375
219 122 390
209 116 368
215 118 377
210 115 365
213 116 368
211 114 362
216 116 367
218 116 367
226 120 378
-2434 1324 4082
-2448 1339 4136
-2432 1338 4139
-2367 1309 4059
-2362 1314 4082
-2363 1322 4114
-63 38 111
-238 137 421
-355 205 633
-387 224 695
-437 254 791
-527 307 960
-473 278 870
-469 277 867
-497 295 927
-530 317 996
-530 319 1004
-460 279 879
-326 200 628
-206 128 401
-129 82 252
-104 67 205
-92 60 183
-84 56 170
-79 53 161
-72 48 147
-70 48 146
-77 53 161
-86 58 180
-97 66 204
-137 93 292
-299 199 639
-396 265 854
-452 304 982
-531 359 1162
-584 398 1290
-595 407 1324
-600 414 1347
-594 413 1345
-587 411 1341
-585 413 1348
-586 416 1362
-586 419 1374
-582 419 1376
-576 418 1373
-575 420 1382
-572 422 1389
-569 423 1393
-562 420 1387
-559 421 1392
-556 422 1397
-550 421 1395
-552 426 1412
-544 423 1405
-539 422 1404
-537 424 1413
-533 425 1415
-530 426 1420
-524 425 1419
-516 422 1411
-516 425 1422
-506 421 1410
-507 425 1426
-504 427 1432
-499 426 1431
-494 425 1430
-486 423 1423
-491 430 1451
-484 428 1445
-478 426 1440
-476 429 1450
-470 428 1448
-461 423 1433
-455 422 1430
-449 420 1425
-444 420 1425
-435 415 1411
-435 419 1426
-422 411 1400
-417 410 1398
-401 399 1359
-397 398 1359
-389 395 1348
-376 386 1318
-385 399 1365
-377 395 1353
-377 400 1370
-371 398 1365
-370 401 1374
-366 401 1377
-362 402 1381
-355 399 1371
-349 396 1363
-345 396 1363
-323 375 1293
-293 345 1188
-246 295 1015
-215 261 898
-191 235 809
-166 208 715
-148 188 647
-131 170 583
-121 159 547
-111 148 509
-110 148 509
-98 134 460
-100 139 477
-97 138 474
-91 132 452
-89 130 446
-92 136 468
-92 138 475
-89 136 468
-86 134 460
-86 137 470
-84 134 462
-83 135 466
-79 131 450
-81 137 473
-80 138 475
-80 140 484
-76 136 470
-77 140 486
-77 142 490
-74 139 483
-70 135 467
-71 140 485
-67 134 463
-67 138 478
-64 134 465
-61 132 457
-63 138 479
-65 145 506
-60 138 479
-60 141 489
-59 143 496
-56 137 477
-52 132 459
-54 139 485
-52 139 484
-50 137 478
-48 136 472
-48 140 489
-48 144 503
-44 136 473
-44 141 493
-44 144 503
-39 135 469
-34 121 422
-29 112 388
-31 123 427
-24 100 347
-26 113 394
-25 113 392
-23 111 385
-21 105 365
-20 105 366
-18 102 353
-16 95 329
-14 94 324
-14 98 341
-12 93 321
-12 96 332
-11 95 330
-9 92 320
-9 94 326
-8 93 325
-7 96 335
-5 91 315
-4 89 309
-3 92 318
-3 91 318
-2 94 328
-1 91 318
0 90 312
0 93 324
1 94 326
2 90 313
3 95 329
4 97 339
5 94 329
6 94 325
7 94 327
8 95 329
9 92 320
10 92 320
11 92 321
11 87 302
13 96 333
14 96 336
15 97 337
16 92 318
17 93 325
18 95 330
19 96 334
19 92 320
21 94 328
23 97 339
22 92 318
24 95 331
26 98 340
26 97 337
28 98 340
29 99 344
31 104 362
33 104 364
36 111 387
36 108 375
39 114 397
45 129 453
46 127 444
49 132 460
51 133 464
50 128 447
54 133 464
52 125 435
52 122 425
56 129 450
54 120 418
56 123 428
52 112 388
52 107 373
58 119 415
62 125 436
64 126 438
65 125 435
64 121 421
67 123 428
69 125 436
69 123 429
73 127 441
73 125 434
70 118 410
74 123 427
75 122 424
75 120 416
78 123 426
84 129 449
80 121 419
81 121 419
81 119 414
84 123 425
83 119 411
87 122 422
85 118 409
90 123 425
88 118 408
90 119 412
88 115 396
90 117 403
89 114 392
88 111 382
92 114 393
84 102 351
85 103 352
97 115 397
83 98 335
94 109 376
97 111 382
100 114 391
106 119 407
101 112 383
106 116 397
99 107 366
102 109 372
97 102 348
101 106 361
82 84 286
61 62 206
74 75 252
39 38 124
42 41 134
48 47 153
46 44 145
50 47 155
40 37 120
50 46 152
49 45 148
53 49 159
53 47 155
38 34 109
46 40 131
57 50 163
74 65 216
95 83 276
104 90 302
100 85 285
118 100 336
113 95 316
86 72 237
94 77 256
120 98 328
131 106 356
136 110 367
147 117 392
149 118 395
159 125 418
143 112 373
142 110 365
145 111 371
157 120 398
160 120 400
153 114 380
160 119 395
140 103 340
161 118 390
159 115 382
164 118 389
156 111 366
174 123 407
179 126 416
181 127 417
187 130 428
177 122 400
181 124 406
180 122 399
176 118 388
174 116 379
172 114 372
171 113 367
170 111 362
162 105 341
169 109 352
176 113 365
173 110 356
179 113 366
180 113 365
173 108 348
199 123 398
194 119 384
195 119 384
194 118 379
201 121 389
206 124 397
186 111 354
206 122 390
195 115 365
207 121 385
213 123 393
207 120 380
208 120 379
209 119 377
214 121 383
208 117 370
218 122 384
206 115 360
219 121 380
211 116 363
227 124 389
203 110 344
220 119 370
226 122 379
-2397 1317 4016
-2426 1341 4095
-2387 1327 4059
-2352 1315 4029
-2353 1323 4062
-2378 1345 4137
-4 5 8
-233 136 411
-246 144 438
-435 254 780
-495 290 894
-485 286 883
-461 274 847
-475 284 879
-512 307 953
-487 295 915
-548 333 1036
-469 287 895
-306 189 588
-190 120 370
-133 85 260
-109 71 216
-90 59 179
-82 55 165
-78 52 158
-71 48 145
-71 49 147
-76 53 159
-81 56 169
-88 61 185
-123 84 262
-287 193 612
-379 256 815
-443 301 962
-523 358 1145
-566 389 1248
-597 413 1329
-591 412 1327
-587 412 1329
-589 417 1345
-581 414 1337
-592 424 1373
-585 422 1369
-585 425 1381
-579 424 1378
-571 422 1373
-570 424 1381
-564 423 1380
-566 428 1397
-553 422 1378
-554 425 1392
-555 429 1406
-551 430 1410
-541 426 1397
-538 426 1401
-535 427 1407
-533 429 1414
-527 428 1412
-527 432 1425
-515 425 1405
-516 429 1421
-509 427 1416
-503 426 1412
-502 429 1423
-491 423 1406
-487 424 1409
-483 424 1412
-471 418 1391
-470 420 1403
-462 417 1392
-459 418 1397
-451 414 1386
-436 405 1356
-427 401 1342
-424 402 1347
-421 402 1350
-413 398 1338
-402 392 1317
-407 401 1349
-406 404 1360
-403 405 1366
-402 409 1379
-398 408 1378
-394 409 1382
-388 407 1376
-384 407 1376
-368 394 1335
-353 383 1296
-320 351 1190
-277 308 1043
-236 266 902
-205 235 794
-180 209 706
-161 189 640
-140 167 565
-133 162 546
-106 131 441
-113 141 477
-114 144 485
-109 140 472
-95 125 420
-95 125 422
-96 129 434
-99 134 452
-99 136 462
-88 123 415
-92 130 440
-84 121 409
-84 123 417
-85 126 426
-83 124 422
-87 132 448
-82 127 431
-89 139 473
-82 130 444
-75 123 418
-83 137 466
-79 133 452
-79 134 458
-77 134 457
-79 140 477
-78 141 483
-76 139 476
-72 135 461
-71 137 467
-72 140 481
-69 137 468
-69 139 477
-67 138 472
-63 134 459
-62 135 462
-62 136 468
-61 137 472
-61 141 483
-60 143 491
-58 141 484
-54 135 463
-53 136 467
-54 141 486
-51 137 472
-51 143 491
-49 141 486
-48 141 487
-44 135 465
-45 141 488
-43 140 484
-41 137 472
-40 139 481
-35 127 439
-32 121 417
-28 110 380
-32 129 445
-27 115 397
-25 115 397
-23 110 378
-22 109 376
-20 105 360
-18 104 358
-17 101 349
-15 97 334
-14 98 337
-13 97 334
-11 94 323
-10 93 318
-9 94 322
-9 95 325
-7 90 309
-7 97 332
-6 94 323
-4 89 305
-4 94 322
-3 93 320
-2 92 316
-1 91 313
0 93 320
0 95 328
1 93 318
2 91 314
3 94 323
4 96 331
5 93 319
6 93 321
7 93 321
8 92 315
9 95 327
8 75 254
11 90 309
11 84 288
14 105 363
14 95 326
15 94 324
16 92 317
17 96 329
18 93 319
19 97 333
20 97 334
21 98 337
22 98 337
25 107 367
25 99 340
27 104 359
26 96 329
29 103 354
29 99 339
29 97 333
33 106 364
34 106 364
36 108 374
38 111 384
49 140 485
44 122 421
50 136 470
49 130 449
50 128 443
49 123 425
50 121 417
54 129 445
53 123 425
58 133 458
55 122 422
49 106 363
56 118 406
54 112 384
59 119 409
64 127 438
67 131 451
66 125 432
68 127 437
70 128 441
69 124 427
72 127 436
70 121 416
75 127 438
73 122 418
73 119 408
75 121 415
77 123 422
77 120 412
79 121 416
82 123 423
81 120 411
83 121 414
86 124 423
84 120 411
85 119 406
89 123 420
87 118 402
87 117 400
90 119 408
87 113 387
92 118 402
96 122 417
95 119 406
96 118 404
85 103 350
98 118 401
93 110 374
99 117 397
97 112 381
111 127 432
93 106 357
106 119 402
108 120 407
98 107 363
93 101 340
91 97 327
88 93 314
86 89 299
80 82 275
75 77 256
70 70 233
54 54 176
58 57 187
41 40 127
44 42 136
39 37 117
43 40 128
52 48 157
47 43 138
40 36 114
59 53 173
60 54 175
83 74 243
89 79 261
114 100 333
99 86 285
111 96 318
118 101 335
93 79 258
94 79 258
100 84 275
123 102 337
128 105 347
132 107 355
135 109 361
140 112 370
132 104 344
149 117 386
149 117 384
148 115 378
137 105 346
147 112 367
169 128 421
155 116 380
153 114 373
147 109 355
172 126 414
163 119 387
188 136 445
193 139 453
178 127 413
176 124 405
173 121 393
173 120 391
170 117 379
167 114 370
166 113 365
165 112 360
147 99 316
169 113 363
191 126 407
201 132 425
183 120 384
178 115 370
178 115 367
185 118 378
198 126 401
190 120 382
185 116 368
193 120 382
184 114 360
201 124 393
202 123 391
194 118 373
211 127 402
191 114 359
194 115 363
205 121 382
199 117 367
209 122 382
204 118 371
202 116 363
208 119 373
207 118 367
196 111 344
219 123 384
220 123 382
210 117 362
198 109 337
219 120 372
221 121 373
219 119 366
-2416 1342 4044
-2392 1336 4033
-2372 1332 4030
-2397 1353 4102
-2373 1348 4092
-2350 1342 4083
-15 12 27
-251 148 444
-325 192 579
-355 210 636
-546 323 985
-485 289 882
-500 300 917
-498 301 921
-514 312 958
-543 331 1019
-537 330 1015
-519 321 990
-373 233 718
-222 141 431
-145 93 283
-104 68 204
-89 60 178
-85 57 171
-77 52 156
-75 51 152
-72 50 149
-75 52 156
-84 59 176
-94 65 198
-110 76 233
-261 178 556
-398 272 856
-443 304 960
-510 352 1115
-574 399 1266
-585 409 1301
-587 413 1315
-583 414 1319
-576 412 1314
-579 417 1332
-579 419 1342
-583 426 1365
-583 429 1375
-573 425 1364
-577 431 1385
-572 430 1385
-561 425 1372
-566 432 1396
-555 427 1381
-551 428 1384
-550 430 1393
-548 431 1400
-538 428 1389
-535 428 1392
-527 426 1386
-524 427 1390
-518 426 1388
-512 424 1384
-502 419 1369
-499 420 1375
-500 424 1389
-487 417 1368
-475 411 1347
-474 413 1357
-466 409 1347
-455 404 1329
-440 394 1298
-441 398 1314
-430 392 1294
-438 404 1334
-441 410 1356
-430 404 1337
-431 408 1352
-424 405 1343
-422 407 1351
-417 407 1352
-409 403 1339
-405 403 1342
-389 391 1302
-367 373 1243
-334 344 1145
-301 313 1044
-262 276 919
-229 244 814
-201 218 724
-180 197 657
-164 182 605
-162 182 606
-127 145 482
-127 147 487
-110 129 427
-114 135 448
-110 133 441
-115 140 465
-99 122 407
-100 125 416
-95 120 400
-93 119 397
-91 119 394
-97 128 426
-86 115 383
-91 124 413
-89 122 409
-93 129 432
-93 131 437
-92 131 439
-86 125 420
-84 124 415
-82 124 414
-82 125 421
-86 133 447
-83 130 436
-86 136 459
-84 136 458
-86 141 475
-80 134 451
-78 132 445
-79 137 461
-75 132 447
-76 135 457
-74 135 457
-74 137 464
-69 131 444
-72 139 471
-68 135 456
-73 145 493
-66 136 462
-66 139 472
-64 136 461
-65 142 482
-61 137 465
-60 137 463
-58 136 463
-59 141 478
-59 145 493
-57 144 489
-52 135 458
-54 143 487
-51 140 476
-50 140 477
-48 138 471
-47 140 476
-45 140 476
-46 145 496
-42 138 469
-42 141 483
-42 148 505
-34 126 429
-33 127 432
-26 107 363
-31 127 432
-29 127 431
-25 116 395
-23 111 377
-21 110 373
-20 107 365
-18 106 360
-17 104 353
-15 101 343
-14 99 337
-12 94 318
-11 91 309
-10 89 303
-9 94 319
-8 92 313
-7 93 315
-7 98 332
-6 96 325
-5 97 329
-3 94 318
-3 95 324
-2 98 334
-1 93 316
0 96 328
0 95 323
1 96 328
2 92 314
3 96 326
4 91 310
5 94 321
6 93 316
7 94 319
8 96 326
8 88 299
10 92 313
10 86 292
11 87 294
12 87 295
14 94 319
15 94 319
16 96 327
17 96 325
18 97 332
18 93 315
20 98 334
21 96 325
23 104 353
24 101 344
24 97 331
26 102 348
27 100 339
28 101 345
29 100 342
29 98 334
32 104 354
34 108 368
35 108 370
37 111 377
43 123 421
42 119 405
47 129 440
50 133 455
50 129 440
50 125 427
51 126 429
52 126 429
53 125 427
54 124 422
57 126 432
60 131 448
56 119 404
49 101 344
46 93 313
60 120 409
61 119 406
68 131 447
70 131 448
71 132 449
71 128 436
73 130 441
71 124 421
73 125 425
73 123 418
76 126 429
71 115 390
76 121 411
77 122 412
82 128 433
81 123 418
83 126 426
80 119 402
80 116 393
84 121 408
86 121 410
86 120 407
86 119 401
87 118 397
92 123 416
89 117 393
92 120 405
93 119 400
93 118 396
97 121 409
95 117 395
94 115 385
87 105 351
91 108 361
98 115 385
94 109 366
80 91 302
90 102 340
97 108 363
96 107 356
96 104 348
78 84 279
76 81 267
85 90 297
70 72 238
65 66 217
64 65 211
45 45 144
49 49 157
41 40 127
43 42 133
49 47 149
41 39 123
51 48 153
41 38 120
51 47 149
75 69 224
80 73 237
90 81 266
97 87 284
117 105 344
124 109 359
109 95 312
101 88 286
93 79 258
107 91 296
133 113 369
136 114 373
126 105 342
151 125 409
146 119 390
149 121 394
148 119 387
146 116 379
156 123 401
141 110 358
130 101 328
138 107 345
143 109 354
162 123 398
157 118 383
159 119 384
161 119 386
165 121 392
160 117 377
158 114 369
160 115 370
157 112 358
159 112 360
158 111 356
161 112 359
162 112 359
160 110 351
169 116 369
174 118 377
168 113 359
170 114 362
171 113 360
172 113 359
174 114 360
176 114 361
176 114 359
188 121 381
183 116 367
187 118 373
188 118 371
191 119 375
197 122 384
187 115 361
188 115 360
198 120 376
196 118 369
196 118 367
204 122 379
190 113 349
207 122 378
197 115 357
190 111 341
210 121 375
210 121 372
206 118 363
222 126 388
209 118 362
211 119 363
205 115 350
221 123 374
200 111 336
217 119 362
-2349 1318 3928
-2367 1336 3988
-2375 1347 4031
-2376 1356 4063
-2376 1363 4093
-2404 1387 4173
-7 7 13
-164 98 289
-409 243 727
-432 257 773
-597 357 1076
-538 324 978
-555 336 1017
-559 341 1033
-595 365 1108
-603 372 1131
-571 354 1079
-552 345 1051
-418 263 802
-260 166 503
-156 101 304
-108 72 213
-93 62 185
-84 57 169
-81 56 164
-75 52 153
-73 51 150
-71 50 148
-82 57 171
-91 64 193
-110 77 233
-240 166 512
-345 238 741
-364 253 790
-401 280 876
-467 328 1029
-499 353 1109
-495 353 1110
-507 364 1145
-484 350 1103
-488 355 1121
-515 378 1194
-531 392 1242
-538 400 1267
-543 407 1291
-547 413 1313
-548 417 1327
-550 421 1343
-545 420 1342
-547 425 1360
-541 424 1358
-538 425 1361
-524 417 1337
-523 420 1348
-517 418 1344
-507 414 1331
-501 412 1328
-492 408 1315
-489 409 1320
-483 408 1318
-480 408 1321
-477 410 1327
-469 406 1316
-466 407 1322
-464 409 1328
-456 405 1317
-451 405 1317
-451 408 1330
-446 407 1328
-437 403 1315
-436 406 1327
-423 398 1300
-404 383 1254
-373 358 1171
-333 323 1056
-291 285 934
-253 251 823
-221 222 725
-193 196 641
-170 175 572
-153 160 522
-151 159 519
-138 148 482
-142 153 501
-135 148 482
-120 133 435
-116 130 426
-112 127 415
-107 123 401
-103 120 392
-104 123 401
-104 124 406
-102 123 403
-98 120 392
-95 117 383
-99 124 408
-102 128 422
-99 127 419
-90 118 387
-96 127 417
-92 123 406
-90 122 402
-88 120 396
-94 130 430
-88 123 408
-90 128 423
-88 127 420
-86 126 416
-89 132 438
-82 124 412
-79 122 403
-78 122 405
-81 128 424
-80 129 430
-76 125 415
-80 134 445
-75 126 420
-82 141 469
-78 136 453
-75 133 444
-74 134 449
-73 135 453
-73 138 460
-68 131 438
-67 132 441
-70 139 466
-66 133 446
-65 135 451
-63 133 446
-64 139 467
-61 136 456
-60 137 459
-62 144 485
-58 137 460
-55 134 452
-55 138 462
-55 139 469
-52 137 461
-49 132 444
-49 135 454
-47 134 452
-47 138 464
-46 137 463
-44 136 460
-45 143 484
-40 134 452
-42 143 483
-38 136 459
-36 135 454
-33 128 431
-27 111 373
-22 97 326
-25 112 378
-23 106 357
-23 114 384
-22 113 381
-21 112 377
-19 108 364
-17 105 353
-16 108 363
-15 104 350
-13 98 330
-11 93 312
-10 91 304
-8 89 299
-9 100 336
-7 92 310
-6 96 322
-5 95 320
-4 95 319
-4 95 319
-3 95 320
-1 93 312
-1 97 328
0 97 328
0 94 315
1 96 321
2 97 325
3 96 322
4 94 317
5 97 325
6 99 333
7 96 323
8 93 311
10 106 357
10 91 306
11 98 331
12 98 330
13 98 330
14 97 325
15 98 330
16 98 328
17 97 326
18 98 331
19 98 330
21 101 340
21 100 337
23 103 347
22 95 318
25 104 350
26 104 351
26 100 336
28 102 344
30 104 351
29 99 334
31 101 340
34 107 362
35 108 362
37 111 373
39 115 387
44 126 426
50 139 470
49 131 443
48 126 424
51 130 439
54 134 454
53 129 434
52 122 411
50 116 391
54 122 412
54 119 401
57 122 411
53 111 373
54 110 371
50 101 337
61 122 409
63 122 411
64 122 409
73 136 459
73 133 449
71 128 432
70 123 413
69 120 402
74 127 427
75 126 424
74 121 407
76 124 415
77 122 410
82 128 430
80 123 413
81 123 411
82 122 408
82 120 403
85 124 415
86 122 409
85 120 402
87 121 406
88 121 403
90 122 407
90 120 399
90 118 395
95 123 411
96 122 408
92 116 385
96 120 399
95 117 389
90 109 362
102 122 406
85 101 333
86 100 331
76 87 288
72 82 268
69 77 252
66 73 238
82 90 296
80 87 286
70 75 245
68 73 236
64 67 216
56 58 186
53 54 172
44 44 140
34 33 102
36 35 108
51 50 159
45 44 138
31 29 88
47 44 140
60 57 181
69 65 208
84 78 253
100 92 299
98 89 289
114 104 338
118 106 345
116 103 335
103 91 295
97 85 274
107 93 299
126 108 351
126 107 347
136 115 374
134 113 365
136 113 366
150 123 399
138 113 365
126 102 328
167 135 435
152 121 391
148 117 378
149 117 376
149 116 373
150 116 371
147 113 360
148 112 360
154 116 371
152 113 362
147 109 348
148 109 347
146 106 338
152 110 349
171 123 393
160 114 363
135 96 302
179 126 400
154 107 339
165 115 362
176 121 383
178 122 383
167 114 357
172 116 364
162 108 340
174 115 362
176 116 364
178 117 365
161 105 326
177 115 358
204 131 409
179 115 357
192 122 378
186 117 365
193 121 375
197 123 381
200 124 383
203 125 385
202 124 381
194 118 362
205 124 380
203 122 373
192 115 351
198 117 358
215 126 386
203 119 363
201 117 355
212 122 372
213 122 371
210 120 363
193 110 331
224 126 382
208 117 351
228 127 383
204 113 339
-2342 1327 3912
-2390 1362 4023
-2424 1389 4111
-2413 1391 4122
-2370 1374 4080
-44 29 77
-107 66 188
-384 229 676
-444 266 788
-532 320 951
-687 415 1239
-664 403 1205
-647 395 1184
-658 404 1213
-654 405 1216
-626 389 1172
-651 407 1229
-585 369 1113
-491 312 941
-275 177 531
-164 107 319
-113 76 223
-88 60 176
-90 62 181
-79 55 161
-78 54 158
-71 50 146
-70 50 145
-81 57 169
-90 64 190
-98 70 209
-149 105 318
-178 126 383
-180 128 391
-201 144 441
-265 190 584
-285 205 634
-294 213 658
-289 211 654
-250 184 571
-270 200 621
-285 213 661
-302 227 706
-310 235 732
-324 247 771
-334 256 801
-355 274 859
-384 298 937
-418 327 1030
-437 344 1086
-462 366 1158
-470 376 1189
-483 389 1232
-486 394 1251
-504 412 1310
-500 413 1313
-501 417 1328
-495 415 1323
-493 416 1329
-494 421 1346
-488 420 1343
-488 423 1354
-473 414 1326
-458 404 1296
-443 395 1268
-407 366 1175
-362 329 1056
-317 291 934
-276 256 822
-243 228 731
-213 202 649
-193 185 594
-188 182 585
-160 157 504
-139 139 445
-126 127 407
-135 137 439
-128 132 422
-123 128 409
-123 130 416
-115 122 393
-115 124 397
-120 130 419
-112 123 395
-102 114 365
-105 119 382
-106 120 388
-105 121 391
-101 117 378
-106 124 402
-105 124 403
-103 123 400
-102 124 402
-99 123 398
-99 124 402
-89 113 365
-98 126 408
-92 119 387
-90 118 385
-92 122 399
-89 121 393
-89 122 398
-82 114 371
-89 125 408
-86 123 401
-86 124 405
-85 125 408
-83 124 406
-83 126 412
-83 128 418
-84 130 428
-79 125 411
-84 134 441
-80 130 427
-80 133 436
-79 132 436
-77 131 431
-76 131 433
-74 132 434
-73 131 432
-75 137 452
-71 133 439
-73 138 458
-71 137 452
-68 134 445
-73 146 484
-66 136 450
-63 132 438
-63 135 447
-66 144 478
-60 135 448
-59 135 447
-60 139 463
-58 139 462
-57 140 467
-57 143 474
-55 141 470
-50 132 440
-53 143 478
-48 134 447
-45 129 430
-47 140 467
-44 136 453
-44 137 457
-43 138 462
-41 137 458
-40 137 459
-36 130 434
-36 136 453
-33 130 433
-28 114 380
-23 100 331
-21 98 323
-25 116 386
-25 122 409
-16 89 293
-20 111 370
-19 111 371
-17 109 362
-16 108 360
-14 103 343
-12 95 316
-11 98 324
-11 98 327
-9 97 321
-8 94 312
-7 95 317
-6 94 314
-5 95 317
-4 95 315
-4 100 334
-3 95 316
-1 93 307
-1 96 320
0 101 335
0 95 317
1 97 323
2 96 318
3 96 319
4 98 327
5 94 314
6 98 325
7 94 313
8 93 310
9 93 310
10 94 311
11 98 326
12 97 323
13 100 332
14 96 321
15 96 319
16 98 327
17 100 334
19 104 346
19 99 331
21 103 342
22 102 341
22 100 333
23 101 336
24 101 336
25 99 330
26 101 336
28 103 345
29 101 338
31 105 352
33 109 364
33 105 350
34 106 353
36 109 362
38 112 372
36 103 344
48 134 448
44 119 396
50 131 440
48 124 413
51 129 431
54 131 439
51 122 408
53 122 408
54 122 407
56 124 414
58 127 422
57 121 404
54 111 370
57 116 386
49 98 324
53 104 346
56 106 352
64 121 403
72 133 444
69 126 420
71 126 418
70 123 408
73 126 418
73 123 407
74 124 411
74 122 404
78 126 419
76 121 401
78 122 403
79 122 404
78 117 388
80 119 395
83 122 404
85 123 408
87 124 412
90 126 416
83 115 378
87 119 392
93 125 412
89 118 388
91 119 394
94 121 399
92 118 388
95 120 394
93 116 382
96 118 388
98 119 390
89 107 349
88 104 342
83 96 315
67 77 250
55 61 197
67 75 243
63 70 225
72 79 255
55 60 190
53 57 180
55 58 183
43 44 139
41 42 130
45 45 142
51 51 161
52 52 163
40 39 121
38 37 114
53 51 161
62 60 191
85 82 262
86 82 262
97 92 294
107 100 321
115 107 344
113 103 333
128 117 377
116 104 335
105 93 299
109 97 309
132 116 372
135 118 378
134 115 369
127 108 346
141 120 384
145 122 391
136 113 362
128 106 338
145 118 378
139 113 360
139 112 355
140 112 355
142 113 357
135 106 336
143 111 352
143 110 349
144 111 349
143 109 343
144 109 343
156 117 369
147 110 345
153 113 354
156 114 358
160 116 366
165 119 375
147 105 329
157 111 348
153 108 338
153 107 334
164 114 355
158 109 339
179 123 383
167 114 354
175 119 368
175 118 365
184 123 381
172 114 353
178 117 361
196 128 396
188 122 377
196 126 390
191 123 377
186 119 365
212 134 413
209 131 403
185 116 354
188 117 357
195 120 367
195 119 364
198 121 367
202 123 372
198 119 361
194 116 350
203 121 364
206 122 367
189 111 334
199 116 349
204 119 356
204 118 353
204 117 350
215 122 365
212 120 358
217 123 365
214 120 357
-2309 1322 3853
0 0 0
-41 27 70
-2418 1408 4127
-74 46 127
-126 77 218
-220 133 385
0 0 0
-535 323 948
-652 395 1165
-719 438 1294
-786 481 1425
-767 473 1403
-754 467 1389
-704 439 1306
-781 490 1461
-762 481 1437
-759 482 1442
-576 369 1104
-351 228 679
-186 123 363
-123 83 242
-93 64 184
-86 60 172
-84 58 169
-76 54 156
-70 50 144
-67 48 139
-72 52 151
-85 61 180
-91 66 194
-125 89 266
-147 106 316
-149 108 324
-140 102 307
-151 111 334
-161 118 358
-162 120 364
-165 123 374
-157 118 358
-154 117 356
-153 117 355
-158 122 371
-159 123 375
-154 120 367
-165 130 397
-181 143 438
-196 155 479
-217 173 536
-242 194 602
-277 224 696
-310 251 785
-376 306 958
-418 344 1078
-459 380 1194
-481 401 1262
-492 414 1303
-485 411 1297
-436 373 1176
-395 341 1076
-346 302 953
-310 273 862
-273 242 765
-230 207 654
-198 180 567
-178 164 516
-173 161 508
-140 132 415
-147 140 441
-142 136 428
-137 133 419
-134 132 415
-123 122 386
-131 131 412
-129 130 412
-109 112 354
-124 128 406
-117 122 385
-113 119 378
-114 121 384
-119 128 407
-116 126 402
-114 125 397
-110 122 387
-116 130 415
-107 122 388
-104 120 383
-110 127 407
-106 124 398
-106 126 404
-98 119 379
-103 126 403
-95 118 377
-96 120 385
-97 123 394
-98 125 402
-97 126 405
-95 124 399
-92 122 391
-84 114 366
-90 122 394
-91 125 404
-87 122 394
-89 126 407
-88 126 409
-83 121 391
-81 120 387
-78 118 382
-87 133 430
-82 127 414
-85 133 431
-81 128 417
-79 128 414
-79 131 425
-82 137 445
-79 134 435
-78 134 438
-77 136 443
-74 133 434
-73 133 436
-74 136 446
-74 140 458
-71 136 446
-69 136 444
-67 134 439
-66 135 443
-68 141 462
-63 135 441
-64 138 453
-60 134 439
-60 136 445
-56 131 430
-57 135 444
-57 138 454
-53 133 436
-53 135 443
-51 134 442
-49 132 433
-50 138 455
-49 138 456
-48 139 457
-44 133 439
-46 143 470
-41 132 436
-44 144 477
-40 137 450
-39 138 456
-36 133 439
-35 133 438
-31 124 408
-28 118 390
-25 108 355
-25 113 371
-26 123 405
-23 115 379
-22 118 388
-20 112 369
-18 109 359
-17 109 359
-16 107 352
-15 108 356
-13 104 343
-11 97 318
-10 96 316
-9 92 303
-8 92 303
-7 97 319
-7 98 323
-5 97 321
-5 98 323
-4 100 329
-3 98 323
-2 96 317
-1 97 319
0 99 327
0 96 316
1 94 308
2 100 328
3 96 317
4 95 313
5 95 313
6 96 315
7 96 315
8 96 317
9 97 319
10 98 322
10 91 300
12 96 316
13 96 315
14 102 335
15 102 335
16 100 329
18 105 346
18 101 334
19 102 336
21 104 342
22 103 339
24 108 357
24 104 343
24 101 332
26 104 343
27 106 348
28 104 342
28 100 328
29 100 330
30 101 332
34 109 359
35 109 358
35 105 346
37 109 361
42 122 403
50 140 464
51 139 460
48 129 427
49 126 418
52 131 432
52 128 421
52 125 413
57 134 442
55 126 416
59 132 437
56 123 406
55 117 386
57 120 397
60 125 410
54 108 356
51 100 327
55 106 349
59 112 367
68 128 420
66 120 395
72 130 427
72 127 417
74 129 424
73 124 407
74 125 410
76 125 412
78 126 414
79 127 417
77 121 396
77 119 390
82 125 410
82 123 404
87 128 421
81 119 388
84 121 396
84 120 391
90 126 412
90 124 405
86 117 380
88 118 384
95 126 410
91 119 387
99 127 415
96 123 399
98 124 403
92 113 368
91 111 360
87 105 341
86 103 332
86 101 326
79 92 295
60 68 217
36 40 124
50 56 175
49 54 169
49 53 166
48 51 161
50 53 165
41 43 134
39 41 125
47 48 150
42 42 130
33 32 97
40 39 121
60 59 185
77 75 239
79 77 244
85 82 261
99 95 304
110 105 335
111 105 335
107 100 317
124 115 368
104 95 302
108 98 312
108 97 309
119 106 337
128 114 361
128 113 357
141 123 390
138 119 377
153 131 415
135 114 362
138 116 365
137 114 360
135 112 352
134 110 347
132 107 337
135 109 341
138 110 347
152 121 379
167 131 413
132 103 321
154 120 375
149 115 359
152 116 363
146 110 343
140 105 326
147 110 341
153 114 353
155 114 353
144 105 325
154 111 344
164 118 365
165 117 363
161 114 351
158 111 341
164 114 352
160 111 340
148 102 311
171 117 358
161 110 335
186 125 384
166 111 339
181 120 368
178 117 358
196 129 394
188 123 374
186 121 367
191 123 373
190 121 368
195 124 375
190 120 362
187 117 353
176 110 330
193 120 361
188 116 348
197 121 362
180 110 328
199 120 360
201 121 361
209 124 371
202 120 357
207 122 363
202 118 350
199 116 344
191 110 326
218 126 371
199 114 335
214 122 358
211 119 350
-1326 768 2211
-1200 699 2015
-1259 737 2130
0 0 0
0 0 0
0 0 0
0 0 0
0 0 0
-803 488 1422
-870 532 1554
-840 516 1511
-855 529 1549
-918 571 1677
-912 570 1678
-899 566 1667
-881 558 1646
-865 551 1629
-809 519 1536
-654 422 1251
-389 254 751
-201 133 391
-120 82 236
-102 70 202
-89 62 179
-83 58 167
-74 53 150
-69 50 142
-76 55 158
-75 55 157
-81 59 170
-101 73 214
-125 91 267
-144 105 310
-152 111 329
-156 115 342
-167 123 367
-193 143 430
-196 146 438
-192 144 433
-182 138 416
-177 135 407
-143 110 331
-143 111 335
-151 118 356
-145 114 345
-141 112 338
-143 115 347
-155 125 379
-162 131 399
-174 142 434
-193 158 484
-210 174 533
-242 201 618
-264 220 681
-291 245 758
-323 273 847
-331 282 875
-275 237 735
-212 185 574
-191 169 523
-192 171 529
-172 154 478
-169 154 477
-152 139 431
-159 147 456
-150 140 435
-151 142 441
-135 129 399
-129 125 388
-131 127 397
-120 118 366
-125 124 386
-123 123 384
-113 114 356
-121 123 385
-112 116 363
-116 121 379
-120 126 396
-112 119 374
-110 119 373
-108 118 369
-106 117 368
-110 122 384
-111 124 392
-113 128 402
-106 121 382
-107 124 392
-103 121 382
-108 128 404
-104 125 396
-103 125 395
-98 121 382
-96 120 380
-98 123 391
-101 128 407
-93 121 383
-90 118 375
-88 117 371
-94 126 401
-93 126 403
-92 126 402
-87 122 388
-87 123 394
-90 129 412
-85 124 395
-85 125 400
-86 128 410
