VERSION 0.7
FIELDS x y z
SIZE 4 4 4
TYPE I I I
COUNT 1 1 1
WIDTH 3975
HEIGHT 1
VIEWPOINT 0.0 0.0 0.0 1.0 0.0 0.0 0.0
POINTS 3975
DATA ascii
1258 0 4231
1285 0 4276
1301 0 4284
1337 0 4358
1339 0 4319
0 0 0
0 0 0
1391 -1 4351
1417 -1 4388
1433 -1 4395
1417 -1 4303
1377 -1 4140
1102 0 3277
1079 0 3178
1079 0 3147
1191 -1 3441
1499 -2 4294
1536 -2 4359
1578 -2 4439
1211 -1 3371
1075 -1 2963
1063 -1 2904
1064 -1 2881
1072 -1 2876
1089 -1 2894
1090 -1 2871
1106 -1 2887
1109 -1 2869
1129 -1 2895
1104 -1 2807
1116 -1 2814
1126 -1 2813
1110 -1 2749
1108 -1 2722
1114 -1 2713
1106 -1 2671
1114 -1 2667
1120 -1 2660
1131 -2 2663
1130 -2 2639
1133 -2 2623
1125 -2 2583
1106 -2 2519
1130 -2 2553
1124 -2 2519
1118 -2 2485
1125 -2 2480
1104 -2 2415
1092 -2 2369
1110 -2 2388
1092 -2 2330
1089 -2 2307
1076 -2 2262
1111 -2 2317
1095 -2 2266
1087 -2 2232
1086 -2 2211
1094 -2 2211
1098 -2 2202
1095 -2 2180
1100 -2 2173
1091 -2 2137
1091 -2 2123
1097 -2 2118
1083 -2 2074
1101 -2 2093
1094 -2 2063
1085 -2 2032
1079 -2 2006
1082 -2 1996
1074 -2 1966
1073 -2 1949
1066 -2 1922
1076 -2 1927
-496 9 866
-501 9 880
-492 9 871
-490 9 874
-484 9 871
-485 9 878
-469 9 856
-478 9 878
-482 9 892
-525 9 980
-627 11 1178
-1084 19 2051
-1102 19 2102
-1096 19 2106
-1087 19 2105
-1082 19 2111
-1071 19 2105
-1065 19 2110
-1059 19 2114
-1048 18 2107
-1043 18 2113
-1035 18 2113
-1026 18 2111
-1019 18 2113
-1013 18 2117
-1004 18 2116
-992 18 2105
-989 18 2116
-980 18 2114
-972 18 2113
-968 18 2122
-955 18 2110
-955 18 2126
-945 18 2122
-921 17 2084
-907 17 2070
-909 17 2091
-897 17 2081
-896 17 2096
-880 17 2077
-883 17 2101
-881 17 2113
-867 17 2097
-865 17 2110
-848 17 2087
-840 17 2085
-832 17 2081
-825 16 2083
-827 17 2105
-813 16 2089
-812 16 2105
-805 16 2104
-795 16 2097
-778 16 2072
-783 16 2103
-774 16 2098
-770 16 2105
-756 16 2087
-743 16 2070
-738 16 2075
-740 16 2100
-726 16 2081
-728 16 2104
-715 16 2088
-710 16 2094
-706 16 2100
-702 16 2111
-693 16 2103
-693 16 2123
-683 15 2116
-674 15 2106
-664 15 2096
-645 15 2059
-648 15 2089
-640 15 2086
-637 15 2096
-632 15 2103
-629 15 2115
-625 15 2124
-619 15 2126
-610 15 2118
-607 15 2130
-600 15 2128
-592 15 2123
-583 15 2116
-571 15 2097
-571 15 2122
-567 15 2131
-557 15 2118
-550 14 2116
-548 14 2132
-537 14 2117
-532 14 2120
-521 14 2105
-517 14 2113
-511 14 2117
-506 14 2123
-505 14 2144
-493 14 2123
-491 14 2140
-509 15 2250
-757 22 3384
-865 25 3920
-848 24 3897
-847 25 3946
-827 24 3908
-807 24 3868
-753 23 3662
-734 22 3624
0 0 0
0 0 0
-856 27 4419
-896 28 4693
-888 28 4729
-884 29 4783
-864 28 4751
-815 27 4553
-763 26 4336
-856 29 4944
-849 29 4994
-6 1 49
-822 29 5007
-799 29 4955
-788 29 4980
-771 29 4961
-3 1 37
-4 1 46
-735 29 5018
-4 1 43
-7 1 65
-1 1 26
-4 1 52
-3 1 45
-4 1 53
-16 2 146
-42 3 361
-32 3 291
-55 4 485
-48 3 443
-44 3 419
-48 3 465
-29 3 301
-516 27 5015
-495 26 4956
-483 26 4975
-473 27 5022
-64 5 727
-71 5 827
-24 3 310
-415 26 5031
-396 26 4968
-381 26 4961
-365 25 4941
-354 26 4982
-339 25 4970
-314 25 4812
-272 22 4362
-253 22 4260
-240 22 4252
-228 22 4257
-216 21 4260
-204 21 4261
-191 21 4252
-179 21 4243
-167 21 4256
-155 21 4260
-142 21 4251
-131 21 4271
-119 21 4273
-106 21 4268
-93 21 4250
-81 20 4249
-69 20 4248
-57 20 4246
-45 20 4261
-32 20 4255
-20 20 4257
-8 20 4255
3 20 4258
15 20 4259
28 20 4255
40 20 4262
52 20 4253
64 19 4247
77 19 4268
89 19 4254
101 19 4267
113 19 4265
126 19 4264
138 19 4270
150 19 4255
163 19 4271
175 19 4268
187 19 4273
199 19 4266
212 19 4281
224 18 4259
236 18 4266
251 18 4307
263 18 4298
275 18 4288
288 18 4300
300 18 4292
311 18 4272
324 18 4281
335 18 4267
347 18 4268
359 17 4259
373 17 4274
385 17 4271
396 17 4262
409 17 4266
422 17 4268
433 17 4258
447 17 4274
458 17 4261
472 17 4276
485 17 4281
499 17 4291
510 17 4278
522 16 4276
535 16 4278
545 16 4259
559 16 4271
573 16 4286
582 16 4260
596 16 4271
609 16 4275
624 16 4290
634 16 4273
650 16 4297
661 16 4281
672 15 4276
686 15 4283
699 15 4283
711 15 4281
724 15 4280
735 15 4274
749 15 4281
759 15 4266
774 15 4277
788 15 4282
796 15 4261
810 15 4267
827 15 4288
838 14 4276
864 15 4342
994 16 4924
0 0 0
0 0 0
205 4 959
180 4 828
181 4 823
208 4 931
0 0 0
167 3 726
168 3 721
0 0 0
0 0 0
159 3 654
126 2 508
0 0 0
0 0 0
0 0 0
38 1 137
69 2 257
1269 14 4889
1289 14 4906
13 1 33
9 1 20
1315 14 4834
1250 13 4543
1210 12 4347
1215 12 4317
1223 12 4297
1256 12 4362
1261 12 4334
1202 11 4085
1257 12 4226
1259 11 4190
1294 11 4261
1346 12 4388
1353 12 4364
0 0 0
1290 11 4076
1374 11 4299
1394 11 4318
1400 11 4291
1444 11 4384
1263 10 3797
1133 9 3370
1108 8 3262
1087 8 3170
1184 9 3422
1363 10 3904
1499 10 4256
1531 10 4305
1211 8 3371
1070 7 2950
1057 7 2888
1072 7 2901
1072 7 2874
1083 7 2879
1094 7 2883
1109 7 2896
1118 7 2893
1122 7 2878
1125 7 2861
1121 6 2826
1123 6 2807
1120 6 2775
1118 6 2745
1112 6 2709
1121 6 2708
1119 6 2680
1123 6 2666
1125 6 2648
1112 6 2596
1132 6 2620
1128 5 2589
1113 5 2534
1115 5 2518
1113 5 2493
1127 5 2506
1120 5 2469
1127 5 2464
1135 5 2463
1146 5 2467
1125 5 2402
1120 5 2373
1117 4 2348
1106 4 2305
1104 4 2285
1109 4 2276
1109 4 2258
1104 4 2232
1095 4 2195
1102 4 2193
1105 4 2182
1101 4 2157
1105 4 2150
1109 4 2141
1103 4 2113
1105 4 2100
1105 3 2084
1105 3 2070
1100 3 2045
1097 3 2023
1093 3 2001
1087 3 1976
1094 3 1974
1081 3 1935
-502 12 876
-492 12 864
-499 12 884
-483 11 862
-490 12 881
-487 12 883
-473 11 862
-473 11 869
-476 12 882
-496 12 925
-626 15 1177
-1083 25 2049
-1105 26 2106
-1100 26 2113
-1087 25 2105
-1086 26 2117
-1076 25 2116
-1065 25 2108
-1057 25 2109
-1049 25 2110
-1041 25 2110
-1031 25 2106
-1025 25 2109
-1018 25 2110
-1009 25 2110
-1005 25 2118
-993 25 2108
-987 25 2113
-978 24 2110
-973 24 2116
-964 24 2113
-957 24 2114
-949 24 2114
-940 24 2111
-920 24 2083
-903 23 2060
-897 23 2065
-896 23 2079
-894 24 2091
-895 24 2111
-880 23 2093
-871 23 2089
-868 23 2100
-860 23 2099
-849 23 2089
-829 23 2058
-837 23 2094
-829 23 2093
-821 23 2092
-820 23 2106
-809 23 2096
-801 23 2094
-796 23 2100
-786 23 2092
-784 23 2105
-779 23 2111
-766 22 2096
-755 22 2084
-745 22 2075
-735 22 2068
-739 22 2098
-720 22 2064
-722 22 2089
-718 22 2097
-712 22 2098
-705 22 2098
-697 22 2096
-693 22 2103
-689 22 2112
-683 22 2113
-679 22 2123
-664 22 2097
-652 21 2081
-648 21 2091
-641 21 2087
-639 21 2104
-627 21 2086
-631 21 2123
-619 21 2105
-618 21 2122
-607 21 2108
-600 21 2107
-591 21 2097
-589 21 2115
-578 21 2100
-573 21 2103
-571 21 2122
-567 21 2130
-560 21 2128
-550 21 2116
-544 21 2118
-542 21 2135
-533 21 2125
-526 21 2126
-516 20 2111
-511 20 2114
-507 20 2125
-502 20 2130
-496 20 2135
-496 21 2161
-521 22 2299
-677 28 3028
-745 31 3379
-744 32 3420
-733 31 3414
-726 32 3431
-711 31 3408
-680 30 3306
-653 29 3225
-633 29 3171
-632 29 3214
-627 29 3238
-636 30 3337
-639 31 3406
-636 31 3445
-624 31 3436
-607 30 3398
-584 30 3323
-583 30 3372
-574 30 3378
-567 30 3397
-542 29 3309
-538 29 3340
-531 29 3357
-521 29 3361
-516 30 3390
-515 30 3453
-518 31 3538
-506 31 3528
-497 31 3541
-484 30 3520
-483 31 3589
-480 31 3642
-483 32 3751
-451 30 3581
-417 29 3389
-387 27 3227
-387 28 3310
0 0 0
-4 2 64
0 0 0
0 0 0
-484 39 4704
-481 40 4812
-467 40 4813
-445 39 4733
-247 23 2720
-201 19 2294
0 0 0
-393 39 4763
-395 40 4956
-383 40 4993
-368 40 4975
-358 40 5044
-22 4 359
-312 38 4791
-271 35 4351
-256 34 4312
-243 34 4297
-230 34 4285
-216 34 4260
-205 34 4275
-192 34 4264
-181 34 4296
-168 34 4292
-156 34 4302
-144 33 4287
-131 33 4283
-118 33 4273
-106 33 4270
-95 33 4303
-81 33 4264
-69 33 4276
-57 33 4271
-45 33 4265
-32 32 4266
-20 33 4286
-8 32 4275
3 32 4259
16 32 4271
28 32 4281
40 32 4262
52 32 4262
65 32 4273
77 32 4275
90 32 4288
102 32 4277
114 31 4268
126 31 4273
138 31 4264
151 31 4280
163 31 4278
175 31 4264
187 31 4261
200 31 4270
211 31 4251
225 31 4275
238 31 4288
250 31 4296
262 31 4283
275 31 4295
287 30 4289
299 30 4279
310 30 4259
322 30 4264
336 30 4275
347 30 4265
359 30 4259
371 30 4257
384 30 4257
396 30 4262
410 30 4274
421 29 4259
434 29 4264
448 29 4281
459 29 4269
471 29 4267
486 29 4292
497 29 4271
510 29 4280
522 29 4275
534 29 4274
547 29 4277
560 29 4281
573 29 4283
583 28 4267
598 28 4282
610 28 4276
622 28 4275
634 28 4274
646 28 4265
659 28 4267
672 28 4276
686 28 4282
698 28 4275
711 28 4281
722 28 4269
737 28 4282
748 27 4276
762 27 4279
773 27 4269
786 27 4274
802 27 4288
815 27 4290
825 27 4277
840 27 4290
869 27 4371
0 0 0
0 0 0
0 0 0
179 6 834
200 7 920
0 0 0
181 6 809
179 6 787
205 6 895
166 5 713
189 6 803
0 0 0
0 0 0
135 4 547
0 0 0
0 0 0
117 4 452
88 3 333
70 3 257
19 1 60
1280 29 4873
8 1 16
37 2 123
1318 28 4844
1175 25 4266
1200 25 4311
1218 25 4326
1225 25 4302
1234 25 4287
1116 22 3835
1036 20 3518
1047 20 3520
1110 21 3692
1218 23 4010
1307 24 4258
1353 25 4363
1327 24 4236
1325 23 4187
1402 24 4387
1401 24 4340
1422 24 4361
1424 24 4323
1156 19 3471
1092 18 3249
1084 18 3193
1083 18 3160
1162 19 3359
1399 22 4007
1482 23 4207
1553 24 4366
1212 18 3373
1069 16 2945
1065 16 2909
1068 16 2891
1076 16 2886
1088 16 2892
1101 16 2899
1109 16 2896
1120 16 2899
1118 15 2867
1114 15 2831
1117 15 2816
1127 15 2816
1129 15 2796
1123 15 2758
1125 14 2739
1117 14 2696
1124 14 2690
1119 14 2657
1117 14 2628
1121 14 2616
1135 14 2627
1119 13 2569
1127 13 2567
1120 13 2531
1132 13 2537
1116 13 2479
1126 13 2481
1115 12 2438
1130 12 2451
1110 12 2389
1108 12 2365
1119 12 2371
1132 12 2378
1121 12 2336
1123 12 2323
1119 11 2297
1101 11 2241
1099 11 2221
1098 11 2202
1106 11 2200
1109 11 2190
1116 11 2188
1112 11 2163
1116 11 2153
1109 10 2124
1115 10 2119
1115 10 2104
1116 10 2090
1115 10 2073
1105 10 2038
1090 10 1995
1113 10 2023
1107 10 1997
1100 9 1970
-511 15 892
-497 14 873
-484 14 857
-495 15 883
-486 14 874
-484 14 877
-461 14 841
-475 14 872
-477 14 884
-492 15 918
-622 19 1169
-1084 32 2051
-1102 32 2102
-1096 32 2107
-1091 32 2111
-1079 32 2104
-1076 32 2114
-1067 32 2114
-1057 32 2110
-1051 32 2113
-1043 32 2113
-1032 32 2108
-1032 32 2123
-1019 31 2114
-1011 31 2114
-999 31 2106
-996 31 2115
-987 31 2113
-981 31 2117
-971 31 2112
-966 31 2118
-959 31 2120
-950 31 2117
-940 31 2110
-916 30 2073
-911 30 2078
-899 30 2069
-903 30 2095
-885 30 2071
-887 30 2093
-871 30 2072
-868 30 2083
-870 30 2105
-857 30 2089
-851 30 2092
-845 30 2097
-836 29 2093
-826 29 2085
-830 30 2115
-815 29 2094
-808 29 2093
-803 29 2100
-799 29 2107
-790 29 2103
-787 29 2115
-772 29 2093
-768 29 2101
-758 29 2092
-746 28 2078
-736 28 2069
-737 28 2092
-725 28 2077
-726 28 2100
-714 28 2084
-705 28 2077
-699 28 2080
-699 28 2100
-696 28 2113
-687 28 2105
-678 28 2100
-676 28 2115
-664 28 2099
-646 27 2062
-651 28 2099
-647 28 2108
-632 27 2081
-635 28 2114
-629 28 2115
-619 27 2104
-614 27 2109
-606 27 2105
-599 27 2103
-599 27 2127
-583 27 2094
-581 27 2108
-574 27 2109
-573 27 2129
-564 27 2118
-555 27 2112
-549 27 2113
-549 27 2136
-536 27 2114
-530 27 2113
-525 27 2120
-519 27 2124
-511 27 2116
-504 27 2115
-502 27 2132
-496 27 2133
-505 27 2202
-542 30 2394
-649 36 2904
-688 38 3121
-685 38 3149
-682 39 3179
-672 39 3176
-660 38 3165
-643 38 3131
-639 38 3155
-630 38 3158
-620 38 3155
-610 38 3154
-604 38 3167
-601 38 3203
-589 38 3188
-577 38 3177
-569 38 3183
-560 38 3188
-553 38 3199
-544 38 3203
-535 38 3208
-525 38 3202
-517 38 3215
-506 37 3200
-498 37 3211
-486 37 3198
-481 37 3223
-469 37 3208
-460 37 3210
-451 37 3209
-442 37 3219
-433 37 3220
-425 37 3228
-416 37 3232
-405 37 3221
-394 37 3205
-383 36 3192
-375 36 3204
-366 36 3211
-356 36 3205
-346 36 3196
-337 36 3196
-335 37 3267
-331 37 3327
-321 37 3317
-307 37 3273
-291 36 3203
-280 36 3187
-273 36 3202
-268 36 3261
-302 42 3796
-381 54 4962
-370 55 5009
-4 2 95
-40 8 619
-319 53 4891
-277 48 4447
-260 48 4382
-247 47 4367
-232 47 4325
-218 46 4289
-205 46 4294
-196 47 4353
-184 47 4376
-174 47 4428
-162 48 4460
-146 47 4362
-132 46 4302
-121 46 4349
-109 47 4393
-96 46 4375
-85 47 4447
-72 47 4414
-59 47 4424
-46 46 4395
-33 46 4364
-21 46 4395
-8 46 4386
3 46 4388
16 46 4393
29 46 4385
41 45 4373
54 45 4373
66 45 4369
78 45 4356
91 45 4363
104 45 4358
115 44 4319
128 44 4334
142 45 4381
152 44 4317
166 44 4349
177 44 4304
190 44 4322
204 44 4357
215 44 4327
228 44 4332
239 43 4310
251 43 4298
266 44 4346
276 43 4310
290 43 4334
303 43 4332
312 43 4283
324 43 4284
339 43 4313
350 43 4295
360 42 4265
375 42 4303
388 42 4306
402 42 4318
414 42 4319
424 42 4292
438 42 4310
451 42 4310
464 42 4312
477 42 4319
491 42 4332
501 42 4309
517 42 4334
526 42 4309
539 41 4311
552 41 4318
564 41 4308
576 41 4308
583 41 4266
601 41 4305
614 41 4308
625 41 4295
635 41 4277
649 41 4288
662 41 4290
674 40 4283
687 40 4289
699 40 4283
711 40 4282
725 40 4286
737 40 4282
752 40 4295
761 40 4274
775 40 4279
789 40 4289
797 39 4261
812 39 4272
824 39 4268
843 40 4301
878 41 4415
0 0 0
0 0 0
0 0 0
175 8 816
189 9 868
171 8 775
188 8 841
182 8 803
0 0 0
140 6 596
0 0 0
149 6 619
157 7 644
146 6 593
130 6 518
0 0 0
107 5 411
69 3 259
27 2 92
5 1 4
1289 43 4907
1292 43 4860
1300 42 4833
1330 43 4889
1208 39 4387
1193 38 4282
1204 37 4275
1201 37 4218
1217 37 4227
1054 32 3618
1011 30 3434
1031 30 3464
1044 30 3472
1121 32 3687
1258 35 4098
1316 37 4242
0 0 0
0 0 0
1380 37 4317
1379 37 4271
1445 38 4429
1406 36 4266
1135 29 3408
1091 28 3244
1069 27 3148
1074 27 3131
1167 29 3372
1411 34 4041
1492 36 4234
1529 36 4298
1192 28 3318
1066 25 2937
1060 25 2894
1071 25 2898
1077 24 2888
1078 24 2866
1084 24 2855
1097 24 2863
1114 24 2881
1105 24 2835
1109 24 2819
1112 23 2802
1116 23 2788
1117 23 2767
1119 23 2747
1110 23 2703
1116 22 2693
1113 22 2664
1121 22 2661
1124 22 2646
1128 22 2634
1129 22 2613
1120 21 2571
1121 21 2552
1117 21 2523
1117 21 2502
1115 20 2478
1129 20 2488
1125 20 2461
1115 20 2418
1123 20 2417
1121 20 2393
1117 19 2365
1119 19 2352
1114 19 2321
1119 19 2314
1119 19 2296
1121 19 2283
1103 18 2228
1099 18 2204
1104 18 2197
1113 18 2197
1121 18 2197
1126 18 2190
1122 18 2166
1118 17 2142
1121 17 2131
1117 17 2107
1123 17 2103
1119 17 2080
1116 17 2059
1120 16 2051
1117 16 2029
1121 16 2022
1120 16 2006
-512 18 894
-501 17 880
-502 18 890
-488 17 871
-495 17 889
-479 17 867
-480 17 875
-476 17 876
-483 17 893
-512 18 956
-632 23 1188
-1084 38 2051
-1103 39 2102
-1098 39 2109
-1087 39 2105
-1080 39 2107
-1073 39 2109
-1062 39 2103
-1056 38 2108
-1047 38 2105
-1046 38 2119
-1037 38 2117
-1025 38 2110
-1018 38 2111
-1008 38 2108
-1004 38 2116
-994 38 2110
-989 38 2117
-980 38 2114
-973 38 2115
-965 37 2114
-960 38 2120
-952 37 2120
-941 37 2112
-915 36 2071
-906 36 2068
-913 37 2100
-892 36 2070
-891 36 2083
-872 36 2058
-880 36 2094
-871 36 2088
-861 36 2083
-860 36 2097
-851 36 2094
-841 36 2087
-829 35 2074
-818 35 2066
-821 36 2091
-809 35 2079
-807 35 2091
-797 35 2084
-794 35 2094
-793 36 2112
-781 35 2097
-772 35 2094
-766 35 2096
-762 35 2104
-744 35 2074
-729 34 2049
-736 35 2088
-730 35 2091
-715 34 2069
-711 34 2077
-708 34 2089
-702 34 2090
-696 34 2093
-699 35 2122
-689 34 2111
-683 34 2116
-676 34 2113
-665 34 2100
-649 34 2072
-650 34 2095
-650 34 2118
-631 34 2078
-630 34 2096
-625 34 2103
-621 34 2110
-616 34 2117
-611 34 2120
-609 34 2139
-598 34 2121
-589 34 2114
-579 33 2103
-575 33 2110
-567 33 2107
-561 33 2109
-558 33 2122
-557 34 2145
-545 33 2122
-541 33 2132
-536 33 2136
-527 33 2130
-521 33 2132
-510 33 2112
-505 33 2118
-500 33 2126
-499 33 2146
-510 34 2223
-565 38 2497
-658 45 2943
-678 47 3073
-676 47 3109
-671 47 3128
-663 47 3133
-657 47 3152
-648 47 3155
-642 48 3173
-629 47 3153
-621 47 3162
-613 47 3169
-603 47 3166
-596 47 3179
-588 47 3185
-578 47 3180
-570 47 3190
-560 47 3189
-553 47 3204
-544 47 3205
-532 47 3188
-524 47 3198
-514 47 3192
-504 47 3191
-495 47 3191
-487 47 3199
-477 47 3199
-468 46 3199
-457 46 3192
-448 46 3195
-440 46 3201
-430 46 3198
-419 46 3187
-411 46 3192
-402 46 3200
-394 46 3209
-384 46 3200
-375 46 3208
-366 46 3210
-356 46 3202
-346 45 3197
-338 46 3207
-329 46 3214
-320 45 3216
-310 45 3209
-302 45 3216
-291 45 3200
-282 45 3207
-272 45 3195
-265 45 3226
-269 47 3390
-374 67 4873
-373 70 5053
-14 4 239
-44 10 683
-315 66 4827
-279 62 4475
-262 61 4418
-248 60 4395
-233 60 4346
-220 59 4331
-213 61 4458
-200 61 4442
-194 63 4615
-184 64 4681
-168 63 4629
-152 62 4549
-138 61 4518
-130 63 4672
2 1 26
-7 7 459
-4 6 352
-2 5 289
0 5 261
0 5 299
1 3 170
2 2 84
-10 67 5067
2 2 77
2 1 27
33 67 5027
3 2 82
3 2 31
75 65 4962
3 1 18
104 65 4974
118 65 4981
132 65 4971
149 66 5044
162 66 5014
178 66 5042
189 64 4948
200 64 4884
211 62 4802
227 63 4857
242 63 4878
249 61 4747
263 61 4747
282 62 4840
294 62 4814
308 62 4802
320 61 4783
321 59 4589
324 57 4447
346 59 4578
366 60 4667
373 59 4587
376 57 4464
396 58 4540
408 58 4526
424 58 4559
426 56 4446
448 57 4536
457 57 4496
478 58 4567
495 58 4601
506 58 4586
525 58 4636
544 59 4683
555 58 4656
560 57 4588
569 57 4549
585 57 4570
594 57 4538
600 56 4486
617 56 4510
627 56 4487
636 55 4460
649 55 4457
650 54 4380
661 54 4365
678 54 4394
691 54 4390
703 54 4386
704 53 4311
725 54 4360
734 53 4342
754 54 4380
765 53 4367
772 53 4333
778 52 4298
787 52 4276
803 52 4296
813 52 4277
832 52 4312
847 52 4323
908 55 4567
0 0 0
228 14 1097
185 11 874
152 9 705
166 10 764
137 8 615
145 9 646
143 8 626
137 8 592
136 8 580
195 11 827
139 8 578
114 7 464
140 8 567
133 7 532
0 0 0
0 0 0
0 0 0
41 3 144
23 2 75
3 1 -1
1301 58 4894
17 2 48
1319 57 4848
1228 52 4461
1223 52 4392
1190 50 4226
1221 50 4288
1217 49 4226
1044 42 3584
1018 41 3457
1037 41 3485
1047 41 3482
1088 42 3580
1188 45 3870
1282 48 4133
0 0 0
0 0 0
1417 51 4433
1408 50 4359
1399 49 4289
1380 48 4187
1130 39 3393
1066 37 3170
1069 36 3149
1083 37 3158
1128 38 3258
1335 44 3824
1546 50 4386
1533 49 4309
1177 38 3275
1063 34 2930
1064 33 2906
1069 33 2892
1079 33 2892
1085 33 2884
1097 33 2888
1087 33 2838
1097 33 2837
1111 33 2849
1116 32 2836
1112 32 2803
1107 32 2766
1116 32 2764
1114 31 2735
1124 31 2737
1112 31 2684
1111 30 2659
1115 30 2646
1109 30 2611
1124 30 2622
1118 29 2587
1119 29 2568
1123 29 2556
1122 29 2534
1129 29 2529
1119 28 2487
1133 28 2498
1124 28 2457
1117 27 2424
1123 27 2417
1131 27 2415
1122 27 2377
1120 27 2354
1116 26 2327
1118 26 2313
1119 26 2297
1123 26 2287
1106 25 2235
1105 25 2216
1104 25 2197
1111 25 2194
1115 25 2184
1126 25 2189
1127 24 2176
1124 24 2153
1127 24 2141
1123 24 2119
1123 24 2102
1133 24 2106
1127 23 2079
1112 23 2036
1121 23 2038
1119 23 2019
1121 23 2007
-514 21 898
-493 20 866
-495 20 876
-491 20 876
-484 20 870
-480 20 868
-471 20 860
-478 20 878
-483 20 894
-492 21 919
-627 26 1179
-1085 45 2054
-1102 46 2100
-1096 46 2106
-1089 46 2108
-1082 46 2111
-1073 45 2109
-1068 45 2114
-1057 45 2110
-1046 45 2103
-1045 45 2117
-1032 45 2107
-1026 45 2112
-1017 45 2108
-1012 45 2116
-1003 45 2113
-994 44 2110
-989 44 2118
-980 44 2114
-971 44 2112
-964 44 2113
-958 44 2117
-956 44 2130
-936 44 2103
-913 43 2067
-905 43 2065
-901 43 2073
-894 43 2074
-893 43 2090
-883 43 2083
-870 42 2071
-873 43 2095
-867 43 2098
-865 43 2111
-845 42 2078
-838 42 2080
-831 42 2080
-828 42 2091
-823 42 2096
-807 42 2073
-814 42 2110
-804 42 2103
-792 42 2089
-785 42 2089
-783 42 2102
-776 42 2103
-766 41 2094
-759 41 2096
-744 41 2071
-725 40 2038
-736 41 2090
-728 41 2086
-713 40 2062
-717 41 2093
-717 41 2115
-711 41 2115
-703 41 2114
-692 41 2101
-693 41 2123
-684 41 2116
-670 40 2096
-666 40 2104
-648 40 2067
-649 40 2093
-641 40 2089
-629 40 2072
-629 40 2094
-631 40 2122
-627 40 2130
-623 41 2139
-607 40 2108
-606 40 2126
-599 40 2125
-592 40 2126
-582 40 2115
-572 39 2102
-570 40 2119
-564 40 2119
-558 40 2122
-556 40 2138
-545 39 2121
-536 39 2114
-532 39 2121
-523 39 2113
-519 39 2124
-511 39 2117
-505 39 2118
-503 39 2137
-499 39 2148
-511 41 2229
-564 45 2491
-661 54 2958
-686 56 3109
-675 56 3105
-670 56 3122
-664 56 3138
-659 57 3159
-648 57 3155
-642 57 3171
-633 57 3171
-620 56 3155
-613 57 3169
-604 56 3170
-595 56 3174
-586 56 3175
-578 56 3184
-567 56 3176
-561 56 3193
-549 56 3180
-542 56 3192
-532 56 3188
-521 56 3181
-514 56 3194
-502 56 3176
-494 56 3188
-485 56 3193
-477 56 3199
-466 56 3190
-460 56 3208
-450 56 3204
-440 55 3199
-431 56 3204
-421 55 3199
-411 55 3191
-403 55 3207
-393 55 3197
-383 55 3194
-376 55 3211
-366 55 3209
-356 55 3205
-346 55 3199
-338 55 3213
-328 55 3202
-319 55 3205
-310 55 3208
-300 54 3205
-291 54 3206
-282 54 3207
-273 54 3210
-264 54 3216
-268 57 3374
-369 81 4810
-11 4 184
-42 11 627
-37 11 582
-310 79 4756
-277 74 4457
-261 73 4406
-248 73 4389
-233 72 4345
-220 72 4344
-210 73 4387
-204 75 4532
-198 78 4702
-180 76 4585
-169 76 4646
-148 73 4430
-140 75 4578
-6 6 313
-17 14 777
-14 13 760
-14 15 894
-9 13 750
-10 16 918
-6 14 803
-4 16 905
-1 14 827
0 13 762
3 13 729
5 14 804
7 14 835
9 12 712
11 13 766
14 14 799
17 15 847
16 12 666
20 13 733
22 13 743
25 13 765
28 13 783
31 14 819
34 14 824
33 13 754
35 13 739
35 12 698
38 12 726
43 13 771
43 13 740
46 13 756
54 14 841
53 13 794
54 13 766
37 9 498
355 77 4886
24 5 279
57 12 698
0 0 0
26 5 275
0 0 0
0 0 0
9 2 62
26 5 240
39 7 372
36 6 327
51 8 463
51 8 454
59 9 509
53 8 440
44 7 356
39 6 301
25 4 179
17 3 109
3 1 2
656 77 5013
659 76 4925
677 76 4950
677 74 4847
679 73 4765
692 73 4758
695 72 4682
703 71 4643
711 70 4609
727 70 4623
746 71 4653
734 68 4499
744 68 4479
769 69 4548
781 69 4537
793 69 4531
803 68 4509
807 67 4458
809 66 4397
816 66 4363
824 65 4339
843 66 4367
905 69 4617
78 7 378
184 14 897
218 17 1051
203 15 965
177 13 826
159 12 727
0 0 0
126 9 559
168 12 740
162 11 703
157 11 672
0 0 0
105 7 432
158 11 651
151 10 611
123 8 489
114 8 447
0 0 0
79 5 298
76 5 283
22 2 70
1273 71 4843
1292 72 4860
1318 72 4901
0 0 0
1271 68 4618
1228 65 4411
1231 64 4370
1219 63 4280
1268 65 4404
1058 53 3632
1026 51 3484
1037 51 3483
1063 52 3533
1150 55 3783
0 0 0
0 0 0
0 0 0
0 0 0
0 0 0
1476 66 4571
0 0 0
0 0 0
1182 52 3551
1110 48 3300
1082 46 3186
1073 46 3128
1162 49 3358
0 0 0
0 0 0
0 0 0
1142 46 3177
1058 42 2915
1058 42 2888
1069 42 2891
1076 42 2885
1075 42 2857
1080 41 2843
1090 41 2846
1084 41 2803
1084 40 2780
1093 40 2777
1097 40 2764
1109 40 2771
1107 40 2742
1106 39 2715
1099 39 2676
1099 38 2652
1110 38 2656
1110 38 2633
1109 38 2611
1117 38 2607
1122 38 2598
1121 37 2574
1105 36 2515
1113 36 2514
1118 36 2503
1114 36 2475
1108 35 2441
1123 35 2456
1115 35 2418
1127 35 2424
1117 34 2383
1118 34 2368
1132 34 2379
1121 34 2336
1115 33 2307
1114 33 2286
1117 33 2274
1108 32 2238
1104 32 2213
1104 32 2197
1107 32 2185
1114 32 2182
1125 32 2186
1130 31 2181
1131 31 2167
1123 31 2135
1133 31 2137
1130 31 2116
1133 30 2105
1134 30 2092
1128 30 2065
1131 30 2055
1129 29 2036
1135 29 2032
-501 23 874
-501 23 881
-490 23 867
-493 23 879
-499 23 897
-481 23 872
-486 23 886
-463 22 851
-476 23 882
-494 24 922
-626 30 1175
-1083 51 2049
-1101 52 2100
-1098 52 2109
-1087 52 2105
-1080 52 2106
-1069 52 2101
-1064 52 2108
-1058 52 2111
-1050 52 2112
-1041 52 2110
-1035 52 2113
-1028 52 2116
-1021 51 2117
-1010 51 2111
-1003 51 2113
-995 51 2113
-991 51 2121
-981 51 2116
-976 51 2122
-967 51 2121
-960 51 2121
-949 50 2115
-937 50 2105
-929 50 2102
-909 49 2076
-899 49 2069
-896 49 2078
-900 50 2105
-876 49 2066
-875 49 2082
-871 49 2088
-863 49 2088
-863 49 2105
-855 49 2104
-838 48 2079
-831 48 2081
-828 48 2091
-822 48 2093
-815 48 2095
-804 48 2084
-799 48 2090
-794 48 2095
-788 48 2097
-781 48 2097
-775 48 2100
-764 48 2089
-756 47 2087
-743 47 2069
-743 47 2089
-736 47 2090
-732 47 2096
-716 47 2071
-717 47 2094
-718 48 2117
-707 47 2104
-708 48 2130
-694 47 2106
-693 47 2124
-678 47 2100
-678 47 2121
-661 46 2090
-648 46 2068
-643 46 2073
-643 46 2095
-625 45 2056
-629 46 2092
-628 46 2111
-625 47 2123
-616 46 2117
-613 47 2129
-602 46 2113
-596 46 2114
-588 46 2113
-578 46 2098
-577 46 2119
-569 46 2115
-566 46 2129
-560 46 2130
-552 46 2126
-543 46 2115
-536 45 2111
-533 46 2125
-528 46 2134
-518 45 2118
-515 46 2133
-507 45 2126
-499 45 2121
-496 45 2135
-515 48 2246
-573 54 2529
-669 63 2993
-684 65 3104
-680 66 3126
-670 65 3123
-665 66 3144
-655 66 3140
-647 66 3148
-639 66 3154
-629 66 3154
-620 66 3156
-612 66 3162
-607 66 3186
-597 66 3183
-586 66 3175
-577 66 3177
-569 66 3185
-560 66 3186
-552 66 3195
-541 65 3186
-535 66 3207
-522 65 3188
-514 65 3193
-504 65 3188
-495 65 3195
-486 65 3198
-477 65 3202
-469 65 3205
-459 65 3205
-448 65 3195
-438 65 3191
-430 65 3199
-422 65 3207
-413 65 3208
-403 65 3204
-394 65 3206
-384 64 3206
-375 64 3209
-365 64 3203
-356 64 3206
-348 64 3212
-339 64 3216
-329 64 3208
-320 64 3215
-310 64 3209
-301 64 3210
-291 64 3207
-282 64 3211
-273 64 3210
-265 64 3224
-262 65 3301
-345 88 4497
-36 11 520
-49 15 724
-30 10 476
-319 96 4902
-278 87 4468
-262 86 4419
-249 86 4408
-233 85 4350
-221 85 4357
-215 87 4500
-199 86 4440
-190 88 4520
-176 87 4488
-163 87 4490
-151 87 4513
-143 90 4675
-10 10 476
-17 16 787
-14 16 771
-12 15 756
-9 14 705
-7 15 726
-6 18 875
-3 15 740
-1 16 779
1 15 710
3 15 712
4 13 657
7 15 727
8 14 662
11 15 760
12 13 647
15 14 696
19 16 815
22 17 827
23 16 792
25 15 764
27 15 752
29 15 768
33 16 800
33 15 739
34 14 717
41 16 819
39 15 748
44 16 796
45 15 764
54 18 888
53 16 831
54 16 805
52 15 739
54 15 734
19 5 227
51 13 636
62 15 758
61 14 722
55 13 626
29 7 302
41 9 424
0 0 0
65 13 653
83 16 820
68 13 646
97 18 904
82 15 738
75 13 660
80 13 680
81 13 672
79 13 637
73 12 577
60 9 459
39 6 280
44 7 314
30 5 200
21 3 129
6 2 20
711 91 4988
719 90 4944
723 88 4868
726 87 4793
735 86 4758
750 86 4765
766 87 4777
758 84 4642
742 81 4466
774 83 4575
795 83 4620
809 83 4619
823 83 4619
815 81 4502
818 80 4446
812 78 4344
830 79 4370
877 82 4547
66 7 323
153 14 754
189 17 923
186 17 894
181 16 857
177 16 826
164 14 753
183 16 828
143 12 638
151 13 662
141 12 611
145 12 619
149 12 627
137 11 568
122 10 497
0 0 0
99 8 392
0 0 0
141 11 551
121 9 464
110 8 415
1260 86 4852
1279 86 4864
1279 85 4808
1310 86 4867
0 0 0
0 0 0
0 0 0
0 0 0
0 0 0
0 0 0
0 0 0
1050 63 3567
1070 63 3594
1120 66 3723
0 0 0
0 0 0
0 0 0
0 0 0
0 0 0
0 0 0
0 0 0
0 0 0
0 0 0
0 0 0
1181 62 3512
1134 59 3339
1068 55 3114
1134 58 3277
0 0 0
0 0 0
0 0 0
1069 52 2972
1056 51 2911
1064 51 2903
1076 51 2910
1074 51 2879
1076 50 2858
1079 50 2841
1072 49 2796
1082 49 2800
1084 49 2778
1077 48 2736
1089 48 2742
1078 47 2693
1099 48 2720
1091 47 2679
1089 47 2649
1095 46 2641
1096 46 2623
1094 46 2597
1103 46 2596
1111 45 2593
1109 45 2566
1117 45 2563
1116 45 2541
1118 44 2524
1117 44 2503
1122 44 2493
1111 43 2449
1122 43 2453
1117 43 2422
1126 43 2422
1116 42 2382
1115 41 2361
1120 41 2352
1123 41 2341
1124 41 2324
1118 40 2293
1127 40 2296
1110 39 2242
1093 39 2191
1105 39 2198
1109 39 2189
1116 39 2187
1128 39 2192
1119 38 2159
1128 38 2159
1126 38 2141
1131 38 2133
1132 37 2118
1129 37 2098
1138 37 2099
1132 37 2072
1140 37 2071
1129 36 2036
1134 36 2030
-503 26 878
-497 26 873
-494 26 875
-495 26 884
-486 26 873
-481 26 871
-478 26 872
-492 26 904
-495 27 916
-497 27 927
-619 33 1163
-1083 58 2049
-1104 59 2104
-1098 59 2109
-1089 59 2108
-1083 59 2113
-1075 59 2113
-1064 59 2107
-1062 59 2119
-1054 59 2119
-1042 58 2112
-1035 58 2113
-1027 58 2113
-1022 58 2120
-1015 58 2121
-1003 58 2113
-992 57 2107
-990 58 2120
-981 58 2117
-973 57 2116
-965 57 2114
-959 57 2119
-950 57 2117
-941 57 2113
-932 57 2109
-920 56 2100
-902 56 2075
-899 56 2085
-897 56 2097
-885 56 2088
-865 55 2057
-872 55 2093
-871 56 2108
-851 55 2076
-842 55 2072
-832 54 2066
-838 55 2099
-831 55 2098
-821 55 2091
-817 55 2098
-810 55 2099
-793 54 2074
-798 55 2104
-787 54 2094
-783 54 2104
-776 54 2104
-769 54 2104
-764 54 2110
-743 53 2070
-733 53 2062
-740 54 2099
-735 54 2106
-719 53 2081
-713 53 2082
-707 53 2084
-705 53 2100
-697 53 2095
-702 54 2131
-686 53 2102
-678 53 2100
-675 53 2111
-666 53 2105
-646 52 2063
-643 52 2075
-638 52 2080
-632 52 2080
-629 52 2094
-629 53 2116
-622 53 2114
-617 53 2119
-612 53 2125
-603 53 2117
-601 53 2134
-587 52 2108
-578 52 2100
-576 52 2116
-568 52 2109
-561 52 2107
-557 52 2118
-546 52 2100
-544 52 2117
-536 52 2113
-528 52 2107
-526 52 2124
-520 52 2127
-515 52 2131
-504 51 2116
-499 51 2119
-503 53 2165
-530 56 2312
-614 65 2710
-676 73 3023
-685 74 3106
-678 75 3118
-670 75 3125
-664 75 3139
-657 75 3151
-647 75 3148
-638 75 3149
-630 75 3158
-617 74 3142
-610 75 3150
-603 75 3164
-597 75 3182
-588 75 3185
-576 75 3173
-570 75 3193
-559 75 3183
-552 75 3195
-542 75 3190
-532 75 3191
-524 75 3196
-515 75 3199
-506 75 3201
-496 75 3199
-486 74 3198
-476 74 3194
-468 74 3204
-459 74 3202
-448 74 3195
-440 74 3200
-429 74 3188
-421 74 3204
-413 74 3213
-402 74 3201
-393 74 3202
-385 74 3212
-375 74 3204
-365 73 3201
-356 74 3207
-347 73 3203
-338 73 3207
-328 73 3206
-321 74 3221
-311 73 3216
-301 73 3207
-292 73 3219
-283 73 3217
-273 73 3208
-265 73 3224
-258 74 3259
0 0 0
-45 16 645
-45 16 675
-28 11 459
-329 113 5056
-291 105 4683
-269 102 4542
-251 100 4455
-232 97 4335
-222 98 4388
-212 99 4447
-195 97 4346
-184 97 4371
-170 97 4355
-160 98 4420
-149 99 4461
-142 103 4659
-9 11 438
-12 14 594
-13 17 711
-12 18 789
-9 17 731
-6 16 672
-7 20 880
-3 18 759
-1 18 766
1 17 723
3 17 708
4 15 636
6 15 619
8 14 601
11 17 724
12 15 660
15 16 690
17 17 734
17 15 622
17 13 549
19 14 578
23 15 633
28 17 721
26 14 609
29 15 663
32 16 676
34 16 682
39 17 747
38 16 685
39 15 663
48 18 779
40 14 620
48 16 719
45 15 641
52 16 714
20 6 232
26 8 306
60 17 734
56 15 652
32 9 350
45 11 486
27 7 264
32 8 318
57 13 565
0 0 0
0 0 0
51 11 459
68 14 605
76 15 662
79 15 671
70 13 576
74 14 596
61 11 477
63 11 483
67 12 503
36 6 254
40 7 275
22 4 135
6 2 22
7 2 30
725 105 4981
730 104 4915
727 101 4802
731 100 4735
742 99 4713
744 98 4642
745 96 4560
749 95 4505
770 96 4550
788 96 4579
803 96 4586
812 96 4561
806 93 4453
817 93 4439
818 92 4374
829 91 4361
881 95 4567
120 13 595
161 17 793
168 18 819
164 17 788
157 16 740
141 15 651
161 16 738
175 17 791
160 16 711
159 16 699
165 16 717
160 15 687
123 12 518
0 0 0
127 12 518
135 12 547
57 6 219
114 10 448
94 9 363
0 0 0
35 4 123
5 1 6
1267 100 4821
1278 99 4804
1302 100 4836
74 6 259
0 0 0
0 0 0
0 0 0
0 0 0
0 0 0
0 0 0
0 0 0
0 0 0
0 0 0
0 0 0
0 0 0
0 0 0
0 0 0
0 0 0
0 0 0
0 0 0
0 0 0
0 0 0
0 0 0
0 0 0
0 0 0
0 0 0
0 0 0
0 0 0
0 0 0
0 0 0
1053 60 2928
1056 60 2908
1070 60 2922
1076 60 2911
1084 60 2906
1081 59 2872
1083 59 2850
1071 58 2793
1077 57 2785
1096 58 2810
1071 56 2722
1084 56 2731
1096 56 2736
1095 56 2710
1075 54 2638
1096 55 2666
1100 55 2655
1084 54 2594
1084 53 2573
1091 53 2568
1107 53 2583
1102 53 2550
1109 53 2546
1115 52 2538
1109 52 2503
1108 51 2482
1118 51 2484
1121 51 2470
1118 50 2443
1127 51 2443
1110 49 2386
1126 50 2402
1127 49 2387
1121 49 2354
1115 48 2324
1119 48 2313
1109 47 2276
1109 47 2258
1099 46 2219
1101 46 2207
1103 46 2193
1114 46 2198
1118 46 2190
1124 45 2184
1129 45 2179
1132 45 2167
1128 45 2143
1129 44 2130
1132 44 2120
1132 44 2103
1131 44 2086
1131 43 2070
1127 43 2048
1134 43 2045
1133 42 2028
-504 29 880
-495 29 870
-496 29 878
-497 29 887
-482 28 867
-483 28 874
-477 28 870
-484 29 889
-496 30 918
-508 30 947
-618 37 1161
-1080 64 2045
-1103 66 2104
-1095 66 2103
-1092 66 2114
-1083 66 2112
-1074 65 2111
-1066 65 2112
-1058 65 2111
-1051 65 2114
-1044 65 2116
-1036 65 2116
-1024 65 2108
-1020 65 2115
-1008 64 2108
-1005 65 2117
-997 64 2117
-990 64 2120
-982 64 2118
-975 64 2120
-968 64 2121
-959 64 2119
-954 64 2125
-937 63 2105
-925 63 2093
-907 62 2070
-904 62 2080
-896 62 2078
-889 62 2080
-883 62 2082
-875 62 2082
-871 62 2088
-860 61 2081
-861 62 2100
-842 61 2072
-839 61 2083
-836 61 2093
-829 61 2092
-829 62 2111
-810 61 2081
-809 61 2096
-807 61 2109
-794 61 2094
-797 61 2121
-788 61 2115
-776 61 2102
-764 60 2091
-764 61 2109
-740 59 2062
-738 60 2074
-738 60 2096
-727 60 2083
-722 60 2088
-715 60 2089
-709 60 2091
-706 60 2101
-704 60 2116
-697 60 2117
-697 61 2137
-683 60 2115
-676 60 2115
-666 59 2104
-642 58 2051
-639 58 2059
-641 59 2090
-630 58 2075
-627 58 2086
-629 59 2116
-627 59 2131
-616 59 2116
-611 59 2121
-597 58 2096
-600 59 2129
-587 58 2108
-576 58 2090
-579 59 2125
-567 58 2108
-562 58 2112
-559 59 2127
-551 58 2120
-546 58 2128
-540 58 2129
-527 58 2101
-523 58 2111
-520 58 2126
-512 58 2120
-504 58 2112
-504 58 2142
-499 58 2147
-539 64 2349
-658 78 2905
-691 83 3091
-682 83 3093
-676 83 3108
-671 84 3129
-663 84 3135
-656 84 3146
-647 84 3151
-640 84 3163
-629 84 3154
-618 84 3148
-612 84 3162
-603 84 3165
-596 84 3177
-588 84 3185
-576 84 3172
-568 84 3182
-560 84 3188
-551 84 3191
-542 84 3194
-534 84 3200
-525 84 3206
-514 84 3196
-505 84 3200
-496 84 3199
-486 84 3194
-477 84 3202
-468 84 3204
-459 84 3202
-449 83 3200
-439 83 3193
-431 83 3204
-422 83 3206
-412 83 3208
-403 83 3207
-394 83 3210
-384 83 3206
-375 83 3208
-365 83 3205
-356 83 3203
-346 82 3196
-337 82 3201
-329 83 3210
-319 83 3209
-310 83 3214
-301 82 3208
-292 82 3212
-282 82 3210
-273 82 3212
-263 82 3208
-258 83 3261
0 0 0
-27 11 399
-32 14 491
-25 11 411
-14 8 262
-314 128 5051
-284 121 4782
-253 114 4493
-232 109 4331
-223 111 4400
-208 110 4364
-193 108 4295
-177 106 4213
-168 108 4292
-156 108 4310
-147 111 4412
-142 117 4663
-1 5 144
-10 14 525
-9 14 538
-9 16 605
-6 15 560
-5 16 588
-4 17 633
-3 21 787
-1 19 736
1 18 674
3 15 572
4 14 530
6 15 551
8 16 620
9 15 544
12 17 639
12 15 565
14 15 546
14 13 497
17 14 541
16 13 475
19 14 513
21 14 522
23 15 553
23 13 504
27 15 553
22 11 425
26 13 478
30 14 516
28 12 459
30 13 478
33 13 494
39 15 564
35 13 490
34 12 446
12 4 131
14 5 152
49 15 593
0 0 0
22 7 234
20 6 200
13 4 115
24 7 230
24 6 221
22 6 198
27 7 242
44 11 394
43 10 376
55 12 470
70 15 598
60 13 492
56 12 450
54 11 419
51 10 383
51 10 379
42 8 296
32 6 218
27 5 176
11 2 56
4 1 6
705 116 4845
721 116 4857
724 115 4782
738 115 4782
733 112 4659
741 111 4619
746 109 4570
740 107 4451
754 107 4457
765 106 4440
785 107 4484
790 106 4436
801 106 4422
800 104 4346
810 103 4330
829 104 4362
907 112 4697
77 10 377
149 18 735
155 19 753
147 18 703
133 16 625
135 16 625
141 16 645
137 16 617
163 18 728
136 15 594
168 18 729
159 17 680
152 16 641
154 16 640
141 15 579
97 10 388
106 11 418
94 10 364
132 13 513
34 4 117
12 2 31
1258 114 4840
1254 113 4771
1294 115 4863
1288 113 4785
1314 114 4826
0 0 0
0 0 0
0 0 0
0 0 0
0 0 0
0 0 0
0 0 0
0 0 0
0 0 0
0 0 0
0 0 0
0 0 0
0 0 0
0 0 0
0 0 0
0 0 0
0 0 0
0 0 0
0 0 0
0 0 0
0 0 0
0 0 0
0 0 0
0 0 0
0 0 0
0 0 0
1072 70 2981
1044 68 2876
1070 69 2920
1108 71 2997
1118 71 2998
1073 67 2849
1173 73 3088
1051 65 2741
1095 67 2832
1096 66 2809
1076 65 2733
1090 65 2745
1052 62 2625
1100 64 2723
1068 62 2622
1099 63 2674
1098 63 2649
1098 62 2627
1093 61 2593
1099 61 2586
1091 60 2545
1082 59 2504
1094 60 2511
1099 59 2502
1097 59 2475
1102 59 2468
1112 59 2469
1115 58 2457
1112 58 2429
1115 58 2417
1111 57 2389
1110 56 2368
1117 56 2363
1118 56 2347
1111 55 2314
1121 55 2318
1122 55 2301
1121 55 2283
1101 53 2224
1102 53 2208
1107 53 2202
1105 52 2181
1118 52 2189
1124 52 2185
1128 52 2175
1127 52 2157
1126 51 2139
1123 51 2117
1134 51 2122
1126 50 2092
1136 50 2094
1132 50 2073
1142 50 2075
1142 50 2059
1137 49 2035
-503 32 878
-492 31 865
-495 32 877
-491 32 876
-485 31 872
-480 31 870
-472 31 861
-480 31 883
-480 32 889
-479 32 893
-609 40 1144
-1076 70 2037
-1110 73 2116
-1099 73 2111
-1088 72 2107
-1084 72 2114
-1074 72 2110
-1067 72 2113
-1058 72 2112
-1050 72 2111
-1045 72 2117
-1034 71 2112
-1027 71 2113
-1021 71 2117
-1010 71 2112
-1002 71 2112
-995 71 2113
-987 71 2111
-981 71 2116
-971 70 2112
-964 70 2112
-960 71 2122
-949 70 2114
-935 69 2098
-923 69 2089
-906 68 2068
-907 69 2088
-893 68 2072
-890 68 2081
-889 69 2097
-881 69 2096
-873 68 2095
-859 68 2078
-856 68 2088
-848 68 2085
-827 67 2051
-836 68 2092
-832 68 2102
-825 68 2102
-814 67 2090
-816 68 2116
-805 68 2104
-797 67 2103
-790 67 2102
-780 67 2095
-776 67 2104
-766 67 2094
-759 67 2095
-741 66 2064
-722 64 2031
-740 67 2101
-734 67 2103
-714 65 2064
-721 66 2106
-713 66 2101
-700 66 2083
-706 67 2121
-691 66 2096
-692 66 2122
-677 66 2098
-677 66 2117
-669 66 2115
-649 65 2072
-635 64 2048
-638 65 2079
-636 65 2094
-628 65 2088
-632 66 2124
-621 65 2110
-614 65 2109
-603 65 2094
-599 65 2105
-597 65 2120
-587 65 2109
-575 64 2086
-577 65 2120
-572 65 2126
-563 65 2117
-558 65 2121
-552 65 2125
-547 65 2129
-541 65 2132
-533 65 2125
-526 64 2123
-518 64 2117
-513 64 2124
-505 64 2117
-498 64 2117
-497 65 2141
-539 71 2349
-665 88 2934
-691 92 3091
-687 93 3117
-674 92 3100
-668 93 3113
-663 93 3138
-654 93 3140
-649 94 3160
-638 93 3150
-628 93 3148
-620 93 3155
-613 93 3166
-605 94 3177
-597 94 3185
-587 94 3181
-577 93 3179
-569 93 3184
-561 94 3193
-552 94 3195
-542 93 3192
-533 94 3199
-523 93 3193
-515 94 3204
-505 93 3201
-497 93 3206
-486 93 3198
-477 93 3202
-468 93 3200
-458 93 3201
-449 93 3202
-440 93 3206
-430 93 3197
-422 93 3208
-412 92 3201
-401 92 3195
-393 92 3201
-385 92 3210
-375 92 3206
-366 92 3211
-355 92 3196
-347 92 3211
-337 92 3205
-328 92 3205
-320 92 3212
-309 92 3204
-300 91 3202
-291 91 3203
-281 91 3202
-273 91 3210
-263 91 3202
-258 92 3252
-350 129 4567
-5 4 111
-25 12 387
-20 11 338
-10 7 202
-1 3 63
-295 140 4966
-255 127 4525
-233 122 4350
-220 122 4351
-206 121 4319
-192 120 4277
-179 120 4270
-168 120 4295
-153 118 4222
-142 119 4260
-138 127 4538
-138 139 4992
-5 10 331
-3 9 286
-3 10 309
0 7 204
-2 12 393
-2 15 493
-1 14 473
0 15 488
1 14 464
3 15 499
4 11 367
5 14 471
6 13 418
7 12 404
9 14 472
12 15 520
11 13 439
10 10 335
9 8 244
11 9 297
12 9 284
15 11 346
15 10 335
14 9 279
18 11 360
17 9 300
16 9 273
19 10 320
18 9 271
25 12 385
26 12 383
25 11 350
25 10 331
22 9 274
366 137 5025
5 2 29
25 9 287
14 5 135
424 137 5021
437 136 5004
5 2 24
462 135 4969
6 2 31
12 4 91
18 5 146
522 135 4986
3 1 4
26 7 212
49 12 404
36 9 283
43 10 335
42 10 323
51 12 386
37 8 269
33 7 232
28 6 187
23 5 144
10 2 48
3 1 2
721 133 4955
723 131 4870
724 128 4779
731 127 4735
736 126 4677
732 123 4564
739 121 4523
739 119 4446
745 118 4403
759 118 4408
763 117 4357
776 117 4356
775 115 4280
783 114 4252
813 116 4342
821 116 4319
870 120 4504
952 130 4856
63 9 302
100 14 477
122 16 579
112 15 523
102 13 466
97 13 439
135 17 608
105 13 460
99 13 430
139 17 601
125 15 530
106 13 442
113 13 464
138 16 566
149 17 605
109 13 431
110 13 430
87 10 334
38 5 137
19 3 60
1260 129 4848
1281 129 4869
1271 127 4776
1315 130 4884
1319 129 4843
0 0 0
0 0 0
0 0 0
0 0 0
0 0 0
0 0 0
0 0 0
0 0 0
0 0 0
0 0 0
0 0 0
0 0 0
0 0 0
0 0 0
0 0 0
0 0 0
0 0 0
0 0 0
0 0 0
0 0 0
0 0 0
0 0 0
0 0 0
0 0 0
0 0 0
0 0 0
1044 77 2902
1048 77 2887
1061 77 2896
1068 77 2889
1112 79 2979
1129 80 2999
1080 76 2843
1103 77 2878
1167 81 3019
1166 80 2989
1097 74 2786
1099 74 2768
1097 73 2738
1114 74 2757
1085 71 2662
1046 68 2545
1082 70 2611
1059 68 2532
1065 68 2526
1053 66 2476
1089 68 2541
1114 69 2578
1083 67 2485
1095 67 2492
1094 66 2469
1097 66 2456
1094 65 2428
1096 65 2414
1109 65 2422
1100 64 2383
1108 64 2382
1110 64 2367
1096 63 2319
1119 63 2349
1114 63 2321
1117 62 2310
1113 62 2283
1106 61 2251
1088 59 2197
1104 60 2212
1103 59 2193
1107 59 2184
1116 59 2185
1120 59 2178
1130 59 2179
1123 58 2150
1128 58 2142
1123 58 2117
1123 57 2102
1132 57 2102
1130 57 2083
1134 57 2075
1136 56 2064
1131 56 2040
1140 56 2039
-505 35 880
-501 35 881
-498 35 882
-489 34 873
-486 34 873
-483 34 874
-483 34 882
-479 34 881
-480 34 889
-490 35 913
-607 44 1140
-1076 77 2035
-1103 79 2104
-1099 79 2111
-1091 79 2112
-1078 79 2102
-1073 79 2109
-1067 79 2113
-1058 79 2110
-1053 79 2117
-1043 78 2114
-1035 78 2113
-1029 78 2118
-1018 78 2110
-1013 78 2117
-1002 78 2111
-996 78 2114
-988 77 2114
-985 78 2124
-972 77 2113
-969 77 2123
-959 77 2120
-950 77 2117
-943 77 2118
-913 75 2067
-909 75 2075
-914 76 2104
-899 75 2085
-878 74 2054
-880 74 2076
-872 74 2074
-866 74 2078
-861 74 2082
-855 74 2087
-851 74 2093
-832 73 2066
-833 74 2085
-830 74 2094
-822 74 2093
-819 74 2104
-811 74 2103
-805 74 2104
-799 74 2108
-792 74 2108
-774 73 2078
-782 74 2119
-765 73 2093
-763 73 2107
-755 73 2103
-732 72 2057
-738 73 2095
-726 72 2079
-717 72 2074
-725 73 2116
-717 73 2115
-705 72 2099
-703 73 2114
-693 72 2103
-688 72 2108
-686 73 2125
-672 72 2101
-668 72 2111
-652 71 2082
-636 70 2050
-641 71 2090
-638 71 2099
-627 71 2087
-629 72 2116
-622 72 2115
-620 72 2131
-613 72 2127
-599 71 2104
-597 71 2120
-590 71 2120
-580 71 2105
-574 71 2109
-571 71 2122
-564 71 2120
-556 71 2115
-554 71 2131
-547 71 2130
-537 71 2118
-535 71 2134
-527 71 2130
-519 71 2123
-515 71 2133
-505 70 2120
-502 71 2134
-500 71 2153
-531 76 2317
-663 96 2928
-687 101 3074
-677 101 3073
-676 102 3107
-670 102 3123
-663 102 3134
-653 102 3132
-644 102 3137
-640 103 3162
-629 103 3153
-616 102 3135
-611 103 3161
-604 103 3170
-596 103 3179
-587 103 3181
-580 103 3195
-566 102 3172
-561 103 3197
-551 103 3192
-542 103 3192
-534 103 3201
-523 103 3196
-513 102 3190
-506 103 3203
-496 103 3204
-486 102 3199
-478 103 3207
-466 102 3191
-458 102 3202
-449 102 3201
-439 102 3194
-429 102 3193
-420 102 3197
-411 102 3196
-402 102 3201
-393 101 3199
-383 101 3200
-374 101 3202
-365 101 3202
-356 101 3204
-346 101 3203
-337 101 3200
-329 101 3211
-319 101 3208
-309 101 3205
-300 101 3206
-291 101 3202
-282 101 3207
-273 101 3210
-264 101 3220
-262 103 3301
-358 146 4674
-1 3 53
-16 9 262
-6 5 125
-329 157 5049
0 2 41
-293 153 4933
-261 144 4630
-238 138 4455
-222 136 4392
-208 135 4355
-193 133 4303
-178 131 4238
-166 132 4254
-153 131 4242
-141 131 4235
-137 138 4488
-133 148 4799
1 2 41
0 6 148
1 4 77
1 4 80
1 3 74
0 8 208
0 10 276
0 18 540
2 11 332
2 9 251
3 11 331
4 8 225
4 6 173
6 9 263
8 13 399
7 9 273
6 6 150
6 5 131
6 6 146
8 7 191
5 3 71
8 6 162
9 6 164
5 3 60
4 2 29
5 3 46
6 3 74
10 5 139
8 4 93
10 5 124
10 5 126
10 5 121
5 2 37
351 151 5020
361 149 4956
378 150 4995
8 3 61
405 150 4975
412 147 4883
426 147 4883
438 146 4853
453 146 4866
465 145 4841
484 147 4889
495 146 4859
511 146 4884
529 147 4920
554 150 5016
4 1 8
585 150 5026
22 6 159
17 5 112
24 6 166
24 6 160
18 5 116
673 150 5026
4 1 5
10 3 52
716 150 5021
723 148 4962
720 144 4846
721 142 4759
724 140 4684
726 137 4612
727 135 4532
741 135 4535
734 131 4415
744 131 4393
748 129 4339
754 128 4302
765 128 4290
778 128 4292
777 125 4221
793 126 4236
807 126 4244
828 127 4289
849 128 4330
888 132 4462
30 5 133
56 9 256
85 13 394
98 14 449
88 13 398
101 14 450
110 15 484
70 10 298
88 12 376
98 13 413
105 14 438
82 11 335
102 13 416
101 13 404
74 10 290
123 15 481
87 11 333
35 5 124
1255 144 4888
1257 143 4834
1259 141 4787
1272 141 4780
1292 142 4798
1304 141 4787
0 0 0
0 0 0
0 0 0
0 0 0
0 0 0
0 0 0
0 0 0
0 0 0
0 0 0
0 0 0
0 0 0
0 0 0
0 0 0
0 0 0
0 0 0
0 0 0
0 0 0
0 0 0
0 0 0
0 0 0
0 0 0
0 0 0
0 0 0
0 0 0
0 0 0
0 0 0
1033 85 2871
1052 86 2897
1061 86 2894
1063 85 2873
1080 86 2893
1074 85 2853
1070 84 2815
1091 85 2846
1123 86 2904
1119 85 2868
1126 85 2862
1078 81 2715
1139 85 2845
1093 81 2706
1079 79 2648
1110 81 2700
1109 80 2676
997 71 2384
1089 77 2582
1087 76 2556
1049 73 2447
1068 74 2471
1126 77 2584
1046 71 2380
1084 73 2445
1093 73 2447
1096 73 2432
1079 71 2377
1089 71 2379
1097 71 2378
1103 71 2370
1097 70 2341
1103 70 2334
1106 70 2321
1109 70 2309
1108 69 2289
1107 68 2269
1105 68 2249
1101 67 2223
1104 67 2212
1098 66 2183
1108 66 2186
1117 66 2187
1120 66 2176
1130 66 2179
1127 66 2156
1136 66 2158
1125 65 2122
1126 64 2108
1127 64 2092
1129 63 2081
1128 63 2065
1131 63 2053
1136 63 2047
1127 62 2017
-503 37 877
-506 38 889
-498 37 881
-493 37 880
-490 37 881
-486 37 880
-476 37 868
-470 36 864
-499 39 923
-508 40 947
-607 47 1140
-1075 83 2034
-1104 86 2104
-1098 86 2109
-1093 86 2115
-1081 86 2108
-1076 86 2114
-1069 86 2117
-1058 85 2111
-1052 85 2116
-1046 85 2119
-1037 85 2118
-1027 85 2114
-1022 85 2120
-1012 84 2115
-1003 84 2114
-999 84 2120
-990 84 2119
-985 84 2125
-976 84 2121
-970 84 2125
-960 84 2121
-948 83 2111
-939 83 2108
-921 82 2084
-903 81 2060
-906 82 2084
-892 81 2069
-888 81 2076
-886 81 2089
-870 80 2070
-873 81 2095
-868 81 2101
-864 82 2108
-848 81 2085
-840 80 2084
-840 81 2102
-832 81 2099
-827 81 2107
-817 80 2098
-808 80 2093
-795 79 2078
-796 80 2100
-789 80 2099
-775 79 2082
-770 79 2088
-769 80 2103
-762 80 2104
-744 78 2073
-734 78 2064
-731 78 2075
-734 79 2102
-713 78 2061
-716 79 2090
-710 79 2094
-707 79 2103
-703 79 2112
-701 79 2127
-686 78 2103
-682 79 2111
-678 79 2120
-666 78 2104
-652 77 2080
-641 77 2068
-640 77 2085
-633 77 2085
-628 77 2089
-625 78 2102
-621 78 2110
-622 79 2137
-611 78 2124
-602 78 2114
-592 77 2103
-586 77 2106
-577 77 2097
-570 77 2095
-573 78 2130
-564 77 2119
-558 77 2121
-557 78 2141
-547 77 2132
-538 77 2120
-532 77 2124
-525 77 2121
-519 77 2124
-517 77 2141
-506 77 2124
-505 77 2145
-497 77 2139
-521 82 2273
-644 102 2843
-685 110 3065
-678 110 3075
-680 112 3128
-665 111 3103
-668 112 3159
-657 112 3150
-647 112 3150
-638 112 3151
-628 112 3150
-614 111 3126
-613 112 3168
-605 112 3177
-594 112 3169
-589 113 3192
-582 113 3204
-570 112 3193
-566 113 3222
-562 114 3255
-551 114 3250
-541 114 3245
-530 113 3238
-518 113 3221
-510 113 3230
-502 113 3242
-491 113 3230
-483 113 3239
-473 113 3240
-461 112 3218
-450 112 3211
-440 111 3207
-430 111 3200
-421 111 3199
-414 112 3218
-407 112 3238
-395 111 3215
-386 112 3225
-377 112 3227
-368 112 3228
-357 111 3214
-347 111 3207
-338 111 3209
-328 110 3209
-319 110 3203
-309 110 3203
-301 110 3216
-291 110 3208
-282 110 3207
-273 110 3215
-266 111 3244
-270 117 3408
-355 158 4632
-361 167 4899
-357 172 5042
0 2 31
-323 169 4961
-302 165 4863
-289 165 4871
-267 161 4740
-245 155 4580
-229 154 4531
-211 150 4428
-192 145 4295
-178 143 4238
-165 143 4227
-152 142 4211
-141 143 4232
-130 144 4269
-130 158 4693
-122 165 4906
-108 166 4943
-96 169 5043
-82 170 5059
0 8 206
1 6 142
-38 169 5044
2 2 13
2 4 72
2 6 133
3 3 66
4 11 282
3 4 87
63 169 5054
3 2 33
5 6 150
106 169 5058
5 5 109
2 1 -2
4 3 49
163 167 5020
177 167 5011
190 165 4958
3 2 19
222 168 5050
236 167 5025
6 3 65
5 2 36
9 5 118
294 167 5036
306 165 4985
324 167 5055
338 166 5032
351 166 5016
355 161 4876
371 162 4894
392 165 4986
402 163 4927
403 157 4773
417 157 4770
436 159 4829
448 158 4808
459 157 4781
469 156 4735
479 155 4704
494 155 4713
506 155 4703
530 157 4790
546 158 4813
571 161 4910
592 163 4964
599 161 4903
16 5 106
4 1 8
18 5 115
665 163 4964
678 162 4954
695 163 4969
707 162 4952
713 160 4898
719 158 4838
727 157 4797
730 154 4723
736 153 4675
728 148 4540
738 148 4519
741 145 4453
739 143 4363
746 141 4330
751 140 4282
758 139 4251
761 137 4198
771 137 4187
785 137 4195
794 136 4173
811 137 4197
823 137 4193
855 140 4291
870 140 4306
900 143 4388
0 0 0
0 0 0
40 7 173
50 8 214
43 7 178
41 7 170
68 10 285
45 7 180
60 9 245
91 13 372
107 15 433
68 10 268
110 15 438
70 10 269
50 7 183
50 7 182
18 3 54
1262 158 4856
1261 156 4793
1278 156 4803
1312 158 4873
17 3 50
0 0 0
0 0 0
0 0 0
0 0 0
0 0 0
0 0 0
0 0 0
0 0 0
0 0 0
0 0 0
0 0 0
0 0 0
0 0 0
0 0 0
0 0 0
0 0 0
0 0 0
0 0 0
0 0 0
0 0 0
0 0 0
0 0 0
0 0 0
0 0 0
0 0 0
0 0 0
1051 96 2921
1051 95 2893
1063 95 2900
1066 94 2881
1066 94 2856
1086 94 2884
1082 93 2848
1081 92 2819
1078 91 2786
1102 93 2823
1097 91 2786
1108 92 2790
1102 90 2750
1094 89 2707
1128 91 2767
1096 88 2666
1135 90 2737
1110 87 2654
1083 85 2567
1149 89 2703
1090 84 2541
1117 85 2584
1073 81 2461
1131 85 2574
1056 79 2382
1132 84 2533
1088 80 2416
1080 79 2377
1109 80 2422
1097 79 2378
1096 78 2357
1106 78 2358
1101 77 2330
1090 76 2288
1111 77 2314
1099 76 2270
1105 75 2265
1104 75 2247
1096 74 2212
1104 74 2212
1106 74 2198
1112 73 2194
1115 73 2182
1121 73 2177
1127 73 2173
1120 72 2144
1126 72 2138
1122 71 2114
1132 71 2118
1126 70 2091
1128 70 2079
1135 70 2076
1131 69 2054
1136 69 2048
1137 69 2034
-506 41 883
-496 40 872
-495 40 876
-490 40 873
-495 41 889
-482 40 873
-472 39 861
-478 40 878
-479 40 886
-494 42 922
-604 51 1134
-1069 89 2023
-1106 93 2108
-1099 93 2111
-1089 93 2108
-1082 92 2110
-1074 92 2110
-1067 92 2113
-1057 92 2108
-1049 92 2108
-1046 92 2119
-1036 92 2114
-1029 92 2117
-1020 91 2116
-1014 91 2119
-1006 91 2119
-997 91 2118
-989 91 2116
-978 90 2109
