VERSION 0.7
FIELDS x y z
SIZE 4 4 4
TYPE I I I
COUNT 1 1 1
WIDTH 3296
HEIGHT 1
VIEWPOINT 0.0 0.0 0.0 1.0 0.0 0.0 0.0
POINTS 3296
DATA ascii
-1046 -331 2229
-1042 -332 2238
-1017 -326 2202
-1003 -324 2189
-980 -319 2156
-980 -321 2173
-985 -325 2202
-994 -330 2240
-999 -334 2271
-990 -333 2269
-988 -335 2284
-981 -335 2286
-983 -338 2308
-981 -340 2324
-977 -341 2334
-966 -340 2328
-970 -344 2357
-963 -344 2360
-961 -346 2376
-956 -347 2385
-952 -348 2395
-945 -348 2397
-944 -351 2415
-938 -352 2424
-938 -354 2444
-934 -356 2455
-931 -358 2470
-923 -357 2471
-917 -358 2479
-910 -358 2480
-910 -362 2505
-907 -363 2518
-900 -364 2523
-896 -365 2536
-889 -365 2539
-890 -369 2566
-884 -370 2575
-878 -371 2582
-873 -372 2590
-867 -373 2599
-858 -372 2597
-856 -375 2618
-854 -377 2637
-846 -377 2638
-838 -377 2640
-833 -379 2652
-826 -379 2658
-818 -379 2659
-811 -380 2663
-804 -381 2671
-800 -382 2685
-796 -385 2701
-783 -382 2686
-775 -382 2687
-764 -380 2677
-750 -377 2658
-740 -377 2654
-732 -377 2653
-738 -384 2705
-717 -377 2661
-716 -381 2686
-706 -380 2683
-685 -373 2631
-674 -371 2622
-670 -373 2638
-659 -372 2629
-661 -377 2669
-642 -371 2623
-633 -370 2622
-625 -370 2621
-617 -370 2621
-610 -370 2623
-601 -369 2621
-591 -368 2611
-584 -368 2614
-574 -368 2609
-564 -366 2598
-558 -367 2606
-550 -367 2607
-540 -365 2595
-532 -365 2598
-524 -365 2595
-516 -364 2593
-507 -364 2589
-499 -363 2586
-490 -362 2579
-482 -362 2577
-472 -360 2567
-464 -360 2567
-455 -359 2559
-448 -359 2561
-441 -359 2562
-433 -359 2562
-423 -357 2551
-415 -357 2544
-407 -357 2546
-400 -357 2548
-391 -356 2541
-384 -356 2542
-375 -355 2534
-369 -355 2538
-360 -354 2528
-352 -354 2527
-344 -353 2523
-337 -353 2525
-328 -352 2517
-321 -352 2515
-314 -352 2520
-305 -351 2512
-298 -351 2509
-290 -350 2504
-283 -350 2505
-274 -349 2496
-267 -349 2495
-259 -348 2491
-252 -348 2491
-244 -347 2484
-236 -347 2481
-229 -347 2484
-221 -346 2474
-214 -346 2475
-207 -345 2473
-200 -346 2474
-192 -344 2464
-184 -344 2459
-177 -343 2458
-170 -345 2467
-163 -344 2459
-155 -343 2453
-148 -344 2459
-140 -342 2446
-133 -342 2448
-126 -342 2447
-119 -342 2446
-112 -341 2438
-105 -341 2439
-97 -340 2435
-90 -340 2432
-83 -339 2427
-76 -340 2430
-69 -340 2430
-62 -337 2413
-55 -338 2421
-48 -340 2430
-41 -339 2425
-34 -339 2422
-27 -339 2424
-20 -338 2419
-13 -338 2418
-6 -338 2418
0 -337 2406
7 -337 2410
14 -337 2406
21 -336 2400
28 -336 2397
35 -335 2395
42 -335 2391
49 -334 2386
56 -336 2396
63 -335 2390
70 -336 2397
77 -335 2391
83 -335 2390
90 -334 2382
97 -334 2378
103 -331 2358
110 -332 2363
117 -332 2365
123 -332 2360
130 -331 2357
138 -332 2365
145 -333 2367
149 -329 2336
154 -323 2298
160 -323 2294
167 -323 2298
176 -328 2326
183 -328 2332
190 -329 2334
198 -330 2344
204 -330 2341
209 -327 2321
218 -330 2336
224 -329 2329
231 -329 2329
238 -329 2331
244 -329 2331
250 -328 2322
257 -328 2321
263 -328 2317
270 -328 2316
273 -324 2286
282 -326 2303
288 -325 2296
296 -327 2304
303 -327 2304
311 -328 2313
317 -328 2309
322 -326 2300
328 -326 2294
336 -327 2298
342 -327 2297
350 -327 2300
354 -325 2284
361 -325 2285
369 -327 2292
378 -329 2306
380 -325 2279
386 -324 2270
391 -323 2260
401 -325 2277
416 -332 2325
425 -334 2337
431 -334 2332
440 -335 2342
443 -332 2319
439 -324 2263
451 -328 2291
462 -332 2312
467 -330 2300
473 -330 2295
476 -327 2275
488 -330 2298
495 -331 2300
500 -330 2292
502 -326 2266
509 -327 2269
515 -326 2262
525 -329 2277
530 -328 2270
535 -327 2261
543 -328 2265
548 -326 2256
555 -327 2257
567 -330 2276
566 -325 2243
572 -325 2238
580 -326 2244
588 -327 2249
594 -326 2244
599 -325 2235
605 -325 2233
611 -325 2229
620 -326 2235
628 -327 2238
633 -326 2230
643 -328 2244
651 -329 2245
664 -332 2265
668 -331 2255
677 -332 2259
677 -329 2237
686 -330 2243
694 -330 2245
685 -323 2192
677 -316 2145
687 -318 2152
694 -318 2152
707 -321 2172
715 -322 2174
720 -321 2169
735 -325 2191
727 -318 2145
736 -320 2152
740 -319 2142
745 -318 2137
755 -320 2145
762 -320 2145
768 -320 2141
776 -320 2144
793 -325 2169
785 -319 2128
779 -314 2093
808 -323 2152
811 -322 2140
814 -320 2127
820 -320 2125
826 -320 2121
834 -320 2123
839 -320 2116
845 -320 2112
852 -320 2112
860 -321 2114
867 -321 2114
872 -320 2106
879 -321 2106
881 -319 2092
892 -320 2100
898 -321 2098
906 -321 2099
912 -321 2094
918 -321 2091
925 -321 2090
932 -321 2087
938 -321 2086
943 -321 2078
948 -320 2073
954 -320 2069
963 -321 2071
983 -325 2098
1006 -331 2131
990 -323 2079
986 -320 2054
994 -321 2056
989 -317 2029
932 -297 1895
895 -283 1807
890 -280 1782
898 -280 1784
905 -281 1784
908 -280 1776
914 -280 1775
917 -279 1767
920 -279 1760
929 -280 1764
933 -279 1758
942 -280 1760
943 -279 1750
948 -279 1746
951 -278 1738
961 -279 1744
972 -281 1749
974 -280 1740
981 -280 1740
-1297 -337 2234
-1283 -335 2227
-1269 -333 2218
-1257 -332 2213
-1250 -332 2217
-1234 -330 2205
-1222 -329 2200
-1219 -330 2210
-1202 -327 2197
-1198 -328 2206
-1186 -327 2200
-1178 -327 2203
-1177 -328 2216
-1174 -329 2227
-1163 -329 2224
-1147 -326 2210
-1141 -326 2215
-1131 -326 2212
-1140 -330 2247
-1125 -328 2235
-1116 -327 2233
-1101 -325 2221
-1107 -329 2250
-1087 -325 2226
-1072 -323 2214
-1062 -322 2211
-1053 -322 2209
-1036 -318 2191
-1023 -316 2180
-1013 -315 2175
-1006 -316 2179
-993 -314 2169
-981 -312 2160
-972 -312 2158
-988 -319 2211
-996 -324 2247
-994 -325 2259
-991 -327 2272
-990 -329 2289
-986 -330 2298
-980 -330 2304
-976 -331 2314
-975 -334 2331
-968 -334 2333
-966 -335 2348
-962 -337 2359
-956 -337 2364
-953 -339 2376
-954 -342 2401
-948 -342 2408
-946 -344 2422
-939 -344 2426
-933 -345 2433
-933 -348 2453
-927 -349 2462
-924 -350 2474
-920 -352 2487
-913 -352 2491
-914 -355 2515
-907 -356 2521
-902 -357 2529
-897 -358 2540
-892 -359 2548
-889 -361 2564
-885 -362 2578
-881 -364 2591
-870 -363 2585
-867 -365 2600
-861 -366 2609
-858 -368 2623
-850 -368 2626
-843 -368 2632
-837 -369 2638
-837 -373 2667
-825 -371 2654
-817 -371 2658
-812 -372 2668
-803 -372 2669
-800 -374 2685
-791 -374 2684
-785 -375 2692
-775 -374 2687
-768 -375 2694
-750 -369 2658
-736 -367 2641
-730 -367 2646
-720 -367 2643
-711 -366 2639
-716 -373 2688
-700 -369 2661
-688 -366 2645
-675 -364 2626
-675 -368 2658
-660 -364 2630
-650 -363 2626
-644 -364 2631
-636 -364 2633
-627 -363 2630
-617 -362 2623
-609 -362 2620
-600 -361 2616
-593 -361 2620
-584 -361 2618
-574 -360 2609
-565 -359 2603
-559 -360 2611
-549 -358 2602
-541 -358 2604
-533 -358 2600
-525 -358 2602
-514 -355 2584
-505 -354 2577
-499 -356 2589
-490 -354 2579
-481 -354 2576
-473 -354 2575
-476 -361 2632
-458 -354 2576
-447 -351 2559
-440 -352 2561
-433 -352 2566
-424 -350 2554
-415 -349 2546
-409 -350 2554
-399 -349 2543
-392 -349 2544
-385 -349 2546
-376 -348 2542
-369 -349 2545
-359 -346 2527
-351 -346 2524
-346 -347 2536
-337 -346 2525
-329 -346 2525
-320 -344 2515
-314 -345 2520
-305 -344 2513
-298 -344 2516
-290 -343 2506
-282 -342 2503
-274 -341 2495
-267 -342 2498
-260 -342 2501
-253 -342 2503
-245 -341 2495
-237 -341 2494
-230 -340 2489
-222 -340 2488
-214 -339 2478
-207 -338 2473
-198 -337 2461
-192 -337 2467
-184 -336 2457
-177 -336 2459
-171 -338 2473
-163 -337 2464
-156 -337 2463
-148 -337 2462
-140 -335 2449
-134 -335 2453
-127 -336 2455
-119 -335 2447
-112 -334 2445
-104 -333 2437
-98 -334 2442
-90 -334 2437
-83 -333 2435
-76 -333 2431
-69 -332 2428
-62 -332 2428
-55 -333 2432
-48 -332 2427
-41 -332 2422
-34 -333 2429
-27 -331 2415
-20 -330 2411
-13 -331 2416
-6 -332 2419
0 -328 2395
7 -327 2386
14 -328 2392
21 -329 2401
28 -329 2397
35 -330 2404
42 -328 2392
49 -328 2393
56 -327 2381
63 -329 2395
70 -330 2401
76 -328 2386
83 -328 2390
90 -327 2384
97 -327 2379
103 -325 2362
110 -323 2353
117 -325 2361
123 -324 2356
130 -324 2356
137 -325 2365
145 -328 2382
148 -319 2313
155 -319 2319
160 -315 2287
167 -317 2298
175 -319 2315
184 -322 2338
189 -321 2325
198 -324 2348
205 -325 2354
213 -325 2357
217 -322 2330
224 -322 2333
231 -322 2332
237 -322 2329
244 -322 2328
250 -321 2323
258 -322 2327
264 -321 2321
272 -324 2336
278 -323 2327
283 -320 2311
290 -320 2309
295 -319 2302
303 -320 2308
309 -319 2300
316 -320 2301
322 -320 2300
329 -320 2300
340 -324 2328
341 -318 2288
349 -319 2294
354 -318 2283
361 -318 2283
370 -321 2300
371 -316 2266
381 -318 2281
387 -318 2279
392 -317 2270
402 -319 2285
416 -325 2323
426 -328 2344
432 -327 2336
441 -329 2345
438 -321 2293
447 -324 2307
450 -321 2287
458 -322 2293
459 -318 2263
465 -318 2259
473 -318 2264
481 -319 2266
487 -319 2261
494 -319 2262
500 -319 2261
503 -316 2240
512 -318 2252
517 -317 2243
525 -318 2246
530 -317 2239
537 -317 2240
545 -318 2244
557 -321 2264
566 -322 2271
569 -321 2258
579 -322 2268
580 -319 2244
586 -319 2242
593 -319 2241
600 -319 2241
603 -318 2226
612 -319 2235
620 -320 2236
631 -322 2251
641 -324 2261
643 -321 2242
651 -322 2246
663 -324 2261
675 -327 2277
679 -326 2269
681 -324 2251
688 -324 2248
690 -322 2231
681 -314 2179
677 -310 2145
695 -315 2178
699 -314 2168
696 -310 2139
714 -315 2171
711 -311 2142
714 -309 2130
738 -317 2178
740 -315 2164
744 -314 2156
745 -311 2137
756 -313 2148
764 -314 2149
771 -314 2149
779 -315 2153
775 -311 2120
787 -313 2135
796 -314 2139
800 -313 2129
807 -313 2129
813 -313 2127
822 -314 2129
828 -314 2126
835 -314 2125
843 -315 2126
848 -315 2123
855 -315 2121
861 -314 2116
870 -315 2121
875 -315 2115
883 -315 2115
887 -315 2107
891 -314 2100
901 -315 2104
905 -314 2096
915 -316 2103
921 -315 2099
931 -316 2104
933 -315 2091
937 -314 2082
949 -316 2094
954 -316 2086
943 -310 2046
966 -315 2079
986 -320 2106
1009 -325 2137
983 -315 2065
985 -313 2053
995 -314 2057
986 -310 2023
933 -291 1900
891 -276 1799
891 -274 1785
894 -273 1777
903 -274 1781
905 -273 1771
908 -273 1764
922 -275 1778
925 -274 1770
925 -273 1756
934 -274 1761
948 -276 1773
946 -274 1755
948 -273 1747
962 -276 1759
964 -275 1749
970 -275 1747
977 -275 1746
983 -275 1744
-1300 -330 2241
-1286 -329 2232
-1282 -330 2243
-1261 -326 2223
-1250 -325 2218
-1243 -325 2223
-1244 -327 2241
-1231 -326 2233
-1227 -327 2243
-1220 -327 2248
-1208 -326 2241
-1196 -324 2236
-1194 -326 2250
-1184 -325 2248
-1186 -328 2268
-1162 -323 2240
-1166 -326 2264
-1147 -323 2245
-1140 -323 2248
-1120 -319 2226
-1099 -316 2201
-1086 -314 2192
-1089 -317 2215
-1073 -314 2199
-1058 -312 2186
-1049 -311 2185
-1036 -309 2175
-1026 -309 2171
-1017 -308 2168
-1006 -307 2162
-1003 -308 2172
-987 -305 2156
-977 -304 2150
-971 -304 2156
-985 -311 2205
-997 -317 2250
-997 -319 2267
-991 -320 2272
-992 -322 2294
-987 -323 2300
-980 -323 2305
-979 -325 2320
-975 -326 2331
-969 -327 2337
-965 -328 2348
-961 -329 2358
-960 -331 2375
-952 -331 2377
-953 -334 2399
-949 -335 2411
-946 -337 2423
-941 -338 2433
-937 -339 2443
-933 -340 2454
-930 -342 2470
-924 -343 2474
-924 -346 2498
-919 -347 2509
-909 -346 2504
-906 -348 2519
-902 -349 2530
-899 -351 2545
-891 -351 2549
-890 -354 2569
-884 -354 2576
-877 -355 2580
-873 -356 2593
-868 -357 2604
-863 -359 2616
-857 -359 2623
-849 -359 2624
-843 -360 2633
-839 -362 2645
-832 -363 2652
-824 -363 2653
-817 -363 2660
-814 -365 2675
-807 -366 2681
-799 -366 2682
-793 -367 2690
-780 -365 2677
-773 -365 2681
-768 -367 2694
-749 -361 2658
-750 -366 2690
-732 -361 2656
-723 -360 2654
-711 -358 2641
-704 -359 2643
-695 -358 2641
-688 -358 2645
-678 -357 2638
-670 -358 2641
-659 -356 2628
-646 -353 2609
-642 -355 2628
-633 -355 2624
-626 -355 2626
-618 -355 2628
-610 -355 2626
-600 -354 2620
-592 -354 2620
-581 -352 2607
-575 -353 2614
-566 -352 2608
-559 -352 2615
-550 -351 2608
-541 -350 2602
-533 -350 2602
-524 -349 2596
-516 -349 2594
-506 -348 2584
-498 -348 2586
-491 -348 2586
-482 -347 2583
-473 -346 2572
-462 -343 2556
-457 -345 2572
-447 -343 2556
-439 -343 2558
-433 -344 2563
-425 -344 2560
-416 -343 2554
-407 -341 2546
-401 -342 2553
-393 -343 2554
-382 -340 2533
-377 -341 2545
-368 -340 2539
-360 -340 2535
-352 -339 2529
-345 -339 2531
-337 -339 2527
-329 -338 2522
-322 -338 2524
-313 -337 2515
-306 -337 2516
-297 -336 2507
-290 -336 2508
-283 -336 2508
-275 -335 2506
-267 -334 2496
-259 -333 2491
-254 -336 2510
-243 -331 2476
-236 -332 2483
-229 -332 2483
-222 -332 2482
-214 -332 2482
-207 -331 2476
-199 -331 2475
-191 -330 2465
-185 -330 2468
-177 -330 2465
-169 -329 2456
-162 -328 2454
-155 -329 2462
-147 -328 2449
-141 -329 2456
-133 -328 2452
-126 -328 2451
-119 -328 2451
-112 -327 2446
-105 -328 2447
-97 -327 2440
-90 -327 2443
-83 -326 2433
-76 -325 2427
-69 -326 2437
-62 -325 2428
-55 -325 2426
-48 -325 2427
-41 -325 2427
-34 -325 2427
-27 -325 2427
-20 -324 2418
-13 -324 2420
-6 -323 2408
0 -324 2413
7 -319 2376
14 -321 2390
21 -322 2398
28 -322 2397
35 -322 2400
42 -321 2389
49 -320 2382
56 -321 2388
63 -321 2392
70 -321 2387
77 -322 2395
83 -321 2385
90 -321 2390
97 -320 2383
103 -319 2369
110 -318 2365
117 -318 2365
124 -318 2360
130 -318 2361
138 -319 2369
145 -320 2372
150 -315 2341
152 -307 2276
164 -316 2346
167 -309 2292
176 -313 2323
183 -314 2330
195 -324 2397
198 -318 2352
203 -314 2324
211 -316 2336
217 -315 2329
225 -316 2339
230 -315 2327
237 -314 2322
244 -316 2332
251 -315 2326
257 -315 2325
264 -315 2321
271 -315 2326
277 -314 2315
284 -314 2316
289 -313 2304
296 -313 2308
303 -314 2310
310 -314 2309
316 -313 2304
323 -314 2305
329 -313 2302
334 -311 2286
341 -312 2288
349 -313 2294
356 -313 2296
362 -312 2290
369 -313 2291
375 -313 2289
381 -312 2281
387 -311 2279
392 -310 2267
401 -312 2281
413 -316 2311
421 -317 2313
428 -317 2316
434 -317 2308
437 -314 2290
442 -313 2280
448 -313 2276
457 -314 2286
459 -311 2262
458 -306 2223
472 -311 2259
477 -310 2249
482 -309 2241
491 -310 2248
491 -306 2220
498 -307 2220
503 -306 2214
515 -309 2233
518 -307 2217
529 -310 2236
535 -309 2233
545 -312 2246
556 -314 2260
562 -313 2256
572 -315 2268
577 -314 2260
580 -313 2247
585 -312 2238
592 -312 2238
601 -313 2244
609 -314 2250
613 -313 2238
625 -315 2254
629 -314 2244
639 -316 2254
643 -315 2244
650 -315 2243
656 -314 2239
669 -317 2259
674 -317 2252
681 -317 2252
683 -315 2234
690 -315 2234
679 -307 2175
668 -299 2117
703 -312 2204
685 -301 2126
698 -304 2146
708 -306 2155
713 -305 2148
722 -306 2153
729 -306 2154
726 -302 2124
737 -304 2135
756 -310 2171
746 -303 2121
763 -307 2147
754 -301 2103
764 -302 2111
790 -310 2162
785 -306 2128
794 -307 2133
801 -307 2133
807 -307 2129
813 -307 2128
822 -308 2131
828 -308 2128
831 -306 2117
840 -307 2122
844 -306 2111
853 -307 2115
859 -307 2112
865 -307 2109
873 -307 2109
876 -306 2099
883 -307 2099
890 -307 2097
896 -307 2095
902 -307 2091
910 -307 2091
917 -308 2091
924 -308 2089
932 -308 2089
939 -308 2089
938 -306 2069
951 -308 2082
957 -308 2077
966 -309 2079
985 -313 2104
1006 -318 2133
986 -309 2072
984 -306 2052
994 -308 2058
986 -303 2024
926 -283 1884
892 -271 1802
895 -270 1795
894 -268 1777
906 -270 1789
898 -266 1758
914 -269 1775
915 -267 1764
922 -268 1764
930 -269 1767
929 -267 1751
940 -268 1758
939 -266 1743
948 -267 1746
955 -268 1747
961 -268 1744
966 -268 1740
969 -267 1734
990 -272 1758
-1297 -322 2236
-1317 -329 2288
-1293 -325 2262
-1291 -326 2275
-1285 -327 2282
-1283 -328 2295
-1264 -325 2278
-1268 -328 2302
-1233 -321 2255
-1233 -323 2273
-1215 -320 2256
-1200 -318 2246
-1208 -322 2277
-1160 -312 2203
-1186 -320 2269
-1152 -313 2221
-1138 -311 2212
-1122 -309 2197
-1112 -308 2194
-1106 -308 2198
-1096 -308 2195
-1090 -308 2201
-1082 -308 2202
-1063 -304 2179
-1055 -304 2181
-1042 -302 2170
-1042 -304 2188
-1027 -302 2174
-1015 -301 2165
-1008 -301 2168
-1000 -300 2167
-995 -301 2173
-981 -299 2161
-974 -299 2163
-987 -305 2210
-998 -310 2253
-998 -312 2271
-994 -313 2280
-987 -314 2283
-984 -315 2296
-984 -317 2314
-979 -318 2323
-978 -320 2341
-968 -319 2336
-968 -322 2355
-964 -323 2367
-957 -323 2368
-958 -326 2391
-952 -326 2398
-950 -328 2414
-947 -330 2426
-941 -330 2433
-935 -331 2440
-937 -334 2466
-932 -335 2477
-925 -335 2479
-920 -337 2489
-918 -339 2506
-911 -339 2509
-909 -341 2527
-902 -341 2533
-897 -342 2542
-895 -344 2559
-890 -346 2569
-885 -347 2579
-878 -347 2584
-874 -349 2597
-868 -350 2605
-864 -351 2619
-854 -350 2613
-847 -351 2618
-843 -353 2634
-838 -354 2643
-831 -354 2650
-824 -355 2655
-816 -355 2658
-809 -355 2662
-803 -356 2670
-799 -358 2684
-791 -358 2686
-776 -355 2665
-773 -357 2684
-767 -358 2691
-750 -354 2662
-749 -357 2687
-726 -350 2637
-722 -352 2650
-714 -352 2650
-707 -352 2657
-697 -351 2651
-690 -352 2654
-679 -350 2644
-670 -350 2642
-661 -349 2637
-652 -348 2634
-643 -348 2629
-634 -347 2628
-628 -348 2635
-618 -347 2626
-609 -346 2623
-602 -347 2628
-592 -346 2621
-583 -345 2614
-572 -343 2603
-566 -344 2608
-559 -345 2614
-549 -343 2603
-541 -343 2603
-533 -343 2603
-524 -342 2598
-516 -342 2596
-507 -341 2589
-496 -339 2577
-490 -340 2584
-481 -339 2576
-472 -338 2572
-463 -337 2565
-456 -337 2569
-447 -336 2559
-441 -337 2569
-431 -335 2554
-425 -336 2562
-416 -335 2555
-407 -334 2546
-400 -335 2551
-392 -334 2545
-385 -335 2553
-377 -334 2547
-369 -333 2542
-360 -333 2537
-351 -331 2527
-344 -331 2527
-335 -329 2514
-329 -330 2522
-321 -331 2523
-313 -330 2517
-305 -329 2514
-297 -329 2510
-290 -329 2510
-283 -329 2513
-275 -328 2504
-267 -328 2504
-259 -327 2495
-252 -326 2493
-243 -325 2483
-238 -328 2506
-229 -325 2487
-222 -326 2491
-214 -324 2476
-206 -324 2474
-199 -324 2473
-191 -323 2465
-184 -323 2465
-177 -323 2470
-170 -323 2469
-162 -322 2461
-155 -322 2461
-148 -321 2451
-140 -320 2447
-133 -321 2449
-126 -321 2448
-119 -321 2449
-112 -320 2448
-105 -321 2448
-98 -321 2448
-90 -320 2441
-83 -320 2441
-76 -319 2435
-69 -320 2441
-62 -319 2437
-55 -318 2430
-48 -317 2423
-41 -318 2427
-34 -319 2436
-27 -318 2427
-19 -317 2417
-12 -317 2418
-6 -317 2421
0 -318 2422
7 -317 2415
14 -314 2394
21 -315 2403
28 -315 2403
35 -315 2397
42 -314 2389
49 -314 2393
56 -313 2380
63 -315 2394
70 -314 2387
77 -315 2393
83 -314 2386
91 -315 2394
97 -314 2389
104 -313 2376
110 -311 2362
117 -311 2363
124 -311 2363
130 -310 2357
138 -313 2375
145 -314 2380
151 -310 2353
154 -304 2303
161 -305 2313
168 -305 2314
174 -304 2307
184 -309 2338
191 -309 2343
198 -310 2347
205 -311 2353
210 -308 2333
218 -309 2338
225 -310 2346
231 -309 2335
237 -308 2324
244 -308 2326
251 -308 2326
257 -308 2323
264 -308 2322
270 -307 2315
278 -309 2330
283 -307 2312
291 -309 2325
297 -308 2316
303 -306 2306
309 -306 2300
316 -307 2307
322 -306 2297
330 -307 2305
336 -306 2299
342 -306 2298
349 -306 2295
356 -306 2295
367 -310 2326
372 -309 2311
374 -305 2282
381 -305 2282
388 -305 2281
392 -303 2266
401 -305 2281
413 -310 2312
419 -309 2304
424 -308 2296
429 -307 2285
433 -305 2269
439 -304 2266
445 -304 2261
453 -305 2265
459 -304 2260
466 -304 2261
473 -305 2263
479 -305 2260
489 -307 2275
489 -303 2242
496 -303 2244
498 -300 2219
504 -300 2218
509 -299 2208
518 -300 2217
524 -300 2215
540 -306 2254
544 -304 2240
555 -307 2258
559 -305 2245
566 -306 2248
571 -305 2240
575 -303 2228
581 -303 2225
587 -303 2220
595 -303 2223
602 -304 2223
608 -303 2218
617 -305 2228
626 -306 2234
635 -307 2239
634 -304 2213
645 -305 2225
648 -304 2213
660 -307 2230
664 -305 2219
670 -305 2216
682 -307 2229
681 -304 2203
682 -302 2185
679 -297 2152
685 -297 2150
699 -300 2169
704 -300 2163
710 -300 2162
716 -300 2157
724 -300 2161
730 -300 2158
736 -300 2153
754 -305 2186
750 -300 2152
755 -300 2146
764 -301 2152
771 -301 2151
778 -301 2151
780 -300 2136
789 -301 2142
793 -300 2131
797 -299 2123
807 -300 2130
810 -299 2119
818 -300 2122
824 -300 2119
833 -300 2122
839 -300 2120
845 -300 2116
852 -300 2113
855 -299 2103
861 -299 2101
870 -300 2105
877 -300 2102
881 -299 2094
892 -301 2103
897 -301 2098
904 -301 2096
912 -301 2096
916 -300 2088
924 -301 2089
930 -301 2086
935 -300 2079
944 -301 2083
951 -302 2082
953 -300 2069
964 -302 2077
977 -304 2088
1009 -312 2140
987 -303 2075
983 -300 2051
995 -301 2060
989 -298 2031
926 -277 1886
890 -264 1798
886 -261 1775
894 -262 1778
911 -266 1799
904 -262 1771
914 -263 1776
909 -260 1753
922 -262 1766
925 -261 1757
936 -263 1766
938 -262 1755
945 -263 1756
950 -262 1751
954 -262 1746
958 -262 1740
966 -262 1742
969 -261 1733
985 -264 1750
-1346 -327 2322
-1318 -322 2290
-1304 -320 2283
-1286 -318 2267
-1285 -319 2283
-1277 -319 2286
-1248 -314 2250
-1240 -314 2253
-1236 -315 2262
-1224 -313 2257
-1202 -310 2233
-1188 -308 2224
-1177 -307 2219
-1184 -311 2251
-1151 -304 2204
-1156 -307 2229
-1148 -307 2232
-1127 -303 2208
-1117 -302 2204
-1110 -303 2208
-1103 -303 2212
-1084 -299 2190
-1081 -301 2201
-1068 -299 2191
-1060 -299 2191
-1045 -296 2178
-1039 -297 2182
-1031 -296 2182
-1024 -296 2185
-1014 -296 2182
-1002 -294 2172
-997 -295 2179
-983 -292 2166
-972 -291 2159
-988 -298 2214
-998 -303 2253
-1000 -306 2276
-992 -306 2278
-990 -307 2290
-987 -309 2303
-979 -309 2305
-977 -310 2318
-978 -313 2340
-974 -314 2352
-969 -315 2360
-963 -315 2364
-963 -318 2385
-954 -317 2382
-952 -319 2400
-948 -320 2410
-945 -322 2423
-940 -323 2432
-933 -323 2436
-934 -326 2460
-930 -327 2473
-928 -329 2489
-920 -329 2489
-916 -330 2502
-912 -332 2514
-909 -333 2529
-901 -333 2531
-900 -336 2552
-890 -335 2547
-891 -338 2573
-884 -339 2577
-879 -340 2588
-874 -341 2598
-867 -341 2603
-861 -342 2610
-859 -344 2630
-851 -344 2632
-845 -346 2642
-839 -346 2647
-831 -346 2649
-828 -348 2669
-817 -347 2659
-811 -348 2668
-805 -349 2677
-797 -349 2679
-786 -348 2670
-776 -347 2665
-775 -350 2692
-768 -351 2698
-751 -346 2666
-741 -345 2660
-729 -344 2647
-725 -345 2663
-715 -344 2655
-705 -344 2652
-699 -344 2658
-686 -342 2640
-679 -342 2644
-672 -343 2649
-661 -341 2638
-651 -340 2633
-648 -343 2653
-637 -341 2641
-627 -340 2632
-618 -339 2630
-610 -339 2627
-600 -338 2622
-593 -338 2624
-582 -337 2612
-576 -338 2620
-567 -337 2618
-562 -338 2628
-549 -335 2605
-543 -336 2613
-533 -335 2602
-526 -336 2609
-517 -334 2601
-508 -334 2599
-499 -333 2590
-489 -331 2579
-481 -331 2580
-473 -331 2574
-468 -333 2594
-456 -330 2569
-448 -330 2568
-439 -328 2559
-432 -328 2559
-424 -328 2559
-416 -328 2557
-407 -327 2549
-400 -327 2552
-391 -326 2544
-385 -327 2550
-376 -325 2540
-368 -325 2537
-361 -326 2541
-352 -324 2529
-345 -324 2532
-336 -323 2525
-329 -324 2529
-321 -323 2519
-313 -322 2517
-306 -322 2518
-298 -322 2516
-290 -321 2508
-282 -321 2507
-275 -321 2507
-268 -321 2506
-260 -320 2499
-253 -321 2506
-245 -319 2496
-238 -320 2498
-232 -322 2516
-223 -320 2499
-215 -318 2485
-206 -316 2473
-199 -317 2478
-192 -316 2472
-184 -315 2461
-177 -315 2464
-169 -315 2461
-163 -315 2464
-155 -314 2452
-148 -315 2463
-141 -314 2457
-134 -314 2457
-126 -314 2455
-119 -314 2456
-112 -314 2450
-105 -314 2450
-98 -314 2450
-90 -313 2443
-83 -313 2448
-76 -313 2447
-69 -313 2441
-62 -312 2433
-55 -311 2431
-48 -313 2442
-41 -312 2433
-34 -312 2432
-26 -310 2420
-20 -312 2434
-13 -311 2428
-5 -311 2425
1 -311 2422
8 -309 2410
14 -309 2406
21 -310 2414
28 -309 2409
35 -308 2401
42 -307 2393
49 -308 2397
56 -307 2394
63 -307 2392
70 -308 2395
77 -308 2395
84 -310 2412
91 -309 2406
98 -309 2401
104 -306 2378
111 -306 2376
117 -305 2370
124 -304 2365
131 -305 2367
138 -305 2368
146 -307 2386
149 -299 2321
155 -298 2313
162 -299 2321
166 -294 2280
175 -299 2320
183 -301 2329
192 -305 2364
198 -303 2348
205 -304 2354
214 -307 2372
217 -302 2332
225 -303 2340
231 -302 2332
238 -303 2338
244 -301 2325
251 -302 2330
257 -301 2324
264 -301 2325
271 -301 2323
277 -301 2321
284 -301 2318
292 -303 2330
298 -301 2320
304 -300 2312
311 -301 2316
317 -300 2309
322 -299 2302
329 -300 2301
336 -300 2303
342 -299 2295
349 -299 2296
355 -299 2294
356 -294 2257
366 -297 2273
375 -299 2289
380 -298 2279
386 -297 2275
394 -298 2279
402 -300 2289
411 -301 2300
417 -300 2292
422 -300 2285
426 -298 2268
432 -297 2265
439 -297 2264
444 -296 2257
452 -297 2261
455 -295 2242
466 -298 2263
472 -298 2261
480 -298 2263
485 -297 2254
500 -303 2295
505 -302 2284
502 -296 2240
509 -296 2240
518 -297 2248
518 -294 2221
530 -297 2241
536 -296 2235
540 -295 2226
551 -298 2242
554 -296 2227
568 -300 2254
563 -294 2208
577 -298 2234
581 -296 2223
587 -296 2219
591 -295 2209
597 -295 2207
598 -292 2181
614 -297 2218
628 -300 2240
627 -297 2215
636 -298 2219
644 -298 2224
648 -297 2211
654 -297 2209
664 -298 2217
670 -298 2216
674 -297 2206
688 -300 2226
693 -300 2221
682 -292 2161
693 -294 2174
698 -293 2167
703 -293 2162
708 -293 2156
717 -293 2161
723 -293 2157
729 -293 2156
737 -294 2158
738 -291 2138
747 -293 2144
755 -293 2147
759 -292 2138
766 -293 2139
768 -291 2125
777 -292 2129
785 -293 2132
791 -293 2129
798 -293 2127
806 -293 2130
811 -293 2123
817 -293 2119
826 -294 2124
832 -293 2120
839 -294 2120
844 -293 2113
851 -293 2111
854 -292 2103
864 -294 2108
871 -294 2107
876 -293 2100
884 -294 2101
890 -294 2099
896 -294 2096
903 -294 2094
909 -294 2091
922 -296 2104
924 -295 2091
932 -295 2090
936 -294 2084
944 -295 2084
949 -294 2078
959 -296 2083
960 -294 2067
986 -300 2108
1013 -306 2149
990 -297 2082
984 -293 2053
997 -296 2065
990 -291 2033
935 -273 1904
893 -259 1805
885 -255 1775
895 -257 1782
898 -256 1774
903 -256 1770
907 -255 1763
919 -257 1774
920 -256 1761
932 -258 1772
929 -255 1752
942 -257 1763
944 -257 1755
952 -257 1756
953 -256 1744
960 -256 1744
970 -258 1750
973 -257 1742
980 -257 1742
-1317 -312 2273
-1316 -314 2289
-1309 -314 2293
-1281 -309 2260
-1266 -307 2251
-1261 -308 2259
-1249 -307 2254
-1231 -304 2238
-1228 -305 2248
-1214 -304 2240
-1193 -300 2218
-1180 -299 2210
-1182 -301 2230
-1167 -299 2219
-1156 -298 2214
-1144 -297 2209
-1133 -296 2204
-1129 -297 2213
-1119 -296 2211
-1115 -297 2219
-1101 -295 2207
-1094 -295 2210
-1086 -295 2212
-1074 -294 2205
-1067 -294 2208
-1052 -291 2194
-1046 -292 2198
-1035 -291 2193
-1028 -290 2194
-1016 -289 2187
-1006 -288 2183
-1000 -288 2186
-980 -285 2160
-974 -285 2165
-985 -290 2206
-999 -297 2256
-994 -297 2265
-996 -300 2286
-990 -300 2291
-984 -301 2298
-984 -303 2316
-980 -304 2327
-976 -305 2337
-972 -306 2348
-970 -308 2363
-966 -309 2371
-958 -309 2373
-959 -311 2396
-951 -311 2397
-949 -313 2414
-950 -316 2436
-945 -317 2446
-937 -317 2447
-935 -318 2462
-930 -320 2473
-928 -321 2488
-921 -322 2494
-914 -322 2496
-914 -325 2521
-908 -325 2528
-904 -327 2540
-898 -327 2547
-896 -330 2565
-888 -329 2566
-884 -331 2580
-876 -331 2579
-873 -333 2596
-868 -334 2608
-863 -335 2618
-855 -335 2621
-851 -337 2633
-842 -336 2631
-838 -338 2646
-830 -338 2649
-824 -339 2657
-819 -340 2667
-811 -340 2669
-805 -341 2679
-796 -340 2676
-789 -341 2683
-777 -339 2670
-778 -343 2703
-769 -343 2701
-750 -338 2663
-741 -337 2660
-731 -337 2654
-726 -338 2666
-719 -338 2672
-708 -337 2662
-699 -336 2658
-688 -335 2650
-682 -336 2656
-671 -335 2648
-660 -333 2637
-652 -333 2637
-646 -334 2644
-640 -335 2655
-629 -333 2643
-618 -331 2629
-610 -332 2631
-603 -332 2634
-593 -331 2625
-582 -329 2613
-574 -329 2611
-568 -330 2621
-560 -330 2623
-549 -328 2609
-540 -327 2601
-534 -328 2611
-525 -328 2607
-517 -327 2603
-507 -326 2592
-500 -326 2597
-490 -324 2583
-479 -323 2571
-473 -323 2578
-462 -321 2560
-456 -322 2568
-449 -322 2571
-441 -322 2568
-432 -321 2565
-424 -321 2559
-416 -320 2557
-407 -319 2546
-400 -320 2551
-392 -319 2549
-384 -319 2548
-376 -318 2540
-369 -319 2549
-360 -317 2536
-352 -317 2535
-345 -317 2537
-337 -316 2529
-330 -317 2535
-322 -316 2528
-314 -316 2525
-306 -315 2519
-298 -314 2515
-290 -314 2508
-283 -314 2512
-275 -314 2508
-268 -313 2507
-260 -313 2505
-253 -313 2506
-244 -312 2492
-236 -311 2488
-231 -313 2506
-223 -312 2496
-215 -312 2494
-207 -310 2479
-200 -310 2483
-191 -308 2466
-184 -308 2465
-176 -308 2460
-170 -308 2464
-162 -308 2462
-156 -309 2470
-148 -307 2459
-141 -308 2466
-134 -308 2460
-126 -307 2457
-119 -307 2459
-112 -307 2457
-105 -306 2450
-98 -307 2458
-91 -307 2452
-84 -307 2453
-76 -306 2443
-69 -305 2437
-62 -305 2438
-55 -305 2437
-48 -304 2431
-41 -305 2439
-34 -305 2439
-27 -305 2438
-19 -303 2421
-12 -304 2424
-5 -304 2425
1 -303 2416
8 -303 2419
15 -302 2413
22 -303 2416
28 -301 2404
35 -301 2400
42 -301 2399
49 -300 2390
56 -300 2391
63 -301 2395
70 -300 2391
77 -301 2396
84 -300 2390
91 -300 2391
97 -300 2387
104 -298 2375
110 -298 2368
117 -298 2367
123 -296 2357
131 -298 2367
138 -298 2364
145 -299 2379
151 -297 2360
155 -291 2311
161 -290 2302
170 -294 2335
175 -292 2315
185 -297 2352
192 -298 2358
199 -297 2354
207 -300 2375
214 -299 2369
218 -295 2336
225 -296 2338
232 -296 2344
237 -295 2331
244 -294 2326
251 -294 2327
257 -294 2325
264 -294 2321
272 -296 2334
276 -293 2312
284 -294 2320
294 -297 2344
298 -294 2320
303 -293 2310
311 -294 2318
317 -294 2312
322 -292 2300
328 -292 2293
335 -292 2294
343 -293 2300
349 -292 2295
353 -290 2279
355 -286 2246
361 -286 2244
376 -293 2296
380 -291 2277
387 -291 2277
394 -291 2278
403 -293 2292
409 -293 2290
412 -290 2265
422 -292 2283
431 -294 2293
434 -292 2274
439 -291 2265
446 -291 2264
452 -291 2261
460 -292 2269
466 -291 2262
473 -291 2264
479 -291 2261
484 -290 2253
491 -290 2250
498 -290 2250
503 -290 2246
515 -293 2268
515 -289 2236
521 -289 2234
528 -289 2233
534 -289 2230
542 -290 2234
559 -295 2275
557 -291 2240
566 -292 2247
574 -293 2252
576 -290 2231
583 -290 2230
589 -290 2228
593 -289 2215
604 -291 2232
602 -287 2197
612 -289 2209
625 -292 2231
626 -289 2209
633 -289 2208
643 -291 2219
650 -291 2219
653 -290 2206
659 -290 2203
669 -291 2211
674 -291 2205
683 -292 2213
694 -293 2223
674 -282 2138
689 -286 2163
697 -287 2166
706 -288 2172
711 -287 2166
722 -289 2178
736 -292 2197
744 -293 2201
759 -296 2224
766 -296 2221
768 -294 2206
771 -293 2192
763 -288 2151
771 -288 2153
774 -287 2140
778 -286 2131
784 -286 2129
792 -286 2130
797 -286 2126
806 -287 2128
810 -286 2121
817 -286 2119
822 -286 2114
831 -287 2119
837 -286 2114
843 -286 2112
848 -286 2106
853 -286 2100
862 -286 2104
870 -287 2105
878 -287 2105
886 -288 2108
894 -289 2109
896 -287 2096
905 -288 2099
910 -288 2094
917 -288 2092
924 -288 2091
930 -288 2086
935 -287 2081
941 -287 2078
952 -289 2085
954 -287 2073
957 -286 2063
980 -291 2095
1009 -298 2141
989 -290 2082
984 -287 2054
993 -288 2057
989 -285 2033
937 -268 1909
901 -256 1821
884 -250 1774
894 -251 1780
906 -253 1790
905 -251 1775
909 -250 1769
917 -251 1769
921 -251 1765
926 -250 1761
930 -250 1754
943 -252 1766
939 -249 1745
952 -252 1757
959 -252 1757
957 -250 1740
960 -249 1732
977 -252 1750
982 -252 1745
-1320 -306 2280
-1304 -304 2269
-1300 -304 2277
-1294 -305 2284
-1272 -301 2262
-1245 -297 2231
-1253 -301 2261
-1242 -300 2257
-1229 -298 2251
-1211 -296 2235
-1207 -297 2244
-1197 -296 2243
-1175 -292 2218
-1183 -296 2249
-1162 -293 2227
-1160 -294 2240
-1143 -292 2224
-1135 -291 2225
-1127 -291 2226
-1116 -290 2222
-1105 -289 2217
-1090 -287 2203
-1081 -287 2202
-1072 -286 2202
-1069 -287 2212
-1054 -285 2198
-1047 -285 2202
-1039 -285 2202
-1026 -283 2191
-1018 -283 2191
-1005 -281 2182
-997 -281 2180
-981 -278 2162
-975 -279 2168
-991 -285 2221
-1004 -291 2269
-998 -291 2274
-991 -291 2277
-989 -293 2290
-989 -295 2310
-984 -296 2317
-980 -297 2329
-980 -299 2347
-972 -299 2347
-970 -301 2363
-969 -303 2381
-959 -302 2377
-960 -304 2399
-955 -305 2408
-950 -306 2416
-947 -307 2429
-944 -309 2443
-934 -308 2441
-930 -309 2452
-926 -311 2462
-925 -313 2483
-917 -313 2484
-915 -315 2502
-913 -317 2519
-908 -318 2529
-903 -319 2537
-899 -320 2549
-891 -320 2550
-889 -322 2570
-885 -324 2584
-880 -325 2594
-872 -325 2596
-866 -325 2602
-861 -327 2614
-856 -328 2625
-848 -327 2624
-843 -329 2636
-836 -329 2642
-833 -331 2660
-823 -330 2655
-817 -331 2661
-813 -333 2676
-804 -332 2674
-797 -333 2681
-788 -333 2681
-779 -332 2677
-772 -333 2682
-771 -336 2708
-751 -331 2669
-738 -328 2651
-718 -323 2608
-725 -330 2664
-714 -328 2655
-708 -329 2665
-695 -327 2647
-686 -327 2645
-677 -326 2641
-672 -327 2654
-661 -326 2642
-653 -326 2642
-646 -326 2645
-639 -326 2649
-628 -325 2640
-620 -325 2637
-609 -323 2628
-604 -325 2639
-593 -323 2629
-584 -322 2622
-576 -322 2620
-568 -322 2624
-562 -323 2631
-551 -321 2616
-542 -320 2610
-533 -320 2605
-525 -320 2608
-519 -321 2614
-509 -319 2603
-498 -317 2590
-489 -316 2579
-482 -316 2583
-474 -316 2583
-463 -314 2567
-457 -315 2575
-448 -314 2566
-440 -314 2565
-433 -315 2572
-425 -314 2566
-414 -312 2548
-408 -312 2555
-400 -312 2553
-394 -313 2563
-385 -312 2554
-377 -312 2551
-369 -311 2547
-360 -310 2537
-352 -310 2535
-343 -308 2525
-339 -311 2546
-329 -309 2527
-322 -309 2529
-313 -308 2522
-306 -308 2523
-298 -307 2518
-290 -307 2515
-282 -306 2509
-276 -307 2514
-267 -305 2501
-260 -306 2504
-252 -305 2500
-246 -306 2508
-238 -305 2502
-231 -307 2512
-222 -304 2492
-216 -306 2503
-206 -302 2472
-199 -302 2475
-192 -303 2480
-184 -301 2468
-177 -301 2462
-170 -302 2473
-163 -301 2466
-155 -301 2463
-148 -300 2461
-141 -301 2466
-133 -300 2456
-126 -300 2457
-119 -299 2452
-112 -300 2453
-105 -300 2455
-98 -300 2457
-90 -299 2449
-83 -300 2453
-76 -297 2435
-69 -299 2447
-62 -299 2449
-55 -298 2436
-48 -298 2439
-41 -298 2435
-34 -298 2437
-27 -298 2435
-19 -296 2419
-12 -296 2420
-5 -295 2415
1 -296 2416
8 -296 2418
15 -295 2414
22 -294 2405
28 -294 2402
35 -295 2407
42 -294 2397
49 -294 2397
56 -293 2393
63 -292 2385
70 -293 2387
77 -293 2388
84 -294 2394
90 -293 2386
97 -292 2381
103 -291 2369
110 -291 2370
116 -289 2353
124 -291 2367
131 -291 2370
138 -293 2380
146 -293 2386
152 -292 2372
159 -292 2377
165 -291 2368
171 -290 2358
179 -291 2366
185 -291 2360
191 -289 2348
199 -290 2353
204 -289 2343
211 -289 2341
218 -289 2344
225 -289 2340
231 -288 2332
239 -289 2343
243 -287 2320
252 -289 2339
257 -287 2324
264 -287 2322
271 -288 2324
276 -286 2307
281 -285 2298
286 -283 2284
297 -287 2313
303 -286 2309
311 -288 2320
317 -287 2312
323 -287 2308
328 -285 2296
336 -286 2301
343 -287 2304
349 -286 2300
353 -284 2278
352 -278 2232
359 -278 2231
373 -284 2280
380 -284 2279
387 -285 2281
393 -284 2278
407 -289 2316
417 -292 2332
419 -288 2306
422 -286 2285
429 -286 2284
435 -285 2278
440 -284 2268
447 -285 2273
454 -285 2273
459 -284 2261
466 -285 2265
472 -284 2260
478 -284 2256
483 -283 2247
488 -282 2240
495 -282 2241
502 -283 2240
510 -283 2245
516 -283 2239
524 -284 2245
536 -287 2268
539 -285 2251
545 -285 2248
545 -281 2218
559 -285 2247
565 -285 2244
568 -283 2227
577 -284 2237
581 -283 2222
587 -283 2220
594 -283 2222
595 -280 2198
602 -281 2198
606 -279 2188
626 -286 2234
632 -286 2233
636 -284 2221
643 -285 2222
652 -286 2227
653 -283 2207
659 -283 2204
670 -285 2215
673 -284 2203
684 -285 2216
687 -284 2203
682 -279 2162
680 -276 2135
697 -280 2166
706 -281 2172
707 -279 2153
720 -281 2171
712 -276 2126
730 -280 2158
727 -277 2129
737 -278 2136
739 -277 2124
755 -280 2148
766 -282 2159
766 -280 2140
768 -278 2125
776 -279 2126
783 -279 2128
794 -281 2137
798 -280 2127
804 -280 2125
809 -279 2118
818 -280 2123
826 -280 2124
831 -280 2118
835 -279 2110
842 -280 2111
850 -280 2112
858 -281 2113
863 -280 2106
871 -281 2108
876 -280 2103
881 -280 2097
891 -281 2101
898 -281 2101
906 -282 2103
909 -281 2091
916 -281 2090
922 -281 2088
930 -281 2088
938 -282 2088
942 -281 2081
948 -281 2076
946 -279 2056
958 -280 2065
979 -285 2094
1014 -293 2152
994 -285 2092
988 -282 2064
988 -280 2048
991 -279 2038
941 -263 1918
898 -249 1817
890 -245 1786
892 -244 1776
902 -246 1783
909 -246 1783
912 -245 1775
918 -246 1773
916 -243 1755
930 -246 1768
931 -245 1758
934 -244 1750
945 -246 1758
949 -245 1751
956 -245 1750
959 -245 1743
966 -245 1744
968 -244 1734
979 -246 1740
-1311 -296 2265
-1308 -297 2277
-1293 -295 2267
-1291 -297 2280
-1284 -297 2283
-1254 -292 2247
-1255 -294 2265
-1258 -296 2288
-1227 -291 2249
-1223 -291 2257
-1212 -291 2255
-1197 -289 2243
-1188 -288 2244
-1182 -289 2249
-1172 -288 2247
-1162 -287 2245
-1153 -287 2244
-1133 -284 2223
-1125 -283 2222
-1114 -283 2219
-1100 -281 2208
-1096 -282 2216
-1089 -282 2220
-1075 -280 2207
-1069 -280 2214
-1051 -277 2194
-1054 -280 2216
-1031 -276 2187
-1030 -277 2202
-1018 -276 2193
-1009 -276 2191
-997 -274 2181
-978 -271 2158
-977 -272 2172
-989 -278 2219
-998 -282 2256
-998 -284 2276
-995 -286 2287
-992 -287 2298
-984 -287 2300
-984 -289 2318
-979 -289 2326
-978 -291 2344
-972 -292 2349
-969 -293 2362
-968 -295 2379
-958 -294 2374
-955 -295 2388
-953 -297 2404
-947 -298 2411
-946 -300 2428
-944 -301 2444
-935 -301 2442
-935 -304 2465
-927 -303 2467
-925 -305 2483
-920 -306 2492
-916 -307 2503
-909 -308 2507
-906 -309 2524
-905 -312 2545
-900 -313 2553
-892 -313 2555
-887 -314 2566
-883 -315 2577
-877 -316 2584
-872 -317 2596
-863 -316 2594
-859 -318 2608
-857 -320 2628
-850 -320 2631
-842 -320 2633
-833 -320 2634
-829 -322 2647
-823 -322 2654
-821 -325 2676
-807 -322 2658
-802 -324 2669
-795 -324 2676
-790 -325 2687
-774 -322 2662
-771 -324 2681
-771 -328 2709
-752 -323 2674
-736 -320 2647
-729 -320 2650
-724 -321 2661
-715 -321 2660
-708 -321 2665
-699 -321 2660
-691 -321 2664
-679 -319 2648
-671 -319 2649
-662 -318 2646
-653 -318 2643
-645 -318 2644
-637 -318 2644
-628 -317 2640
-618 -316 2631
-607 -315 2619
-603 -316 2636
-592 -315 2626
-582 -314 2615
-575 -314 2617
-569 -315 2627
-564 -316 2641
-552 -314 2622
-538 -311 2594
-534 -313 2610
-525 -312 2605
-518 -312 2609
-508 -311 2602
-497 -309 2586
-490 -310 2590
-480 -308 2576
-473 -308 2578
-464 -308 2574
-457 -308 2574
-448 -307 2571
-442 -308 2576
-435 -309 2585
-426 -307 2575
-415 -305 2553
-408 -305 2557
-400 -305 2555
-393 -305 2558
-385 -305 2558
-377 -304 2551
-369 -304 2547
-361 -304 2546
-353 -303 2541
-345 -303 2540
-337 -302 2535
-330 -302 2534
-321 -301 2525
-314 -301 2529
-306 -301 2525
-298 -300 2516
-290 -299 2510
-283 -299 2514
-274 -298 2501
-267 -298 2500
-260 -299 2511
-253 -299 2508
-245 -298 2500
-238 -299 2510
-231 -299 2512
-223 -298 2504
-215 -297 2492
-206 -295 2478
-200 -296 2484
-192 -295 2474
-184 -294 2469
-177 -294 2471
-170 -294 2470
-162 -294 2466
-155 -293 2463
-148 -293 2459
-140 -293 2457
-134 -293 2463
-126 -293 2458
-119 -294 2463
-112 -293 2462
-105 -293 2458
-97 -291 2445
-90 -292 2447
-83 -291 2439
-76 -292 2448
-69 -292 2453
-62 -292 2447
-55 -291 2443
-48 -291 2441
-40 -290 2430
-33 -290 2434
-27 -291 2438
-19 -290 2427
-12 -288 2416
-5 -289 2419
1 -288 2409
8 -289 2416
15 -288 2409
22 -289 2418
29 -288 2412
35 -287 2405
42 -287 2404
49 -286 2392
56 -286 2393
63 -287 2400
70 -286 2391
77 -286 2388
84 -286 2387
90 -286 2388
97 -285 2382
104 -286 2386
111 -285 2379
117 -284 2373
124 -284 2371
131 -285 2372
138 -285 2375
145 -284 2368
152 -285 2371
158 -284 2361
165 -283 2360
172 -284 2362
179 -284 2362
185 -283 2358
191 -283 2351
198 -282 2347
204 -281 2336
211 -281 2337
218 -282 2338
225 -283 2345
232 -282 2341
237 -281 2330
245 -282 2336
252 -282 2337
257 -281 2324
264 -280 2320
270 -280 2317
271 -274 2266
274 -271 2241
283 -273 2254
297 -280 2318
304 -281 2317
310 -280 2308
316 -279 2304
322 -279 2302
330 -280 2307
336 -279 2303
342 -279 2300
350 -280 2304
354 -278 2288
354 -273 2242
364 -275 2263
373 -277 2278
381 -278 2282
387 -278 2280
394 -278 2280
409 -284 2328
413 -282 2313
419 -282 2309
422 -279 2285
428 -279 2279
435 -279 2278
440 -278 2271
447 -278 2272
452 -277 2264
460 -278 2267
465 -277 2261
472 -277 2259
481 -279 2272
484 -277 2253
492 -278 2257
499 -278 2259
503 -277 2247
510 -277 2244
517 -277 2244
522 -276 2239
528 -276 2234
533 -275 2225
539 -275 2224
545 -274 2217
562 -280 2260
561 -276 2226
573 -279 2248
575 -277 2228
571 -272 2188
585 -275 2214
592 -275 2213
592 -272 2188
605 -275 2209
615 -277 2220
624 -278 2229
629 -277 2220
638 -279 2230
644 -279 2226
654 -280 2236
658 -279 2224
664 -279 2220
669 -278 2212
677 -279 2218
683 -279 2214
690 -278 2211
685 -274 2172
682 -270 2141
693 -272 2155
701 -273 2157
709 -273 2161
707 -270 2131
708 -268 2115
724 -272 2141
725 -270 2122
732 -270 2124
0 0 0
749 -272 2132
751 -270 2117
761 -271 2125
773 -273 2138
773 -271 2118
775 -270 2105
780 -269 2098
796 -272 2122
801 -272 2116
812 -274 2127
814 -272 2114
824 -273 2120
829 -273 2115
833 -272 2106
843 -273 2113
850 -274 2113
858 -274 2113
862 -273 2104
868 -273 2102
877 -274 2105
885 -275 2107
887 -273 2094
899 -275 2104
901 -274 2092
912 -275 2099
916 -274 2090
924 -275 2092
931 -275 2091
933 -274 2077
941 -274 2080
946 -274 2074
965 -278 2098
951 -272 2050
977 -277 2091
1014 -286 2152
999 -280 2104
983 -274 2054
988 -273 2047
989 -272 2033
940 -257 1917
894 -242 1809
889 -239 1784
889 -238 1770
897 -239 1773
905 -239 1775
907 -238 1765
915 -239 1768
921 -239 1766
929 -240 1768
933 -239 1761
938 -239 1757
936 -238 1742
948 -239 1750
956 -240 1751
963 -240 1751
962 -239 1737
967 -238 1732
979 -240 1742
-1319 -290 2280
-1305 -289 2273
-1301 -290 2282
-1293 -290 2284
-1278 -288 2274
-1268 -288 2273
-1267 -289 2288
-1244 -285 2263
-1236 -285 2265
-1225 -285 2263
-1212 -283 2255
-1194 -281 2238
-1193 -282 2254
-1177 -280 2241
-1170 -280 2244
-1157 -279 2237
-1151 -279 2240
-1140 -278 2237
-1122 -276 2218
-1117 -276 2226
-1101 -274 2210
-1099 -275 2224
-1088 -274 2218
-1080 -274 2219
-1068 -273 2213
-1053 -271 2198
-1048 -271 2205
-1038 -271 2202
-1027 -270 2194
-1018 -269 2194
-1005 -268 2183
-993 -266 2174
-975 -263 2153
-974 -265 2167
-992 -272 2226
-1005 -277 2273
-999 -278 2279
-993 -278 2284
-989 -279 2293
-986 -280 2304
-981 -281 2313
-977 -282 2323
-977 -284 2342
-974 -285 2355
-965 -285 2354
-966 -287 2376
-958 -287 2376
-957 -289 2393
-954 -290 2408
-952 -292 2423
-944 -292 2424
-941 -293 2438
-937 -294 2450
-937 -297 2472
-929 -297 2472
-925 -298 2484
-920 -299 2493
-916 -300 2504
-910 -300 2512
-906 -302 2524
-899 -302 2528
-899 -305 2553
-893 -305 2558
-888 -306 2570
-882 -307 2576
-877 -308 2586
-874 -309 2601
-864 -309 2597
-859 -310 2608
-851 -310 2611
-848 -312 2626
-842 -313 2636
-835 -313 2639
-826 -313 2638
-824 -315 2661
-817 -315 2663
-810 -316 2668
-802 -316 2672
-796 -317 2680
-790 -317 2686
-772 -313 2656
-769 -316 2675
-769 -319 2703
-751 -315 2671
-733 -311 2637
-727 -311 2643
-723 -313 2661
-715 -313 2662
-709 -314 2670
-697 -312 2654
-689 -312 2657
-680 -312 2655
-671 -311 2650
-659 -309 2634
-652 -310 2641
-648 -311 2656
-640 -311 2656
-628 -309 2641
-618 -308 2633
-608 -307 2623
-602 -308 2635
-593 -308 2628
-584 -307 2626
-574 -306 2613
-568 -307 2625
-562 -308 2635
-551 -306 2618
-545 -307 2626
-534 -305 2612
-524 -304 2604
-519 -305 2615
-506 -302 2592
-496 -301 2579
-488 -301 2578
-482 -302 2589
-473 -301 2581
-464 -300 2572
-455 -299 2567
-446 -298 2561
-441 -300 2574
-432 -299 2566
-426 -300 2574
-414 -297 2548
-407 -297 2554
-399 -297 2551
-394 -298 2564
-384 -297 2552
-376 -296 2547
-369 -297 2553
-359 -295 2535
-352 -295 2537
-344 -294 2530
-337 -295 2538
-328 -294 2525
-322 -294 2530
-313 -293 2523
-306 -294 2527
-298 -293 2519
-290 -293 2517
-282 -292 2512
-275 -292 2516
-267 -292 2509
-259 -291 2503
-252 -291 2501
-244 -290 2492
-237 -290 2497
-229 -289 2491
-222 -289 2487
-215 -290 2492
-207 -289 2490
-200 -290 2493
-193 -289 2488
-184 -286 2465
-177 -286 2464
-170 -287 2469
-163 -287 2470
-155 -287 2470
-148 -286 2464
-141 -286 2464
-134 -287 2465
-126 -286 2463
-119 -286 2463
-112 -286 2459
-105 -285 2455
-98 -286 2457
-90 -285 2449
-83 -285 2454
-76 -284 2445
-69 -284 2441
-62 -284 2442
-55 -284 2443
-48 -284 2437
-40 -283 2435
-33 -284 2438
-26 -284 2436
-19 -283 2429
-12 -282 2424
-5 -282 2419
1 -281 2410
8 -280 2407
15 -280 2405
22 -281 2409
29 -280 2405
35 -280 2405
42 -280 2400
49 -280 2396
56 -279 2393
63 -279 2393
70 -280 2402
77 -279 2387
84 -279 2390
91 -279 2391
97 -278 2383
104 -277 2370
110 -277 2370
118 -278 2378
124 -277 2371
131 -277 2367
138 -278 2371
145 -278 2376
151 -277 2365
158 -277 2361
165 -277 2363
172 -277 2362
178 -276 2358
185 -276 2353
191 -276 2349
197 -275 2340
205 -275 2344
211 -275 2337
218 -276 2346
225 -275 2340
232 -276 2344
238 -275 2335
245 -275 2338
251 -274 2329
258 -274 2330
264 -274 2323
271 -274 2328
278 -274 2324
279 -269 2278
289 -272 2305
296 -273 2310
303 -273 2312
310 -274 2315
318 -274 2319
323 -273 2308
330 -273 2304
337 -274 2311
343 -273 2305
349 -272 2297
356 -272 2297
363 -273 2298
368 -272 2290
375 -272 2288
380 -271 2279
387 -271 2280
393 -271 2276
403 -273 2294
413 -275 2313
418 -274 2302
424 -274 2298
430 -273 2293
438 -274 2297
443 -273 2288
449 -273 2282
458 -274 2294
463 -273 2286
470 -273 2284
475 -272 2274
481 -272 2270
488 -272 2272
495 -273 2271
503 -274 2278
508 -272 2267
515 -273 2270
523 -274 2274
530 -273 2271
536 -273 2266
538 -271 2247
545 -271 2247
551 -271 2242
564 -274 2270
567 -272 2252
573 -272 2248
580 -272 2248
585 -271 2240
591 -272 2238
598 -272 2238
606 -272 2241
603 -268 2204
608 -267 2198
625 -272 2232
632 -272 2233
643 -274 2247
645 -272 2229
653 -273 2233
652 -269 2203
663 -271 2216
674 -273 2229
678 -272 2219
689 -274 2232
693 -273 2222
679 -265 2154
689 -266 2165
689 -264 2143
689 -261 2120
721 -271 2197
706 -263 2131
702 -259 2096
715 -262 2116
0 0 0
0 0 0
0 0 0
733 -259 2087
742 -260 2091
758 -264 2117
765 -264 2117
773 -264 2119
778 -264 2115
778 -262 2095
790 -264 2107
802 -266 2119
809 -266 2119
815 -266 2117
822 -266 2115
825 -265 2104
835 -266 2111
842 -266 2110
848 -266 2107
857 -267 2112
863 -267 2107
871 -268 2110
878 -268 2108
880 -267 2096
888 -267 2097
895 -267 2095
902 -267 2094
910 -268 2095
913 -267 2085
923 -268 2091
927 -267 2083
935 -268 2084
941 -268 2079
946 -267 2073
953 -268 2072
953 -266 2056
978 -271 2093
1012 -279 2148
998 -273 2101
984 -268 2057
982 -265 2035
989 -265 2033
945 -252 1928
896 -237 1813
890 -234 1787
887 -232 1768
899 -233 1777
912 -235 1789
907 -233 1766
915 -233 1767
913 -231 1750
919 -232 1749
938 -235 1772
937 -233 1756
937 -232 1744
949 -234 1752
950 -233 1741
958 -233 1743
961 -233 1735
971 -234 1740
977 -234 1738
-1328 -285 2296
-1312 -283 2284
-1308 -284 2295
-1295 -283 2289
-1284 -282 2285
-1274 -281 2284
-1260 -280 2277
-1244 -278 2264
-1232 -277 2259
-1229 -278 2272
-1219 -278 2269
-1201 -275 2252
-1191 -275 2251
-1179 -274 2245
-1178 -275 2260
-1154 -271 2231
-1149 -272 2237
-1133 -270 2223
-1123 -269 2222
-1116 -269 2225
-1097 -266 2204
-1094 -267 2215
-1087 -267 2218
-1077 -267 2215
-1068 -266 2214
-1054 -264 2201
-1045 -264 2200
-1034 -263 2194
-1021 -261 2184
-1015 -262 2188
-1002 -260 2178
-992 -259 2174
-978 -257 2160
-976 -258 2172
-994 -265 2231
-994 -267 2248
-996 -270 2273
-992 -271 2283
-992 -272 2300
-986 -273 2306
-983 -274 2319
-979 -275 2329
-975 -276 2339
-971 -277 2348
-967 -278 2359
-962 -279 2366
-962 -281 2387
-957 -282 2396
-951 -282 2401
-948 -283 2414
-947 -285 2432
-941 -286 2440
-942 -288 2462
-932 -287 2458
-927 -289 2469
-926 -290 2487
-919 -291 2491
-912 -291 2496
-911 -293 2516
-903 -293 2517
-901 -295 2536
-900 -297 2556
-893 -297 2559
-889 -299 2573
-886 -301 2589
-876 -300 2585
-872 -301 2597
-865 -301 2601
-857 -302 2605
-851 -302 2613
-849 -304 2631
-844 -305 2642
-835 -305 2641
-829 -306 2650
-824 -307 2660
-814 -306 2654
-811 -308 2674
-805 -309 2681
-796 -309 2681
-787 -308 2677
-773 -306 2660
-766 -306 2666
-767 -310 2699
-749 -306 2664
-736 -304 2648
-736 -307 2676
-724 -306 2666
-711 -303 2647
-708 -305 2665
-699 -305 2664
-687 -303 2649
-682 -305 2664
-672 -304 2656
-662 -303 2647
-652 -302 2639
-643 -301 2638
-636 -302 2643
-629 -302 2646
-620 -301 2641
-614 -303 2651
-602 -300 2633
-595 -301 2638
-584 -299 2626
-574 -298 2615
-568 -299 2623
-564 -301 2645
-553 -299 2627
-543 -298 2621
-534 -298 2615
-525 -297 2609
-518 -297 2611
-509 -296 2606
-497 -294 2587
-489 -294 2583
-482 -294 2586
-474 -294 2589
-465 -293 2580
-456 -292 2575
-448 -292 2571
-438 -290 2557
-432 -291 2565
-425 -292 2571
-419 -292 2577
-408 -290 2560
-400 -290 2556
-392 -290 2554
-386 -291 2562
-377 -290 2554
-368 -288 2543
-362 -290 2554
-351 -287 2533
-345 -288 2540
-336 -286 2528
-329 -287 2532
-322 -287 2532
-314 -287 2532
-306 -286 2525
-299 -286 2528
-291 -286 2522
-282 -284 2510
-275 -284 2509
-267 -284 2505
-259 -283 2496
-252 -283 2503
-243 -282 2490
-237 -283 2497
-229 -282 2486
-222 -282 2490
-214 -281 2484
-206 -281 2480
-199 -281 2482
-192 -280 2475
-184 -280 2473
-177 -280 2469
-170 -280 2476
-162 -280 2469
