VERSION 0.7
FIELDS x y z
SIZE 4 4 4
TYPE I I I
COUNT 1 1 1
WIDTH 3535
HEIGHT 1
VIEWPOINT 0.0 0.0 0.0 1.0 0.0 0.0 0.0
POINTS 3535
DATA ascii
-26 828 2400
-18 827 2396
-11 782 2265
-3 741 2146
2 739 2140
9 744 2157
15 743 2153
22 750 2173
28 755 2188
36 775 2247
44 802 2324
53 835 2419
62 856 2483
69 859 2491
76 856 2482
84 854 2475
91 855 2480
100 864 2505
105 846 2451
111 835 2419
120 850 2463
126 835 2421
131 822 2381
126 750 2173
133 751 2176
140 753 2181
156 804 2329
172 847 2454
175 829 2399
185 839 2429
192 839 2430
196 827 2394
213 864 2503
220 863 2497
213 808 2337
223 819 2371
235 836 2417
246 848 2454
254 852 2464
262 854 2470
269 851 2459
276 850 2457
283 848 2450
289 846 2443
297 847 2445
303 843 2433
310 842 2432
318 844 2435
325 843 2431
332 843 2431
340 844 2434
347 843 2431
355 843 2431
360 837 2412
368 839 2417
374 837 2411
382 839 2416
387 834 2400
396 836 2405
402 833 2395
408 832 2392
415 831 2387
421 829 2380
430 832 2390
434 825 2369
443 829 2377
448 825 2365
456 827 2369
460 821 2351
465 817 2338
461 797 2280
481 820 2346
489 821 2348
496 821 2346
501 816 2332
510 820 2341
518 821 2343
526 822 2345
531 819 2336
538 818 2331
543 815 2322
548 813 2313
557 814 2316
563 813 2310
566 808 2295
573 808 2294
574 799 2267
589 810 2298
597 810 2297
597 802 2272
606 804 2277
622 816 2309
630 817 2309
632 810 2288
636 806 2277
633 793 2237
636 788 2222
639 784 2210
645 783 2203
645 774 2178
656 779 2191
664 781 2194
673 783 2198
675 777 2180
684 779 2185
681 769 2154
684 765 2140
688 761 2129
692 758 2118
693 752 2099
692 744 2076
693 738 2056
694 732 2038
689 721 2005
690 715 1987
693 712 1976
697 709 1966
714 720 1996
745 745 2063
792 785 2171
811 796 2202
812 791 2184
792 764 2109
804 770 2121
822 780 2148
843 793 2183
852 796 2188
856 793 2177
860 790 2167
868 791 2166
872 788 2156
876 786 2148
879 782 2135
895 790 2156
911 798 2176
921 801 2180
929 801 2178
938 803 2180
943 802 2174
950 801 2171
967 810 2191
969 805 2176
982 810 2186
988 809 2181
992 806 2171
1016 820 2205
1020 817 2195
1032 821 2203
1039 821 2200
1040 816 2183
1037 809 2160
1034 800 2135
1034 795 2119
1020 779 2073
984 746 1982
795 599 1587
706 528 1397
744 553 1460
704 520 1370
733 538 1416
733 534 1404
804 582 1528
910 655 1718
928 664 1739
944 671 1755
941 664 1736
956 671 1749
954 665 1732
967 670 1742
972 670 1739
973 666 1726
978 665 1722
981 664 1715
992 667 1721
999 667 1719
1013 673 1730
1015 671 1721
1020 670 1717
1020 666 1704
-1397 929 2291
-1380 922 2280
-1374 924 2288
-1358 918 2278
-1351 919 2285
-1333 912 2271
-1329 914 2282
-1309 906 2265
-1299 904 2265
-1285 900 2257
-1274 897 2255
-1265 896 2257
-1253 893 2252
-1234 885 2236
-1223 882 2232
-1220 886 2246
-1208 883 2241
-1205 885 2252
-1197 885 2255
-1180 878 2241
-1170 876 2240
-1160 875 2239
-1147 870 2231
-1133 865 2221
-1125 865 2224
-1114 862 2220
-1108 862 2225
-1096 859 2219
-1089 859 2223
-1075 854 2214
-1058 846 2196
-1000 805 2093
-964 782 2035
-950 775 2021
-952 783 2043
-952 788 2061
-952 794 2079
-944 793 2078
-946 800 2100
-945 805 2116
-950 815 2144
-963 832 2194
-957 833 2199
-958 840 2221
-950 839 2220
-948 843 2235
-947 849 2254
-944 853 2266
-936 852 2268
-930 853 2272
-927 857 2285
-917 854 2281
-909 854 2284
-892 845 2261
-882 842 2256
-882 849 2277
-880 854 2295
-873 854 2297
-867 856 2303
-859 855 2303
-854 857 2311
-847 857 2316
-840 858 2320
-836 861 2331
-824 856 2319
-820 859 2331
-813 860 2335
-807 861 2340
-800 861 2343
-792 860 2343
-784 860 2346
-777 860 2347
-766 856 2339
-759 856 2341
-748 852 2332
-736 847 2321
-725 842 2310
-711 834 2290
-693 821 2256
-678 812 2231
-663 802 2206
-649 794 2186
-638 788 2171
-625 781 2152
-614 775 2139
-600 766 2115
-591 762 2107
-578 755 2088
-565 746 2065
-557 744 2060
-554 748 2073
-547 747 2072
-541 747 2075
-531 743 2065
-525 744 2068
-517 741 2063
-515 747 2080
-504 740 2061
-509 757 2112
-496 747 2086
-491 749 2093
-480 741 2072
-465 729 2039
-466 739 2068
-468 754 2110
-454 741 2075
-448 741 2077
-435 730 2048
-438 746 2095
-435 752 2113
-418 732 2058
-424 754 2120
-414 748 2105
-411 754 2123
-404 753 2121
-399 756 2130
-392 754 2127
-387 758 2138
-380 757 2137
-375 760 2147
-372 768 2170
-377 792 2239
-360 770 2178
-359 782 2212
-357 791 2240
-353 798 2260
-352 810 2297
-330 777 2204
-318 763 2165
-309 759 2152
-293 735 2086
-285 729 2069
-274 717 2038
-267 716 2034
-261 716 2035
-257 722 2054
-249 715 2035
-241 711 2022
-242 731 2080
-256 795 2265
-246 784 2235
-239 784 2234
-233 786 2242
-217 755 2152
-209 749 2135
-203 748 2134
-194 741 2116
-187 736 2101
-178 728 2078
-171 724 2068
-164 721 2061
-157 718 2052
-151 718 2052
-146 721 2060
-140 725 2074
-141 764 2185
-130 740 2117
-119 713 2040
-112 705 2018
-108 720 2062
-106 749 2145
-104 775 2221
-97 776 2224
-89 765 2193
-84 779 2233
-77 774 2218
-72 792 2270
-65 790 2266
-57 781 2240
-51 780 2237
-45 801 2299
-40 837 2403
-34 869 2494
-28 893 2563
-20 889 2553
-12 859 2467
-4 785 2251
2 745 2138
9 745 2137
15 749 2150
21 746 2142
28 750 2152
35 753 2161
41 755 2167
49 771 2214
57 791 2272
66 822 2359
75 846 2428
83 853 2450
90 852 2446
97 847 2432
105 857 2459
110 837 2403
119 849 2438
127 853 2449
133 845 2425
139 834 2392
137 781 2242
151 821 2357
161 838 2403
174 868 2490
175 836 2397
182 836 2398
188 829 2378
197 837 2399
207 849 2433
217 857 2458
213 815 2334
220 816 2338
231 830 2379
239 833 2386
251 848 2430
261 858 2456
264 843 2413
272 845 2419
282 853 2443
289 853 2440
298 856 2449
303 849 2427
307 841 2406
316 845 2414
325 851 2431
334 854 2440
341 852 2435
348 851 2431
354 849 2425
363 851 2430
369 850 2424
376 848 2417
382 846 2413
390 847 2413
396 844 2404
405 848 2415
410 843 2400
417 842 2396
424 841 2391
432 843 2397
439 842 2393
444 839 2383
453 841 2388
459 838 2380
468 841 2386
469 831 2358
461 804 2280
483 829 2350
495 838 2373
501 836 2366
506 833 2357
514 834 2359
524 837 2367
530 835 2360
534 830 2344
540 828 2338
547 828 2336
552 824 2324
559 826 2326
565 823 2318
570 821 2310
578 821 2308
586 823 2312
594 823 2312
597 818 2297
596 807 2264
603 806 2261
611 808 2265
620 810 2269
616 796 2228
616 787 2201
618 781 2182
623 780 2177
627 776 2166
630 771 2149
636 770 2144
645 772 2150
654 776 2159
664 779 2166
651 757 2102
629 723 2007
627 714 1980
633 713 1976
636 710 1966
638 705 1949
640 701 1937
642 697 1923
650 699 1928
655 697 1920
660 696 1916
663 693 1905
665 689 1894
669 686 1884
682 694 1904
700 706 1935
733 733 2007
773 766 2096
781 767 2097
784 764 2087
796 769 2098
809 775 2113
819 777 2117
833 784 2134
831 777 2111
841 779 2116
855 786 2131
857 781 2116
866 783 2119
875 785 2123
895 797 2153
913 807 2177
921 808 2177
928 808 2175
936 808 2173
941 806 2166
950 808 2169
989 835 2238
971 814 2177
974 810 2166
997 824 2199
979 803 2142
1010 822 2190
1020 825 2193
1035 831 2207
1038 828 2195
1045 827 2192
1034 813 2151
1030 804 2125
1031 799 2108
1009 777 2047
972 744 1956
779 592 1553
717 541 1416
705 529 1382
725 540 1409
734 543 1416
745 548 1426
829 606 1576
929 675 1753
939 677 1757
946 678 1757
947 675 1745
956 677 1748
960 675 1741
959 670 1725
977 679 1745
973 672 1725
992 681 1745
985 672 1720
997 676 1727
1005 678 1728
1012 678 1726
1011 674 1712
1022 677 1718
1020 672 1701
-1356 909 2222
-1382 932 2282
-1381 937 2297
-1360 928 2280
-1354 929 2286
-1341 925 2282
-1327 921 2275
-1302 908 2249
-1303 915 2269
-1284 907 2254
-1274 905 2253
-1253 895 2233
-1250 899 2245
-1243 899 2249
-1236 899 2254
-1224 896 2250
-1199 883 2221
-1192 884 2226
-1188 886 2237
-1178 884 2234
-1174 887 2245
-1155 878 2227
-1147 878 2229
-1140 877 2232
-1126 873 2223
-1112 867 2213
-1108 870 2223
-1099 868 2223
-1083 862 2209
-1069 856 2198
-1064 858 2205
-1016 825 2124
-971 794 2047
-950 782 2019
-948 786 2032
-952 795 2057
-947 796 2065
-945 800 2078
-944 805 2093
-940 808 2103
-948 820 2138
-962 838 2188
-963 845 2209
-961 850 2225
-955 851 2230
-952 854 2243
-949 858 2256
-940 856 2254
-932 856 2254
-925 856 2258
-919 857 2263
-912 858 2269
-905 858 2272
-892 852 2258
-876 843 2238
-870 845 2245
-874 855 2275
-868 857 2281
-860 856 2281
-857 861 2297
-849 859 2295
-841 858 2296
-826 850 2277
-805 837 2243
-791 829 2225
-777 822 2207
-761 812 2183
-745 803 2160
-736 799 2153
-721 791 2132
-710 785 2120
-700 782 2114
-690 778 2104
-679 774 2095
-667 767 2078
-660 767 2080
-650 762 2069
-638 756 2054
-628 751 2043
-624 754 2053
-614 750 2042
-607 749 2041
-596 743 2027
-588 741 2025
-581 740 2022
-575 740 2025
-568 740 2026
-561 739 2024
-556 740 2028
-550 740 2032
-547 744 2044
-543 748 2056
-537 748 2058
-520 734 2021
-515 735 2025
-511 738 2036
-513 751 2072
-497 736 2031
-491 737 2037
-491 745 2061
-486 748 2068
-484 755 2089
-478 755 2093
-474 758 2102
-461 749 2078
-462 760 2111
-456 761 2114
-445 753 2093
-439 754 2096
-436 760 2116
-427 756 2104
-423 760 2116
-416 759 2115
-410 760 2119
-404 760 2120
-399 762 2128
-393 764 2133
-386 762 2129
-380 765 2138
-374 765 2140
-373 777 2174
-373 789 2211
-365 786 2202
-365 801 2245
-355 794 2228
-339 773 2168
-334 776 2179
-312 742 2082
-302 731 2054
-302 747 2100
-304 767 2157
-290 749 2105
-272 720 2025
-268 723 2034
-259 717 2019
-261 737 2077
-248 720 2030
-240 713 2010
-233 713 2009
-248 778 2194
-244 785 2216
-229 756 2136
-220 749 2116
-212 742 2096
-204 739 2088
-197 734 2075
-190 731 2068
-183 727 2056
-176 726 2052
-169 724 2047
-163 724 2050
-156 720 2038
-150 719 2034
-143 714 2022
-136 709 2009
-130 713 2019
-127 729 2065
-120 722 2047
-114 724 2052
-108 722 2047
-102 726 2060
-99 752 2132
-95 767 2178
-91 785 2227
-84 790 2243
-78 789 2239
-75 835 2372
-69 851 2417
-62 853 2423
-55 852 2422
-44 796 2261
-35 750 2132
-30 787 2237
-27 875 2489
-20 910 2587
-12 898 2553
-4 864 2458
2 791 2250
9 752 2137
15 747 2122
22 755 2147
28 753 2141
34 752 2139
41 755 2146
47 757 2152
54 757 2153
61 765 2176
69 781 2221
78 803 2283
87 827 2352
95 838 2384
103 845 2403
110 845 2403
118 849 2414
122 827 2352
131 835 2374
138 835 2373
142 818 2325
152 835 2372
160 839 2384
163 818 2324
181 872 2478
182 841 2389
188 837 2379
196 837 2378
190 783 2222
202 807 2290
207 799 2267
220 822 2332
228 824 2339
237 832 2360
240 816 2315
252 835 2367
249 801 2272
261 817 2315
280 853 2418
289 859 2435
295 856 2426
299 847 2399
305 842 2385
312 842 2385
324 853 2415
333 858 2428
341 860 2433
347 857 2425
354 857 2423
361 856 2418
368 854 2414
377 859 2426
382 852 2407
389 852 2406
396 852 2403
405 854 2408
409 848 2391
418 852 2401
426 852 2400
433 853 2402
439 849 2391
445 847 2383
452 847 2383
460 848 2385
468 849 2386
475 848 2383
470 826 2319
478 828 2324
495 845 2371
502 845 2370
509 845 2368
516 843 2363
523 844 2362
532 846 2367
537 842 2356
543 841 2351
550 840 2346
556 839 2342
562 836 2333
569 836 2331
574 833 2323
582 834 2322
590 835 2325
595 832 2315
596 824 2292
597 815 2264
596 804 2233
597 796 2208
589 777 2155
568 741 2053
552 712 1971
553 705 1951
537 677 1870
554 691 1908
571 704 1944
555 678 1869
578 699 1925
574 686 1888
590 698 1922
596 699 1921
590 685 1881
593 681 1870
602 684 1878
604 680 1863
607 677 1855
613 677 1853
619 677 1851
624 676 1846
627 674 1838
631 671 1829
640 674 1837
643 671 1827
650 673 1829
651 668 1815
664 675 1831
689 695 1884
721 721 1953
757 750 2032
775 761 2060
781 761 2057
791 764 2064
806 772 2082
816 775 2089
822 775 2085
825 771 2072
841 779 2094
847 779 2091
855 780 2091
880 797 2133
900 809 2164
914 815 2176
921 815 2174
932 818 2180
937 817 2174
947 819 2178
952 817 2170
960 818 2170
963 814 2157
973 816 2161
977 814 2152
990 819 2163
1009 829 2185
1026 837 2203
1032 836 2199
1038 835 2194
1041 831 2180
1036 822 2153
1032 813 2126
1030 806 2105
1004 780 2034
931 718 1870
754 578 1502
690 526 1362
733 555 1436
726 545 1410
698 521 1344
749 556 1433
850 626 1614
924 677 1741
935 680 1748
951 688 1764
952 684 1752
967 690 1766
964 684 1746
969 683 1742
974 683 1738
971 676 1719
976 676 1715
992 683 1729
996 682 1724
998 679 1714
1010 683 1722
1020 685 1724
1018 680 1708
1025 681 1707
-992 671 1623
-1325 901 2185
-1391 951 2311
-1370 942 2293
-1349 933 2275
-1343 934 2282
-1325 927 2270
-1307 920 2256
-1295 917 2251
-1289 918 2259
-1277 915 2255
-1261 909 2244
-1260 913 2260
-1238 903 2237
-1231 903 2242
-1217 899 2234
-1204 895 2228
-1197 895 2232
-1187 893 2231
-1173 888 2223
-1162 886 2220
-1158 888 2230
-1145 883 2221
-1132 879 2215
-1123 878 2214
-1111 874 2209
-1106 876 2216
-1098 875 2219
-1088 873 2216
-1076 869 2210
-1062 864 2200
-1028 842 2146
-979 807 2062
-951 790 2019
-950 795 2035
-950 800 2052
-951 807 2072
-946 808 2077
-945 813 2093
-936 811 2092
-945 825 2130
-957 841 2176
-963 852 2207
-958 855 2216
-956 859 2231
-953 863 2244
-948 865 2252
-943 867 2260
-933 865 2256
-927 865 2261
-918 863 2258
-904 857 2245
-898 858 2250
-893 861 2260
-876 851 2237
-860 843 2217
-862 851 2243
-862 858 2264
-855 858 2266
-847 857 2266
-843 860 2277
-833 858 2273
-797 828 2197
-751 787 2090
-716 757 2012
-705 752 2001
-697 750 1997
-689 749 1996
-680 746 1989
-674 746 1993
-666 744 1989
-657 741 1982
-650 740 1981
-642 738 1978
-638 740 1987
-630 738 1983
-625 739 1987
-619 740 1992
-611 738 1988
-601 733 1975
-590 726 1960
-597 744 2009
-592 745 2013
-577 734 1985
-564 725 1961
-582 756 2048
-564 741 2009
-561 745 2021
-560 751 2041
-545 740 2011
-540 742 2018
-539 749 2038
-535 752 2049
-520 740 2017
-516 743 2028
-524 764 2086
-516 762 2082
-512 765 2092
-494 748 2047
-497 761 2085
-482 748 2051
-484 760 2085
-480 766 2101
-468 755 2074
-467 765 2102
-453 752 2066
-450 758 2086
-439 750 2065
-438 759 2091
-433 761 2096
-428 764 2108
-424 768 2121
-416 766 2115
-412 770 2126
-404 767 2121
-400 772 2134
-392 769 2129
-386 770 2131
-381 772 2138
-376 775 2149
-367 771 2138
-374 798 2215
-366 795 2208
-367 814 2260
-354 799 2220
-351 807 2244
-335 786 2185
-312 747 2077
-298 728 2027
-288 720 2003
-295 753 2097
-289 752 2094
-279 742 2069
-264 719 2005
-258 720 2008
-252 721 2011
-253 741 2068
-239 719 2006
-231 713 1991
-232 733 2048
-236 767 2144
-226 753 2106
-216 742 2077
-208 736 2058
-201 733 2053
-194 731 2047
-188 730 2045
-181 728 2039
-175 726 2034
-163 703 1971
-163 728 2041
-154 714 2002
-147 713 2000
-143 721 2022
-137 722 2025
-133 731 2051
-132 760 2134
-123 749 2103
-117 748 2100
-108 730 2051
-100 722 2028
-97 739 2077
-93 757 2127
-91 793 2231
-88 834 2346
-85 873 2456
-78 877 2468
-70 870 2449
-61 840 2364
-49 777 2186
-40 728 2049
-33 706 1987
-28 730 2055
-24 811 2283
-19 888 2500
-12 922 2598
-5 914 2575
2 875 2466
9 799 2250
15 756 2129
21 751 2115
28 762 2145
34 761 2143
41 760 2140
47 762 2145
54 761 2143
60 761 2144
67 763 2150
74 765 2156
81 774 2180
89 784 2208
96 792 2231
105 810 2281
117 847 2386
125 856 2410
130 838 2361
139 847 2384
146 849 2390
154 854 2405
164 869 2448
169 856 2410
172 836 2354
183 853 2402
181 813 2287
180 777 2186
186 772 2171
193 774 2177
199 772 2170
208 784 2203
208 758 2130
212 749 2105
216 742 2086
227 758 2130
239 776 2178
263 829 2328
280 861 2418
288 864 2426
294 860 2414
300 856 2402
305 849 2382
314 854 2394
322 855 2398
330 858 2406
338 859 2406
347 863 2417
354 864 2419
360 860 2408
367 859 2405
374 859 2403
382 859 2404
389 859 2403
395 857 2396
403 859 2399
411 858 2397
416 855 2387
422 852 2377
432 857 2391
438 854 2383
439 842 2348
447 844 2351
458 850 2368
469 858 2388
474 854 2377
476 845 2349
470 821 2283
491 845 2349
503 853 2368
510 853 2368
516 852 2363
523 851 2361
529 848 2351
537 849 2352
543 848 2349
552 850 2351
559 850 2352
565 848 2345
573 849 2345
577 845 2332
587 848 2341
590 843 2325
599 845 2329
598 834 2296
593 816 2247
589 802 2206
585 787 2163
541 719 1974
492 647 1775
512 666 1825
517 664 1819
512 651 1782
532 669 1830
527 656 1793
540 665 1817
540 658 1795
577 695 1897
580 692 1886
586 692 1885
577 675 1837
577 668 1817
582 667 1812
590 670 1819
595 669 1814
602 670 1816
606 669 1811
608 664 1797
614 665 1797
624 669 1806
627 667 1799
632 666 1795
636 664 1788
645 667 1795
653 669 1800
668 679 1823
712 717 1925
753 753 2019
770 763 2044
776 763 2042
788 767 2051
808 780 2085
820 786 2098
819 778 2075
827 780 2076
848 793 2109
854 792 2106
863 794 2108
888 811 2151
911 825 2186
923 830 2197
927 827 2186
937 829 2189
948 833 2198
949 827 2179
957 828 2179
965 829 2179
970 827 2170
975 826 2165
982 825 2160
998 833 2178
1016 841 2197
1025 843 2198
1034 844 2199
1039 843 2192
1037 835 2170
1038 831 2155
1033 820 2125
1021 806 2085
1000 784 2024
886 690 1778
746 576 1482
720 553 1419
721 550 1409
712 539 1381
723 544 1391
759 568 1450
873 649 1655
929 686 1748
944 693 1762
941 686 1743
959 695 1762
962 693 1755
962 689 1742
970 690 1741
974 689 1736
980 689 1733
984 687 1726
989 686 1721
1000 690 1727
1002 687 1718
1004 685 1708
1015 688 1714
1021 688 1712
1024 686 1704
-865 591 1414
-1028 706 1694
-1391 959 2308
-1404 974 2348
-1375 959 2317
-1359 953 2307
-1332 940 2278
-1309 929 2256
-1295 924 2249
-1297 932 2271
-1273 920 2246
-1260 916 2240
-1248 913 2236
-1243 914 2244
-1229 910 2237
-1215 905 2229
-1213 909 2242
-1196 901 2228
-1188 901 2230
-1169 892 2212
-1161 892 2215
-1157 895 2226
-1142 889 2215
-1130 885 2208
-1121 883 2208
-1113 883 2210
-1098 877 2198
-1091 877 2203
-1088 880 2214
-1081 880 2217
-1065 874 2203
-1039 858 2168
-988 822 2078
-959 804 2035
-948 800 2029
-947 805 2043
-949 812 2064
-946 815 2076
-941 817 2083
-934 816 2084
-942 829 2121
-958 849 2174
-963 860 2205
-963 866 2224
-960 870 2237
-960 877 2258
-954 878 2263
-950 880 2273
-939 877 2267
-928 873 2260
-923 875 2268
-915 875 2269
-900 867 2253
-890 865 2250
-878 860 2239
-859 849 2212
-852 848 2213
-848 851 2225
-846 857 2242
-839 857 2244
-831 856 2244
-825 856 2247
-773 810 2128
-713 754 1983
-689 735 1935
-688 741 1952
-691 751 1980
-680 745 1968
-673 745 1968
-669 747 1976
-637 718 1900
-656 746 1977
-629 723 1917
-633 733 1948
-642 752 1998
-638 754 2006
-625 746 1985
-609 734 1955
-605 736 1964
-596 733 1958
-592 735 1965
-586 735 1967
-593 752 2014
-598 766 2053
-581 753 2019
-569 746 2002
-568 753 2023
-566 758 2039
-548 742 1997
-554 758 2042
-540 749 2017
-532 745 2009
-529 750 2024
-528 757 2046
-525 762 2061
-520 764 2067
-505 752 2036
-511 770 2086
-493 752 2038
-490 756 2052
-493 772 2096
-483 765 2079
-470 755 2052
-467 761 2070
-465 768 2090
-458 767 2091
-456 775 2112
-444 765 2087
-443 774 2113
-438 776 2118
-432 777 2122
-428 781 2135
-422 782 2140
-418 787 2154
-410 786 2151
-406 789 2162
-398 787 2158
-394 792 2172
-388 792 2175
-384 798 2191
-379 801 2201
-377 812 2232
-373 817 2247
-356 796 2189
-356 810 2229
-353 819 2255
-349 826 2275
-319 771 2126
-300 739 2037
-292 735 2028
-282 726 2003
-295 774 2137
-279 751 2073
-270 743 2052
-262 738 2038
-252 727 2010
-249 736 2036
-241 729 2017
-231 719 1990
-225 716 1983
-241 789 2186
-225 758 2099
-215 743 2059
-206 736 2041
-200 737 2042
-193 732 2031
-186 729 2023
-181 731 2030
-174 731 2031
-166 721 2001
-161 727 2020
-158 743 2063
-151 737 2048
-143 728 2024
-137 727 2020
-134 745 2072
-132 768 2137
-127 776 2160
-121 783 2178
-110 749 2086
-101 732 2037
-94 727 2024
-92 754 2099
-90 791 2204
-89 843 2349
-81 835 2328
-73 828 2309
-64 802 2237
-55 775 2160
-47 747 2084
-40 731 2037
-34 738 2057
-28 749 2087
-23 781 2179
-18 837 2336
-12 910 2539
-5 931 2600
2 922 2575
10 877 2449
16 803 2241
22 764 2131
28 756 2110
34 766 2138
41 766 2137
47 766 2138
54 766 2137
60 764 2131
67 765 2134
73 764 2133
79 765 2135
86 770 2147
93 770 2149
100 774 2160
110 802 2237
126 863 2409
132 857 2391
135 828 2311
144 841 2346
150 835 2331
162 865 2412
166 844 2354
162 789 2200
165 775 2161
175 788 2197
180 782 2178
186 780 2172
192 779 2169
197 770 2145
202 768 2137
207 760 2117
211 751 2091
217 752 2093
227 762 2119
239 782 2175
257 818 2276
274 851 2368
286 863 2401
289 852 2369
292 839 2333
295 828 2302
307 842 2341
320 858 2384
331 867 2407
338 866 2404
344 864 2398
353 867 2406
361 870 2414
367 867 2404
373 863 2392
381 864 2393
386 860 2382
395 863 2390
402 863 2388
408 860 2378
410 849 2347
416 846 2339
423 846 2337
426 838 2314
431 834 2304
444 844 2331
458 858 2368
466 859 2369
473 859 2369
478 856 2357
468 825 2272
488 848 2335
500 856 2355
505 852 2344
515 856 2352
521 855 2349
527 853 2342
534 853 2340
542 854 2341
549 853 2339
557 854 2340
565 855 2342
574 857 2346
579 855 2338
584 851 2325
592 853 2330
599 851 2325
606 852 2324
596 828 2256
588 807 2198
552 749 2038
500 671 1823
520 689 1873
504 661 1793
532 689 1870
529 678 1838
543 689 1867
517 648 1755
541 671 1816
567 697 1883
584 710 1918
601 724 1954
587 700 1887
571 674 1815
572 668 1800
578 668 1799
586 671 1805
591 670 1799
596 670 1798
606 674 1807
610 672 1800
617 673 1802
621 672 1797
625 670 1791
633 672 1794
638 672 1792
644 672 1791
652 674 1795
672 689 1834
707 719 1910
750 756 2008
767 766 2032
774 766 2032
788 774 2051
805 784 2075
821 794 2098
818 784 2069
829 788 2078
844 796 2098
848 793 2088
856 794 2088
893 822 2160
919 840 2204
924 838 2196
935 841 2202
939 838 2192
946 838 2188
955 839 2190
960 838 2184
966 837 2179
970 835 2169
977 834 2165
988 838 2172
999 840 2176
1015 848 2193
1027 852 2201
1034 851 2197
1043 853 2198
1039 844 2171
1036 836 2147
1033 828 2124
1013 806 2066
985 779 1992
847 665 1697
723 564 1435
692 536 1363
730 561 1425
729 557 1413
713 541 1370
770 581 1468
902 676 1708
924 688 1737
944 699 1761
952 700 1762
953 696 1749
961 698 1751
967 698 1747
964 691 1728
975 695 1735
983 696 1735
983 692 1722
998 699 1736
996 693 1719
999 692 1712
1015 698 1726
1020 697 1720
1024 696 1713
1030 696 1712
-843 581 1376
-914 633 1503
-1354 942 2244
-1400 979 2338
-1422 1000 2393
-1379 976 2339
-1350 961 2307
-1332 953 2293
-1311 944 2274
-1289 934 2254
-1287 937 2267
-1272 932 2259
-1262 930 2258
-1242 921 2240
-1231 919 2238
-1217 914 2230
-1211 915 2235
-1196 909 2226
-1189 910 2230
-1169 900 2209
-1162 900 2215
-1154 900 2217
-1139 894 2206
-1134 896 2214
-1119 889 2201
-1109 887 2199
-1099 885 2199
-1092 885 2202
-1085 886 2206
-1082 889 2218
-1064 880 2198
-1051 875 2189
-995 834 2090
-959 810 2032
-950 808 2029
-947 811 2041
-949 818 2062
-943 819 2066
-941 823 2080
-942 830 2099
-943 836 2119
-959 857 2174
-959 863 2193
-969 878 2235
-953 871 2218
-952 876 2236
-953 884 2258
-949 887 2269
-946 891 2283
-940 893 2289
-932 891 2289
-920 887 2280
-914 888 2286
-900 882 2273
-892 881 2272
-874 870 2247
-854 858 2217
-845 855 2214
-842 860 2227
-837 862 2235
-825 857 2225
-816 854 2221
-771 815 2121
-711 759 1976
-699 752 1961
-692 752 1961
-685 750 1960
-674 745 1948
-674 752 1969
-657 740 1938
-659 748 1963
-658 754 1981
-634 734 1930
-635 742 1952
-633 747 1967
-633 754 1987
-627 754 1990
-624 758 2002
-598 734 1941
-609 756 1999
-596 747 1979
-595 753 1996
-590 754 2001
-587 759 2014
-585 764 2030
-574 758 2015
-570 761 2025
-569 768 2045
-546 745 1987
-561 775 2067
-539 753 2011
-532 751 2008
-529 756 2022
-523 756 2024
-519 760 2035
-519 769 2062
-516 774 2077
-498 756 2030
-505 777 2088
-491 766 2058
-482 761 2046
-487 779 2097
-480 778 2096
-483 794 2139
-467 778 2099
-467 789 2129
-464 794 2144
-455 790 2136
-449 791 2140
-444 794 2149
-439 796 2154
-433 797 2159
-431 807 2187
-420 799 2166
-415 802 2175
-411 807 2191
-408 813 2210
-404 818 2224
-397 817 2222
-391 819 2230
-386 823 2241
-379 824 2244
-370 818 2230
-363 819 2232
-355 814 2221
-347 812 2216
-339 808 2206
-330 805 2197
-308 767 2094
-291 738 2016
-283 735 2009
-284 753 2061
-273 739 2023
-276 765 2094
-264 750 2054
-255 740 2027
-246 732 2004
-244 744 2039
-231 725 1988
-226 727 1995
-233 770 2112
-236 801 2199
-215 752 2064
-205 736 2022
-198 735 2020
-193 738 2027
-184 727 1997
-180 737 2027
-175 742 2040
-166 730 2008
-160 728 2003
-154 728 2004
-147 723 1989
-144 738 2033
-138 739 2035
-134 751 2070
-131 768 2117
-128 789 2174
-122 797 2197
-114 782 2158
-103 750 2069
-96 748 2065
-91 757 2089
-87 780 2152
-78 754 2081
-70 736 2032
-65 750 2071
-59 752 2075
-54 760 2099
-48 774 2138
-42 776 2143
-36 785 2169
-30 792 2187
-23 798 2206
-17 808 2233
-11 855 2364
-4 924 2555
2 941 2602
10 932 2578
17 881 2437
23 809 2238
28 767 2120
34 761 2102
41 770 2130
47 770 2130
53 767 2120
60 769 2125
66 769 2125
73 774 2140
79 769 2125
86 772 2133
92 772 2134
99 777 2148
109 799 2210
119 821 2268
126 827 2286
135 839 2319
146 861 2379
151 849 2345
146 785 2168
149 766 2115
153 753 2079
161 760 2099
169 770 2126
177 778 2147
184 779 2151
189 772 2131
196 774 2137
202 773 2132
209 775 2137
214 768 2119
222 773 2132
229 775 2135
241 796 2193
256 822 2267
260 813 2241
264 804 2214
269 800 2202
270 781 2150
286 809 2227
302 835 2297
321 867 2387
330 871 2396
339 877 2413
344 872 2397
351 870 2390
358 870 2389
366 872 2395
373 870 2389
380 870 2388
385 865 2375
393 865 2374
400 866 2374
403 857 2348
405 846 2318
406 834 2283
414 835 2286
419 832 2276
425 830 2271
440 844 2308
455 859 2348
465 865 2362
471 863 2358
477 861 2350
474 842 2297
482 844 2303
498 859 2340
505 859 2341
514 861 2345
521 861 2344
528 862 2344
534 858 2334
539 856 2325
550 861 2339
556 860 2334
564 861 2335
569 858 2325
578 860 2330
585 860 2329
592 860 2327
599 859 2323
605 857 2317
600 841 2270
592 819 2211
591 808 2179
567 766 2065
554 741 1996
560 740 1992
566 740 1989
573 741 1991
581 743 1994
585 741 1987
597 747 2003
607 752 2016
614 753 2015
602 731 1954
582 700 1870
573 681 1818
576 678 1809
585 681 1816
591 682 1817
595 681 1812
603 683 1817
608 682 1812
616 684 1816
618 680 1803
627 684 1812
635 686 1817
642 687 1818
648 688 1817
651 685 1809
661 690 1819
685 708 1867
718 736 1939
751 763 2008
763 768 2020
774 774 2032
787 780 2045
802 788 2064
812 791 2072
820 793 2073
827 793 2072
834 793 2069
850 802 2090
862 806 2100
899 835 2173
914 842 2189
927 847 2199
932 846 2194
938 844 2187
946 846 2188
952 844 2181
959 844 2179
964 842 2171
974 845 2174
978 842 2165
987 843 2166
999 848 2175
1013 854 2187
1022 855 2188
1037 862 2202
1037 856 2184
1037 849 2164
1032 839 2135
1028 830 2110
998 801 2033
970 773 1959
800 633 1600
717 563 1421
727 568 1430
721 559 1406
751 579 1454
749 573 1438
795 605 1515
914 691 1729
936 703 1757
939 700 1748
944 700 1744
950 700 1742
960 703 1747
972 708 1755
971 703 1740
985 708 1750
989 707 1744
990 703 1733
999 705 1735
998 701 1721
999 697 1709
1005 697 1706
1014 699 1708
1026 703 1715
1038 707 1722
-849 590 1385
-959 670 1576
-1252 879 2073
-1416 998 2361
-1395 989 2345
-1400 999 2371
-1401 1005 2391
-1363 984 2344
-1348 978 2336
-1326 968 2315
-1297 953 2282
-1285 950 2279
-1265 941 2262
-1240 927 2233
-1233 928 2238
-1226 928 2243
-1212 924 2235
-1195 916 2222
-1191 918 2230
-1168 907 2205
-1163 908 2214
-1152 906 2211
-1136 899 2198
-1130 900 2204
-1120 898 2202
-1109 895 2198
-1099 892 2195
-1090 891 2195
-1080 888 2192
-1074 889 2198
-1055 880 2178
-1052 883 2189
-1001 847 2101
-963 820 2037
-948 813 2022
-949 820 2043
-944 821 2049
-946 829 2072
-946 835 2089
-943 838 2099
-951 851 2136
-955 861 2164
-964 875 2202
-960 878 2213
-954 879 2218
-955 887 2241
-951 889 2250
-945 891 2258
-944 896 2274
-943 902 2293
-937 904 2299
-924 898 2287
-927 909 2317
-919 908 2317
-915 911 2329
-894 897 2296
-881 892 2285
-853 871 2233
-835 860 2207
-829 861 2213
-807 845 2175
-792 836 2153
-764 814 2099
-713 767 1979
-710 770 1989
-669 733 1895
-694 766 1983
-675 752 1949
-655 736 1910
-658 747 1939
-658 754 1959
-672 777 2022
-649 757 1972
-639 754 1964
-634 755 1969
-637 765 1998
-628 762 1991
-621 761 1990
-622 769 2015
-605 756 1982
-605 765 2007
-600 766 2012
-590 762 2001
-589 768 2019
-570 751 1977
-579 771 2033
-567 764 2014
-559 762 2010
-563 775 2046
-549 765 2022
-539 760 2010
-544 776 2054
-529 763 2021
-533 777 2061
-530 782 2075
-517 773 2052
-526 796 2115
-512 785 2087
-512 794 2113
-498 782 2084
-487 775 2067
-494 796 2123
-491 803 2142
-485 804 2147
-479 804 2149
-470 800 2139
-467 806 2157
-463 812 2173
-450 800 2143
-451 814 2181
-442 809 2171
-435 809 2171
-431 813 2182
-425 814 2187
-419 816 2193
-414 819 2202
-411 826 2223
-402 821 2210
-395 821 2212
-389 823 2219
-384 827 2230
-379 831 2242
-373 831 2243
-365 829 2239
-358 828 2237
-353 833 2251
-344 829 2242
-340 835 2260
-327 819 2216
-308 787 2132
-296 773 2093
-280 749 2031
-272 744 2017
-270 755 2047
-273 781 2118
-260 761 2066
-246 740 2010
-242 744 2021
-235 742 2015
-226 732 1989
-223 745 2024
-241 824 2242
-218 769 2091
-204 740 2013
-203 759 2067
-192 740 2015
-184 736 2004
-180 741 2019
-173 739 2014
-163 722 1967
-160 733 1997
-155 740 2017
-151 748 2040
-145 748 2042
-139 752 2051
-135 763 2083
-133 785 2145
-126 784 2142
-123 805 2199
-113 787 2150
-107 789 2158
-98 766 2094
-92 774 2115
-87 782 2138
-80 774 2118
-71 749 2048
-65 759 2076
-61 777 2126
-55 788 2155
-49 794 2173
-43 796 2178
-36 792 2168
-31 827 2264
-24 829 2271
-17 816 2233
-10 807 2211
-4 857 2348
2 928 2543
10 944 2587
18 932 2553
24 888 2434
29 816 2235
34 765 2096
40 758 2076
47 773 2118
53 772 2115
60 774 2121
66 774 2120
73 775 2122
79 776 2127
85 773 2117
92 776 2126
99 779 2133
108 795 2178
116 807 2210
124 817 2236
128 797 2183
133 789 2161
138 782 2139
139 753 2062
144 746 2040
150 746 2041
160 761 2083
171 784 2143
180 795 2174
181 773 2113
185 763 2087
191 762 2082
199 768 2100
208 777 2125
214 776 2119
220 772 2109
229 782 2136
243 808 2207
257 833 2275
269 847 2312
278 853 2329
272 815 2225
268 782 2132
284 811 2213
310 865 2358
320 872 2378
330 880 2398
335 873 2380
344 877 2389
351 878 2391
358 876 2386
364 872 2374
370 871 2371
378 871 2370
383 868 2359
392 870 2366
398 869 2360
400 857 2328
400 842 2286
406 839 2277
413 839 2276
417 835 2263
429 844 2287
440 852 2307
453 863 2338
463 868 2349
470 868 2349
475 863 2335
479 858 2319
476 841 2272
495 860 2323
504 864 2333
509 861 2323
516 860 2320
527 866 2334
531 862 2320
540 865 2328
547 865 2326
554 863 2322
562 864 2323
568 864 2320
575 863 2316
583 864 2317
590 863 2314
597 863 2313
603 862 2308
603 851 2278
578 807 2157
574 792 2116
568 775 2069
563 759 2026
566 755 2012
572 754 2007
577 752 2002
584 754 2004
595 760 2020
602 761 2020
610 762 2024
613 758 2011
605 740 1961
586 710 1878
581 697 1844
587 697 1841
595 700 1848
604 703 1855
610 703 1854
614 702 1848
619 700 1843
631 707 1858
637 707 1858
645 710 1863
656 715 1876
664 718 1881
671 719 1882
675 716 1872
681 716 1872
702 732 1911
741 766 1998
754 773 2014
766 778 2026
771 776 2020
791 790 2054
810 803 2084
816 802 2081
823 802 2077
826 798 2066
830 796 2057
837 796 2057
862 814 2099
898 841 2166
913 848 2183
924 851 2189
934 855 2195
935 849 2178
945 852 2182
951 850 2176
958 851 2175
961 846 2161
975 853 2174
975 847 2157
983 847 2155
999 855 2171
1008 857 2173
1024 864 2189
1033 865 2190
1041 866 2188
1032 853 2152
1029 844 2128
1014 826 2080
992 803 2017
952 765 1918
772 616 1543
735 583 1455
699 550 1372
713 557 1388
721 561 1394
735 568 1410
814 624 1549
919 701 1737
937 710 1756
942 709 1752
953 713 1759
956 711 1751
961 710 1746
969 712 1748
971 709 1737
978 709 1736
978 705 1723
981 703 1715
991 706 1719
995 704 1712
1007 708 1720
1015 710 1721
1018 708 1712
1022 707 1707
1026 705 1700
-861 603 1402
-1052 740 1725
-1362 963 2252
-1393 991 2321
-1395 997 2341
-1395 1003 2359
-1372 992 2338
-1383 1006 2376
-1373 1005 2376
-1371 1009 2391
-1334 988 2344
-1292 963 2288
-1274 955 2274
-1262 952 2271
-1242 942 2251
-1227 937 2242
-1209 928 2226
-1194 922 2216
-1193 928 2233
-1184 927 2233
-1165 918 2216
-1153 914 2210
-1141 911 2205
-1133 910 2206
-1124 908 2206
-1112 904 2200
-1099 900 2192
-1091 899 2194
-1078 894 2186
-1061 887 2170
-1056 888 2177
-1045 885 2172
-1012 863 2122
-973 835 2057
-950 822 2026
-942 820 2026
-939 823 2035
-945 834 2066
-950 845 2095
-944 845 2099
-946 853 2122
-945 859 2139
-946 866 2160
-957 883 2204
-956 888 2221
-957 895 2242
-948 894 2241
-944 897 2253
-940 901 2264
-934 902 2269
-933 907 2286
-927 909 2293
-928 917 2316
-922 919 2324
-909 913 2312
-913 925 2344
-902 921 2337
-877 902 2292
-842 874 2222
-822 860 2190
-791 836 2130
-760 810 2066
-742 797 2037
-712 772 1975
-691 756 1934
-681 752 1925
-678 755 1937
-650 730 1874
-670 760 1952
-670 767 1973
-661 764 1967
-656 765 1972
-641 755 1948
-646 768 1982
-626 751 1941
-632 765 1980
-629 770 1994
-620 766 1987
-616 769 1995
-611 771 2001
-609 776 2017
-601 773 2012
-597 777 2022
-597 784 2044
-598 794 2071
-570 765 1998
-569 773 2020
-579 794 2077
-563 781 2045
-562 789 2066
-547 777 2037
-554 796 2087
-553 804 2110
-538 792 2081
-541 806 2120
-536 808 2125
-525 801 2110
-527 813 2143
-517 809 2132
-513 813 2145
-508 816 2155
-497 809 2137
-492 810 2143
-485 810 2144
-481 815 2157
-473 813 2153
-468 815 2162
-462 816 2164
-456 817 2168
-450 819 2175
-445 821 2182
-439 822 2186
-434 825 2195
-427 825 2195
-421 826 2202
-415 828 2208
-410 831 2217
-402 829 2212
-396 830 2215
-390 833 2224
-383 830 2219
-379 837 2238
-372 836 2238
-367 841 2251
-360 840 2249
-351 835 2237
-346 839 2248
-339 838 2248
-331 837 2246
-322 831 2229
-309 814 2184
-289 778 2090
-269 742 1993
-267 752 2021
-276 795 2139
-270 797 2143
-248 751 2021
-238 738 1987
-232 740 1991
-223 729 1964
-219 737 1985
-223 771 2079
-221 784 2113
-205 749 2020
-200 756 2038
-190 741 1998
-185 745 2011
-174 724 1953
-175 754 2035
-168 748 2020
-163 753 2033
-157 754 2039
-151 758 2048
-147 764 2067
-142 776 2098
-139 793 2147
-133 796 2154
-129 810 2194
-121 798 2161
-116 812 2198
-106 788 2134
-100 794 2151
-94 797 2159
-87 789 2138
-81 792 2147
-73 777 2107
-67 780 2115
-61 789 2139
-56 804 2181
-49 803 2178
-43 805 2184
-36 813 2206
-31 835 2267
-24 841 2282
-17 840 2280
-10 820 2226
-3 816 2214
2 859 2333
10 932 2531
18 942 2559
26 942 2559
32 896 2434
36 822 2232
40 771 2093
46 764 2074
54 781 2120
60 780 2117
66 778 2113
73 778 2112
79 777 2109
86 781 2119
92 779 2115
98 779 2114
106 789 2141
116 815 2211
122 813 2207
126 791 2146
129 773 2097
137 780 2115
141 771 2090
147 765 2073
157 783 2124
165 792 2148
175 810 2196
180 801 2172
179 770 2086
186 774 2096
196 785 2128
202 784 2123
207 779 2110
212 773 2092
219 775 2097
227 783 2120
243 816 2208
263 858 2321
280 889 2406
288 892 2414
287 866 2342
282 830 2243
293 844 2280
308 866 2340
318 874 2362
327 877 2369
335 881 2378
341 878 2371
350 882 2379
357 882 2379
364 881 2377
369 875 2358
379 881 2375
382 873 2351
390 873 2351
395 869 2340
401 867 2332
405 860 2314
411 856 2303
418 857 2303
421 850 2283
433 859 2307
442 862 2314
453 870 2334
461 871 2337
467 870 2333
475 872 2336
480 868 2324
470 837 2240
489 858 2296
502 868 2322
508 866 2314
515 865 2310
520 863 2304
530 867 2313
541 872 2326
547 871 2322
554 870 2318
559 868 2311
566 867 2308
573 867 2307
580 866 2303
588 868 2306
596 869 2306
598 862 2287
593 844 2238
568 798 2115
556 773 2047
555 762 2017
558 758 2003
562 756 1996
568 755 1993
576 757 1996
583 758 1999
589 757 1994
597 760 2001
603 760 1997
608 758 1992
603 744 1953
597 729 1912
603 730 1912
608 728 1907
614 728 1904
626 735 1920
630 732 1913
644 741 1934
654 746 1945
660 745 1942
666 745 1940
669 742 1930
687 755 1963
692 754 1958
698 753 1953
704 754 1953
715 758 1964
729 766 1981
744 776 2005
749 774 1998
754 773 1993
764 776 2000
789 795 2046
814 813 2091
824 817 2098
831 816 2095
833 812 2081
832 804 2060
831 797 2038
858 816 2086
892 842 2151
905 848 2163
917 852 2170
923 851 2166
933 854 2171
937 852 2162
948 855 2167
957 856 2168
961 854 2159
966 852 2152
975 853 2153
981 853 2148
993 856 2155
1006 862 2166
1019 867 2175
1030 870 2182
1033 867 2170
1033 860 2150
1029 851 2125
1014 833 2076
993 810 2017
934 757 1880
762 613 1519
694 555 1372
723 574 1418
729 575 1419
728 571 1406
749 583 1435
843 652 1603
927 713 1750
938 716 1756
938 712 1743
958 723 1767
957 717 1750
961 716 1744
968 716 1742
978 719 1747
979 716 1736
979 711 1722
987 713 1722
1000 718 1732
1001 714 1720
1003 711 1711
1013 715 1716
1024 718 1720
1024 714 1708
1030 714 1705
-855 604 1391
-1022 726 1675
-1353 964 2234
-1393 999 2318
-1377 993 2309
-1359 985 2296
-1387 1012 2362
-1377 1010 2362
-1347 994 2328
-1358 1008 2366
-1317 983 2312
-1326 996 2346
-1320 998 2354
-1295 984 2327
-1256 961 2275
-1248 960 2277
-1230 952 2262
-1212 945 2248
-1192 935 2228
-1174 926 2211
-1163 924 2208
-1157 925 2215
-1146 921 2211
-1139 922 2215
-1124 916 2204
-1111 911 2196
-1099 907 2191
-1090 906 2190
-1081 905 2191
-1072 902 2189
-1056 895 2175
-1048 895 2177
-1028 884 2153
-985 853 2080
-954 832 2032
-945 830 2030
-938 830 2032
-932 830 2036
-941 844 2073
-939 848 2085
-936 851 2097
-937 858 2118
-937 865 2137
-938 872 2158
-927 868 2150
-943 890 2207
-934 888 2206
-947 907 2256
-942 909 2264
-932 907 2262
-930 912 2278
-929 918 2294
-926 923 2310
-919 923 2313
-913 925 2320
-911 930 2336
-907 934 2348
-893 926 2332
-855 895 2256
-824 870 2195
-784 834 2107
-749 805 2034
-734 795 2011
-713 779 1973
-693 765 1939
-690 768 1950
-676 759 1929
-677 767 1951
-674 771 1963
-668 771 1964
-666 776 1979
-659 774 1977
-655 777 1987
-640 767 1961
-640 774 1982
-643 786 2015
-640 789 2024
-626 780 2005
-634 797 2050
-623 792 2039
-629 807 2080
-605 785 2023
-597 783 2019
-605 802 2072
-600 804 2078
-589 798 2064
-585 801 2073
-583 807 2091
-586 820 2126
-569 806 2092
-563 806 2094
-558 809 2102
-552 809 2106
-545 809 2105
-541 812 2116
-533 810 2111
-528 812 2118
-523 815 2128
-516 814 2126
-512 817 2137
-505 818 2139
-500 820 2148
-494 821 2152
-489 823 2159
-482 823 2159
-477 826 2168
-470 826 2169
-463 824 2166
-457 826 2173
-450 826 2173
-446 830 2186
-439 829 2184
-433 830 2189
-427 831 2193
-421 833 2199
-414 833 2200
-408 833 2202
-401 833 2203
-394 833 2204
-390 838 2217
-384 839 2222
-376 838 2220
-369 838 2221
-365 842 2234
-356 839 2226
-351 841 2233
-344 842 2237
-337 840 2233
-330 840 2233
-323 841 2236
-314 833 2216
-299 812 2161
-278 774 2059
-262 746 1985
-261 759 2023
-269 800 2133
-253 773 2061
-239 749 1996
-230 740 1973
-224 739 1972
-217 736 1965
-213 743 1984
-219 784 2095
-206 760 2032
-197 752 2009
-192 753 2014
-184 745 1992
-181 758 2028
-174 755 2021
-170 764 2045
-166 775 2075
-162 785 2102
-158 796 2133
-154 808 2165
-148 813 2179
-142 814 2184
-135 815 2186
-129 818 2194
-122 812 2178
-115 815 2188
-108 808 2170
-100 798 2142
-96 820 2200
-88 807 2167
-82 812 2181
-74 799 2145
-68 803 2156
-63 822 2208
-57 827 2223
-49 808 2172
-41 782 2101
-36 808 2172
-31 845 2273
-24 851 2288
-17 852 2290
-10 840 2259
-3 814 2189
3 821 2208
10 864 2324
18 941 2531
26 961 2587
33 949 2553
39 901 2424
43 831 2235
46 773 2078
53 770 2070
61 806 2169
67 797 2143
73 785 2111
79 784 2108
85 783 2105
91 782 2102
98 783 2104
104 783 2107
112 789 2121
120 805 2164
127 808 2171
128 773 2077
133 766 2060
145 794 2135
153 804 2160
162 820 2202
173 837 2249
180 840 2256
180 807 2168
179 776 2083
183 764 2051
191 774 2078
202 790 2119
207 785 2106
211 777 2084
218 781 2094
227 788 2113
244 825 2212
265 871 2334
282 905 2426
286 893 2392
282 858 2298
281 834 2234
294 853 2285
301 853 2283
312 865 2314
322 872 2334
331 877 2347
340 882 2359
345 876 2342
353 878 2347
357 871 2326
366 876 2340
374 876 2339
380 873 2331
388 875 2336
394 874 2332
401 874 2330
406 868 2314
410 863 2299
417 862 2296
424 862 2296
436 872 2319
443 871 2317
451 873 2321
460 876 2328
467 876 2326
473 874 2320
477 869 2306
480 862 2285
482 853 2260
502 875 2318
506 870 2305
513 869 2299
519 867 2295
525 865 2287
531 864 2284
538 864 2283
547 867 2289
556 869 2294
560 865 2281
566 863 2274
575 866 2281
582 866 2279
589 865 2276
591 858 2256
586 840 2207
527 747 1960
522 732 1919
525 728 1906
544 745 1950
552 748 1956
557 747 1953
568 752 1966
573 752 1963
584 757 1975
587 753 1964
599 760 1981
605 761 1980
602 749 1948
603 742 1929
610 743 1930
621 750 1945
627 749 1942
639 756 1959
646 758 1961
664 771 1993
670 770 1990
673 767 1981
674 761 1963
680 761 1961
692 767 1975
698 767 1973
706 769 1976
708 763 1960
718 768 1970
727 770 1973
737 775 1984
750 782 1999
756 781 1995
760 778 1986
783 795 2028
809 815 2077
820 819 2084
824 817 2077
824 810 2058
826 806 2044
828 801 2030
857 822 2081
888 845 2138
903 852 2153
913 856 2160
912 848 2138
925 854 2150
933 855 2149
942 856 2150
950 857 2150
964 863 2163
967 860 2152
972 858 2144
981 860 2146
986 857 2137
1000 864 2151
1014 869 2161
1028 876 2174
1030 871 2161
1029 864 2140
1017 848 2098
1013 839 2072
986 811 2000
903 738 1816
759 616 1512
733 591 1448
728 582 1425
720 572 1398
755 597 1456
754 592 1442
864 674 1641
928 719 1749
936 721 1750
947 725 1758
952 724 1752
956 722 1746
962 722 1743
967 722 1740
966 716 1723
979 722 1734
983 720 1726
993 723 1731
998 723 1727
1003 722 1723
1009 721 1718
1015 722 1716
1017 719 1707
1026 721 1709
1026 717 1695
-855 609 1388
-997 713 1631
-1370 985 2260
-1391 1005 2311
-1378 1001 2307
-1362 996 2298
-1352 994 2299
-1363 1008 2335
-1341 997 2315
-1338 1001 2328
-1323 996 2320
-1323 1002 2337
-1328 1011 2364
-1301 997 2335
-1298 1001 2348
-1277 991 2329
-1260 983 2315
-1225 962 2268
-1204 952 2247
-1190 946 2239
-1169 936 2217
-1160 934 2217
-1143 927 2202
-1129 921 2193
-1124 923 2201
-1116 923 2203
-1107 921 2203
-1090 913 2187
-1082 912 2189
-1068 907 2180
-1059 905 2178
-1048 902 2173
-1034 896 2162
-988 863 2085
-959 843 2040
-946 837 2030
-943 840 2039
-941 844 2052
-938 848 2064
-936 852 2077
-935 858 2094
-935 864 2112
-915 852 2085
-918 861 2109
-921 870 2135
-917 873 2145
-924 886 2181
-917 886 2183
-918 893 2204
-926 909 2245
-941 930 2301
-925 922 2283
-918 922 2286
-919 930 2310
-917 936 2328
-905 931 2318
-900 934 2328
-907 948 2366
-876 924 2307
-835 888 2221
-779 837 2093
-747 809 2027
-724 791 1982
-714 787 1974
-704 783 1968
-701 786 1977
-695 787 1981
-699 798 2011
-685 789 1992
-692 805 2033
-678 796 2012
-662 784 1984
-666 796 2017
-651 786 1994
-652 795 2018
-648 797 2026
-630 784 1993
-643 808 2057
-641 813 2071
-633 812 2070
-622 806 2056
-617 807 2061
-611 808 2066
-605 809 2070
-600 810 2075
-594 810 2077
-590 814 2088
-583 814 2091
-576 812 2087
-572 816 2098
-566 817 2102
-559 816 2102
-554 819 2112
-549 821 2117
-543 822 2122
-537 823 2126
-532 824 2132
-525 825 2134
-519 825 2136
-514 827 2143
-506 826 2142
-502 829 2152
-496 831 2157
-489 830 2156
-483 830 2159
-475 829 2157
-470 832 2166
-464 833 2169
-456 831 2165
-451 834 2175
-446 837 2185
-441 839 2191
-431 834 2180
-425 834 2181
-418 835 2184
-413 837 2190
-407 839 2197
-398 835 2188
-392 836 2192
-386 838 2197
-380 839 2201
-375 842 2211
-366 838 2200
-362 843 2215
-354 840 2209
-347 840 2209
-341 842 2216
-334 841 2214
-329 846 2229
-322 845 2228
-316 846 2229
-304 833 2198
-285 799 2108
-261 747 1972
-252 741 1955
-249 748 1974
-252 775 2048
-238 751 1986
-226 733 1937
-224 745 1971
-216 737 1949
-211 743 1966
-212 766 2029
-209 777 2057
-197 757 2006
-191 758 2009
-187 763 2023
-181 767 2034
-178 781 2070
-175 792 2101
-173 813 2157
-169 827 2195
-163 828 2200
-157 832 2211
-150 828 2199
-143 829 2203
-136 826 2196
-130 829 2204
-122 824 2191
-115 821 2182
-109 823 2190
-102 823 2190
-96 823 2189
-89 822 2188
-82 819 2180
-75 819 2180
-69 817 2175
-62 814 2168
-56 818 2179
-49 823 2192
-43 835 2223
-37 845 2252
-31 852 2271
-24 850 2265
-17 847 2258
-10 838 2234
-3 831 2214
3 818 2181
9 830 2212
17 867 2312
25 941 2509
34 962 2566
41 953 2542
47 910 2427
50 834 2223
53 784 2089
60 785 2093
68 817 2179
73 795 2119
79 786 2095
85 789 2102
92 788 2100
98 789 2103
105 797 2122
111 791 2107
119 802 2138
126 804 2142
131 799 2127
135 782 2083
144 796 2121
154 818 2178
166 842 2243
178 867 2310
183 860 2290
182 823 2191
180 785 2088
181 763 2030
190 776 2064
201 791 2105
205 786 2089
210 779 2071
219 787 2092
226 792 2104
244 830 2207
264 876 2328
264 854 2268
264 830 2204
266 815 2163
278 832 2210
293 855 2269
300 856 2272
310 866 2297
316 862 2286
328 876 2323
336 878 2326
340 870 2305
350 877 2322
350 860 2277
361 869 2299
371 877 2321
379 880 2327
386 879 2324
391 874 2310
398 873 2307
403 869 2294
409 867 2290
415 865 2284
423 867 2286
433 872 2300
440 873 2301
453 883 2327
458 880 2318
463 877 2307
470 876 2304
478 876 2304
482 871 2290
479 854 2244
498 875 2298
507 878 2305
512 874 2292
516 869 2278
525 873 2288
528 866 2268
536 867 2269
540 863 2256
548 865 2260
554 862 2252
559 859 2244
569 864 2255
575 863 2250
579 858 2236
581 851 2216
550 795 2068
502 717 1864
513 725 1882
517 722 1873
529 731 1896
534 729 1891
540 729 1888
546 730 1889
558 738 1908
569 744 1922
580 750 1937
599 767 1979
585 742 1913
579 726 1871
582 722 1859
587 721 1856
595 724 1861
603 726 1866
612 731 1875
617 729 1868
627 734 1881
630 731 1871
634 728 1861
640 728 1860
645 727 1856
654 731 1863
658 728 1855
663 727 1852
672 730 1858
686 740 1879
703 751 1906
744 788 1999
758 796 2017
757 788 1995
770 795 2010
792 811 2048
806 818 2065
816 821 2071
819 818 2060
815 808 2032
816 802 2015
828 807 2027
862 834 2092
889 853 2137
900 857 2146
905 855 2137
913 856 2138
921 857 2138
929 858 2137
935 857 2132
939 854 2122
948 856 2125
957 858 2127
969 863 2135
975 862 2131
985 863 2132
993 864 2131
1008 871 2147
1019 875 2152
1023 872 2142
1018 862 2115
1007 846 2073
1000 835 2043
984 816 1992
865 713 1737
766 626 1523
718 583 1416
707 570 1383
711 570 1380
758 604 1460
774 612 1479
889 699 1687
923 721 1738
931 723 1739
942 726 1745
952 730 1750
956 728 1744
967 732 1750
976 734 1753
975 729 1737
968 719 1711
987 729 1731
1000 734 1741
1004 733 1735
999 725 1713
1000 721 1701
1018 730 1718
1022 729 1713
1024 726 1704
1034 728 1707
-852 611 1381
-978 706 1599
-1349 977 2222
-1375 1001 2281
-1353 992 2263
-1351 996 2277
-1361 1009 2311
-1352 1008 2313
-1333 1000 2299
-1332 1005 2314
-1322 1003 2315
-1318 1006 2326
-1303 1001 2318
-1307 1010 2343
-1294 1006 2337
-1280 1001 2331
-1257 989 2307
-1254 993 2320
-1237 986 2307
-1214 973 2281
-1187 958 2249
-1174 954 2242
-1148 938 2210
-1138 936 2208
-1124 931 2199
-1112 927 2194
-1103 925 2192
-1092 923 2190
-1078 917 2180
-1070 916 2180
-1066 918 2189
-1054 915 2185
-1037 906 2166
-999 879 2105
-973 862 2067
-948 846 2031
-943 848 2039
-938 848 2043
-937 854 2060
-932 856 2067
-930 859 2078
-926 862 2089
-917 860 2086
-923 872 2117
-911 867 2108
-900 864 2103
-888 859 2094
-889 866 2115
-898 882 2155
-906 896 2193
-904 901 2209
-904 909 2230
-906 918 2255
-908 927 2280
-902 928 2285
-903 937 2310
-909 951 2348
-898 947 2341
-894 950 2352
-857 919 2277
-790 855 2120
-743 811 2013
-726 800 1987
-723 803 1998
-713 799 1990
-707 799 1992
-704 803 2003
-695 800 1999
-692 804 2010
-684 802 2007
-678 803 2011
-672 803 2013
-666 804 2017
-662 806 2026
-657 807 2031
-651 808 2034
-644 808 2035
-639 809 2040
-634 811 2048
-630 813 2055
-623 814 2058
-617 814 2060
-613 818 2072
-607 818 2074
-601 818 2077
-595 819 2080
-591 822 2090
-585 823 2093
-577 821 2090
-573 824 2101
-569 828 2113
-561 826 2108
-554 825 2108
-549 828 2117
-541 825 2111
-537 829 2123
-531 830 2128
-525 830 2129
-518 830 2130
-512 831 2135
-506 833 2140
-499 832 2139
-495 836 2150
-488 835 2150
-481 835 2152
-475 836 2155
-469 837 2159
-462 836 2157
-457 839 2167
-449 837 2163
-444 839 2170
-436 837 2167
-430 838 2170
-423 838 2170
-418 840 2178
-411 840 2179
-404 840 2181
-397 840 2180
-391 839 2180
-384 839 2181
-378 841 2187
-372 842 2191
-364 839 2184
-357 839 2185
-352 843 2196
-344 840 2190
-338 842 2195
-332 842 2197
-325 843 2199
-318 842 2199
-311 840 2195
-302 835 2183
-276 780 2039
-262 758 1983
-250 741 1939
-243 737 1929
-242 750 1964
-248 790 2068
-233 761 1994
-224 751 1967
-216 746 1956
-211 749 1963
-207 757 1985
-210 790 2073
-201 776 2038
-195 778 2042
-192 790 2075
-190 809 2127
-187 824 2165
-182 833 2191
-176 832 2188
-170 837 2203
-163 833 2192
-157 837 2203
-149 833 2193
-143 837 2203
-136 834 2196
-129 830 2187
-122 828 2182
-116 831 2190
-109 830 2188
-103 832 2193
-96 830 2189
-89 829 2187
-82 830 2189
-76 830 2188
-69 829 2188
-62 827 2182
-56 836 2206
-50 833 2199
-43 835 2204
-36 830 2192
-30 843 2225
-23 845 2231
-17 844 2229
-10 849 2243
-3 850 2245
3 847 2237
9 829 2191
16 827 2185
24 875 2313
33 952 2517
41 967 2555
49 960 2538
54 915 2418
57 843 2227
60 792 2091
66 791 2090
