VERSION 0.7
FIELDS x y z
SIZE 4 4 4
TYPE I I I
COUNT 1 1 1
WIDTH 3713
HEIGHT 1
VIEWPOINT 0.0 0.0 0.0 1.0 0.0 0.0 0.0
POINTS 3713
DATA ascii
403 64 1769
410 64 1776
405 62 1735
414 63 1748
417 62 1740
418 62 1721
431 63 1751
445 64 1785
447 64 1772
444 62 1740
453 63 1753
455 62 1739
451 61 1704
441 59 1649
454 60 1676
466 61 1700
471 61 1699
477 61 1701
468 59 1650
490 61 1712
509 63 1758
498 61 1701
506 61 1711
511 61 1708
516 61 1706
515 61 1685
508 59 1646
520 60 1667
521 59 1652
542 61 1701
543 61 1689
542 60 1668
533 58 1625
505 55 1524
499 54 1490
504 54 1489
512 54 1498
499 52 1446
487 51 1400
497 51 1415
516 53 1454
541 55 1511
562 56 1555
551 55 1511
563 55 1529
592 58 1594
626 60 1672
622 59 1645
648 61 1699
645 61 1677
631 59 1625
669 62 1711
654 60 1657
660 60 1656
667 60 1659
675 60 1665
681 60 1665
700 62 1699
729 64 1753
739 64 1764
749 64 1772
763 65 1791
789 67 1836
797 67 1840
861 72 1973
851 70 1934
868 71 1957
869 71 1942
901 73 1998
919 73 2021
919 73 2005
928 73 2010
799 63 1715
887 69 1889
804 62 1698
820 63 1719
952 72 1981
961 72 1984
873 66 1788
867 65 1762
881 65 1776
882 65 1765
896 65 1779
899 65 1770
907 65 1774
911 65 1767
915 65 1763
923 65 1765
923 65 1751
930 65 1751
941 65 1759
944 65 1751
951 65 1750
952 65 1740
957 64 1736
967 65 1741
975 65 1743
-1309 110 2283
-1301 110 2286
-1278 109 2263
-1282 110 2285
-1270 109 2282
-1254 109 2270
-1248 109 2275
-1223 107 2246
-1223 108 2262
-1201 106 2238
-1205 107 2262
-1191 107 2254
-1186 107 2260
-1165 105 2237
-1157 105 2238
-1144 105 2231
-1134 104 2228
-1120 104 2218
-1113 104 2220
-1102 103 2216
-1100 104 2229
-1083 103 2210
-1077 103 2216
-1063 102 2204
-1054 102 2203
-1047 102 2204
-1038 101 2203
-1029 101 2201
-1017 101 2193
-1006 100 2187
-986 99 2161
-973 98 2149
-965 98 2149
-974 99 2186
-977 100 2212
-972 101 2218
-965 101 2221
-961 101 2229
-950 100 2221
-900 96 2122
-825 88 1963
-803 87 1926
-795 86 1922
-789 86 1926
-781 86 1921
-773 86 1919
-771 86 1930
-761 86 1921
-759 86 1933
-743 85 1909
-746 86 1933
-745 86 1948
-741 87 1955
-748 88 1990
-758 90 2037
-785 94 2127
-874 105 2391
-893 108 2465
-888 108 2473
-883 108 2481
-879 109 2494
-879 110 2518
-874 110 2527
-868 110 2533
-862 110 2539
-864 111 2571
-857 112 2576
-851 112 2582
-843 112 2582
-842 112 2605
-835 112 2609
-828 112 2613
-814 112 2598
-809 112 2608
-796 111 2592
-791 112 2604
-787 112 2616
-773 111 2599
-738 107 2508
-715 105 2455
-711 105 2468
-711 106 2496
-706 107 2506
-704 107 2526
-694 107 2520
-679 106 2494
-639 101 2373
-595 95 2235
-576 93 2189
-560 91 2153
-552 91 2148
-542 90 2135
-529 89 2112
-517 88 2088
-509 88 2082
-499 87 2068
-489 86 2051
-483 86 2053
-472 85 2034
-461 84 2011
-439 81 1943
-430 81 1930
-421 80 1912
-419 81 1933
-416 81 1942
-410 81 1945
-415 83 1994
-417 85 2034
-414 85 2051
-413 86 2074
-401 85 2045
-391 84 2024
-379 83 1992
-372 82 1987
-357 80 1939
-350 80 1934
-341 79 1917
-330 78 1883
-326 78 1895
-321 78 1897
-322 80 1936
-310 78 1897
-290 75 1812
-283 74 1797
-278 74 1799
-273 74 1801
-274 76 1845
-273 77 1875
-276 79 1936
-273 80 1957
-267 80 1952
-260 79 1946
-249 78 1902
-245 78 1914
-244 79 1947
-225 75 1846
-215 73 1803
-206 72 1771
-201 72 1776
-200 73 1808
-185 70 1720
-190 74 1821
-177 71 1747
-171 70 1734
-167 70 1739
-168 73 1805
-164 73 1818
-157 73 1805
-150 72 1781
-146 73 1797
-142 73 1814
-137 73 1818
-131 72 1798
-123 71 1761
-114 69 1705
-106 67 1654
-95 63 1562
-95 66 1634
-88 64 1591
-83 64 1591
-78 63 1575
-76 66 1637
-69 64 1588
-66 65 1623
-61 65 1612
-54 62 1553
-51 63 1579
-47 64 1609
-41 63 1566
-38 64 1610
-33 65 1631
-28 63 1590
-23 63 1577
-19 63 1584
-14 64 1612
-10 64 1615
-5 66 1651
-1 65 1646
3 65 1647
8 64 1608
12 64 1601
17 63 1586
22 64 1619
26 64 1602
31 64 1615
34 61 1545
40 63 1585
44 62 1577
51 65 1650
54 63 1601
58 63 1591
64 65 1636
69 64 1629
74 65 1641
78 64 1629
80 62 1570
87 63 1607
96 66 1686
98 65 1646
102 65 1640
106 64 1626
111 64 1624
114 63 1601
124 66 1673
131 67 1709
141 69 1768
153 73 1856
163 75 1905
171 76 1938
175 75 1915
179 74 1901
187 75 1927
197 77 1977
211 80 2051
225 83 2133
234 84 2158
239 84 2145
247 84 2164
251 83 2138
249 81 2069
246 78 1994
235 73 1865
241 73 1869
246 73 1860
257 74 1904
260 73 1882
262 73 1861
271 73 1886
273 72 1861
272 71 1813
276 70 1809
288 72 1850
297 73 1876
289 70 1788
297 70 1805
297 69 1775
314 72 1839
316 71 1820
320 70 1813
321 70 1791
325 69 1782
333 70 1796
333 69 1768
339 69 1773
339 68 1742
350 69 1772
365 71 1822
369 70 1812
357 67 1727
370 69 1767
375 69 1767
383 69 1777
386 69 1769
386 68 1740
383 66 1704
391 67 1719
401 68 1740
407 68 1742
433 71 1831
413 67 1721
428 68 1763
433 68 1759
435 68 1748
423 65 1675
459 70 1800
460 69 1779
440 65 1682
461 68 1742
457 66 1706
467 67 1724
476 67 1736
475 67 1714
487 68 1739
482 66 1700
490 66 1710
487 65 1679
505 67 1725
508 67 1715
503 65 1680
518 67 1714
520 66 1703
527 66 1707
536 67 1717
515 64 1632
534 65 1677
545 66 1694
542 65 1670
523 62 1592
505 59 1521
508 59 1516
497 57 1469
502 58 1471
507 57 1469
491 55 1409
501 56 1425
521 58 1470
531 58 1482
550 60 1522
541 58 1482
576 61 1566
599 63 1613
620 65 1656
613 63 1621
642 66 1685
627 64 1628
633 64 1630
639 64 1631
653 65 1653
657 65 1650
667 65 1660
669 65 1649
674 65 1650
684 65 1659
702 66 1688
721 68 1721
728 68 1723
746 69 1751
748 69 1739
753 68 1737
766 69 1754
804 72 1825
829 74 1867
821 72 1835
872 76 1934
857 74 1884
857 74 1870
831 71 1799
775 66 1662
879 74 1872
803 67 1696
814 68 1705
906 75 1884
853 70 1759
813 66 1664
843 68 1713
874 70 1762
884 70 1767
888 70 1763
899 71 1772
901 70 1761
907 70 1760
916 71 1765
919 70 1756
926 70 1756
931 70 1753
937 70 1751
936 70 1735
944 70 1738
956 70 1747
958 70 1738
965 70 1738
969 70 1731
-1306 118 2279
-1305 118 2294
-1293 118 2289
-1276 117 2276
-1266 116 2273
-1262 117 2283
-1238 115 2257
-1225 114 2249
-1218 114 2253
-1207 114 2249
-1192 113 2238
-1187 113 2245
-1182 114 2254
-1167 113 2241
-1155 112 2235
-1152 113 2247
-1135 112 2230
-1125 111 2227
-1112 111 2219
-1106 111 2222
-1095 110 2218
-1078 109 2200
-1073 109 2208
-1060 109 2198
-1053 109 2201
-1043 108 2196
-1033 108 2193
-1026 108 2194
-1017 107 2193
-1003 107 2179
-991 106 2170
-969 104 2140
-974 106 2168
-977 107 2194
-980 108 2217
-975 108 2225
-978 109 2250
-968 108 2245
-958 108 2241
-905 103 2134
-821 94 1953
-803 93 1926
-798 93 1929
-790 92 1927
-786 93 1934
-777 92 1929
-772 92 1931
-763 92 1927
-761 92 1937
-757 92 1945
-748 92 1938
-748 93 1957
-749 93 1976
-761 96 2025
-771 98 2070
-801 102 2170
-858 110 2346
-884 114 2441
-883 115 2458
-874 115 2455
-867 115 2460
-853 114 2443
-853 115 2466
-854 116 2494
-850 116 2506
-834 115 2483
-825 115 2479
-821 115 2491
-821 116 2516
-810 116 2506
-799 115 2498
-800 116 2526
-792 116 2528
-784 116 2528
-774 116 2520
-768 116 2528
-770 117 2561
-752 116 2527
-731 114 2485
-721 113 2475
-711 113 2470
-712 114 2498
-705 114 2501
-692 113 2482
-672 111 2439
-654 109 2401
-639 108 2373
-615 105 2311
-600 103 2282
-584 102 2248
-570 100 2220
-556 99 2193
-549 99 2192
-533 97 2152
-518 95 2118
-502 94 2079
-491 93 2061
-473 90 2011
-456 88 1963
-440 86 1921
-427 85 1889
-420 84 1884
-417 85 1896
-411 85 1895
-405 85 1893
-404 86 1916
-398 85 1915
-394 86 1922
-392 86 1939
-387 87 1946
-377 86 1926
-369 85 1911
-363 85 1910
-355 84 1900
-357 86 1942
-351 86 1937
-343 85 1926
-329 83 1880
-324 83 1880
-319 83 1888
-312 83 1879
-300 81 1836
-289 80 1806
-281 79 1784
-274 78 1773
-260 76 1720
-263 78 1771
-268 81 1839
-278 85 1946
-267 84 1913
-267 85 1951
-254 83 1900
-249 83 1906
-250 85 1952
-239 83 1913
-222 79 1816
-216 79 1815
-205 77 1763
-203 78 1788
-194 76 1755
-186 76 1736
-177 74 1697
-183 78 1803
-174 76 1759
-172 78 1793
-161 75 1739
-165 79 1834
-155 77 1781
-147 75 1743
-143 76 1762
-142 78 1807
-139 79 1834
-131 78 1802
-123 76 1758
-114 74 1703
-113 76 1764
-97 69 1598
-90 67 1557
-89 70 1623
-85 70 1633
-78 68 1589
-76 71 1640
-71 70 1630
-66 69 1616
-60 68 1584
-54 67 1562
-52 70 1634
-46 69 1597
-41 68 1577
-37 68 1582
-32 68 1588
-28 68 1589
-24 69 1612
-19 70 1631
-14 68 1581
-10 70 1648
-5 68 1592
0 68 1587
3 67 1571
8 68 1599
12 69 1609
17 68 1592
21 67 1584
26 67 1575
31 68 1587
34 66 1554
39 66 1554
45 68 1600
49 68 1602
55 70 1643
62 72 1694
64 69 1632
69 69 1629
73 68 1608
78 69 1630
81 67 1585
85 67 1581
91 68 1611
98 70 1645
102 69 1624
106 68 1613
112 69 1644
116 69 1623
123 70 1659
130 72 1696
138 73 1726
149 76 1802
160 79 1873
169 81 1918
176 81 1925
180 80 1910
182 79 1875
191 80 1916
202 83 1968
217 86 2051
232 89 2134
240 90 2151
248 91 2166
253 90 2159
254 88 2110
247 84 2001
242 80 1918
247 80 1912
247 78 1868
252 78 1867
261 79 1893
260 77 1844
262 76 1822
272 78 1855
278 78 1859
285 78 1866
276 74 1772
281 74 1772
293 76 1812
299 76 1816
304 76 1815
306 75 1796
309 74 1779
325 77 1840
323 75 1798
322 74 1767
330 74 1781
337 75 1790
341 75 1783
358 77 1841
350 74 1774
365 76 1819
364 75 1790
379 77 1835
366 73 1748
375 74 1765
378 73 1756
378 72 1728
388 73 1753
394 73 1753
397 73 1744
398 72 1727
408 73 1747
412 73 1737
423 74 1765
430 74 1772
432 73 1757
435 73 1748
438 73 1736
440 72 1722
456 74 1766
458 73 1752
456 72 1723
457 71 1706
478 74 1764
466 71 1701
479 72 1730
481 72 1716
488 72 1720
479 70 1670
484 70 1669
494 71 1685
495 70 1670
513 72 1714
525 73 1738
518 71 1694
514 70 1666
519 70 1661
532 71 1687
537 71 1687
547 71 1699
536 69 1650
519 66 1582
504 64 1519
510 64 1523
497 62 1470
496 61 1453
498 61 1444
495 60 1421
498 60 1416
514 61 1450
525 62 1467
539 63 1491
552 64 1514
564 65 1531
600 68 1616
629 71 1679
625 70 1653
620 69 1625
649 71 1688
635 69 1635
646 70 1649
660 71 1671
657 70 1649
669 70 1664
664 69 1637
673 70 1645
683 70 1657
711 72 1709
698 71 1665
708 71 1675
713 71 1673
720 71 1675
738 72 1702
740 72 1694
775 75 1759
751 72 1690
768 73 1715
819 77 1814
809 76 1779
835 78 1821
788 73 1704
770 71 1652
860 78 1831
800 72 1688
812 73 1701
834 74 1734
787 70 1623
789 69 1613
815 71 1654
849 74 1710
874 75 1748
889 76 1764
896 76 1766
905 76 1769
911 76 1768
915 76 1762
918 76 1753
921 76 1746
937 76 1764
935 76 1747
942 76 1746
941 75 1732
955 76 1745
957 76 1736
971 76 1749
972 76 1738
-1301 124 2269
-1291 124 2267
-1278 124 2262
-1269 123 2261
-1260 123 2262
-1242 122 2247
-1241 123 2262
-1226 122 2251
-1213 121 2243
-1206 121 2248
-1200 121 2254
-1181 120 2234
-1173 120 2236
-1164 120 2236
-1153 119 2231
-1143 119 2229
-1135 119 2229
-1128 119 2232
-1108 117 2211
-1101 117 2213
-1089 117 2206
-1082 116 2209
-1075 116 2211
-1065 116 2208
-1049 115 2193
-1040 115 2191
-1036 115 2199
-1019 114 2179
-999 112 2155
-994 112 2160
-989 113 2167
-992 114 2191
-990 114 2204
-987 115 2216
-988 115 2236
-974 115 2222
-965 114 2221
-960 114 2227
-942 113 2202
-894 108 2108
-824 100 1959
-800 98 1918
-794 98 1921
-796 99 1942
-782 98 1924
-779 98 1932
-775 99 1940
-763 98 1927
-762 98 1941
-756 98 1943
-751 98 1947
-750 99 1962
-761 101 2006
-784 105 2087
-795 107 2134
-783 106 2122
-796 109 2176
-816 112 2251
-819 114 2280
-809 113 2274
-799 113 2267
-788 112 2257
-774 111 2237
-787 114 2298
-771 113 2273
-724 107 2154
-703 104 2113
-707 106 2145
-704 106 2158
-703 107 2176
-717 110 2243
-716 111 2263
-715 112 2282
-719 114 2318
-714 114 2324
-711 114 2341
-709 115 2358
-702 115 2359
-694 115 2357
-692 116 2377
-684 115 2376
-681 116 2390
-674 116 2394
-664 116 2385
-646 114 2345
-640 114 2349
-631 113 2344
-624 113 2345
-609 112 2316
-593 110 2283
-542 102 2112
-517 98 2038
-513 98 2046
-505 98 2039
-489 96 2000
-474 94 1962
-462 93 1938
-452 92 1921
-447 92 1925
-435 91 1900
-429 91 1896
-421 90 1886
-417 90 1894
-409 90 1885
-402 90 1879
-405 91 1921
-395 90 1899
-388 90 1893
-380 89 1882
-371 88 1865
-366 89 1870
-364 89 1887
-361 90 1901
-342 87 1832
-338 87 1836
-334 87 1847
-343 91 1928
-343 92 1957
-332 91 1931
-331 92 1957
-329 93 1981
-302 87 1851
-287 84 1794
-274 82 1743
-270 82 1749
-269 83 1778
-269 85 1812
-262 84 1800
-268 88 1881
-268 90 1918
-260 89 1899
-259 90 1937
-242 86 1849
-241 88 1882
-241 90 1928
-222 85 1817
-215 84 1804
-206 82 1770
-204 84 1799
-194 82 1762
-192 83 1785
-188 84 1803
-182 83 1789
-175 82 1772
-167 81 1742
-159 79 1711
-160 82 1779
-151 80 1737
-145 80 1729
-142 81 1750
-141 83 1794
-137 84 1819
-131 83 1806
-121 80 1742
-111 77 1666
-100 73 1577
-98 74 1606
-89 71 1540
-87 73 1577
-84 74 1602
-81 76 1646
-73 73 1581
-68 72 1570
-62 71 1536
-60 72 1578
-56 73 1595
-51 73 1599
-46 72 1576
-41 72 1574
-38 75 1635
-33 73 1597
-28 73 1590
-24 73 1605
-19 73 1600
-14 72 1584
-10 73 1601
-5 71 1556
0 74 1613
3 74 1617
8 72 1590
12 72 1572
17 73 1593
22 73 1600
26 73 1596
30 72 1575
35 72 1582
39 71 1568
43 70 1552
48 71 1553
52 70 1538
56 70 1536
63 72 1588
68 73 1601
75 75 1653
78 73 1612
82 73 1617
86 72 1594
93 74 1647
98 74 1643
104 75 1664
107 74 1639
111 73 1619
117 74 1643
120 73 1624
129 76 1680
132 75 1653
141 77 1699
153 80 1785
164 83 1852
170 84 1866
173 83 1838
172 80 1769
179 81 1791
190 83 1849
205 87 1934
218 90 2005
228 92 2043
240 94 2101
250 95 2129
251 93 2084
248 90 2009
244 87 1936
246 85 1907
251 85 1899
256 85 1893
254 83 1842
259 82 1834
262 81 1818
264 80 1796
269 80 1794
278 81 1820
289 83 1853
285 80 1793
300 83 1856
299 81 1818
299 80 1783
305 80 1789
308 79 1773
311 79 1759
329 82 1834
317 78 1736
333 80 1795
341 81 1811
346 81 1808
342 79 1761
358 81 1816
379 84 1890
382 84 1880
374 81 1811
371 79 1772
383 81 1803
385 80 1787
375 77 1714
401 81 1811
394 79 1755
395 78 1733
398 77 1723
402 77 1718
423 80 1785
421 78 1753
426 78 1751
423 77 1718
431 77 1729
444 79 1761
439 77 1720
458 79 1772
440 75 1682
454 77 1717
455 76 1699
453 75 1673
470 77 1715
468 76 1688
494 79 1762
470 74 1657
482 75 1683
495 77 1709
509 78 1738
512 78 1729
519 78 1733
512 76 1692
506 74 1655
476 69 1539
485 70 1553
509 73 1615
540 76 1695
547 76 1701
538 74 1655
507 70 1543
522 71 1572
511 69 1524
509 68 1505
497 66 1453
498 65 1444
486 63 1395
502 65 1428
525 67 1479
531 67 1482
550 69 1522
548 68 1503
569 70 1545
573 70 1542
620 75 1656
631 76 1669
633 75 1660
628 74 1631
649 76 1672
658 76 1680
643 74 1628
659 75 1655
671 76 1668
673 75 1660
680 76 1663
692 76 1679
697 76 1676
705 77 1681
699 75 1653
713 76 1671
711 75 1653
719 76 1658
722 75 1651
750 78 1701
738 76 1661
766 78 1711
768 78 1700
768 77 1687
765 76 1667
761 75 1645
756 74 1620
790 77 1680
785 76 1656
791 76 1656
778 75 1617
766 73 1579
788 74 1612
788 74 1600
827 77 1667
848 78 1696
883 81 1751
899 82 1771
902 82 1763
905 81 1755
916 82 1764
920 82 1757
925 82 1754
929 81 1749
935 81 1746
939 81 1741
946 81 1740
957 82 1748
958 81 1737
967 82 1740
969 81 1731
-1298 132 2264
-1287 131 2262
-1279 131 2263
-1268 131 2261
-1256 130 2255
-1249 130 2260
-1245 130 2270
-1228 129 2255
-1217 129 2250
-1211 129 2256
-1203 129 2258
-1181 127 2235
-1169 127 2229
-1162 126 2231
-1148 126 2222
-1144 126 2230
-1134 126 2228
-1119 125 2215
-1113 125 2220
-1106 125 2222
-1091 124 2209
-1077 123 2197
-1069 123 2199
-1046 121 2169
-1032 120 2156
-1026 120 2160
-1003 118 2129
-980 116 2096
-974 116 2101
-958 115 2083
-958 116 2099
-954 116 2107
-945 116 2104
-945 116 2120
-936 116 2118
-937 117 2138
-920 115 2115
-928 117 2151
-919 117 2149
-903 116 2129
-834 108 1983
-807 105 1935
-794 104 1919
-784 103 1912
-778 103 1915
-774 104 1920
-769 104 1926
-760 103 1918
-755 103 1923
-747 103 1920
-744 103 1928
-744 104 1945
-752 106 1984
-776 110 2066
-781 112 2096
-728 105 1972
-717 104 1960
-732 107 2022
-735 109 2048
-723 108 2034
-716 107 2031
-705 107 2020
-695 106 2010
-694 107 2028
-671 104 1979
-634 99 1889
-631 100 1897
-636 101 1932
-626 101 1920
-626 101 1939
-623 102 1949
-632 104 1998
-626 104 1999
-633 106 2042
-628 106 2045
-627 107 2063
-633 109 2107
-634 110 2132
-626 110 2127
-624 111 2143
-597 107 2073
-580 105 2036
-586 107 2082
-574 106 2061
-546 102 1984
-557 105 2045
-568 108 2110
-562 108 2114
-553 108 2103
-541 107 2084
-504 100 1963
-487 98 1920
-494 101 1971
-487 100 1968
-475 99 1945
-467 99 1935
-453 97 1902
-455 98 1936
-449 98 1936
-435 96 1898
-426 96 1883
-417 95 1871
-415 96 1887
-410 96 1888
-404 95 1887
-409 98 1940
-396 96 1906
-382 94 1866
-374 94 1855
-371 94 1863
-359 92 1832
-351 92 1822
-360 95 1896
-344 92 1839
-347 95 1885
-346 96 1909
-344 97 1931
-341 97 1945
-336 97 1949
-330 97 1952
-326 98 1961
-308 94 1887
-291 91 1817
-278 88 1766
-272 88 1765
-269 89 1778
-270 90 1819
-267 91 1838
-270 94 1891
-263 93 1882
-265 96 1936
-253 94 1892
-248 94 1897
-243 94 1900
-238 94 1903
-223 90 1827
-218 90 1830
-208 88 1788
-204 89 1801
-192 86 1740
-191 88 1782
-177 84 1700
-181 88 1778
-171 85 1735
-169 87 1764
-160 85 1729
-153 84 1706
-149 84 1709
-144 84 1712
-140 84 1721
-137 86 1749
-136 88 1799
-127 86 1748
-118 83 1690
-108 80 1624
-102 79 1608
-96 78 1584
-92 78 1589
-87 77 1584
-83 78 1597
-77 76 1563
-73 77 1569
-70 79 1619
-65 79 1611
-60 77 1585
-54 76 1557
-51 78 1604
-47 78 1606
-42 79 1617
-36 75 1532
-32 77 1584
-28 77 1578
-25 81 1664
-19 77 1582
-14 76 1569
-9 75 1546
-5 77 1592
0 76 1564
3 78 1600
8 79 1622
12 77 1595
17 77 1588
21 76 1579
26 76 1571
31 76 1582
35 75 1556
40 77 1588
44 76 1581
49 77 1585
52 75 1550
58 76 1576
63 76 1585
69 78 1618
74 79 1642
80 80 1657
80 76 1575
87 78 1615
91 77 1605
97 79 1632
100 77 1599
105 77 1608
113 79 1651
116 79 1634
121 79 1638
127 79 1643
129 77 1611
136 79 1646
151 85 1766
157 85 1774
165 87 1807
168 85 1779
168 83 1731
170 81 1692
181 84 1755
192 87 1812
202 89 1860
211 90 1885
223 93 1945
239 97 2036
242 96 2008
241 93 1956
244 92 1934
245 91 1899
250 90 1893
253 89 1872
257 89 1865
264 89 1871
265 88 1839
269 87 1832
270 86 1805
274 86 1795
284 87 1823
289 87 1823
295 87 1827
297 86 1805
298 85 1774
305 85 1789
316 87 1821
320 86 1814
320 85 1782
323 84 1767
336 86 1809
355 90 1882
349 87 1825
353 86 1815
379 92 1922
422 100 2109
422 99 2076
387 89 1874
369 84 1762
385 86 1809
376 83 1745
382 83 1748
383 82 1729
404 86 1797
390 82 1712
410 85 1777
399 81 1704
424 85 1788
424 84 1767
424 83 1746
418 81 1700
430 82 1725
435 82 1724
446 83 1747
458 85 1773
447 82 1710
456 82 1724
471 84 1760
467 82 1725
481 84 1754
469 81 1692
476 81 1696
474 80 1671
497 83 1735
498 82 1717
516 84 1762
520 84 1756
510 82 1705
506 80 1671
491 77 1607
471 73 1525
477 73 1528
495 75 1570
531 80 1666
544 81 1691
529 78 1627
520 76 1584
515 75 1553
503 72 1499
502 71 1484
501 71 1466
497 69 1440
490 68 1406
495 68 1408
512 70 1442
526 71 1469
549 73 1517
543 72 1489
575 75 1563
578 75 1554
627 81 1672
636 81 1683
633 80 1659
658 83 1709
642 80 1652
632 78 1613
666 82 1684
643 78 1612
687 83 1710
674 81 1663
684 81 1673
689 81 1670
694 81 1669
695 81 1657
699 80 1653
703 80 1648
711 80 1652
712 80 1641
740 83 1693
787 87 1786
758 83 1706
794 87 1772
798 86 1767
783 84 1719
774 83 1687
745 79 1610
757 80 1622
764 80 1626
771 80 1626
774 80 1621
796 81 1653
768 78 1583
786 79 1607
787 79 1597
813 81 1638
836 83 1671
865 85 1716
894 87 1760
901 87 1760
903 87 1752
911 87 1753
920 87 1757
927 87 1756
928 87 1745
931 87 1739
944 87 1749
944 87 1736
954 87 1743
959 87 1739
968 87 1742
962 86 1719
-1302 139 2270
-1283 138 2253
-1275 138 2256
-1282 139 2285
-1251 137 2246
-1232 135 2228
-1229 136 2240
-1214 135 2229
-1214 136 2246
-1198 135 2233
-1185 134 2225
-1170 133 2213
-1169 134 2227
-1153 133 2214
-1138 132 2202
-1131 132 2205
-1122 131 2204
-1130 133 2236
-1116 132 2225
-1101 131 2212
-1086 130 2200
-1083 131 2210
-1067 129 2195
-1056 129 2188
-1030 126 2152
-1008 125 2123
-985 123 2091
-981 123 2099
-967 122 2085
-965 122 2098
-954 122 2089
-951 122 2099
-936 121 2083
-933 121 2093
-923 121 2089
-922 122 2103
-922 122 2120
-927 124 2151
-937 126 2190
-930 126 2194
-874 119 2077
-836 115 2005
-807 112 1951
-781 109 1905
-775 109 1907
-769 109 1907
-765 109 1915
-761 109 1922
-753 109 1917
-746 109 1916
-742 109 1922
-746 110 1949
-753 112 1985
-776 116 2065
-750 113 2015
-685 105 1857
-671 103 1836
-678 105 1871
-673 105 1876
-642 101 1806
-640 102 1816
-641 103 1838
-640 103 1851
-628 102 1833
-619 102 1826
-616 102 1832
-610 102 1832
-609 103 1849
-595 101 1824
-594 102 1839
-582 101 1820
-585 102 1849
-577 102 1842
-574 102 1853
-572 103 1863
-569 103 1874
-567 104 1888
-560 103 1884
-557 104 1893
-556 105 1912
-533 101 1852
-528 101 1853
-531 103 1885
-516 101 1855
-500 99 1816
-509 102 1871
-519 105 1927
-515 105 1934
-523 108 1990
-518 108 1995
-500 105 1948
-493 105 1942
-499 108 1993
-491 107 1986
-475 105 1943
-467 104 1936
-449 102 1885
-449 103 1909
-439 102 1892
-428 100 1869
-420 100 1858
-417 100 1872
-413 101 1875
-407 100 1875
-396 99 1853
-401 102 1903
-390 100 1878
-381 99 1861
-375 99 1856
-367 98 1848
-362 98 1849
-359 99 1862
-355 99 1868
-350 99 1873
-353 102 1916
-349 102 1930
-344 103 1935
-342 103 1954
-337 103 1955
-330 103 1954
-324 103 1947
-304 98 1864
-282 93 1760
-269 90 1712
-270 92 1751
-274 95 1808
-266 94 1792
-259 94 1784
-272 100 1909
-270 102 1937
-265 102 1936
-259 101 1935
-252 101 1928
-244 100 1910
-238 100 1906
-233 100 1912
-223 98 1871
-213 96 1829
-201 93 1779
-195 92 1770
-188 91 1750
-180 90 1723
-177 91 1746
-172 91 1740
-154 84 1614
-157 88 1690
-153 89 1704
-148 88 1696
-143 89 1706
-140 90 1727
-136 90 1731
-128 88 1704
-120 86 1660
-115 86 1655
-110 86 1651
-102 83 1608
-97 82 1588
-94 84 1617
-90 84 1630
-86 85 1640
-79 83 1603
-73 82 1584
-70 83 1612
-65 82 1592
-59 81 1571
-57 84 1624
-51 83 1607
-45 80 1558
-41 80 1557
-37 81 1574
-33 83 1618
-27 80 1543
-23 82 1590
-19 81 1581
-14 81 1577
-10 82 1600
-5 81 1571
0 81 1576
3 81 1582
8 82 1589
12 82 1595
17 82 1592
22 82 1606
26 81 1571
30 80 1555
35 80 1558
41 83 1628
45 82 1602
48 80 1558
51 78 1523
57 80 1567
62 81 1576
68 81 1593
69 78 1532
74 79 1539
84 84 1637
87 83 1621
94 84 1656
97 83 1623
102 84 1638
106 82 1613
113 84 1651
115 83 1619
122 84 1651
128 84 1658
132 84 1653
141 87 1705
145 86 1693
153 88 1727
161 89 1761
167 90 1766
169 88 1734
172 87 1713
177 87 1716
187 90 1763
206 96 1898
217 98 1941
223 98 1942
232 100 1971
236 99 1962
239 98 1941
242 97 1915
245 96 1899
248 95 1876
251 94 1858
257 94 1863
261 94 1847
266 94 1850
273 94 1856
279 94 1864
285 94 1862
287 93 1839
292 93 1840
295 92 1826
297 91 1803
296 89 1763
305 90 1787
308 90 1776
320 92 1814
328 92 1827
343 95 1879
345 94 1858
379 102 2012
361 95 1885
369 96 1899
414 106 2097
451 114 2255
440 109 2166
383 94 1855
368 89 1757
377 90 1772
371 87 1719
389 90 1781
378 86 1702
394 89 1752
396 88 1740
407 89 1764
401 87 1712
410 88 1730
409 86 1703
412 86 1693
422 87 1713
445 90 1784
439 88 1738
442 88 1730
453 89 1752
455 88 1739
458 88 1729
473 90 1765
468 88 1728
462 85 1684
485 89 1748
487 88 1738
493 88 1737
477 85 1664
500 88 1725
515 89 1759
505 87 1703
489 83 1634
488 82 1612
478 80 1562
471 78 1522
477 78 1525
490 79 1552
511 82 1603
509 81 1579
518 81 1591
512 80 1559
503 77 1515
506 77 1509
496 75 1466
508 76 1487
484 72 1403
486 72 1394
502 73 1427
518 75 1458
527 75 1471
563 80 1558
547 77 1499
554 77 1505
596 82 1604
624 86 1666
643 87 1701
629 85 1649
640 85 1662
644 85 1659
634 83 1618
665 87 1683
660 85 1656
672 86 1671
661 84 1630
679 86 1659
678 85 1643
664 82 1595
691 85 1647
689 84 1629
702 85 1645
707 85 1643
709 85 1634
749 89 1713
816 96 1852
823 96 1852
868 101 1939
869 100 1924
850 97 1868
788 89 1717
747 84 1613
752 84 1612
756 84 1606
757 83 1596
759 83 1588
774 84 1607
757 82 1559
759 81 1551
785 84 1592
802 85 1614
822 86 1643
862 90 1710
896 93 1764
901 93 1760
907 93 1759
912 93 1754
919 93 1754
919 92 1742
928 92 1746
939 93 1753
941 93 1744
943 92 1734
956 93 1746
959 93 1739
964 92 1734
970 93 1733
-1302 147 2270
-1276 145 2240
-1265 144 2238
-1259 144 2244
-1253 144 2250
-1231 143 2226
-1216 142 2216
-1217 142 2233
-1195 141 2210
-1194 141 2224
-1172 140 2200
-1103 132 2086
-1076 130 2050
-1032 125 1982
-1059 129 2048
-1061 130 2068
-1053 130 2067
-1051 130 2079
-1060 132 2114
-1050 132 2110
-1040 131 2107
-1028 131 2097
-1028 131 2113
-1016 131 2107
-1005 130 2099
-1001 130 2108
-981 129 2081
-977 129 2089
-963 128 2077
-954 127 2074
-955 128 2091
-942 127 2080
-940 128 2091
-932 128 2091
-928 128 2099
-919 128 2095
-919 129 2114
-924 130 2142
-924 131 2160
-916 131 2160
-893 128 2124
-854 124 2048
-808 118 1953
-788 116 1921
-778 115 1914
-770 115 1910
-768 115 1922
-762 115 1924
-760 116 1934
-751 115 1928
-750 116 1944
-752 117 1967
-765 120 2018
-793 125 2110
-758 121 2035
-681 109 1844
-668 108 1828
-655 107 1807
-636 105 1772
-638 106 1794
-636 106 1805
-639 108 1832
-621 106 1796
-623 107 1818
-603 104 1778
-605 106 1801
-597 105 1795
-589 105 1787
-589 106 1807
-577 104 1788
-569 104 1781
-562 104 1777
-555 103 1773
-553 104 1782
-544 103 1773
-537 103 1769
-534 103 1778
-526 102 1770
-523 103 1778
-519 103 1785
-512 103 1780
-503 102 1766
-502 103 1783
-496 102 1781
-494 103 1796
-488 103 1793
-485 104 1804
-479 103 1800
-466 102 1774
-472 104 1815
-466 104 1816
-462 104 1821
-456 104 1819
-449 104 1817
-447 104 1828
-438 103 1815
-428 102 1796
-424 103 1805
-422 103 1818
-416 103 1817
-407 102 1801
-403 102 1808
-399 103 1815
-392 102 1805
-385 102 1801
-384 103 1822
-377 102 1814
-376 103 1835
-369 103 1830
-366 103 1839
-360 103 1837
-355 103 1840
-356 105 1876
-350 105 1873
-349 106 1897
-342 106 1892
-339 106 1904
-335 107 1912
-328 106 1905
-325 107 1919
-317 107 1910
-303 104 1857
-287 100 1790
-280 99 1781
-275 99 1780
-269 99 1777
-265 99 1783
-267 102 1837
-271 105 1899
-269 107 1926
-263 106 1921
-256 106 1915
-251 106 1919
-244 106 1911
-236 105 1892
-228 103 1867
-217 101 1826
-211 100 1814
-201 98 1779
-195 97 1767
-189 97 1758
-180 95 1727
-174 94 1711
-168 94 1705
-158 91 1648
-156 92 1681
-152 93 1688
-147 93 1694
-142 93 1692
-137 92 1683
-129 91 1652
-121 89 1613
-118 89 1627
-111 88 1601
-109 90 1634
-103 89 1621
-96 87 1584
-93 88 1612
-84 84 1531
-82 86 1568
-76 85 1552
-71 84 1535
-68 86 1575
-64 87 1589
-60 87 1598
-56 88 1619
-50 86 1573
-46 87 1595
-42 87 1606
-36 85 1566
-31 84 1548
-28 86 1589
-23 85 1564
-19 86 1589
-14 87 1594
-10 87 1602
-5 85 1558
0 87 1595
3 88 1622
8 86 1584
13 88 1624
17 85 1564
22 86 1589
26 87 1605
30 83 1530
35 86 1597
39 84 1558
43 83 1533
48 83 1536
52 84 1550
57 84 1561
61 83 1544
67 85 1573
68 81 1506
77 86 1602
84 89 1641
89 89 1653
92 88 1627
95 85 1583
102 88 1636
107 88 1636
111 87 1616
115 87 1609
124 90 1673
125 88 1627
134 90 1678
139 90 1679
141 88 1644
151 92 1707
157 92 1715
164 93 1739
166 92 1703
167 89 1663
172 90 1671
184 93 1732
207 102 1900
219 105 1965
221 103 1927
227 103 1930
231 103 1914
232 101 1882
233 99 1843
238 99 1839
237 96 1793
242 96 1791
244 95 1764
250 95 1768
251 93 1740
251 92 1708
257 92 1714
261 91 1705
264 91 1694
272 92 1710
277 92 1712
282 92 1708
285 91 1698
294 92 1724
305 94 1758
316 96 1786
323 96 1796
332 97 1816
345 100 1861
355 101 1883
349 97 1821
383 105 1968
444 120 2250
443 118 2213
410 108 2014
375 97 1816
372 95 1775
377 95 1773
386 96 1791
385 94 1758
390 94 1759
396 94 1763
401 94 1759
408 95 1769
411 94 1757
414 94 1746
419 94 1745
425 94 1749
432 94 1755
437 94 1755
440 94 1745
445 93 1742
445 92 1721
450 92 1720
457 93 1727
466 93 1739
473 94 1745
476 93 1735
479 93 1728
483 93 1722
491 93 1732
492 92 1717
503 93 1735
533 98 1818
532 97 1795
516 93 1724
497 88 1641
484 85 1582
470 82 1520
474 82 1518
487 83 1541
522 88 1639
505 85 1568
506 84 1556
500 82 1521
508 83 1532
504 81 1505
497 80 1467
494 78 1444
492 77 1426
487 76 1397
500 77 1422
519 79 1460
525 80 1463
531 80 1467
540 80 1479
556 82 1510
593 87 1596
625 91 1666
622 90 1645
628 90 1644
634 90 1648
648 91 1667
656 91 1674
663 91 1676
650 89 1630
689 93 1713
689 93 1699
653 87 1595
695 92 1684
666 88 1600
686 90 1635
720 93 1703
735 94 1723
708 90 1645
709 90 1635
759 95 1736
815 102 1848
800 99 1800
834 102 1861
814 99 1803
859 104 1887
886 106 1931
757 90 1635
750 89 1606
749 88 1593
754 88 1591
769 89 1609
758 87 1574
755 86 1555
773 88 1581
782 88 1586
800 90 1610
822 92 1642
853 94 1691
895 98 1760
898 98 1753
906 98 1756
916 99 1762
919 98 1755
923 98 1749
934 99 1756
933 98 1742
937 98 1737
950 98 1746
954 98 1741
964 99 1747
964 98 1734
968 98 1729
-1313 155 2288
-1284 153 2255
-1277 153 2259
-1266 152 2255
-1258 152 2258
-1235 150 2234
-1217 149 2218
-1213 149 2226
-1198 148 2216
-1183 147 2203
-1160 145 2177
-1103 139 2085
-1006 127 1917
-1009 129 1937
-982 126 1900
-975 126 1901
-996 129 1955
-1003 131 1984
-980 129 1954
-986 130 1982
-1007 134 2040
-973 130 1985
-926 124 1904
-953 129 1975
-938 128 1960
-931 127 1961
-949 131 2013
-917 127 1962
-925 129 1994
-926 130 2013
-927 131 2031
-908 129 2005
-914 131 2035
-899 129 2016
-916 133 2071
-900 131 2053
-896 132 2060
-879 130 2038
-882 131 2061
-881 132 2076
-842 127 2002
-827 126 1982
-800 123 1934
-790 122 1926
-787 122 1934
-781 122 1936
-773 122 1935
-770 122 1943
-766 123 1949
-754 122 1937
-753 122 1951
-755 124 1973
-765 126 2018
-785 130 2089
-755 126 2026
-667 113 1809
-655 112 1790
-654 112 1806
-644 112 1794
-639 112 1798
-626 110 1776
-623 111 1786
-621 111 1797
-612 110 1786
-608 111 1792
-599 110 1783
-594 110 1786
-587 110 1781
-578 109 1773
-574 109 1779
-574 110 1794
-565 109 1786
-553 108 1766
-538 106 1736
-547 109 1783
-547 110 1801
-528 107 1759
-532 109 1788
-520 107 1767
-511 107 1758
-516 109 1794
-501 107 1760
-495 106 1757
-484 105 1739
-485 107 1763
-476 106 1749
-472 106 1753
-468 106 1761
-459 105 1748
-456 106 1755
-453 106 1766
-444 105 1753
-439 105 1752
-433 105 1750
-435 107 1782
-421 104 1744
-413 104 1734
-412 105 1751
-403 104 1737
-403 105 1761
-399 105 1764
-387 103 1736
-381 103 1734
-378 104 1745
-368 102 1721
-366 103 1734
-363 104 1746
-356 103 1739
-351 103 1737
-345 103 1736
-346 104 1764
-334 103 1733
-337 105 1777
-329 104 1760
-328 105 1785
-321 104 1772
-319 105 1790
-307 103 1757
-307 105 1784
-294 102 1739
-295 104 1775
-285 103 1750
-280 103 1750
-272 102 1731
-274 104 1774
-266 103 1760
-264 104 1781
-257 103 1769
-255 105 1792
-255 107 1828
-249 106 1821
-244 106 1826
-238 106 1824
-233 106 1823
-223 104 1787
-215 103 1761
-206 101 1731
-203 102 1748
-200 103 1764
-195 102 1765
-185 100 1726
-177 98 1697
-172 98 1694
-165 97 1673
-159 97 1667
-156 98 1685
-153 99 1706
-146 97 1679
-139 96 1658
-133 95 1638
-125 92 1596
-119 92 1586
-113 90 1560
-108 90 1555
-109 95 1641
-99 90 1554
-96 91 1577
-91 90 1568
-84 88 1531
-82 91 1574
-73 85 1481
-70 87 1519
-68 90 1556
-64 91 1588
-61 93 1614
-56 92 1597
-51 92 1604
-47 92 1603
-42 92 1597
-38 92 1613
-34 94 1649
-27 89 1551
-22 89 1548
-18 89 1562
-13 88 1533
-9 90 1580
-5 90 1582
0 89 1564
3 94 1646
8 90 1578
13 92 1608
17 92 1614
22 91 1587
26 90 1578
30 88 1533
35 89 1569
39 89 1562
44 90 1584
48 88 1536
53 89 1570
58 90 1572
62 90 1572
68 91 1591
72 91 1591
76 90 1574
84 94 1647
88 92 1624
93 93 1631
99 94 1664
101 92 1614
106 92 1612
111 92 1627
114 91 1602
122 93 1644
126 93 1640
136 96 1696
140 95 1684
145 96 1694
151 96 1700
152 94 1659
158 95 1671
158 92 1619
159 89 1578
171 94 1660
163 87 1529
182 94 1669
203 103 1818
214 105 1864
221 106 1878
221 104 1834
211 97 1708
208 93 1643
213 93 1643
219 94 1656
215 90 1583
222 91 1603
224 90 1584
221 87 1534
237 91 1612
234 88 1555
243 90 1585
241 87 1545
248 88 1558
260 91 1604
263 90 1593
266 90 1584
272 90 1592
271 88 1558
280 89 1582
292 92 1625
295 91 1614
301 92 1622
307 92 1625
313 92 1634
346 100 1777
424 121 2151
416 117 2078
387 107 1902
371 101 1794
372 100 1776
380 101 1786
390 102 1809
394 102 1802
393 100 1772
399 100 1776
406 101 1782
410 100 1774
421 102 1799
419 100 1768
426 100 1772
424 99 1745
435 100 1766
435 99 1745
432 97 1711
426 94 1664
421 92 1628
427 92 1630
446 96 1685
461 98 1720
471 99 1739
480 99 1751
485 99 1750
491 99 1749
490 98 1728
504 100 1756
525 103 1811
550 106 1876
557 107 1882
561 106 1875
563 106 1862
525 98 1717
474 87 1532
478 87 1528
496 90 1571
521 93 1633
503 89 1561
493 86 1514
494 86 1503
505 87 1520
504 86 1502
496 84 1463
501 84 1466
496 82 1437
488 80 1401
500 81 1421
514 83 1446
521 83 1454
547 87 1511
536 84 1467
542 85 1471
590 91 1587
615 94 1641
627 95 1657
626 94 1639
634 95 1647
641 95 1651
647 95 1650
659 96 1667
666 96 1669
658 94 1635
671 95 1652
684 96 1671
705 99 1708
699 97 1680
702 97 1671
690 94 1630
704 96 1650
705 95 1637
717 96 1653
741 98 1694
811 107 1840
819 107 1842
766 100 1710
791 102 1751
888 114 1950
880 112 1917
781 99 1688
761 95 1630
762 95 1619
768 95 1619
757 93 1583
774 94 1607
760 92 1564
765 92 1563
790 94 1601
803 95 1616
823 97 1643
860 101 1705
890 103 1751
902 104 1761
907 104 1758
908 103 1747
917 104 1750
927 104 1756
930 104 1749
934 104 1743
944 104 1748
950 104 1747
953 104 1740
958 104 1736
968 104 1741
967 103 1726
-1303 162 2271
-1299 162 2280
-1280 160 2264
-1273 160 2267
-1268 161 2276
-1256 160 2270
-1240 159 2258
-1242 160 2279
-1205 156 2228
-1194 156 2224
-1166 153 2188
-1135 150 2146
-1088 144 2073
-1090 145 2091
-1045 140 2022
-993 134 1936
-973 132 1911
-970 133 1920
-969 133 1932
-964 133 1937
-952 132 1928
-944 132 1926
-926 131 1905
-908 129 1881
-914 130 1909
-892 128 1878
-888 128 1884
-884 129 1890
-891 130 1921
-869 128 1889
-845 125 1850
-854 127 1885
-884 133 1967
-834 126 1871
-837 127 1894
-838 128 1912
-838 129 1928
-800 124 1854
-835 131 1953
-821 129 1936
-799 127 1900
-806 129 1932
-792 127 1915
-782 127 1905
-782 128 1924
-779 128 1931
-771 128 1929
-772 129 1948
-756 127 1924
-750 127 1927
-738 126 1912
-750 129 1960
-744 129 1961
-741 129 1970
-737 129 1978
-684 121 1853
-664 119 1814
-655 118 1808
-648 118 1805
-634 116 1783
-632 117 1795
-635 118 1819
-620 116 1792
-625 118 1825
-603 115 1777
-608 117 1811
-601 117 1806
-593 116 1799
-584 115 1789
-573 114 1774
-575 116 1797
-560 114 1770
-555 114 1772
-548 113 1768
-545 114 1774
-535 113 1761
-529 113 1760
-522 112 1756
-523 113 1778
-512 112 1759
-517 114 1796
-501 112 1758
-498 112 1768
-498 114 1790
-484 112 1758
-481 112 1768
-477 112 1771
-470 112 1767
-466 112 1773
-457 111 1758
-445 110 1736
-445 111 1754
-440 111 1756
-430 110 1740
-427 110 1749
-427 111 1768
-413 109 1734
-421 112 1790
-402 109 1733
-390 107 1701
-400 111 1771
-386 108 1732
-386 110 1756
-375 108 1730
-369 108 1725
-364 108 1729
-359 108 1728
-355 108 1735
-347 107 1720
-337 105 1695
-337 107 1723
-336 108 1744
-335 109 1764
-320 106 1713
-315 106 1711
-311 106 1720
-305 106 1716
-300 106 1718
-299 107 1738
-292 107 1729
-286 106 1722
-278 105 1705
-273 105 1706
-267 105 1701
-265 106 1720
-258 105 1706
-256 106 1724
-251 106 1724
-246 106 1724
-240 106 1722
-232 104 1699
-231 106 1727
-221 104 1694
-218 104 1707
-215 105 1720
-206 103 1692
-199 102 1674
-200 105 1726
-194 105 1714
-187 103 1695
-180 102 1679
-174 102 1669
-169 101 1662
-165 102 1678
-162 103 1698
-157 103 1697
-151 102 1678
-145 101 1666
-139 100 1653
-132 99 1630
-126 98 1608
-119 96 1580
-113 95 1564
-107 93 1538
-105 96 1585
-93 89 1460
-91 91 1508
-92 96 1584
-84 93 1537
-80 93 1533
-75 92 1522
-73 95 1571
-66 92 1518
-61 91 1507
-57 92 1527
-53 93 1534
-49 94 1555
-45 95 1569
-41 94 1555
-37 96 1592
-32 94 1554
-27 93 1538
-23 95 1574
-18 94 1561
-14 95 1588
-10 97 1609
-5 96 1592
0 93 1556
3 97 1614
8 97 1613
12 94 1565
17 93 1549
21 92 1527
25 91 1513
30 93 1544
34 92 1542
38 91 1515
43 91 1524
47 91 1519
53 94 1568
57 93 1559
64 97 1625
68 96 1599
74 97 1625
77 96 1600
83 97 1619
87 97 1618
97 102 1707
100 100 1668
102 97 1626
107 98 1634
112 98 1643
120 101 1686
124 99 1666
127 98 1650
136 101 1701
136 98 1644
143 99 1662
146 98 1645
157 102 1714
153 96 1618
145 89 1485
155 92 1542
155 89 1500
167 93 1568
165 90 1511
183 97 1634
202 105 1761
214 108 1815
213 105 1764
200 96 1615
207 97 1634
192 88 1482
211 95 1589
211 93 1557
211 91 1522
210 88 1483
216 89 1494
228 92 1544
234 92 1554
234 91 1529
241 92 1541
245 92 1540
251 92 1546
250 90 1514
259 92 1540
260 91 1521
273 93 1569
271 91 1530
272 90 1513
281 91 1535
282 90 1515
303 96 1606
302 94 1573
320 98 1641
373 112 1890
389 115 1938
381 111 1871
349 100 1689
367 104 1751
363 101 1705
372 103 1725
384 104 1757
344 92 1550
350 93 1554
365 95 1599
375 97 1623
396 101 1691
377 95 1589
395 98 1644
390 95 1602
408 99 1655
401 96 1607
382 90 1512
376 88 1469
373 86 1438
384 87 1463
392 88 1479
413 92 1538
435 96 1603
457 100 1667
475 102 1713
487 104 1737
487 102 1716
495 103 1726
477 98 1642
479 98 1632
500 101 1686
549 110 1833
519 103 1714
530 104 1732
493 95 1592
498 96 1593
509 97 1612
521 98 1633
530 99 1647
508 94 1560
502 92 1528
504 91 1517
501 90 1493
495 88 1462
486 86 1420
489 85 1416
488 85 1400
502 86 1425
515 87 1448
529 89 1476
536 89 1480
543 90 1487
550 90 1493
572 93 1539
605 98 1612
621 99 1642
633 100 1658
639 100 1658
639 100 1643
649 100 1657
652 100 1647
660 100 1654
672 101 1670
675 101 1664
685 102 1675
674 99 1632
702 103 1686
709 103 1688
706 102 1666
683 98 1600
705 100 1637
716 101 1648
738 103 1687
762 106 1727
774 107 1741
720 98 1604
718 98 1588
817 110 1793
772 103 1681
744 99 1607
752 99 1611
775 102 1647
774 101 1632
758 98 1586
782 100 1624
738 94 1520
778 98 1588
789 99 1601
808 101 1626
842 104 1681
873 108 1730
895 109 1760
899 109 1755
912 110 1766
915 110 1759
914 109 1744
927 110 1757
932 110 1752
939 110 1752
942 109 1744
950 110 1747
956 110 1745
961 110 1740
964 109 1733
968 109 1728
-1307 169 2277
-1300 169 2281
-1287 169 2275
-1278 168 2277
-1273 169 2284
-1254 167 2266
-1238 166 2254
-1236 167 2268
-1227 166 2269
-1209 165 2252
-1195 164 2241
-1179 163 2229
-1156 160 2202
-1145 160 2197
-1081 152 2090
-1009 143 1966
-980 139 1925
-969 139 1917
-968 139 1929
-963 139 1935
-954 139 1932
-950 139 1938
-937 138 1927
-927 137 1921
-917 137 1915
-912 137 1918
-903 136 1915
-899 137 1922
-886 136 1910
-886 136 1924
-877 136 1922
-863 135 1905
-846 133 1882
-837 132 1877
-836 133 1890
-836 134 1907
-832 134 1913
-813 132 1885
-804 132 1881
-790 130 1862
-793 132 1886
-787 131 1885
-766 129 1852
-761 129 1854
-752 128 1849
-753 129 1868
-749 130 1874
-738 129 1861
-739 130 1880
-724 128 1859
-719 128 1863
-697 125 1822
-688 125 1813
-688 126 1831
-678 125 1821
-675 125 1829
-651 122 1780
-642 121 1773
-643 122 1792
-636 122 1787
-643 124 1826
-632 123 1810
-625 123 1807
-614 122 1792
-599 120 1766
-590 119 1755
-599 122 1801
-597 122 1811
-585 121 1794
-580 121 1795
-568 120 1775
-564 120 1782
-571 123 1824
-553 120 1783
-552 121 1798
-531 117 1747
-531 118 1765
-529 119 1778
-524 119 1782
-513 118 1764
-509 118 1767
-510 119 1792
-501 118 1779
-489 117 1756
-492 119 1789
-481 117 1767
-481 119 1789
-463 115 1741
-460 116 1749
-465 118 1791
-455 117 1772
-450 117 1775
-442 116 1764
-434 116 1756
-430 116 1759
-427 117 1771
-421 116 1767
-418 117 1778
-408 115 1758
-400 115 1747
-399 116 1764
-395 116 1773
-385 114 1748
-377 114 1739
-368 112 1721
-367 114 1739
-364 114 1752
-349 111 1703
-349 113 1729
-343 112 1725
-338 112 1724
-335 113 1738
-326 112 1719
-321 111 1717
-320 113 1739
-311 112 1721
-305 111 1717
-301 112 1723
-298 112 1735
-293 112 1735
-285 111 1716
-280 111 1715
-277 111 1727
-269 110 1713
-261 109 1690
-258 110 1705
-251 109 1694
-249 110 1713
-238 108 1675
-238 110 1705
-232 109 1702
-226 108 1689
-225 110 1721
-215 108 1686
-214 110 1711
-206 108 1691
-201 108 1691
-199 110 1716
-192 109 1700
-186 108 1688
-180 107 1681
-174 107 1671
-171 107 1681
-168 109 1705
-162 108 1695
-154 106 1659
-149 106 1660
-144 105 1656
-139 105 1651
-133 105 1645
-125 101 1594
-119 101 1582
-110 97 1529
-109 100 1572
-105 101 1583
-101 100 1582
-93 98 1540
-87 96 1510
-83 96 1520
-80 97 1532
-74 96 1517
-71 98 1541
-65 95 1496
-62 98 1541
-59 99 1561
-55 101 1591
-49 98 1551
-47 102 1616
-39 96 1514
-36 99 1565
-31 97 1530
-27 98 1555
-22 98 1550
-18 97 1533
-13 97 1532
-9 99 1563
-5 98 1561
0 96 1519
3 97 1537
8 99 1577
12 99 1572
17 97 1549
21 98 1552
26 98 1555
31 101 1608
34 97 1536
40 100 1600
44 97 1549
48 97 1549
54 101 1611
58 100 1586
64 102 1628
67 98 1565
73 101 1606
79 103 1646
83 102 1622
88 102 1632
93 103 1639
98 103 1642
104 104 1654
110 105 1671
115 105 1685
119 104 1663
128 108 1727
128 103 1654
133 104 1667
136 103 1640
143 104 1668
149 105 1678
152 104 1661
149 99 1579
152 97 1556
157 97 1560
159 96 1538
166 97 1558
163 93 1488
169 94 1506
190 103 1656
209 110 1770
208 107 1720
197 99 1589
194 95 1527
208 100 1603
211 99 1587
208 96 1535
208 94 1499
216 95 1528
217 94 1503
231 98 1564
226 94 1500
236 96 1536
237 95 1517
241 95 1514
246 95 1518
254 96 1540
256 95 1520
259 95 1515
263 94 1508
277 98 1562
275 95 1525
291 99 1588
278 93 1493
288 95 1523
300 98 1562
312 100 1600
338 107 1708
351 109 1749
355 109 1740
349 105 1687
348 104 1660
353 103 1657
357 103 1655
349 100 1593
328 92 1476
338 94 1501
341 94 1495
351 95 1518
357 95 1521
351 93 1479
360 94 1497
365 94 1500
377 96 1526
365 92 1460
367 91 1449
367 90 1432
371 90 1429
354 85 1349
382 90 1438
393 92 1463
399 92 1470
421 96 1534
462 104 1663
473 106 1685
457 101 1611
468 102 1629
484 105 1666
464 99 1582
493 104 1662
489 102 1630
523 109 1727
538 110 1758
540 110 1746
488 98 1560
524 104 1659
529 104 1657
526 103 1633
490 95 1504
510 98 1552
498 95 1498
495 93 1476
494 92 1458
484 90 1414
484 89 1401
484 88 1387
496 89 1408
512 91 1442
520 92 1450
519 91 1433
553 96 1513
551 95 1495
577 99 1552
619 105 1651
623 105 1645
634 106 1661
644 106 1671
647 106 1664
650 106 1658
654 105 1654
660 106 1655
673 107 1671
677 107 1667
689 108 1683
684 106 1657
699 107 1678
714 109 1700
709 107 1675
715 107 1674
707 105 1641
709 105 1633
723 106 1651
735 107 1665
769 111 1730
728 105 1622
722 103 1597
769 109 1687
712 100 1549
702 98 1514
729 101 1560
845 116 1797
829 113 1748
797 108 1668
785 106 1629
773 104 1592
787 105 1607
806 107 1634
830 109 1670
861 112 1718
881 114 1745
894 115 1758
903 115 1762
912 116 1767
914 115 1757
921 115 1758
926 115 1754
933 115 1754
939 115 1752
946 116 1752
946 115 1739
955 115 1742
958 115 1735
961 115 1727
969 115 1728
-1309 177 2281
-1302 177 2286
-1289 176 2280
-1282 176 2284
-1263 175 2267
-1262 175 2280
-1239 173 2257
-1235 174 2265
-1227 174 2267
-1220 173 2271
-1196 171 2244
-1188 171 2245
-1173 170 2234
-1159 169 2223
-1092 160 2112
-1009 149 1966
-974 145 1913
-968 144 1914
-970 146 1932
-955 144 1917
-956 145 1934
-940 144 1917
-935 144 1921
-926 143 1918
-919 143 1918
-910 143 1915
-902 142 1914
-897 142 1917
-885 141 1907
-876 141 1904
-867 140 1898
-859 140 1897
-848 139 1888
-844 139 1894
-838 139 1895
-830 139 1893
-823 139 1892
-815 138 1888
-810 138 1893
-799 137 1883
-794 137 1886
-785 137 1881
-778 137 1882
-770 136 1876
-763 136 1875
-757 136 1876
-754 136 1886
-740 135 1868
-733 135 1865
-732 135 1880
-718 134 1860
-714 134 1867
-705 133 1859
-703 134 1870
-692 133 1857
-680 132 1841
-656 128 1793
-676 133 1866
-634 126 1766
-658 132 1850
-654 132 1855
-635 129 1820
-638 131 1845
-648 134 1891
-616 129 1817
-596 126 1775
-613 130 1843
-606 130 1838
-601 130 1842
-587 128 1817
-564 124 1764
-573 127 1810
-567 127 1809
-556 126 1794
-538 123 1754
-537 124 1767
-537 125 1786
-523 123 1758
-517 123 1757
-504 121 1732
-504 122 1749
-489 120 1718
-492 121 1746
-499 125 1793
-486 122 1765
-481 123 1768
-475 122 1764
-473 123 1777
-470 124 1789
-463 123 1783
-452 122 1762
-452 123 1781
-435 120 1738
-447 124 1807
-431 121 1765
-427 122 1768
-420 121 1763
-415 121 1767
-405 120 1744
-398 119 1738
-396 120 1753
-390 120 1750
-390 121 1774
-387 122 1783
-380 121 1775
-365 118 1729
-374 123 1797
-361 120 1760
-349 118 1731
-349 119 1756
-341 118 1739
-339 120 1759
-334 119 1757
-328 119 1758
-322 119 1753
-315 118 1740
-310 118 1742
-304 118 1740
-301 118 1748
-296 118 1750
-291 118 1753
-286 118 1753
-279 118 1745
-266 114 1695
-266 116 1727
-263 117 1740
-258 117 1738
-249 115 1714
-241 114 1692
-238 115 1708
-235 116 1723
-226 114 1691
-223 115 1709
-215 113 1684
-213 114 1707
-207 114 1700
-201 113 1690
-197 114 1702
-192 113 1694
-185 112 1683
-180 112 1678
-176 113 1690
-173 113 1700
-165 112 1674
-156 109 1633
-151 109 1635
-147 109 1634
-141 108 1623
-137 109 1630
-131 107 1612
-123 105 1572
-117 104 1560
-119 110 1648
-108 103 1551
-103 103 1551
-95 99 1491
-92 101 1518
-91 104 1574
-82 100 1502
-80 102 1539
-74 100 1506
-71 102 1533
-65 99 1493
-62 101 1532
-59 105 1580
-56 106 1599
-52 108 1632
-45 103 1560
-39 100 1513
-36 103 1554
-31 102 1548
-28 105 1589
-22 101 1528
-18 102 1550
-13 101 1538
-9 102 1549
-5 102 1550
0 102 1549
3 100 1521
8 102 1543
13 104 1584
17 102 1555
21 101 1535
26 103 1570
31 105 1595
36 105 1591
40 104 1576
45 105 1598
50 105 1600
54 104 1590
59 106 1614
64 107 1624
67 104 1585
73 106 1611
78 106 1614
83 106 1622
88 107 1635
92 106 1619
99 108 1654
107 112 1714
111 111 1699
113 108 1652
119 109 1661
125 110 1688
130 110 1688
135 110 1687
140 110 1684
147 112 1712
147 108 1658
149 106 1626
149 103 1568
150 100 1533
157 102 1561
162 102 1561
162 100 1526
170 102 1553
180 105 1606
189 107 1640
211 117 1795
206 111 1701
197 104 1589
196 101 1541
207 104 1596
208 102 1564
205 99 1514
209 99 1508
218 101 1541
219 99 1514
228 101 1546
231 100 1534
235 100 1529
239 100 1531
244 100 1530
245 99 1509
248 98 1497
259 101 1539
263 100 1536
260 98 1493
272 101 1538
281 102 1558
278 99 1520
280 98 1502
300 104 1589
299 102 1554
308 103 1581
329 109 1663
341 111 1699
345 110 1691
334 106 1614
349 109 1661
341 105 1600
337 102 1558
349 104 1590
330 97 1486
333 97 1476
340 98 1489
357 101 1541
357 100 1521
344 95 1449
349 95 1451
361 97 1482
359 96 1455
361 95 1446
364 94 1438
368 94 1435
368 93 1421
385 96 1468
378 94 1423
384 94 1431
395 96 1453
404 97 1471
433 103 1560
463 108 1650
463 107 1631
486 111 1692
442 100 1522
462 104 1573
464 103 1565
485 106 1617
485 106 1601
543 117 1775
540 115 1747
528 111 1691
512 107 1620
533 110 1672
533 109 1653
502 102 1543
499 100 1517
497 99 1497
495 98 1475
485 95 1431
491 95 1433
483 93 1397
487 93 1395
490 93 1392
502 94 1412
511 95 1424
531 98 1466
545 99 1492
568 102 1540
571 102 1535
605 107 1611
623 110 1646
638 111 1670
654 113 1698
645 111 1660
648 110 1651
643 109 1624
646 108 1618
652 108 1620
664 109 1635
690 113 1685
692 112 1675
696 112 1671
703 112 1674
711 113 1680
721 114 1689
723 113 1678
721 112 1660
744 115 1700
776 119 1759
754 114 1695
740 111 1648
774 116 1712
768 114 1683
705 104 1534
725 106 1565
744 108 1593
805 116 1711
809 116 1705
815 116 1704
787 111 1633
768 108 1580
797 111 1629
835 116 1692
851 117 1711
872 119 1740
893 121 1770
897 121 1765
903 121 1763
914 122 1770
911 120 1751
923 121 1762
923 121 1748
926 120 1739
936 121 1746
941 121 1742
952 121 1749
951 120 1735
968 122 1752
967 121 1738
974 121 1737
-1321 186 2301
-1301 184 2282
-1289 184 2278
-1276 183 2273
-1264 182 2267
-1254 182 2266
-1239 181 2255
-1236 181 2266
-1226 181 2265
-1207 179 2247
-1199 179 2248
-1185 178 2239
-1174 177 2235
-1163 176 2232
-1111 170 2147
-1020 157 1987
-981 152 1926
-973 151 1923
-970 152 1933
-972 153 1953
-972 154 1967
-949 151 1936
-940 151 1932
-928 150 1923
-920 149 1921
-913 149 1920
-900 148 1910
-894 148 1912
-892 149 1922
-875 147 1900
-868 146 1901
-860 146 1899
-850 145 1892
-843 145 1890
-836 145 1890
-831 145 1896
-820 144 1886
-815 144 1890
-805 143 1881
-797 143 1878
-787 142 1871
-778 141 1865
-771 141 1863
-763 141 1861
-758 141 1863
-748 140 1856
-743 140 1859
-736 140 1858
-728 139 1853
-724 140 1860
-715 139 1851
-707 138 1847
-701 138 1849
-695 138 1849
-691 138 1856
-685 138 1855
-672 137 1836
-670 137 1848
-663 137 1847
-659 137 1851
-648 136 1837
-651 138 1863
-639 137 1848
-632 136 1846
-635 138 1872
-617 135 1836
-617 136 1853
-607 135 1841
-602 136 1845
-599 136 1855
-587 135 1836
-577 134 1824
-568 133 1811
-571 135 1840
-560 133 1824
-538 129 1772
-541 131 1801
-531 130 1785
-522 129 1775
-516 129 1774
-517 130 1797
-500 127 1756
-493 127 1752
-501 130 1800
-489 129 1778
-475 126 1745
-469 126 1745
-459 125 1726
-467 128 1775
-456 127 1757
-444 125 1730
-439 124 1730
-429 123 1713
-430 125 1738
-426 125 1742
-424 126 1759
