VERSION 0.7
FIELDS x y z
SIZE 4 4 4
TYPE I I I
COUNT 1 1 1
WIDTH 3594
HEIGHT 1
VIEWPOINT 0.0 0.0 0.0 1.0 0.0 0.0 0.0
POINTS 3594
DATA ascii
407 352 1391
409 350 1381
413 351 1382
417 350 1380
424 353 1389
428 352 1385
436 355 1397
438 353 1387
437 349 1369
448 355 1392
451 353 1385
458 356 1393
460 354 1384
465 355 1387
465 351 1372
470 352 1375
477 354 1380
481 353 1378
488 356 1385
498 360 1400
511 366 1422
511 363 1409
517 364 1412
518 361 1401
530 367 1423
527 361 1399
531 361 1398
533 360 1390
542 363 1402
547 363 1401
555 365 1408
561 367 1412
564 366 1407
569 366 1407
564 360 1382
575 364 1397
579 364 1395
589 367 1406
582 360 1378
594 365 1392
599 365 1394
603 365 1391
614 369 1405
619 369 1403
625 370 1406
626 368 1397
634 370 1401
639 370 1401
637 367 1386
654 374 1412
654 371 1400
657 370 1394
669 375 1409
673 374 1407
675 373 1399
686 377 1411
698 381 1425
711 385 1439
729 392 1464
727 389 1449
728 386 1439
730 385 1432
727 381 1415
738 384 1425
734 380 1406
736 378 1398
739 377 1393
748 380 1401
758 382 1408
757 380 1395
768 383 1405
773 383 1403
775 382 1396
772 378 1381
773 376 1371
780 377 1374
786 378 1374
782 374 1357
785 373 1352
-570 279 964
-692 341 1180
-762 377 1308
-753 375 1302
-726 364 1266
-710 357 1246
-703 356 1243
-698 356 1244
-670 344 1204
-663 342 1200
-656 340 1196
-645 336 1185
-644 338 1193
-648 342 1209
-645 343 1213
-640 342 1212
-635 342 1213
-643 348 1237
-699 380 1357
-746 408 1458
-725 399 1428
-647 359 1284
-561 313 1123
-547 308 1104
-545 309 1109
-539 307 1106
-537 308 1110
-525 303 1094
-528 307 1110
-540 316 1144
-521 307 1112
-535 317 1151
-523 312 1136
-519 312 1135
-514 311 1135
-511 312 1138
-509 313 1143
-510 315 1154
-505 314 1152
-505 316 1161
-513 324 1191
-535 340 1251
-548 351 1293
-545 352 1298
-542 352 1302
-537 352 1301
-533 351 1301
-526 350 1298
-521 349 1295
-519 350 1301
-521 355 1320
-510 349 1302
-502 347 1294
-505 352 1314
-506 355 1328
-495 350 1311
-497 355 1330
-486 350 1312
-483 351 1317
-478 350 1317
-474 350 1316
-467 347 1309
-464 349 1314
-457 346 1305
-451 345 1302
-453 349 1322
-453 353 1335
-447 350 1328
-440 349 1322
-443 354 1344
-436 352 1337
-431 351 1335
-426 350 1333
-427 354 1350
-425 356 1360
-419 355 1355
-411 351 1343
-404 349 1334
-401 350 1338
-397 350 1340
-396 352 1350
-393 353 1354
-388 352 1354
-384 353 1355
-379 351 1351
-374 351 1349
-365 346 1334
-365 350 1348
-363 352 1359
-358 351 1357
-356 353 1362
-347 348 1346
-347 352 1362
-341 351 1358
-334 347 1346
-334 351 1361
-329 350 1358
-325 351 1363
-322 352 1366
-320 354 1377
-315 352 1371
-308 349 1360
-302 347 1351
-295 344 1340
-291 344 1342
-285 342 1333
-284 345 1347
-278 343 1340
-272 341 1332
-268 341 1332
-268 345 1350
-262 342 1339
-256 340 1333
-252 340 1334
-249 341 1337
-243 339 1329
-242 343 1345
-237 341 1338
-231 338 1327
-225 335 1318
-223 337 1327
-219 338 1330
-215 337 1328
-212 339 1337
-206 336 1322
-202 335 1322
-199 337 1327
-197 341 1345
-192 339 1339
-189 340 1341
-183 337 1332
-180 338 1335
-176 338 1336
-173 340 1343
-168 339 1341
-165 341 1349
-161 341 1350
-157 340 1345
-153 339 1343
-149 341 1350
-145 341 1351
-141 339 1346
-136 337 1336
-133 340 1350
-130 341 1355
-126 341 1353
-120 337 1337
-113 328 1303
-106 318 1265
-97 304 1207
-90 292 1158
-84 283 1125
-79 278 1104
-74 273 1085
-71 271 1077
-67 269 1069
-63 267 1062
-60 266 1058
-57 267 1062
-54 266 1059
-50 265 1052
-47 265 1055
-45 268 1067
-42 270 1074
-39 269 1072
-36 271 1079
-33 275 1097
-30 278 1107
-27 282 1122
-25 289 1151
-23 309 1234
-20 323 1289
-17 328 1308
-14 340 1358
-10 340 1359
-6 342 1365
-2 341 1362
1 342 1367
5 344 1374
9 342 1365
13 342 1366
17 343 1369
21 345 1378
26 346 1381
29 343 1372
33 342 1366
37 341 1364
42 343 1369
46 343 1370
50 343 1370
53 342 1365
58 344 1376
62 345 1379
66 345 1379
70 344 1376
73 341 1362
78 343 1372
82 342 1366
85 340 1360
90 344 1373
94 342 1366
98 344 1372
103 346 1380
108 348 1388
110 342 1363
114 342 1366
119 344 1375
123 343 1370
126 342 1366
131 344 1374
136 346 1382
139 344 1371
144 347 1384
147 343 1366
151 345 1374
155 343 1366
161 348 1387
164 345 1375
169 347 1384
172 345 1375
177 346 1377
183 351 1399
186 348 1384
190 349 1388
192 344 1370
198 348 1384
200 344 1368
206 347 1378
208 344 1369
214 347 1380
218 347 1378
223 347 1380
225 345 1368
229 344 1367
233 345 1368
237 345 1368
243 348 1379
247 347 1374
251 346 1372
253 344 1364
257 344 1363
262 345 1367
267 347 1372
270 345 1364
277 348 1376
279 346 1368
284 346 1369
286 345 1361
291 345 1362
296 346 1365
301 348 1371
303 345 1361
308 346 1364
315 349 1375
317 346 1364
323 348 1371
326 347 1366
328 346 1360
334 348 1367
337 346 1358
347 352 1382
348 349 1368
348 345 1351
354 347 1359
361 350 1370
366 350 1371
369 349 1366
377 352 1378
381 353 1378
384 352 1374
385 348 1359
389 348 1359
395 350 1365
402 352 1372
407 353 1376
413 355 1381
410 349 1355
421 355 1378
424 353 1372
427 352 1367
431 352 1364
434 351 1359
440 352 1365
447 355 1372
447 352 1360
455 354 1369
457 352 1360
468 358 1380
467 354 1363
471 354 1363
479 357 1373
488 360 1384
496 362 1393
500 363 1392
510 366 1406
512 365 1398
521 368 1410
515 361 1381
527 366 1399
525 362 1381
532 364 1387
534 362 1379
541 363 1384
551 367 1397
555 367 1394
556 365 1386
562 366 1388
568 367 1390
569 365 1380
577 367 1388
585 369 1394
577 362 1364
588 365 1377
594 367 1381
597 366 1375
603 367 1379
614 370 1391
617 370 1387
619 368 1378
628 371 1389
628 368 1376
637 371 1385
641 371 1382
653 375 1396
652 372 1384
650 368 1367
661 372 1379
668 374 1384
673 374 1383
686 378 1399
692 379 1399
713 388 1430
710 384 1412
724 389 1430
718 383 1406
718 381 1395
725 382 1398
731 383 1398
727 378 1380
736 381 1387
744 382 1391
744 380 1380
754 383 1388
753 380 1377
757 379 1372
758 378 1364
766 380 1369
769 379 1364
768 376 1351
776 378 1356
776 375 1345
783 377 1348
-759 376 1283
-790 393 1345
-782 391 1342
-739 372 1278
-714 362 1243
-701 357 1230
-689 353 1217
-685 353 1221
-667 346 1198
-658 343 1190
-651 342 1186
-648 342 1189
-639 339 1182
-641 342 1195
-639 343 1200
-636 344 1205
-628 341 1198
-638 349 1227
-681 375 1321
-732 405 1431
-736 410 1448
-705 395 1399
-617 348 1233
-551 313 1110
-542 310 1101
-542 312 1110
-536 311 1107
-535 313 1114
-558 328 1171
-507 301 1074
-530 316 1132
-539 323 1159
-527 319 1144
-528 321 1155
-512 313 1128
-515 318 1145
-509 316 1141
-508 318 1149
-509 320 1160
-510 324 1174
-526 336 1219
-543 349 1270
-548 355 1293
-537 351 1279
-539 355 1294
-531 352 1285
-526 351 1285
-522 351 1286
-520 352 1293
-520 355 1304
-505 348 1278
-506 351 1292
-503 352 1297
-500 352 1300
-503 357 1319
-496 355 1313
-491 354 1311
-481 350 1299
-476 350 1298
-468 347 1288
-468 349 1299
-463 349 1299
-459 348 1298
-457 350 1306
-454 351 1310
-448 349 1305
-447 352 1316
-443 352 1316
-441 353 1324
-434 351 1316
-431 352 1320
-425 350 1316
-422 351 1320
-423 356 1338
-425 360 1358
-417 357 1347
-405 350 1320
-398 348 1314
-391 345 1305
-395 352 1332
-390 351 1331
-382 348 1318
-383 352 1334
-380 353 1339
-373 351 1332
-370 351 1334
-366 351 1336
-358 348 1324
-356 349 1329
-353 350 1337
-351 352 1343
-349 354 1352
-343 353 1348
-339 352 1347
-332 349 1338
-330 351 1344
-325 351 1344
-321 350 1344
-319 352 1352
-316 354 1360
-310 351 1349
-300 345 1327
-294 342 1317
-293 345 1329
-287 343 1321
-283 344 1324
-279 343 1323
-273 340 1313
-273 346 1335
-267 343 1326
-265 346 1337
-258 341 1319
-253 341 1317
-251 342 1325
-245 340 1316
-244 343 1331
-238 340 1319
-236 344 1333
-230 341 1322
-225 340 1318
-221 339 1315
-219 342 1329
-211 336 1307
-208 337 1309
-205 338 1316
-203 341 1328
-198 340 1325
-194 340 1325
-190 339 1321
-186 340 1325
-182 340 1325
-178 338 1319
-174 338 1320
-169 337 1318
-167 340 1329
-162 339 1324
-160 341 1333
-156 342 1338
-151 340 1331
-148 341 1334
-144 342 1338
-140 341 1336
-137 343 1344
-132 340 1332
-129 344 1347
-124 341 1336
-119 337 1323
-112 329 1290
-104 316 1239
-95 301 1179
-88 291 1140
-83 285 1118
-78 279 1096
-73 273 1072
-70 272 1067
-66 270 1059
-63 268 1053
-60 268 1051
-56 266 1044
-53 267 1047
-50 267 1047
-47 268 1052
-44 267 1050
-41 271 1064
-38 270 1063
-35 272 1068
-33 275 1079
-30 278 1094
-27 282 1108
-25 292 1148
-23 308 1212
-20 319 1256
-17 333 1311
-14 343 1353
-10 342 1347
-6 342 1347
-2 344 1356
1 343 1353
5 340 1343
9 342 1348
13 342 1348
17 342 1349
21 346 1364
25 341 1345
29 346 1366
33 345 1360
37 344 1357
41 345 1360
45 343 1353
49 343 1353
53 346 1364
57 345 1363
61 345 1362
65 344 1359
69 343 1353
74 346 1364
77 345 1361
80 340 1342
85 342 1348
89 344 1356
94 346 1366
98 348 1373
102 347 1367
106 346 1364
109 344 1355
114 345 1360
118 347 1368
122 346 1365
126 345 1360
130 346 1364
134 346 1364
139 348 1371
142 345 1360
146 346 1363
150 346 1362
155 347 1365
158 346 1360
163 347 1365
167 347 1366
170 344 1355
175 347 1364
179 348 1367
184 348 1370
187 346 1360
191 346 1361
196 348 1367
200 347 1365
204 348 1368
208 347 1363
211 346 1356
215 345 1354
220 347 1363
224 347 1363
226 344 1349
231 345 1354
234 343 1345
238 345 1350
244 346 1356
248 347 1359
254 349 1364
256 346 1354
259 345 1349
263 345 1349
271 350 1366
273 347 1355
275 344 1344
282 348 1359
286 348 1358
288 346 1350
292 345 1347
297 347 1350
300 346 1346
306 348 1355
312 350 1361
317 351 1364
318 347 1349
320 345 1341
326 347 1347
332 350 1358
336 349 1354
342 351 1361
346 351 1360
347 347 1345
352 349 1350
357 350 1353
360 348 1346
366 350 1353
372 352 1358
374 350 1353
375 347 1340
383 351 1352
387 351 1352
392 351 1353
396 351 1351
401 352 1353
406 352 1354
408 351 1347
414 353 1353
421 355 1360
423 353 1353
427 353 1351
431 352 1348
435 353 1348
442 355 1356
445 354 1353
450 355 1353
453 354 1348
461 356 1357
471 361 1373
470 357 1358
472 356 1351
482 359 1365
496 367 1392
494 362 1374
504 366 1388
506 365 1380
505 361 1365
506 359 1355
527 370 1398
522 364 1371
529 366 1378
530 364 1369
535 364 1368
542 365 1373
547 366 1375
547 363 1362
555 365 1368
562 367 1375
564 366 1367
572 368 1374
572 365 1363
578 366 1366
584 368 1368
590 369 1370
595 369 1371
593 365 1355
602 368 1362
610 370 1370
614 370 1367
622 372 1372
620 368 1359
636 375 1380
633 371 1364
642 373 1372
645 372 1367
649 372 1364
651 371 1357
658 372 1361
675 379 1385
674 376 1372
684 379 1382
689 380 1382
695 380 1382
702 381 1384
700 378 1370
712 382 1383
716 382 1380
707 375 1352
720 379 1366
724 379 1363
733 381 1369
735 380 1364
741 381 1364
745 380 1361
751 381 1360
760 383 1366
757 379 1351
759 378 1345
776 384 1364
765 377 1335
771 378 1336
782 381 1344
-808 404 1364
-771 388 1312
-756 383 1295
-740 377 1277
-705 361 1227
-704 363 1233
-690 358 1219
-683 356 1216
-668 351 1199
-656 346 1186
-648 344 1180
-639 341 1172
-637 342 1178
-634 343 1182
-633 344 1189
-632 346 1195
-628 345 1197
-636 352 1223
-669 373 1296
-727 407 1419
-737 415 1450
-729 414 1446
-670 382 1338
-585 337 1179
-550 319 1117
-539 314 1104
-534 313 1102
-536 317 1116
-536 319 1125
-526 315 1112
-544 328 1159
-519 315 1115
-522 319 1131
-518 319 1132
-520 322 1146
-515 321 1144
-511 321 1145
-507 321 1146
-508 324 1158
-517 332 1188
-537 347 1245
-535 348 1250
-543 356 1279
-537 354 1277
-534 355 1280
-525 352 1270
-521 352 1272
-519 353 1278
-517 354 1284
-509 352 1277
-503 350 1273
-502 352 1280
-497 352 1280
-497 354 1291
-498 358 1307
-491 356 1300
-484 354 1294
-485 357 1309
-471 350 1281
-467 350 1283
-460 348 1277
-460 350 1287
-456 350 1290
-447 346 1276
-446 349 1287
-442 349 1286
-444 353 1306
-438 352 1300
-433 351 1301
-431 353 1307
-429 355 1315
-424 354 1313
-423 356 1322
-420 357 1326
-426 365 1360
-416 361 1344
-400 350 1304
-396 350 1307
-395 352 1316
-394 355 1326
-386 351 1315
-386 355 1329
-383 356 1334
-373 351 1316
-374 355 1333
-364 349 1312
-360 349 1313
-358 351 1321
-352 350 1316
-351 352 1327
-347 352 1327
-341 351 1323
-339 353 1332
-338 356 1344
-334 356 1345
-327 353 1334
-321 350 1326
-313 345 1309
-308 345 1307
-303 344 1304
-294 338 1282
-286 333 1265
-286 337 1280
-283 339 1287
-283 343 1304
-280 344 1310
-276 343 1307
-272 344 1311
-270 346 1318
-266 345 1317
-259 342 1305
-258 345 1319
-253 344 1314
-249 344 1314
-246 345 1322
-240 343 1312
-235 341 1305
-232 343 1313
-227 341 1306
-223 340 1303
-219 340 1304
-217 343 1316
-212 342 1312
-207 340 1306
-202 337 1297
-201 341 1313
-193 334 1286
-191 339 1303
-188 341 1312
-185 341 1312
-181 342 1316
-177 341 1316
-172 339 1309
-171 344 1328
-165 341 1316
-163 343 1326
-158 341 1316
-155 343 1325
-149 340 1312
-147 343 1325
-144 345 1334
-138 340 1316
-135 342 1323
-131 343 1326
-127 343 1330
-124 344 1331
-119 342 1325
-111 330 1280
-103 317 1229
-94 301 1166
-88 293 1134
-82 285 1104
-77 280 1083
-73 275 1065
-69 272 1053
-65 268 1040
-62 268 1040
-59 268 1038
-56 267 1037
-53 268 1038
-50 268 1042
-47 268 1039
-44 269 1043
-41 271 1051
-38 271 1053
-35 273 1061
-32 278 1078
-29 278 1082
-27 282 1096
-24 292 1135
-22 308 1199
-20 322 1255
-17 333 1296
-13 343 1337
-10 344 1340
-6 343 1337
-2 345 1343
1 345 1345
5 341 1329
9 342 1333
13 342 1331
17 342 1334
21 344 1340
25 345 1344
29 344 1339
33 344 1341
37 345 1346
41 342 1333
45 347 1351
49 346 1347
53 344 1342
57 347 1352
61 347 1354
65 345 1346
69 346 1347
73 348 1356
77 348 1356
81 346 1349
85 346 1348
89 347 1354
93 346 1347
98 349 1359
100 344 1339
104 343 1335
110 349 1358
113 347 1350
116 345 1343
121 346 1348
124 345 1343
129 347 1350
133 347 1351
137 347 1349
141 347 1349
146 348 1355
148 344 1337
153 347 1349
157 347 1350
162 349 1357
165 347 1348
169 346 1345
174 348 1351
177 347 1349
180 345 1340
185 346 1343
189 347 1347
194 348 1352
196 345 1338
201 347 1344
204 345 1339
210 348 1349
215 350 1355
216 345 1339
221 346 1340
223 343 1329
229 347 1342
231 344 1329
237 346 1340
241 347 1341
246 348 1344
249 347 1340
253 346 1338
256 344 1330
263 349 1348
265 346 1335
268 345 1332
274 347 1338
278 348 1340
285 351 1351
286 348 1339
288 345 1327
294 347 1334
297 346 1332
304 349 1344
308 349 1341
312 349 1340
315 348 1338
319 348 1337
321 346 1327
330 351 1346
331 348 1333
337 350 1339
341 350 1339
346 350 1340
351 351 1343
357 354 1353
359 352 1344
364 353 1346
366 351 1338
373 353 1347
374 350 1334
381 353 1344
386 354 1346
390 353 1344
394 353 1343
396 351 1334
401 352 1338
407 354 1343
410 353 1340
417 356 1347
418 353 1336
423 353 1337
431 357 1348
433 355 1340
437 355 1340
439 353 1333
449 358 1348
451 356 1340
457 358 1347
462 358 1346
462 355 1334
471 359 1347
482 364 1364
490 367 1375
493 366 1369
494 363 1360
504 367 1372
503 363 1357
511 366 1366
507 360 1343
509 359 1336
522 365 1357
524 363 1351
528 364 1350
536 366 1357
541 366 1357
540 363 1343
542 361 1335
561 371 1372
564 370 1367
568 370 1364
569 368 1355
566 363 1336
577 367 1351
577 365 1339
579 363 1333
592 368 1350
595 368 1345
598 367 1341
604 368 1343
613 371 1352
617 370 1349
617 368 1338
630 373 1355
636 374 1357
637 372 1348
641 372 1346
643 371 1340
653 373 1349
656 373 1346
667 377 1358
674 378 1361
683 380 1367
678 375 1347
690 380 1361
695 380 1360
696 378 1351
701 378 1349
709 380 1353
715 381 1356
721 381 1355
730 384 1362
724 379 1342
739 384 1358
737 380 1344
741 381 1342
748 382 1345
755 383 1346
757 382 1339
759 381 1334
766 382 1336
767 380 1327
770 379 1323
-776 393 1309
-754 384 1281
-742 380 1271
-729 375 1257
-711 369 1237
-687 358 1203
-675 354 1191
-670 354 1192
-657 349 1178
-646 345 1167
-643 346 1171
-637 344 1168
-633 344 1170
-623 341 1160
-623 343 1169
-622 344 1175
-617 344 1176
-624 349 1198
-668 376 1293
-692 392 1349
-718 409 1412
-714 409 1414
-689 398 1377
-636 370 1281
-579 339 1174
-543 320 1110
-537 319 1109
-534 319 1111
-535 322 1121
-525 318 1110
-525 320 1119
-519 318 1114
-520 322 1127
-521 324 1138
-518 325 1141
-508 320 1127
-504 320 1129
-512 328 1157
-520 335 1184
-537 349 1234
-539 352 1248
-536 353 1252
-529 350 1245
-532 355 1264
-531 357 1272
-524 355 1266
-516 352 1258
-517 356 1272
-509 353 1263
-503 351 1259
-497 350 1257
-495 352 1263
-491 352 1265
-486 351 1263
-490 356 1284
-484 355 1281
-482 356 1286
-475 354 1281
-463 348 1259
-462 350 1268
-459 351 1272
-457 352 1280
-449 349 1269
-450 353 1283
-437 346 1259
-438 349 1274
-440 354 1294
-434 353 1289
-430 353 1289
-431 357 1305
-427 357 1306
-422 355 1304
-423 360 1321
-413 355 1305
-414 359 1320
-411 360 1327
-402 356 1310
-393 352 1296
-391 353 1303
-385 351 1295
-384 354 1307
-384 357 1321
-377 354 1312
-375 356 1321
-365 350 1299
-365 355 1317
-357 350 1301
-353 350 1301
-350 352 1308
-348 353 1315
-343 352 1311
-341 354 1320
-340 357 1332
-325 346 1292
-319 343 1283
-312 340 1272
-306 338 1263
-303 339 1267
-290 329 1230
-289 331 1242
-276 321 1204
-278 328 1229
-282 336 1260
-276 334 1254
-271 332 1247
-272 337 1269
-273 344 1294
-268 342 1289
-265 344 1295
-261 343 1294
-258 345 1301
-254 344 1298
-251 345 1303
-247 345 1303
-241 343 1296
-240 346 1308
-233 341 1291
-230 344 1301
-227 344 1304
-222 342 1297
-217 341 1294
-213 340 1290
-208 339 1285
-205 340 1290
-200 337 1281
-196 338 1282
-194 340 1293
-190 340 1292
-187 342 1303
-183 341 1297
-179 342 1301
-175 340 1296
-170 339 1292
-168 343 1307
-165 344 1310
-161 343 1308
-156 341 1303
-152 341 1303
-148 341 1302
-146 345 1317
-142 344 1314
-137 343 1311
-134 345 1319
-130 344 1315
-127 346 1323
-122 342 1309
-117 340 1303
-111 333 1274
-101 314 1203
-93 301 1151
-87 292 1117
-80 281 1076
-76 279 1069
-72 276 1057
-68 273 1044
-65 272 1043
-62 270 1036
-58 269 1032
-55 268 1027
-52 266 1021
-49 269 1031
-46 269 1031
-43 269 1032
-41 272 1042
-37 271 1039
-35 274 1051
-32 275 1057
-29 276 1061
-26 283 1085
-24 291 1117
-22 306 1177
-19 322 1238
-16 331 1273
-13 344 1323
-9 344 1325
-6 347 1335
-2 347 1337
1 349 1344
5 349 1342
9 347 1335
13 347 1337
17 345 1327
21 344 1326
25 345 1330
29 344 1325
33 350 1347
37 345 1329
40 342 1317
45 349 1344
49 347 1336
53 349 1343
56 345 1329
60 347 1336
64 346 1334
69 348 1339
73 350 1346
76 344 1325
80 348 1341
84 348 1341
88 347 1335
91 343 1322
95 344 1325
99 345 1328
103 345 1326
108 346 1333
112 346 1333
116 346 1333
120 346 1333
124 348 1339
127 346 1330
131 346 1329
135 346 1332
140 347 1335
143 346 1328
148 348 1336
152 349 1342
156 348 1335
160 347 1334
163 346 1330
167 347 1334
172 349 1340
176 348 1338
179 346 1329
184 350 1341
189 351 1347
193 350 1342
197 351 1347
201 350 1341
203 347 1330
205 344 1317
210 346 1325
214 345 1322
218 345 1320
223 347 1326
227 347 1329
232 348 1332
236 349 1335
239 347 1328
242 345 1319
247 347 1324
252 349 1331
255 347 1325
259 347 1325
264 349 1329
267 348 1325
272 349 1330
277 350 1334
279 348 1324
282 346 1316
288 348 1325
293 349 1328
297 349 1328
300 349 1326
303 348 1319
309 350 1328
312 349 1323
317 350 1326
323 352 1334
326 351 1328
330 351 1329
336 353 1334
338 350 1325
344 353 1335
348 353 1332
350 351 1324
359 355 1341
360 352 1329
364 352 1326
368 352 1326
371 351 1321
380 356 1339
382 354 1330
387 355 1335
391 355 1333
394 354 1329
396 352 1321
401 353 1323
403 351 1315
414 357 1335
416 355 1327
417 353 1319
425 356 1330
428 355 1324
431 354 1319
440 358 1333
445 359 1335
449 358 1333
453 358 1331
452 354 1316
462 359 1334
468 360 1336
477 364 1349
485 367 1360
487 365 1350
498 371 1370
493 364 1344
497 363 1340
501 363 1339
500 359 1322
510 363 1337
512 362 1331
522 366 1344
525 365 1339
529 365 1337
532 365 1335
534 363 1327
545 367 1343
548 367 1338
550 365 1332
555 365 1331
567 370 1348
565 367 1333
572 368 1336
569 364 1319
578 366 1327
586 369 1335
593 371 1341
591 367 1324
608 375 1351
610 373 1344
609 370 1331
610 368 1323
617 370 1327
624 371 1330
627 370 1326
631 370 1323
632 368 1315
644 373 1330
653 375 1337
660 377 1342
665 377 1340
677 381 1353
678 380 1345
681 379 1340
685 379 1338
697 383 1351
692 378 1331
699 379 1334
700 377 1326
711 381 1335
719 382 1340
724 383 1340
718 377 1318
725 379 1322
739 384 1337
738 381 1325
744 382 1326
751 383 1328
754 382 1323
751 379 1308
763 382 1319
760 379 1304
-745 382 1256
-734 378 1246
-728 377 1246
-708 369 1220
-695 364 1208
-680 359 1191
-673 357 1186
-662 353 1176
-651 349 1166
-639 345 1152
-635 345 1154
-629 344 1153
-628 345 1159
-620 343 1152
-617 343 1157
-620 347 1170
-617 348 1175
-629 356 1207
-653 372 1262
-686 393 1338
-696 401 1368
-697 404 1379
-683 399 1364
-647 380 1301
-610 361 1237
-572 341 1170
-541 325 1115
-536 324 1113
-535 326 1121
-528 323 1114
-523 323 1114
-520 323 1117
-515 322 1114
-517 325 1128
-513 325 1130
-518 330 1148
-513 330 1147
-520 337 1173
-546 356 1242
-540 354 1238
-538 356 1245
-534 356 1247
-525 352 1237
-525 354 1246
-520 354 1245
-516 353 1246
-511 353 1246
-509 355 1253
-502 352 1247
-495 350 1238
-495 353 1250
-488 350 1243
-488 353 1256
-482 352 1252
-485 357 1270
-477 354 1261
-471 352 1257
-470 354 1266
-463 352 1258
-456 350 1253
-453 350 1255
-452 352 1264
-442 348 1249
-441 350 1258
-438 351 1263
-440 355 1279
-434 354 1276
-432 355 1283
-430 357 1289
-425 356 1288
-420 355 1285
-422 360 1305
-419 360 1307
-412 358 1299
-410 360 1306
-408 362 1316
-402 360 1309
-394 356 1297
-385 352 1282
-385 355 1295
-381 355 1298
-376 354 1296
-373 355 1297
-371 357 1306
-362 352 1290
-358 352 1289
-356 353 1297
-348 349 1283
-346 351 1291
-341 350 1288
-341 354 1304
-336 353 1302
-332 353 1300
-316 340 1254
-315 343 1267
-305 336 1242
-311 348 1285
-288 325 1202
-288 330 1220
-288 335 1238
-284 334 1237
-276 329 1218
-280 338 1255
-271 331 1229
-264 328 1218
-269 338 1257
-271 346 1286
-267 346 1286
-264 347 1290
-261 347 1292
-255 345 1285
-253 347 1294
-247 344 1285
-243 344 1282
-241 346 1292
-236 345 1287
-232 344 1287
-229 345 1290
-224 344 1289
-219 342 1280
-216 344 1287
-211 341 1276
-207 342 1281
-202 339 1271
-199 341 1280
-195 340 1277
-192 341 1281
-187 340 1276
-185 343 1288
-182 344 1293
-180 346 1303
-174 343 1291
-170 343 1293
-166 343 1292
-163 344 1296
-158 341 1287
-154 342 1288
-151 343 1292
-147 343 1294
-143 342 1292
-140 344 1299
-136 343 1297
-134 347 1312
-129 346 1306
-126 346 1310
-122 347 1311
-114 335 1267
-108 330 1249
-100 314 1189
-91 300 1134
-86 292 1102
-80 283 1071
-76 281 1062
-71 275 1038
-67 272 1028
-64 271 1025
-61 269 1020
-58 269 1018
-54 269 1017
-51 267 1010
-49 269 1017
-46 269 1019
-42 268 1015
-40 271 1027
-37 273 1036
-34 273 1037
-32 277 1050
-29 281 1067
-26 284 1077
-24 292 1107
-21 305 1157
-19 319 1214
-16 327 1243
-13 339 1287
-9 346 1316
-5 346 1316
-2 346 1316
1 346 1315
5 346 1317
9 347 1320
13 347 1320
17 342 1301
21 346 1316
25 347 1320
29 347 1322
33 348 1325
37 349 1328
40 347 1320
44 344 1310
48 347 1320
52 345 1313
56 348 1324
60 348 1325
64 348 1325
67 343 1306
72 348 1326
75 345 1312
79 347 1320
83 347 1321
87 347 1320
91 347 1320
95 347 1320
99 346 1317
102 346 1314
106 344 1308
112 350 1332
115 349 1325
118 346 1316
123 348 1322
125 345 1310
132 351 1336
135 350 1329
139 349 1325
142 347 1319
146 348 1322
151 350 1329
153 346 1315
158 348 1319
162 348 1322
166 347 1318
171 350 1328
175 351 1332
178 348 1321
182 349 1321
187 351 1329
190 350 1325
195 352 1332
197 347 1316
202 349 1321
205 347 1314
208 347 1311
213 347 1313
217 348 1317
222 349 1319
224 347 1311
229 348 1313
234 349 1319
237 348 1313
242 350 1322
244 347 1308
249 349 1315
253 348 1312
258 350 1317
261 348 1312
266 350 1319
270 350 1318
273 349 1312
276 348 1310
281 349 1310
286 350 1316
290 350 1316
294 350 1315
295 347 1303
301 349 1309
304 349 1307
310 351 1314
312 348 1302
318 350 1312
321 349 1307
323 348 1300
330 350 1308
334 350 1308
340 352 1315
341 349 1302
347 352 1312
350 351 1306
353 350 1303
362 354 1318
364 353 1312
371 355 1320
376 356 1323
378 354 1315
384 356 1321
383 352 1305
393 357 1323
394 354 1311
399 355 1315
400 352 1303
410 358 1322
413 357 1318
414 354 1308
415 352 1297
426 357 1316
425 353 1301
432 355 1307
439 358 1317
441 356 1308
448 359 1317
451 357 1311
457 359 1316
461 359 1315
473 366 1338
477 365 1336
485 368 1344
485 365 1331
487 363 1325
492 364 1325
498 365 1329
500 364 1324
504 364 1322
514 368 1336
515 366 1326
520 366 1325
524 366 1324
532 369 1333
534 367 1325
539 368 1327
548 371 1337
550 369 1330
554 369 1328
566 374 1345
557 365 1312
566 369 1322
567 367 1313
575 369 1320
578 368 1316
586 370 1322
587 369 1314
589 367 1309
601 372 1323
602 370 1315
612 374 1326
615 372 1320
620 373 1320
628 375 1327
631 375 1323
633 373 1315
639 374 1318
642 373 1313
648 374 1315
659 378 1327
664 379 1327
668 379 1325
671 378 1320
676 378 1320
678 377 1312
684 378 1315
687 377 1309
694 378 1313
696 377 1307
703 379 1311
711 380 1315
712 378 1306
723 382 1317
732 384 1322
736 384 1320
731 379 1301
745 384 1316
746 383 1308
751 383 1306
760 385 1312
760 383 1302
-731 378 1231
-717 373 1216
-709 372 1213
-705 372 1215
-687 364 1192
-677 361 1184
-666 357 1173
-652 352 1158
-640 347 1144
-634 346 1144
-623 342 1131
-622 344 1139
-624 347 1151
-624 349 1160
-610 343 1142
-613 347 1157
-615 350 1170
-631 362 1210
-659 379 1272
-681 395 1327
-691 403 1357
-681 400 1347
-679 401 1355
-658 391 1322
-629 376 1274
-612 369 1250
-586 355 1206
-551 337 1145
-537 331 1125
-530 328 1119
-523 326 1113
-522 327 1119
-520 329 1124
-517 329 1127
-514 329 1129
-518 334 1147
-519 337 1161
-537 351 1211
-541 356 1230
-548 364 1257
-534 357 1234
-523 352 1219
-521 354 1227
-521 356 1237
-514 354 1231
-509 353 1230
-506 353 1232
-502 353 1233
-498 353 1235
-491 351 1229
-488 352 1233
-480 349 1223
-482 353 1239
-480 354 1246
-478 356 1252
-475 356 1256
-467 353 1246
-457 349 1231
-458 352 1244
-456 354 1251
-449 351 1242
-447 353 1250
-438 348 1236
-437 351 1246
-435 352 1251
-433 354 1259
-432 356 1267
-427 355 1265
-428 359 1281
-423 358 1279
-418 357 1278
-422 364 1302
-419 365 1308
-414 364 1304
-407 362 1299
-404 362 1302
-396 359 1289
-388 355 1277
-381 352 1269
-375 350 1263
-379 357 1288
-372 354 1280
-372 358 1293
-367 357 1292
-358 352 1274
-354 352 1276
-351 352 1277
-346 352 1276
-343 352 1278
-342 355 1290
-338 356 1294
-332 353 1286
-330 355 1291
-317 345 1256
-303 334 1216
-316 352 1285
-301 340 1242
-297 340 1242
-297 344 1257
-279 327 1195
-291 346 1267
-270 325 1191
-280 341 1251
-262 324 1189
-271 340 1248
-269 342 1257
-268 345 1267
-263 344 1266
-262 347 1277
-257 345 1271
-253 346 1274
-250 346 1275
-247 347 1281
-241 345 1273
-239 348 1284
-233 344 1271
-232 348 1285
-227 346 1278
-222 345 1275
-219 346 1279
-213 342 1267
-210 343 1269
-204 340 1261
-201 342 1266
-197 340 1261
-192 339 1256
-188 339 1257
-186 341 1266
-182 341 1268
-179 342 1270
-177 345 1283
-174 347 1289
-169 344 1281
-166 346 1289
-161 343 1277
-157 344 1282
-153 343 1277
-150 345 1287
-146 344 1284
-142 345 1286
-140 347 1294
-135 345 1288
-131 346 1292
-127 343 1281
-124 347 1297
-120 345 1291
-114 340 1271
-106 327 1222
-97 309 1154
-90 298 1113
-85 294 1098
-79 282 1056
-75 280 1048
-71 276 1032
-67 272 1018
-63 270 1008
-60 271 1012
-57 271 1016
-54 269 1006
-51 268 1002
-48 270 1010
-45 269 1005
-42 270 1010
-39 271 1015
-37 274 1027
-34 275 1030
-31 276 1032
-28 280 1049
-26 284 1066
-23 289 1084
-21 303 1136
-19 318 1192
-16 331 1241
-13 340 1276
-9 345 1298
-5 349 1313
-1 347 1306
1 345 1296
5 346 1299
9 344 1292
13 346 1302
17 349 1311
21 345 1296
24 345 1299
28 346 1301
32 346 1300
36 346 1302
40 349 1313
44 346 1300
48 352 1324
51 347 1304
56 349 1312
59 347 1304
63 348 1309
67 348 1307
71 349 1311
75 348 1307
79 347 1305
82 344 1292
87 349 1314
90 349 1310
95 349 1314
99 350 1314
101 346 1299
106 349 1313
109 345 1295
113 347 1305
118 350 1314
122 350 1313
125 347 1302
129 348 1308
134 352 1320
136 345 1296
141 348 1306
144 345 1296
149 349 1308
153 350 1314
157 350 1313
160 348 1306
165 349 1310
169 351 1316
173 349 1309
177 350 1311
182 353 1324
185 350 1311
188 349 1306
193 351 1313
196 349 1306
199 349 1304
204 349 1306
208 349 1306
210 347 1297
216 350 1307
219 348 1301
222 347 1296
227 348 1301
231 349 1301
233 347 1294
239 350 1304
242 348 1299
247 350 1303
249 347 1293
255 349 1301
259 350 1302
262 348 1296
267 350 1302
271 350 1301
273 348 1292
278 349 1298
282 350 1298
287 350 1300
291 351 1303
295 350 1299
297 349 1292
303 351 1299
308 352 1303
312 352 1303
315 352 1301
317 349 1292
323 351 1296
327 351 1296
332 353 1301
334 350 1293
340 353 1301
343 352 1296
347 352 1296
349 350 1288
357 353 1299
364 357 1312
366 354 1302
365 350 1283
376 356 1307
378 354 1299
380 352 1291
386 355 1300
390 354 1296
395 355 1300
401 357 1305
402 355 1295
407 355 1297
411 356 1297
415 355 1294
419 355 1293
424 356 1295
429 357 1297
433 357 1298
440 359 1305
442 357 1297
449 360 1307
449 357 1294
461 363 1313
465 363 1312
476 369 1332
481 369 1332
479 364 1314
481 363 1308
488 365 1315
491 364 1309
496 365 1312
499 364 1306
501 363 1300
505 362 1297
507 361 1293
520 367 1312
521 365 1304
532 370 1319
531 366 1306
542 371 1321
551 374 1332
551 371 1320
552 369 1310
558 370 1313
564 371 1316
565 369 1308
565 367 1296
578 372 1315
575 368 1297
580 368 1298
585 368 1296
587 368 1292
595 370 1298
601 371 1301
607 372 1302
619 377 1317
620 375 1309
628 377 1316
637 380 1323
637 377 1313
638 375 1304
644 376 1305
650 377 1308
649 374 1295
657 376 1301
670 381 1316
662 374 1290
675 379 1307
680 380 1306
686 381 1307
692 382 1308
694 380 1302
700 381 1303
710 384 1311
708 381 1297
714 382 1299
721 383 1302
723 382 1296
726 381 1291
737 384 1300
744 386 1303
745 384 1294
750 384 1293
758 386 1298
-709 371 1193
-699 368 1186
-692 367 1183
-681 363 1172
-674 361 1169
-661 356 1155
-654 355 1152
-644 351 1142
-639 351 1142
-631 348 1137
-625 347 1134
-621 347 1135
-620 348 1142
-614 347 1141
-611 347 1143
-610 349 1150
-622 358 1183
-642 371 1229
-659 384 1273
-679 398 1321
-686 404 1345
-670 397 1324
-663 396 1322
-651 392 1308
-639 387 1293
-622 379 1269
-619 379 1273
-587 362 1216
-554 344 1158
-540 338 1138
-534 337 1135
-524 332 1122
-524 335 1131
-525 338 1143
-514 333 1130
-512 334 1135
-520 341 1161
-523 346 1178
-529 352 1202
-532 357 1219
-527 356 1218
-516 351 1203
-510 350 1200
-511 353 1213
-503 350 1204
-497 349 1200
-493 349 1201
-492 351 1209
-491 352 1216
-486 352 1216
-480 350 1212
-475 349 1210
-482 357 1239
-473 353 1226
-470 354 1230
-465 352 1227
-465 355 1238
-461 356 1241
-455 354 1236
-453 355 1243
-445 352 1231
-443 354 1239
-436 351 1231
-435 353 1240
-429 351 1235
-425 351 1235
-428 356 1254
-426 358 1262
-418 355 1252
-415 356 1256
-419 362 1280
-411 359 1269
-414 364 1290
-407 362 1284
-403 361 1282
-395 358 1272
-392 359 1277
-384 355 1262
-381 356 1268
-379 358 1274
-374 356 1271
-371 357 1275
-366 356 1273
-365 359 1282
-356 354 1266
-354 356 1273
-351 356 1277
-340 350 1255
-341 355 1273
-336 353 1267
-335 356 1280
-329 354 1274
-325 353 1272
-320 352 1267
-314 350 1261
-309 348 1256
-305 349 1258
-303 350 1264
-297 348 1256
-291 345 1246
-285 342 1239
-274 334 1207
-277 341 1237
-265 332 1202
-265 337 1221
-267 343 1245
-266 346 1258
-261 345 1253
-259 348 1265
-253 344 1253
-252 348 1266
-248 347 1265
-245 349 1270
-241 348 1270
-236 346 1264
-232 347 1265
-228 347 1266
-223 345 1260
-218 342 1249
-216 345 1262
-212 344 1259
-209 345 1264
-204 343 1257
-202 346 1268
-196 343 1257
-193 343 1259
-191 348 1277
-185 344 1262
-183 346 1269
-178 344 1262
-175 346 1270
-172 346 1273
-167 344 1263
-163 345 1267
-161 347 1277
-157 347 1277
-151 342 1261
-149 347 1280
-146 348 1282
-141 344 1270
-136 343 1264
-134 346 1275
-131 347 1282
-127 348 1286
-122 346 1276
-119 346 1277
-113 340 1255
-103 323 1192
-95 308 1139
-88 297 1098
-83 288 1065
-78 284 1049
-74 280 1033
-69 275 1014
-66 272 1005
-62 268 990
-60 273 1009
-56 270 997
-54 270 1000
-50 269 994
-47 268 993
-44 269 995
-41 269 994
-39 271 1004
-36 274 1016
-33 275 1018
-31 277 1026
-28 280 1039
-26 286 1060
-23 292 1083
-21 303 1123
-18 316 1174
-15 328 1216
-12 340 1264
-9 346 1283
-5 346 1284
-1 350 1302
1 348 1293
5 347 1289
9 350 1302
13 346 1285
17 350 1300
20 345 1282
24 344 1280
28 344 1280
32 348 1292
36 349 1298
40 348 1293
44 353 1313
47 349 1297
51 351 1303
55 346 1287
59 349 1298
62 347 1289
66 347 1289
70 347 1291
74 346 1288
78 349 1296
82 349 1296
86 350 1299
89 348 1292
93 348 1291
97 348 1293
101 348 1294
105 350 1299
109 350 1300
113 349 1296
116 349 1295
121 351 1303
124 348 1292
129 350 1299
132 350 1299
137 351 1303
140 351 1300
143 347 1287
147 348 1291
151 349 1292
155 349 1293
160 351 1301
164 351 1300
167 350 1298
170 348 1287
175 350 1297
177 347 1283
184 352 1302
186 348 1289
190 350 1293
194 350 1293
197 348 1287
200 346 1280
204 348 1284
208 347 1284
213 348 1286
218 351 1294
221 350 1290
224 349 1286
230 352 1298
232 349 1287
234 346 1277
240 349 1286
242 347 1277
249 350 1290
252 349 1285
257 351 1291
257 346 1271
265 351 1292
269 351 1290
272 350 1285
274 348 1276
280 350 1286
282 348 1276
288 351 1288
294 353 1293
296 351 1286
301 352 1288
304 351 1284
309 353 1290
310 350 1278
316 352 1287
322 353 1290
324 352 1285
330 354 1291
332 352 1284
339 355 1294
341 353 1285
347 356 1295
347 352 1279
351 351 1276
358 354 1288
361 354 1285
365 354 1285
371 355 1289
372 353 1277
377 354 1280
382 355 1284
388 356 1289
392 357 1289
398 359 1295
401 358 1291
403 356 1282
409 358 1290
411 356 1281
416 357 1284
422 358 1288
426 358 1288
426 355 1274
432 357 1280
436 357 1279
443 359 1286
446 359 1284
453 361 1290
459 362 1295
462 362 1291
473 367 1308
476 366 1305
476 363 1293
482 364 1296
484 363 1289
490 364 1294
495 365 1296
498 364 1291
504 366 1294
504 363 1283
512 366 1292
521 369 1302
520 365 1288
522 364 1282
531 367 1292
542 372 1309
540 368 1292
549 371 1302
550 369 1294
554 369 1291
562 371 1298
561 368 1285
565 368 1283
572 370 1289
575 369 1284
577 368 1279
579 367 1273
591 372 1289
597 373 1291
602 373 1291
606 373 1290
614 375 1295
626 380 1310
623 376 1293
628 376 1293
632 376 1291
634 375 1285
643 377 1293
651 380 1299
644 373 1275
655 377 1286
667 381 1299
667 379 1289
671 379 1287
675 379 1284
680 379 1284
685 379 1283
694 382 1290
692 378 1276
706 384 1293
713 386 1297
705 379 1271
721 385 1290
735 390 1306
735 388 1295
739 388 1294
739 386 1284
741 384 1277
750 387 1283
-711 376 1195
-701 373 1188
-693 371 1182
-676 364 1162
-671 363 1162
-656 357 1145
-640 351 1126
-631 348 1118
-636 353 1135
-623 348 1122
-626 351 1135
-615 347 1124
-610 347 1124
-610 349 1132
-612 352 1145
-613 355 1156
-622 362 1182
-642 376 1228
-654 385 1261
-670 397 1303
-668 398 1309
-663 398 1309
-659 398 1312
-653 397 1310
-643 393 1300
-630 388 1284
-613 380 1260
-586 366 1214
-552 347 1153
-537 340 1130
-530 338 1126
-524 336 1121
-523 338 1129
-522 340 1136
-521 341 1143
-516 340 1142
-514 341 1146
-509 340 1146
-515 347 1170
-516 350 1181
-509 348 1175
-503 346 1172
-501 348 1177
-497 347 1178
-498 350 1190
-491 348 1184
-490 350 1192
-483 348 1186
-480 349 1189
-481 351 1201
-478 352 1205
-473 351 1203
-469 351 1203
-465 351 1203
-466 354 1218
-460 353 1214
-458 354 1220
-451 352 1213
-449 353 1219
-448 355 1226
-444 355 1227
-437 353 1221
-436 355 1230
-430 353 1224
-424 351 1218
-418 349 1214
-418 353 1227
-419 356 1241
-414 355 1239
-412 357 1245
-408 357 1246
-411 363 1269
-411 366 1280
-405 364 1276
-396 359 1259
-393 360 1264
-387 359 1260
-381 356 1253
-377 356 1254
-373 356 1253
-366 353 1245
-367 358 1262
-363 357 1260
-357 355 1255
-357 359 1270
-354 360 1273
-348 357 1266
-340 353 1253
-339 356 1262
-333 354 1256
-333 358 1271
-327 356 1265
-324 356 1267
-318 354 1262
-315 355 1265
-310 353 1259
-307 354 1264
-302 353 1259
-296 350 1252
-290 348 1245
-284 345 1235
-280 345 1234
-274 341 1222
-272 343 1230
-269 344 1234
-267 347 1246
-263 346 1244
-261 348 1251
-257 348 1251
-251 345 1242
-250 349 1255
-244 346 1246
-242 349 1257
-237 347 1249
-234 347 1253
-229 346 1248
-224 344 1243
-223 349 1259
-220 349 1259
-214 345 1247
-210 345 1249
-206 345 1249
-202 344 1247
-200 346 1254
-194 342 1240
-192 345 1252
-187 344 1248
-185 346 1256
-180 345 1253
-176 344 1250
-174 347 1262
-170 346 1257
-167 348 1266
-164 350 1272
-158 345 1254
-156 348 1267
-152 348 1266
-148 347 1265
-145 349 1270
-139 344 1253
-137 350 1275
-133 348 1268
-129 347 1268
-127 351 1280
-123 350 1279
-117 346 1263
-110 335 1223
-102 321 1172
-93 306 1116
-88 298 1087
-83 292 1066
-77 284 1036
-73 280 1023
-69 276 1008
-66 274 1002
-62 271 991
-59 271 991
-56 271 989
-52 268 978
-50 269 984
-47 271 990
-44 270 989
-41 271 991
-38 272 993
-36 273 998
-33 275 1006
-30 278 1018
-28 280 1025
-25 283 1037
-23 292 1069
-21 306 1120
-18 319 1169
-15 327 1200
-12 337 1238
-9 348 1277
-5 346 1269
-1 348 1277
1 349 1283
5 347 1275
9 346 1272
13 347 1275
17 349 1281
20 348 1278
24 347 1273
28 348 1280
32 352 1293
36 350 1285
40 350 1286
43 348 1277
47 350 1284
51 351 1289
55 351 1288
58 347 1276
62 349 1284
66 349 1282
70 349 1283
73 348 1279
77 349 1283
81 349 1280
85 351 1289
89 349 1283
93 350 1287
96 347 1275
100 349 1281
103 346 1271
108 349 1282
111 348 1278
116 350 1284
118 347 1272
124 351 1287
126 348 1275
131 351 1287
135 351 1286
138 349 1280
143 350 1284
146 349 1277
150 350 1282
155 352 1290
156 347 1271
163 352 1291
166 352 1287
170 353 1291
172 348 1275
179 354 1295
181 350 1279
185 350 1281
187 348 1273
191 348 1270
195 348 1271
199 348 1272
204 351 1280
208 351 1281
211 349 1274
215 350 1279
219 349 1274
222 348 1270
225 348 1268
229 348 1268
234 350 1273
240 353 1287
242 350 1273
247 351 1279
249 350 1272
254 350 1273
259 353 1281
261 350 1271
265 350 1271
268 349 1266
272 350 1269
276 349 1265
280 350 1267
285 351 1270
290 352 1276
294 352 1275
297 352 1272
300 351 1269
306 353 1274
309 352 1271
312 351 1267
316 351 1268
321 352 1270
328 355 1281
328 351 1266
334 353 1272
340 356 1283
344 356 1280
346 354 1272
351 355 1276
353 354 1270
357 353 1268
363 355 1273
370 358 1283
369 353 1266
371 352 1259
376 353 1263
384 357 1275
388 357 1273
390 355 1267
397 358 1275
400 357 1273
404 357 1273
406 356 1265
413 358 1273
415 356 1265
419 356 1265
427 360 1276
429 358 1271
436 361 1279
439 360 1273
443 360 1274
450 362 1280
456 364 1284
459 363 1280
465 365 1285
470 366 1288
475 367 1290
476 364 1279
481 365 1281
489 368 1290
494 369 1292
496 366 1283
499 366 1282
501 364 1273
504 363 1269
514 368 1283
520 369 1287
515 363 1264
521 364 1267
531 368 1279
536 369 1281
538 368 1274
545 370 1281
548 369 1277
554 370 1279
558 370 1277
565 372 1283
565 369 1272
571 371 1275
576 371 1276
576 369 1265
583 370 1269
588 371 1270
594 372 1271
602 375 1279
608 375 1280
612 376 1280
622 379 1291
626 379 1287
631 380 1288
635 379 1285
634 376 1274
637 376 1270
642 376 1268
643 374 1261
653 378 1271
666 383 1286
659 376 1261
665 377 1265
672 379 1267
680 381 1273
679 378 1261
689 381 1270
697 384 1276
698 381 1266
703 382 1266
705 381 1261
708 380 1257
722 385 1272
730 387 1276
733 386 1272
741 388 1275
742 387 1268
-723 387 1215
-706 380 1195
-707 383 1206
-688 375 1182
-681 373 1178
-655 361 1142
-642 356 1128
-629 351 1115
-627 352 1119
-621 351 1117
-615 349 1114
-615 351 1123
-613 352 1129
-611 353 1133
-605 352 1130
-604 353 1137
-624 367 1184
-645 382 1233
-659 392 1271
-665 398 1292
-663 400 1298
-664 403 1311
-660 403 1314
-660 405 1323
-640 396 1293
-622 387 1268
-590 370 1212
-557 352 1153
-542 345 1133
-533 341 1123
-532 343 1129
-523 339 1119
-520 340 1123
-521 343 1134
-514 340 1127
-512 341 1132
-513 345 1145
-504 341 1133
-503 342 1140
-501 343 1145
-504 348 1162
-501 348 1165
-502 352 1179
-495 349 1171
-495 352 1182
-486 348 1170
-484 350 1178
-486 354 1192
-485 355 1199
-475 351 1186
-471 351 1185
-467 350 1186
-462 349 1185
-460 351 1190
-459 353 1198
-452 350 1191
-452 354 1204
-448 353 1203
-452 359 1225
-444 356 1215
-446 360 1232
-438 357 1222
-429 353 1210
-427 354 1213
-424 354 1217
-422 356 1225
-420 358 1231
-417 359 1235
-415 360 1240
-407 356 1228
-406 359 1238
-412 367 1271
-408 368 1272
-400 364 1260
-388 356 1236
-387 358 1243
-384 359 1248
-376 356 1236
-374 357 1242
-370 357 1243
-367 358 1246
-362 357 1244
-362 360 1258
-357 359 1255
-351 356 1246
-347 357 1248
-346 359 1257
-338 355 1244
-334 355 1245
-333 358 1257
-327 355 1246
-325 357 1255
-321 357 1256
-315 355 1249
-312 355 1250
-310 357 1259
-307 358 1262
-303 358 1264
-295 353 1248
-293 355 1254
-285 350 1239
-280 349 1234
-276 348 1230
-271 347 1227
-268 347 1231
-265 348 1234
-262 349 1240
-258 348 1236
-255 349 1241
-250 348 1236
-246 348 1238
-242 348 1237
-241 350 1247
-236 349 1243
-232 349 1242
-227 346 1234
-223 346 1234
-220 347 1238
-218 350 1251
-210 343 1226
-208 345 1233
-204 345 1236
-201 345 1236
-196 345 1234
-193 346 1238
-189 345 1236
-186 346 1241
-182 345 1239
-179 346 1242
-176 347 1245
-172 347 1246
-168 347 1248
-165 349 1254
-160 346 1243
-158 348 1252
-154 349 1255
-150 347 1248
-147 348 1254
-144 350 1261
-139 348 1255
-136 351 1263
-131 346 1247
-129 350 1263
-124 347 1252
-121 349 1258
-115 344 1243
-108 334 1207
-100 321 1158
-92 304 1098
-87 298 1075
-81 291 1050
-76 283 1022
-73 281 1014
-68 274 991
-65 274 989
-62 274 988
-59 273 985
-55 270 976
-52 270 977
-49 270 976
-46 267 966
-44 272 983
-41 274 990
-38 273 986
-36 276 1000
-33 277 1003
-30 278 1006
-28 282 1022
-25 286 1036
-22 290 1050
-20 307 1113
-18 322 1167
-15 331 1201
-12 346 1254
-9 352 1276
-5 350 1271
-1 349 1266
2 347 1259
5 353 1282
9 349 1268
13 348 1263
17 350 1272
20 348 1264
24 351 1275
28 348 1263
31 349 1267
35 346 1257
39 348 1264
43 347 1260
46 348 1265
50 349 1268
54 349 1267
58 350 1270
62 352 1278
65 349 1268
70 352 1278
73 351 1273
77 349 1269
81 350 1270
84 351 1273
88 351 1273
92 351 1275
96 352 1276
100 350 1272
103 350 1271
107 352 1276
111 351 1274
115 351 1271
119 352 1275
124 355 1288
125 349 1264
130 352 1276
132 347 1258
137 350 1269
141 350 1269
146 353 1279
149 351 1271
153 351 1270
155 348 1262
161 352 1273
164 351 1269
169 353 1278
172 352 1273
175 350 1267
178 349 1261
182 350 1264
188 352 1273
191 352 1273
194 350 1264
198 350 1265
201 349 1259
205 350 1262
211 353 1273
212 349 1257
216 349 1257
220 350 1261
225 351 1265
226 348 1252
232 350 1261
237 352 1267
239 350 1258
247 355 1278
246 349 1254
252 351 1263
256 352 1264
260 352 1263
265 354 1270
266 350 1256
272 353 1266
273 350 1254
278 351 1259
280 349 1250
286 351 1256
290 351 1257
293 350 1253
300 354 1266
303 353 1262
309 355 1269
312 355 1266
315 354 1263
320 355 1265
323 354 1261
326 354 1259
331 354 1261
335 355 1263
341 357 1268
344 356 1263
346 354 1256
349 353 1252
357 358 1268
362 359 1271
365 358 1267
366 355 1256
367 352 1246
375 356 1257
379 356 1257
384 357 1261
387 356 1256
392 357 1258
392 354 1247
402 359 1265
405 358 1261
409 358 1258
413 358 1258
417 359 1259
421 359 1259
421 356 1246
431 360 1262
429 355 1243
439 361 1261
440 359 1252
455 367 1281
462 369 1287
461 366 1274
465 365 1272
467 364 1264
472 365 1266
476 365 1266
484 368 1275
486 366 1269
486 363 1257
493 366 1265
501 368 1272
500 365 1259
503 364 1256
511 367 1264
515 367 1263
520 368 1264
525 369 1266
530 369 1266
535 369 1266
537 369 1261
546 372 1270
550 372 1270
552 370 1262
555 370 1259
566 374 1273
572 375 1276
567 369 1253
577 373 1265
581 373 1263
582 371 1255
589 373 1259
595 374 1264
607 379 1277
611 379 1276
617 380 1278
621 380 1276
617 375 1257
624 377 1263
634 380 1272
631 376 1256
636 377 1257
642 378 1259
643 376 1250
648 376 1249
656 379 1255
667 383 1267
667 380 1257
675 382 1262
675 380 1253
681 381 1255
686 382 1254
687 380 1246
695 382 1252
706 385 1260
706 383 1251
711 384 1251
720 386 1258
722 385 1251
727 385 1251
740 390 1264
-726 393 1218
-710 386 1201
-705 386 1201
-695 383 1193
-673 373 1164
-649 362 1132
-637 357 1118
-620 349 1097
-620 351 1105
-612 349 1099
-615 353 1114
-608 351 1109
-604 350 1110
-606 354 1122
-597 351 1115
-606 358 1140
-625 371 1185
-646 386 1234
-656 395 1263
-654 396 1269
-656 400 1284
-655 402 1292
-661 408 1315
-657 408 1316
-625 391 1262
-596 375 1214
-562 356 1154
-547 349 1133
-536 345 1119
-533 345 1122
-526 342 1115
-526 345 1125
-519 342 1118
-518 344 1125
-517 346 1134
-514 346 1135
-506 343 1128
-501 342 1125
-500 344 1132
-493 342 1128
-492 344 1135
-493 347 1146
-488 346 1145
-491 350 1160
-487 350 1163
-486 352 1171
-486 355 1181
-481 354 1179
-478 354 1181
-473 353 1180
-470 354 1182
-464 352 1179
-460 352 1178
-457 352 1182
-458 356 1194
-455 356 1198
-448 354 1191
-445 355 1195
-445 358 1207
-441 357 1207
-436 356 1204
-429 354 1197
-423 352 1192
-424 355 1206
-417 353 1198
-413 352 1197
-419 361 1228
-411 357 1217
-409 359 1222
-408 361 1231
-400 357 1221
-402 362 1238
-400 364 1245
-398 365 1252
-389 360 1235
-381 357 1223
-383 363 1245
-374 358 1229
-369 356 1224
-363 354 1219
-363 357 1231
-360 358 1235
-355 357 1233
-352 358 1237
-350 359 1242
-344 358 1237
-342 359 1244
-334 355 1228
-333 358 1241
-328 356 1236
-324 356 1236
-323 359 1246
-316 356 1236
-313 356 1238
-309 356 1238
-307 358 1246
-302 357 1243
-297 355 1237
-295 357 1246
-293 358 1252
-286 355 1243
-283 356 1244
-276 351 1229
-272 351 1231
-265 348 1218
-262 348 1221
-258 348 1220
-255 349 1224
-252 350 1229
-248 349 1228
-243 347 1220
-240 348 1225
-238 350 1233
-232 347 1221
-230 350 1233
-226 349 1231
-223 350 1235
-221 353 1245
-215 348 1230
-211 349 1232
-206 346 1224
-203 347 1226
-200 348 1232
-196 348 1230
-193 349 1235
-188 347 1230
-186 350 1241
-180 346 1225
-177 347 1230
-175 350 1243
-170 347 1231
-167 348 1237
-163 349 1239
-159 347 1234
-156 349 1242
-152 349 1241
-149 349 1240
-145 348 1238
-141 347 1236
-137 347 1236
-135 350 1247
-130 348 1241
-127 349 1243
-123 349 1245
-120 350 1250
-115 346 1233
-107 334 1191
-97 315 1124
-91 304 1084
-84 293 1046
-80 289 1032
-75 282 1007
-71 280 1000
-67 276 984
-64 274 977
-61 274 978
-58 272 972
-55 271 967
-52 271 967
-49 271 969
-46 269 961
-43 270 965
-41 273 977
-38 273 975
-35 272 974
-32 276 989
-30 278 996
-27 282 1010
-25 287 1028
-22 292 1047
-20 307 1099
-18 320 1145
-15 334 1197
-12 339 1217
-9 349 1251
-5 349 1254
-1 348 1249
2 351 1259
5 347 1246
9 347 1247
13 350 1258
16 348 1248
20 348 1250
24 350 1257
28 351 1259
31 347 1246
35 350 1256
39 354 1271
42 350 1257
46 350 1255
50 351 1259
54 350 1258
57 348 1250
61 347 1247
65 349 1252
69 352 1263
72 351 1259
77 355 1275
80 351 1260
84 352 1262
87 349 1254
91 351 1260
94 346 1243
99 351 1258
102 351 1259
106 352 1262
109 350 1254
114 352 1261
118 352 1262
121 350 1254
125 352 1263
129 352 1263
133 352 1261
136 352 1260
139 349 1251
144 352 1262
147 349 1251
151 351 1258
155 351 1257
158 351 1255
163 353 1263
166 350 1251
170 351 1255
174 353 1261
178 353 1261
181 351 1253
186 352 1259
190 353 1261
193 351 1255
195 350 1248
200 351 1253
204 351 1254
208 352 1254
213 353 1260
215 350 1248
219 351 1249
222 351 1249
228 353 1258
229 349 1244
234 351 1249
239 353 1256
242 352 1250
247 353 1255
250 353 1254
253 351 1247
258 353 1254
262 353 1252
264 351 1244
268 352 1246
274 354 1254
276 352 1248
280 352 1245
286 354 1254
288 352 1247
292 353 1249
297 354 1252
301 355 1252
303 353 1245
307 352 1243
312 354 1247
316 355 1250
318 352 1239
322 353 1242
327 354 1246
334 357 1256
335 355 1246
341 357 1253
341 353 1238
346 354 1241
349 353 1237
355 355 1243
360 357 1249
365 357 1250
368 357 1248
371 356 1243
378 359 1255
383 360 1255
383 357 1244
384 354 1234
393 359 1248
398 359 1250
399 357 1241
406 360 1249
408 358 1242
414 360 1249
419 361 1250
420 358 1240
426 360 1247
433 363 1255
440 365 1261
441 363 1254
442 361 1244
450 364 1254
456 365 1258
462 367 1262
462 364 1250
467 365 1253
473 366 1256
479 368 1262
485 369 1265
489 369 1263
488 366 1250
498 370 1264
495 365 1246
504 369 1257
505 366 1247
517 372 1266
511 366 1242
517 367 1245
523 368 1248
532 372 1259
534 370 1251
538 370 1251
536 366 1236
551 374 1260
554 373 1255
561 375 1260
558 370 1244
570 376 1261
576 377 1262
575 373 1250
576 371 1242
575 368 1230
587 373 1245
593 374 1246
604 379 1260
610 380 1263
614 380 1261
622 382 1267
616 376 1245
626 380 1254
627 377 1246
634 379 1250
637 379 1246
639 378 1241
645 379 1243
653 381 1249
653 378 1238
659 379 1240
661 378 1234
676 384 1253
669 378 1230
674 379 1231
685 383 1241
688 382 1238
694 383 1238
701 385 1241
