VERSION 0.7
FIELDS x y z
SIZE 4 4 4
TYPE I I I
COUNT 1 1 1
WIDTH 3295
HEIGHT 1
VIEWPOINT 0.0 0.0 0.0 1.0 0.0 0.0 0.0
POINTS 3295
DATA ascii
-259 -513 2609
-251 -511 2601
-242 -509 2591
-235 -509 2593
-228 -511 2601
-220 -510 2598
-212 -509 2594
-205 -510 2598
-197 -509 2593
-188 -507 2582
-181 -508 2588
-173 -507 2584
-165 -504 2568
-157 -505 2572
-150 -505 2571
-142 -505 2570
-134 -503 2564
-127 -504 2565
-119 -501 2553
-112 -502 2558
-104 -501 2554
-96 -500 2547
-89 -500 2548
-81 -499 2543
-74 -499 2541
-66 -500 2544
-59 -498 2534
-51 -496 2526
-44 -497 2532
-37 -498 2535
-29 -497 2531
-22 -497 2531
-14 -496 2527
-7 -497 2529
0 -496 2525
7 -495 2517
14 -494 2515
21 -493 2507
29 -495 2516
36 -492 2501
43 -492 2503
50 -492 2502
58 -493 2507
65 -492 2502
72 -491 2497
79 -491 2495
86 -490 2487
94 -491 2496
101 -490 2490
107 -485 2462
115 -487 2474
122 -488 2477
129 -487 2473
137 -489 2480
143 -487 2468
151 -486 2466
158 -486 2463
166 -489 2481
172 -485 2459
179 -486 2464
187 -487 2469
193 -484 2451
200 -485 2456
207 -484 2447
214 -484 2446
220 -482 2439
228 -483 2443
235 -484 2445
243 -484 2445
249 -482 2436
256 -482 2433
263 -481 2430
270 -481 2428
276 -481 2424
284 -481 2426
290 -480 2418
298 -481 2424
304 -480 2416
308 -475 2389
312 -471 2370
319 -470 2364
327 -472 2373
334 -472 2373
343 -475 2386
351 -476 2389
359 -477 2396
365 -477 2391
372 -476 2389
379 -477 2390
386 -476 2387
394 -477 2390
398 -474 2372
406 -476 2380
413 -476 2379
421 -476 2380
427 -475 2375
434 -476 2375
440 -475 2371
447 -474 2366
455 -476 2372
462 -476 2371
467 -473 2357
476 -476 2366
483 -476 2367
489 -475 2362
496 -475 2360
504 -476 2362
508 -473 2349
516 -474 2352
524 -475 2354
529 -474 2346
535 -473 2339
541 -471 2332
550 -474 2342
557 -474 2340
565 -474 2342
570 -473 2334
577 -473 2333
583 -472 2327
595 -477 2347
602 -477 2346
608 -476 2340
613 -474 2330
621 -475 2332
630 -476 2337
637 -476 2335
640 -473 2319
649 -475 2327
657 -476 2329
663 -475 2322
671 -476 2323
678 -476 2322
684 -475 2317
691 -476 2318
698 -476 2315
708 -478 2322
712 -476 2311
720 -477 2314
728 -477 2314
732 -475 2303
740 -476 2306
750 -478 2311
754 -476 2299
762 -477 2301
771 -478 2305
779 -479 2305
784 -478 2299
790 -477 2293
797 -477 2293
806 -479 2296
812 -478 2292
820 -478 2291
825 -478 2285
831 -477 2279
839 -478 2280
845 -477 2275
853 -477 2274
862 -479 2279
868 -478 2273
880 -481 2282
883 -479 2271
891 -480 2272
895 -478 2262
905 -480 2267
908 -477 2254
918 -479 2259
927 -480 2260
935 -481 2261
942 -481 2258
950 -481 2257
953 -479 2246
962 -480 2248
969 -480 2245
976 -480 2243
979 -479 2231
990 -480 2236
990 -477 2218
1009 -483 2242
1018 -484 2243
1006 -475 2198
1015 -476 2202
1032 -481 2220
1042 -482 2224
1048 -481 2217
1056 -482 2216
1063 -482 2213
1060 -478 2190
1012 -453 2074
918 -408 1865
895 -395 1804
894 -392 1787
903 -394 1792
900 -390 1772
915 -394 1788
917 -392 1777
925 -393 1779
921 -389 1759
929 -390 1760
948 -396 1783
940 -390 1753
945 -390 1750
956 -392 1756
962 -392 1754
964 -391 1744
973 -392 1747
976 -391 1741
980 -391 1735
989 -392 1737
-1336 -490 2276
-1327 -490 2277
-1308 -485 2261
-1296 -484 2257
-1295 -486 2272
-1278 -482 2258
-1269 -482 2260
-1256 -480 2254
-1245 -478 2249
-1228 -475 2236
-1217 -474 2233
-1203 -471 2224
-1203 -474 2241
-1193 -473 2239
-1186 -473 2244
-1171 -470 2231
-1158 -467 2223
-1146 -466 2218
-1129 -461 2201
-1122 -462 2206
-1114 -461 2206
-1107 -461 2210
-1095 -459 2202
-1070 -452 2168
-1074 -456 2194
-1057 -452 2177
-1053 -454 2186
-1037 -449 2169
-1031 -450 2175
-1020 -448 2169
-1016 -450 2177
-1011 -450 2184
-995 -447 2168
-987 -446 2167
-975 -444 2159
-983 -450 2193
-1003 -463 2258
-998 -464 2266
-1000 -468 2289
-991 -468 2288
-991 -471 2306
-993 -475 2329
-985 -475 2330
-978 -475 2335
-978 -479 2355
-978 -482 2373
-971 -483 2378
-966 -484 2385
-963 -486 2399
-957 -487 2407
-949 -487 2408
-954 -493 2440
-944 -492 2438
-940 -494 2449
-935 -495 2457
-930 -496 2466
-932 -502 2495
-923 -501 2492
-924 -506 2520
-917 -506 2524
-911 -507 2530
-908 -510 2546
-906 -513 2565
-898 -513 2567
-896 -517 2586
-889 -517 2591
-881 -517 2591
-879 -521 2612
-872 -521 2616
-869 -524 2633
-860 -524 2633
-858 -527 2653
-851 -528 2659
-847 -530 2672
-843 -533 2689
-845 -540 2722
-870 -561 2832
-879 -573 2893
-874 -575 2906
-866 -576 2913
-855 -574 2905
-847 -575 2910
-836 -574 2906
-825 -572 2898
-814 -570 2891
-803 -569 2886
-793 -568 2883
-784 -567 2881
-771 -564 2868
-760 -563 2861
-729 -546 2779
-708 -536 2729
-699 -536 2729
-689 -534 2721
-679 -533 2715
-673 -534 2725
-664 -534 2724
-652 -531 2709
-645 -531 2714
-635 -530 2711
-628 -531 2714
-618 -529 2707
-607 -527 2698
-600 -528 2703
-591 -527 2699
-580 -524 2684
-573 -525 2692
-565 -525 2691
-556 -525 2690
-545 -522 2677
-540 -524 2690
-529 -521 2677
-522 -522 2683
-514 -522 2681
-505 -522 2680
-493 -517 2657
-485 -517 2657
-479 -519 2669
-471 -519 2671
-462 -518 2666
-455 -519 2671
-445 -516 2658
-437 -516 2658
-428 -515 2651
-420 -515 2652
-412 -514 2651
-403 -513 2646
-395 -513 2643
-386 -510 2632
-377 -509 2626
-371 -512 2639
-363 -511 2639
-353 -508 2623
-346 -508 2624
-337 -507 2617
-329 -507 2618
-320 -505 2609
-312 -504 2601
-305 -505 2610
-297 -504 2603
-289 -504 2606
-282 -505 2609
-273 -503 2601
-265 -501 2592
-258 -502 2597
-250 -503 2600
-241 -500 2585
-232 -497 2571
-226 -499 2583
-219 -500 2587
-211 -500 2587
-202 -497 2569
-194 -495 2563
-187 -497 2568
-178 -493 2551
-171 -494 2554
-164 -494 2557
-156 -493 2553
-149 -495 2559
-141 -493 2549
-133 -492 2547
-125 -490 2536
-118 -492 2544
-111 -492 2544
-103 -490 2536
-96 -491 2538
-88 -490 2534
-81 -490 2535
-73 -490 2534
-66 -487 2519
-58 -487 2518
-51 -487 2521
-44 -487 2517
-36 -488 2524
-29 -487 2519
-22 -486 2511
-14 -484 2500
-7 -483 2499
0 -486 2511
7 -484 2502
14 -485 2504
21 -485 2505
28 -483 2497
36 -481 2484
43 -484 2500
50 -482 2487
57 -481 2482
65 -482 2486
72 -482 2487
79 -481 2483
86 -480 2477
93 -481 2482
100 -480 2475
107 -479 2470
114 -479 2467
122 -479 2470
129 -479 2470
136 -479 2467
143 -478 2462
150 -477 2456
157 -477 2456
164 -477 2457
171 -475 2446
178 -477 2452
185 -477 2451
193 -477 2453
200 -476 2447
206 -473 2432
213 -474 2435
219 -473 2428
228 -477 2447
234 -473 2429
241 -474 2430
248 -473 2427
254 -472 2421
261 -472 2417
269 -474 2428
276 -472 2418
283 -473 2420
289 -472 2415
297 -473 2420
303 -471 2407
307 -466 2383
313 -465 2376
319 -464 2369
324 -461 2352
331 -461 2353
339 -462 2357
349 -467 2379
357 -468 2383
364 -468 2382
372 -469 2388
378 -468 2381
383 -466 2373
391 -467 2374
397 -465 2366
403 -465 2362
412 -467 2370
418 -466 2367
426 -468 2373
432 -466 2362
439 -466 2361
444 -465 2354
454 -468 2368
461 -468 2366
466 -466 2356
474 -466 2357
479 -465 2350
487 -466 2353
494 -466 2353
500 -465 2346
507 -465 2345
514 -465 2344
520 -464 2337
527 -465 2338
533 -463 2329
542 -465 2338
548 -465 2333
555 -465 2332
563 -466 2335
570 -466 2334
574 -464 2322
580 -463 2317
589 -464 2322
593 -462 2308
602 -464 2317
610 -465 2320
618 -466 2323
624 -465 2316
630 -464 2310
636 -464 2308
646 -466 2317
650 -464 2305
656 -464 2301
665 -465 2304
671 -464 2301
680 -466 2306
685 -465 2298
692 -464 2294
700 -465 2298
704 -464 2288
713 -465 2290
720 -465 2289
727 -465 2289
733 -465 2285
741 -465 2285
746 -464 2276
753 -464 2275
761 -465 2277
772 -467 2286
776 -466 2278
781 -465 2269
789 -465 2269
798 -467 2275
802 -465 2263
814 -468 2275
821 -468 2274
827 -468 2269
834 -468 2267
842 -468 2267
848 -468 2262
858 -469 2267
860 -467 2253
872 -469 2263
877 -468 2256
886 -470 2259
893 -470 2258
900 -470 2253
905 -469 2248
913 -470 2248
920 -470 2246
930 -471 2249
937 -471 2247
944 -471 2244
951 -471 2243
959 -472 2241
965 -471 2237
967 -469 2223
978 -471 2229
985 -471 2228
997 -473 2235
1009 -476 2243
1021 -478 2251
1025 -477 2243
1020 -471 2214
1033 -474 2224
1042 -475 2225
1051 -476 2226
1054 -474 2214
1060 -474 2209
1063 -472 2198
1018 -449 2088
921 -403 1873
883 -384 1782
893 -386 1786
907 -390 1802
904 -386 1782
905 -384 1769
913 -385 1772
925 -388 1781
928 -387 1773
932 -386 1767
938 -386 1764
940 -385 1755
941 -383 1744
951 -384 1749
964 -387 1760
966 -386 1750
966 -384 1736
979 -386 1746
982 -385 1738
988 -386 1737
-1339 -484 2282
-1323 -481 2273
-1309 -478 2265
-1294 -476 2256
-1291 -477 2267
-1281 -476 2266
-1259 -471 2244
-1259 -474 2261
-1238 -468 2239
-1227 -467 2236
-1224 -469 2248
-1203 -464 2226
-1199 -465 2235
-1194 -466 2242
-1181 -464 2235
-1161 -458 2213
-1166 -463 2241
-1141 -456 2209
-1139 -459 2223
-1118 -453 2198
-1110 -453 2200
-1095 -449 2187
-1090 -450 2194
-1083 -450 2197
-1069 -447 2186
-1060 -447 2185
-1055 -447 2191
-1044 -446 2185
-1042 -448 2200
-1029 -445 2190
-1017 -443 2182
-1015 -445 2193
-999 -441 2178
-982 -437 2158
-978 -438 2167
-989 -446 2209
-1003 -456 2259
-1001 -458 2273
-999 -460 2287
-994 -462 2295
-989 -462 2302
-990 -467 2325
-988 -469 2338
-981 -469 2343
-977 -471 2353
-971 -472 2360
-968 -474 2373
-970 -478 2397
-963 -479 2401
-958 -480 2410
-957 -483 2428
-953 -485 2439
-946 -485 2443
-941 -486 2452
-940 -490 2473
-931 -490 2472
-929 -492 2488
-923 -493 2494
-918 -495 2505
-916 -498 2522
-908 -498 2524
-908 -502 2548
-897 -500 2540
-898 -505 2568
-892 -506 2575
-885 -507 2579
-884 -511 2603
-879 -513 2612
-872 -513 2617
-867 -515 2630
-862 -517 2640
-850 -515 2631
-850 -520 2657
-844 -521 2667
-839 -522 2676
-843 -530 2716
-842 -535 2742
-851 -546 2801
-855 -554 2844
-852 -558 2865
-851 -563 2895
-840 -561 2886
-831 -562 2890
-824 -563 2897
-809 -558 2875
-802 -559 2883
-795 -560 2890
-779 -555 2865
-767 -553 2854
-748 -546 2819
-720 -531 2746
-707 -527 2727
-696 -525 2717
-686 -524 2714
-677 -523 2710
-670 -524 2715
-659 -522 2706
-651 -522 2708
-644 -523 2713
-631 -519 2692
-622 -518 2691
-614 -518 2691
-604 -517 2686
-593 -514 2674
-587 -515 2680
-581 -517 2693
-569 -514 2676
-563 -516 2686
-553 -513 2674
-543 -511 2665
-534 -511 2663
-528 -512 2671
-518 -510 2663
-509 -509 2658
-500 -508 2652
-492 -509 2656
-485 -509 2659
-476 -508 2652
-466 -505 2639
-458 -505 2639
-450 -505 2643
-443 -506 2646
-434 -504 2638
-426 -504 2638
-417 -504 2636
-409 -503 2633
-400 -501 2624
-392 -500 2621
-384 -500 2620
-375 -499 2617
-369 -502 2629
-360 -499 2615
-351 -498 2612
-343 -497 2606
-334 -495 2598
-328 -498 2612
-320 -497 2608
-312 -496 2605
-305 -498 2614
-296 -496 2603
-288 -494 2593
-279 -493 2588
-271 -492 2584
-264 -493 2588
-256 -492 2581
-248 -491 2581
-242 -494 2594
-232 -488 2564
-225 -490 2571
-217 -490 2575
-209 -488 2563
-202 -489 2569
-194 -489 2568
-186 -487 2560
-178 -486 2554
-171 -487 2561
-164 -486 2556
-156 -488 2563
-149 -486 2556
-141 -485 2549
-133 -483 2540
-126 -485 2547
-118 -483 2537
-110 -483 2537
-103 -484 2545
-95 -482 2532
-89 -485 2546
-81 -481 2527
-73 -481 2529
-66 -480 2519
-58 -479 2516
-51 -482 2529
-44 -480 2524
-36 -480 2521
-29 -480 2519
-22 -480 2521
-14 -478 2511
-7 -479 2516
0 -477 2502
7 -480 2518
14 -477 2505
21 -478 2511
29 -476 2497
36 -476 2497
43 -476 2498
50 -476 2494
57 -474 2487
65 -476 2494
72 -475 2491
79 -473 2479
87 -476 2495
93 -474 2482
101 -474 2481
108 -473 2477
115 -472 2473
122 -471 2464
129 -472 2471
136 -471 2462
144 -473 2476
150 -470 2458
157 -470 2457
165 -471 2463
171 -469 2452
179 -471 2461
186 -469 2452
193 -471 2457
200 -471 2458
207 -468 2445
214 -469 2448
219 -465 2425
228 -469 2444
234 -467 2437
243 -471 2453
249 -468 2437
256 -468 2435
263 -467 2433
270 -468 2436
277 -467 2427
284 -467 2428
290 -466 2424
297 -465 2418
304 -465 2416
311 -465 2416
314 -460 2387
319 -457 2371
324 -454 2353
329 -452 2341
337 -453 2348
344 -453 2348
352 -455 2356
361 -457 2365
369 -459 2373
376 -458 2369
382 -458 2365
388 -456 2355
395 -456 2356
402 -457 2358
409 -456 2354
415 -456 2351
423 -457 2354
430 -457 2354
436 -456 2349
443 -456 2345
451 -458 2353
457 -456 2345
466 -459 2356
470 -456 2340
478 -457 2343
486 -458 2346
491 -456 2337
500 -458 2346
506 -457 2339
513 -458 2341
520 -457 2336
525 -456 2330
533 -457 2331
541 -458 2336
547 -457 2331
555 -458 2332
561 -457 2328
568 -458 2328
573 -456 2317
580 -456 2317
586 -455 2311
590 -453 2297
597 -453 2299
608 -456 2311
616 -458 2317
624 -458 2318
630 -458 2313
636 -457 2309
642 -456 2301
652 -458 2312
657 -457 2303
665 -458 2306
670 -457 2298
679 -458 2302
682 -456 2288
692 -457 2296
698 -457 2294
704 -457 2289
713 -458 2292
717 -456 2283
725 -457 2282
731 -456 2277
740 -458 2282
743 -455 2269
752 -457 2274
757 -455 2265
767 -458 2274
771 -456 2264
779 -457 2265
786 -457 2263
792 -456 2258
803 -458 2266
808 -457 2259
814 -457 2254
822 -458 2257
827 -457 2249
834 -457 2246
843 -458 2249
850 -458 2248
856 -457 2242
864 -458 2244
872 -459 2246
881 -460 2248
884 -458 2235
889 -457 2227
899 -459 2234
906 -459 2230
915 -460 2233
920 -459 2227
927 -459 2225
935 -460 2225
943 -460 2225
947 -459 2215
956 -460 2218
964 -461 2218
975 -463 2224
983 -463 2223
994 -465 2230
1025 -476 2281
1017 -469 2245
1016 -466 2224
1031 -469 2239
1036 -468 2231
1038 -466 2216
1049 -468 2224
1052 -466 2211
1059 -466 2208
1056 -462 2184
1018 -442 2089
926 -400 1884
890 -381 1795
886 -377 1775
906 -383 1801
904 -380 1781
903 -377 1766
917 -381 1781
929 -384 1790
929 -381 1776
932 -380 1768
937 -380 1764
942 -379 1759
943 -378 1748
955 -380 1758
962 -381 1757
962 -378 1743
974 -381 1752
987 -384 1762
973 -376 1724
989 -380 1740
-1337 -475 2280
-1323 -473 2274
-1314 -472 2274
-1295 -468 2257
-1287 -468 2261
-1265 -463 2239
-1259 -464 2246
-1257 -466 2259
-1251 -466 2263
-1254 -470 2287
-1221 -460 2243
-1208 -458 2236
-1194 -456 2227
-1187 -456 2231
-1164 -450 2204
-1159 -451 2212
-1156 -452 2223
-1137 -448 2203
-1130 -448 2206
-1122 -447 2207
-1116 -448 2213
-1106 -447 2210
-1104 -449 2224
-1088 -445 2209
-1076 -443 2201
-1071 -444 2209
-1061 -443 2205
-1049 -441 2198
-1035 -438 2186
-1030 -439 2193
-1019 -437 2187
-1012 -437 2189
-1000 -435 2180
-988 -433 2173
-977 -431 2165
-989 -439 2210
-1003 -449 2259
-1004 -452 2281
-997 -452 2283
-994 -454 2296
-987 -455 2299
-990 -459 2325
-980 -458 2323
-977 -460 2335
-982 -466 2367
-971 -464 2360
-969 -467 2376
-966 -469 2390
-965 -472 2407
-959 -473 2412
-957 -476 2430
-953 -478 2441
-948 -479 2449
-939 -478 2449
-940 -483 2475
-935 -484 2482
-932 -486 2498
-919 -483 2484
-917 -487 2504
-915 -490 2521
-908 -490 2526
-903 -492 2534
-900 -495 2552
-893 -495 2556
-890 -498 2572
-886 -500 2585
-882 -502 2597
-876 -503 2605
-868 -503 2606
-864 -506 2622
-862 -509 2641
-855 -509 2645
-848 -510 2653
-845 -513 2669
-836 -513 2669
-836 -518 2698
-827 -517 2695
-829 -524 2731
-826 -527 2751
-824 -531 2775
-821 -535 2793
-822 -541 2827
-821 -546 2856
-819 -551 2882
-808 -549 2873
-802 -551 2885
-785 -545 2855
-768 -539 2827
-746 -529 2778
-730 -524 2751
-709 -514 2703
-703 -516 2713
-689 -512 2693
-684 -514 2707
-675 -514 2705
-665 -512 2698
-655 -511 2690
-646 -510 2686
-641 -512 2701
-630 -510 2691
-619 -508 2681
-611 -508 2681
-598 -503 2657
-597 -509 2691
-585 -506 2676
-575 -504 2667
-569 -506 2677
-558 -503 2663
-549 -502 2658
-542 -503 2662
-532 -501 2656
-522 -499 2643
-517 -502 2659
-506 -499 2644
-499 -500 2650
-490 -498 2643
-483 -499 2648
-473 -497 2638
-466 -498 2646
-457 -497 2638
-449 -496 2634
-442 -497 2643
-432 -494 2627
-425 -496 2636
-416 -494 2630
-410 -497 2643
-401 -495 2634
-392 -493 2621
-383 -492 2617
-376 -493 2625
-367 -491 2616
-361 -493 2625
-350 -488 2600
-343 -489 2605
-337 -491 2618
-327 -488 2602
-320 -489 2605
-312 -488 2604
-304 -489 2607
-296 -488 2603
-287 -485 2588
-279 -486 2590
-273 -487 2599
-265 -488 2601
-257 -487 2596
-250 -486 2595
-240 -483 2578
-233 -484 2584
-225 -483 2577
-219 -485 2589
-211 -485 2587
-202 -481 2568
-195 -483 2579
-187 -483 2579
-179 -481 2570
-172 -481 2568
-164 -480 2561
-156 -480 2562
-149 -480 2564
-141 -477 2548
-133 -478 2553
-126 -478 2554
-118 -477 2545
-111 -477 2548
-104 -478 2551
-96 -475 2538
-88 -474 2529
-81 -476 2539
-73 -473 2524
-66 -473 2526
-58 -473 2527
-51 -474 2532
-44 -473 2525
-36 -473 2523
-29 -473 2522
-22 -475 2533
-14 -472 2518
-7 -472 2516
0 -470 2508
7 -471 2511
14 -472 2519
21 -470 2503
29 -470 2503
36 -470 2504
43 -470 2504
51 -470 2507
58 -468 2495
65 -467 2487
72 -467 2486
79 -466 2482
86 -465 2475
94 -467 2487
100 -465 2476
108 -465 2474
115 -465 2473
122 -466 2479
129 -465 2472
137 -467 2485
144 -466 2474
150 -464 2463
158 -464 2467
164 -462 2456
172 -464 2462
179 -464 2463
186 -463 2455
193 -463 2454
200 -463 2456
207 -463 2455
214 -462 2449
220 -461 2441
228 -461 2443
235 -461 2443
243 -462 2447
250 -462 2445
256 -460 2434
262 -459 2428
270 -461 2436
276 -459 2424
284 -460 2432
292 -461 2434
299 -461 2436
304 -458 2418
313 -461 2429
318 -459 2418
323 -455 2398
326 -450 2371
330 -445 2344
337 -446 2347
342 -443 2332
348 -442 2324
356 -444 2336
366 -447 2351
373 -448 2355
380 -448 2350
388 -449 2355
393 -448 2348
400 -447 2343
407 -448 2348
413 -447 2339
421 -448 2343
428 -448 2346
435 -448 2341
443 -449 2347
449 -448 2340
453 -446 2328
464 -450 2346
469 -448 2337
475 -447 2330
482 -448 2331
490 -449 2335
497 -449 2334
503 -448 2327
508 -446 2319
519 -449 2332
523 -447 2319
530 -447 2320
538 -448 2324
543 -447 2316
550 -447 2314
557 -447 2314
565 -448 2316
573 -449 2319
576 -446 2303
585 -448 2309
590 -446 2301
594 -444 2288
601 -444 2288
611 -447 2297
619 -447 2299
631 -451 2318
637 -450 2311
647 -453 2321
655 -453 2323
661 -453 2317
668 -453 2317
672 -451 2306
680 -452 2308
686 -451 2302
692 -451 2298
698 -450 2294
708 -452 2301
713 -451 2295
721 -452 2296
725 -450 2283
731 -450 2280
740 -451 2283
746 -450 2279
755 -452 2284
758 -449 2271
765 -450 2269
774 -450 2271
781 -451 2270
789 -451 2270
793 -450 2262
802 -451 2265
806 -449 2255
814 -450 2257
822 -451 2257
828 -450 2252
832 -449 2244
840 -450 2244
844 -448 2233
853 -449 2238
862 -450 2240
870 -451 2241
876 -450 2235
881 -449 2228
889 -450 2229
892 -448 2218
901 -449 2220
910 -450 2222
917 -451 2220
922 -450 2214
932 -451 2219
939 -451 2217
945 -451 2211
950 -450 2205
958 -451 2205
971 -454 2216
976 -453 2208
988 -455 2216
1000 -458 2227
1021 -464 2255
1031 -465 2258
1018 -456 2211
1033 -460 2226
1042 -461 2226
1047 -460 2219
1055 -460 2219
1061 -460 2214
1058 -456 2190
1022 -437 2099
925 -393 1884
894 -377 1806
891 -373 1785
905 -377 1799
903 -374 1780
910 -374 1781
914 -374 1775
921 -374 1774
927 -375 1773
929 -373 1764
933 -372 1757
939 -372 1754
941 -371 1745
949 -372 1748
965 -376 1763
961 -372 1742
973 -375 1750
971 -372 1735
983 -374 1743
992 -376 1747
-1332 -466 2273
-1310 -461 2253
-1316 -466 2280
-1303 -464 2274
-1293 -463 2274
-1268 -457 2245
-1264 -458 2255
-1238 -451 2225
-1235 -453 2237
-1225 -452 2235
-1212 -450 2229
-1210 -452 2242
-1178 -442 2198
-1185 -448 2229
-1169 -445 2215
-1166 -446 2227
-1146 -441 2206
-1149 -445 2228
-1137 -444 2222
-1134 -445 2233
-1112 -439 2207
-1106 -440 2212
-1096 -439 2209
-1089 -439 2211
-1078 -437 2207
-1070 -437 2209
-1056 -434 2196
-1050 -434 2202
-1041 -434 2201
-1031 -432 2197
-1023 -432 2196
-1010 -430 2187
-1001 -428 2184
-986 -425 2170
-977 -424 2166
-991 -433 2217
-1000 -440 2254
-1004 -445 2283
-997 -446 2286
-994 -447 2298
-995 -451 2318
-990 -452 2327
-987 -454 2339
-977 -453 2336
-976 -456 2354
-969 -456 2356
-968 -459 2375
-967 -462 2393
-957 -461 2390
-960 -466 2418
-953 -466 2422
-952 -470 2441
-945 -470 2445
-943 -472 2460
-935 -473 2463
-935 -476 2483
-928 -477 2488
-924 -479 2500
-920 -480 2512
-915 -482 2523
-910 -483 2531
-909 -487 2554
-902 -488 2558
-894 -487 2559
-891 -490 2575
-883 -490 2578
-878 -492 2587
-877 -496 2610
-868 -495 2610
-862 -496 2617
-859 -499 2635
-852 -500 2639
-848 -502 2653
-842 -504 2663
-834 -504 2665
-828 -505 2671
-824 -507 2686
-820 -510 2704
-816 -513 2719
-809 -513 2724
-803 -515 2733
-805 -522 2772
-804 -527 2799
-802 -530 2822
-795 -532 2830
-788 -533 2837
-776 -530 2826
-751 -519 2767
-733 -512 2731
-716 -506 2699
-705 -504 2692
-697 -504 2692
-688 -503 2691
-681 -504 2694
-674 -505 2699
-666 -505 2703
-653 -501 2685
-647 -503 2695
-639 -503 2696
-628 -501 2685
-622 -502 2691
-610 -499 2675
-605 -501 2691
-594 -499 2679
-584 -498 2673
-578 -499 2683
-570 -499 2683
-562 -499 2682
-554 -499 2682
-542 -495 2666
-530 -492 2647
-525 -494 2662
-516 -493 2656
-510 -495 2667
-501 -494 2664
-494 -494 2666
-485 -493 2659
-478 -494 2666
-468 -492 2653
-460 -492 2655
-452 -491 2653
-443 -491 2652
-435 -491 2651
-427 -490 2649
-417 -487 2633
-407 -485 2621
-402 -489 2642
-394 -489 2642
-384 -485 2625
-377 -487 2633
-368 -485 2624
-361 -486 2629
-354 -486 2633
-343 -482 2610
-337 -484 2622
-328 -483 2614
-322 -485 2626
-312 -481 2605
-305 -482 2613
-297 -481 2608
-289 -480 2604
-280 -479 2598
-271 -477 2587
-263 -476 2582
-257 -479 2598
-249 -477 2587
-241 -477 2585
-233 -476 2584
-225 -476 2582
-217 -474 2573
-209 -473 2567
-203 -476 2580
-194 -473 2564
-186 -473 2567
-180 -475 2578
-172 -473 2567
-164 -473 2565
-156 -472 2563
-149 -472 2561
-141 -470 2551
-133 -471 2556
-125 -469 2542
-118 -469 2544
-110 -467 2536
-103 -467 2536
-95 -467 2533
-88 -467 2533
-81 -467 2533
-73 -466 2526
-66 -466 2529
-58 -466 2529
-51 -465 2523
-44 -465 2522
-36 -463 2512
-29 -466 2525
-21 -463 2512
-14 -463 2509
-7 -463 2510
0 -464 2513
7 -462 2504
14 -462 2502
21 -462 2504
29 -463 2508
36 -462 2501
43 -459 2488
50 -460 2493
57 -460 2490
65 -459 2485
72 -460 2491
80 -462 2498
86 -460 2486
94 -459 2485
101 -458 2479
108 -459 2483
114 -456 2464
122 -456 2465
129 -458 2474
137 -458 2476
143 -456 2460
151 -457 2467
157 -455 2458
165 -456 2462
171 -455 2457
178 -455 2453
185 -455 2452
192 -454 2446
198 -452 2435
207 -455 2452
214 -454 2444
220 -453 2441
228 -455 2448
235 -454 2445
241 -452 2431
248 -451 2425
255 -452 2429
263 -453 2433
270 -454 2437
277 -453 2431
283 -452 2425
290 -452 2423
296 -450 2412
304 -451 2418
310 -450 2412
318 -451 2417
324 -450 2408
328 -445 2381
334 -444 2373
336 -437 2337
343 -437 2338
348 -436 2330
354 -434 2321
362 -435 2325
368 -435 2324
377 -437 2333
385 -439 2338
392 -439 2342
399 -440 2343
406 -440 2342
412 -439 2335
419 -439 2333
427 -440 2340
433 -439 2333
440 -439 2334
446 -438 2325
453 -439 2329
461 -440 2334
468 -439 2329
474 -439 2327
481 -439 2326
487 -439 2321
493 -438 2316
502 -440 2323
507 -439 2315
516 -440 2321
522 -440 2318
528 -439 2312
535 -439 2311
543 -440 2314
550 -440 2312
555 -438 2303
562 -438 2302
569 -439 2304
574 -437 2294
583 -439 2303
590 -439 2299
596 -439 2296
603 -439 2294
610 -439 2296
615 -437 2284
623 -439 2290
631 -440 2292
644 -444 2312
651 -444 2309
658 -444 2310
665 -444 2307
672 -444 2305
680 -445 2309
684 -443 2296
692 -443 2297
700 -445 2301
707 -445 2300
712 -443 2291
719 -444 2291
727 -444 2292
731 -442 2279
739 -443 2280
745 -443 2277
752 -443 2275
760 -444 2278
765 -443 2270
775 -444 2277
781 -444 2271
788 -444 2271
795 -444 2269
798 -442 2254
813 -446 2276
815 -444 2260
820 -443 2253
827 -443 2251
834 -443 2250
841 -443 2248
850 -444 2250
857 -444 2248
860 -442 2235
869 -443 2238
878 -445 2242
882 -443 2233
893 -445 2240
897 -444 2230
900 -442 2219
911 -444 2225
916 -443 2220
923 -443 2217
931 -444 2216
940 -445 2218
949 -446 2221
951 -444 2208
959 -444 2207
965 -444 2203
973 -444 2203
981 -445 2204
997 -449 2221
1006 -450 2221
1012 -450 2217
1027 -453 2232
1028 -450 2215
1040 -453 2223
1045 -452 2217
1048 -450 2205
1057 -451 2206
1053 -447 2181
1015 -428 2085
933 -390 1901
890 -370 1798
889 -367 1782
895 -367 1781
903 -368 1782
900 -364 1761
917 -369 1781
917 -367 1768
924 -368 1768
927 -367 1760
927 -364 1747
943 -368 1763
945 -367 1754
950 -367 1750
961 -369 1757
960 -366 1741
964 -366 1737
978 -369 1748
987 -370 1751
988 -368 1740
-1327 -457 2267
-1320 -457 2271
-1307 -455 2266
-1291 -452 2254
-1287 -454 2264
-1272 -451 2254
-1237 -441 2208
-1260 -452 2266
-1234 -445 2236
-1226 -445 2238
-1216 -444 2238
-1220 -448 2262
-1202 -444 2245
-1187 -442 2234
-1180 -442 2237
-1177 -443 2248
-1155 -438 2224
-1152 -439 2234
-1146 -440 2241
-1130 -437 2227
-1116 -434 2215
-1111 -435 2223
-1099 -433 2216
-1085 -430 2205
-1078 -430 2208
-1068 -429 2205
-1059 -428 2204
-1052 -428 2206
-1040 -426 2198
-1033 -426 2202
-1023 -425 2199
-1011 -423 2189
-1002 -422 2189
-984 -417 2166
-980 -418 2174
-989 -426 2214
-1002 -434 2259
-1001 -437 2277
-995 -437 2281
-1000 -443 2312
-989 -441 2307
-986 -443 2320
-981 -444 2327
-977 -446 2338
-977 -449 2358
-976 -452 2375
-967 -451 2374
-967 -455 2394
-958 -454 2392
-957 -457 2412
-955 -460 2427
-951 -461 2438
-949 -464 2456
-943 -465 2461
-939 -467 2473
-931 -467 2475
-929 -470 2494
-923 -470 2498
-919 -473 2512
-913 -473 2518
-906 -474 2523
-904 -477 2540
-902 -480 2558
-894 -480 2560
-891 -482 2575
-881 -481 2573
-877 -483 2586
-875 -487 2605
-868 -487 2610
-862 -488 2619
-858 -491 2632
-849 -490 2630
-844 -492 2641
-842 -495 2663
-834 -496 2666
-828 -497 2675
-826 -500 2694
-816 -500 2692
-812 -502 2705
-812 -507 2736
-800 -505 2725
-796 -507 2740
-788 -508 2745
-786 -511 2766
-786 -517 2797
-775 -516 2792
-759 -510 2765
-745 -506 2745
-731 -502 2724
-718 -500 2711
-709 -498 2706
-700 -498 2707
-693 -499 2711
-678 -494 2687
-673 -496 2697
-667 -498 2708
-653 -493 2686
-647 -495 2696
-634 -491 2674
-633 -496 2706
-623 -495 2697
-612 -493 2687
-601 -490 2673
-593 -490 2676
-586 -491 2682
-577 -490 2676
-569 -490 2680
-558 -488 2667
-551 -488 2670
-544 -489 2674
-535 -488 2671
-525 -487 2664
-520 -489 2677
-508 -485 2655
-499 -484 2654
-494 -486 2667
-484 -485 2657
-476 -484 2655
-466 -482 2647
-458 -482 2647
-450 -482 2648
-442 -482 2645
-434 -481 2644
-425 -480 2638
-418 -481 2641
-410 -481 2643
-402 -481 2642
-391 -477 2623
-385 -479 2635
-377 -479 2633
-365 -473 2601
-362 -479 2635
-351 -475 2612
-345 -477 2628
-336 -475 2616
-329 -476 2622
-319 -473 2602
-310 -471 2596
-304 -473 2603
-295 -472 2599
-287 -471 2594
-280 -471 2595
-272 -472 2599
-263 -469 2585
-255 -468 2579
-247 -467 2574
-241 -470 2592
-232 -466 2570
-224 -467 2572
-217 -466 2572
-209 -466 2567
-202 -468 2581
-193 -464 2557
-187 -466 2569
-178 -464 2560
-171 -464 2560
-162 -461 2542
-156 -464 2558
-147 -460 2535
-140 -462 2548
-132 -459 2533
-125 -462 2547
-118 -460 2539
-110 -458 2527
-102 -457 2519
-95 -459 2532
-88 -458 2528
-80 -458 2525
-73 -458 2523
-65 -457 2522
-58 -459 2529
-51 -456 2516
-43 -456 2516
-36 -455 2506
-29 -456 2513
-21 -454 2504
-14 -455 2507
-7 -453 2494
0 -454 2501
7 -454 2503
14 -455 2506
21 -452 2491
29 -452 2487
36 -452 2490
43 -452 2487
50 -451 2480
57 -451 2481
65 -451 2479
72 -450 2475
79 -451 2479
86 -449 2468
93 -451 2479
100 -450 2474
108 -450 2473
115 -450 2474
122 -450 2469
129 -450 2473
136 -449 2466
143 -448 2461
150 -449 2466
158 -449 2464
164 -448 2455
172 -449 2461
177 -445 2439
186 -448 2453
192 -447 2449
199 -446 2445
206 -445 2438
213 -445 2437
220 -445 2435
227 -445 2437
234 -445 2433
240 -443 2424
248 -444 2427
254 -443 2420
262 -445 2431
269 -445 2428
276 -444 2424
283 -444 2424
289 -442 2411
296 -443 2414
303 -442 2408
310 -442 2408
315 -439 2393
323 -441 2400
328 -438 2386
334 -436 2373
338 -433 2356
343 -431 2342
348 -428 2326
354 -427 2320
359 -426 2310
365 -425 2305
373 -427 2313
381 -428 2319
390 -430 2331
397 -430 2327
403 -429 2323
412 -431 2332
417 -429 2321
422 -428 2314
431 -430 2324
438 -430 2323
444 -430 2317
452 -430 2320
458 -430 2318
464 -429 2311
471 -430 2313
477 -429 2307
486 -430 2314
492 -430 2311
497 -428 2300
505 -429 2304
512 -430 2305
517 -429 2297
525 -429 2300
532 -429 2299
539 -430 2300
545 -429 2292
553 -430 2296
560 -430 2295
567 -430 2295
575 -431 2298
580 -430 2291
586 -429 2285
596 -431 2295
599 -429 2282
607 -430 2285
614 -430 2283
616 -427 2265
622 -426 2260
636 -432 2286
648 -435 2302
657 -436 2306
665 -437 2308
670 -436 2302
679 -437 2305
686 -438 2306
691 -436 2297
698 -436 2295
707 -437 2299
712 -436 2291
717 -435 2284
726 -437 2289
733 -437 2287
736 -435 2274
745 -436 2279
751 -435 2273
761 -437 2280
765 -436 2271
771 -435 2266
779 -435 2266
788 -437 2270
791 -435 2257
801 -437 2265
807 -436 2261
815 -437 2260
823 -437 2261
830 -437 2259
836 -437 2255
839 -435 2242
848 -436 2246
854 -436 2241
860 -436 2238
870 -437 2242
877 -437 2241
881 -436 2231
889 -436 2232
896 -436 2229
908 -439 2238
908 -436 2221
916 -436 2219
926 -438 2226
928 -435 2211
939 -437 2217
948 -438 2220
951 -437 2209
959 -437 2209
965 -437 2205
973 -437 2204
980 -437 2201
990 -439 2205
1005 -442 2221
1009 -441 2211
1061 -461 2307
1030 -445 2222
1036 -444 2216
1046 -446 2221
1052 -445 2214
1050 -441 2193
1050 -438 2175
1025 -425 2105
936 -385 1907
893 -365 1806
888 -361 1781
899 -363 1788
901 -362 1779
903 -360 1769
911 -361 1770
921 -363 1777
925 -362 1770
927 -361 1761
942 -364 1775
939 -361 1757
944 -361 1752
954 -363 1758
952 -360 1741
962 -361 1746
965 -360 1739
981 -364 1754
980 -362 1740
989 -363 1743
-1332 -451 2277
-1325 -451 2281
-1304 -447 2262
-1282 -442 2240
-1288 -446 2267
-1273 -444 2258
-1269 -445 2267
-1269 -448 2284
-1244 -442 2256
-1235 -441 2256
-1225 -440 2255
-1220 -441 2263
-1204 -438 2250
-1193 -437 2247
-1186 -437 2250
-1173 -434 2242
-1162 -433 2239
-1158 -434 2248
-1141 -431 2231
-1130 -429 2227
-1120 -428 2226
-1113 -428 2229
-1101 -426 2222
-1090 -425 2216
-1075 -422 2204
-1070 -423 2210
-1056 -420 2198
-1049 -420 2203
-1038 -419 2197
-1026 -417 2189
-1017 -416 2186
-1007 -414 2182
-997 -413 2179
-980 -409 2159
-978 -411 2172
-992 -420 2220
-1000 -426 2257
-999 -429 2275
-994 -430 2281
-993 -433 2299
-989 -434 2307
-986 -436 2321
-983 -438 2334
-980 -440 2347
-973 -440 2350
-973 -443 2369
-966 -443 2372
-959 -444 2377
-959 -447 2397
-956 -449 2410
-950 -450 2416
-949 -453 2434
-942 -453 2438
-940 -456 2454
-934 -457 2461
-930 -459 2474
-928 -461 2491
-919 -461 2491
-919 -465 2512
-911 -464 2513
-906 -466 2524
-906 -470 2548
-899 -471 2553
-898 -474 2574
-888 -473 2571
-883 -475 2580
-878 -476 2590
-878 -481 2617
-866 -478 2605
-864 -481 2624
-855 -481 2625
-848 -481 2629
-849 -487 2660
-837 -485 2649
-829 -484 2650
-830 -490 2681
-819 -488 2673
-818 -492 2698
-812 -494 2709
-805 -495 2715
-802 -498 2732
-789 -495 2718
-797 -505 2776
-785 -503 2766
-781 -506 2783
-777 -509 2800
-757 -501 2760
-738 -493 2720
-729 -493 2719
-717 -491 2708
-710 -491 2713
-704 -492 2720
-690 -488 2699
-683 -490 2707
-670 -486 2690
-666 -489 2704
-659 -489 2709
-647 -487 2696
-636 -485 2685
-627 -484 2684
-616 -481 2669
-614 -486 2697
-602 -483 2680
-595 -484 2688
-584 -481 2674
-576 -481 2673
-569 -483 2682
-558 -480 2667
-551 -480 2672
-544 -481 2676
-535 -480 2671
-523 -476 2652
-516 -477 2658
-507 -476 2651
-501 -478 2665
-489 -474 2644
-484 -477 2658
-471 -472 2632
-465 -474 2644
-457 -473 2639
-450 -474 2649
-442 -474 2646
-435 -475 2650
-423 -470 2625
-416 -471 2631
-406 -469 2619
-401 -472 2638
-389 -467 2611
-384 -470 2627
-375 -468 2616
-369 -471 2632
-361 -470 2632
-351 -467 2612
-343 -466 2610
-335 -467 2613
-327 -465 2605
-318 -464 2598
-311 -464 2600
-304 -465 2605
-293 -461 2582
-287 -462 2589
-279 -462 2589
-270 -460 2577
-262 -460 2577
-253 -457 2560
-247 -460 2576
-240 -459 2575
-231 -458 2567
-224 -459 2574
-216 -457 2564
-208 -456 2557
-201 -457 2562
-193 -456 2557
-185 -455 2553
-178 -456 2557
-170 -453 2543
-162 -454 2545
-155 -454 2548
-147 -453 2539
-140 -453 2541
-133 -454 2546
-125 -452 2538
-117 -451 2528
-109 -447 2507
-102 -451 2530
-95 -450 2525
-87 -450 2524
-80 -449 2519
-73 -450 2520
-65 -447 2507
-58 -447 2504
-50 -448 2510
-43 -447 2503
-36 -447 2503
-29 -447 2508
-21 -445 2493
-14 -445 2493
-7 -446 2497
0 -447 2504
7 -445 2490
14 -445 2490
21 -446 2498
29 -445 2491
36 -446 2494
43 -445 2489
50 -443 2479
57 -443 2477
65 -443 2479
72 -444 2482
78 -441 2464
86 -441 2468
93 -443 2475
100 -440 2461
107 -441 2467
115 -442 2469
122 -441 2463
128 -440 2459
137 -444 2476
142 -439 2451
149 -439 2449
157 -439 2451
164 -441 2458
171 -440 2454
177 -437 2435
185 -439 2448
192 -438 2441
198 -437 2436
207 -440 2450
212 -436 2426
220 -438 2435
226 -437 2429
234 -439 2439
241 -438 2435
247 -436 2422
254 -436 2420
261 -435 2418
268 -436 2420
276 -437 2424
283 -436 2420
289 -436 2416
296 -436 2416
302 -433 2401
308 -433 2396
315 -432 2394
322 -432 2391
327 -429 2375
333 -429 2371
340 -428 2368
345 -427 2357
350 -424 2340
355 -422 2328
359 -419 2313
365 -418 2305
371 -417 2297
379 -418 2302
386 -418 2303
394 -420 2311
403 -422 2322
409 -421 2317
415 -421 2313
421 -420 2309
429 -421 2312
436 -422 2314
442 -421 2307
449 -421 2309
455 -420 2303
463 -421 2306
469 -421 2302
475 -420 2298
483 -421 2301
488 -419 2291
497 -422 2301
503 -421 2298
511 -422 2301
516 -421 2292
523 -421 2293
531 -421 2294
538 -422 2293
545 -422 2294
553 -423 2296
557 -421 2285
564 -421 2284
569 -420 2274
575 -419 2272
582 -420 2272
591 -421 2276
593 -418 2259
598 -416 2249
606 -418 2254
605 -412 2224
608 -410 2209
619 -413 2222
637 -420 2261
647 -422 2271
657 -425 2282
662 -424 2274
669 -424 2274
675 -423 2269
683 -424 2270
690 -424 2269
696 -424 2264
701 -423 2257
708 -423 2255
715 -423 2256
721 -423 2250
727 -422 2245
732 -421 2239
741 -422 2243
747 -422 2239
753 -422 2236
762 -423 2241
767 -422 2234
773 -421 2227
778 -421 2223
787 -422 2226
793 -422 2223
802 -423 2226
811 -424 2228
819 -425 2231
823 -423 2221
829 -423 2216
834 -422 2211
842 -423 2210
849 -423 2209
855 -423 2206
861 -422 2199
869 -423 2201
875 -422 2197
885 -424 2204
887 -422 2188
894 -422 2187
905 -424 2194
914 -425 2197
919 -424 2191
927 -425 2190
931 -424 2182
939 -424 2183
951 -427 2191
955 -426 2183
963 -426 2181
970 -426 2181
978 -427 2179
989 -428 2186
1004 -432 2202
1012 -432 2200
1025 -435 2212
1035 -436 2215
1046 -438 2220
1044 -435 2200
1040 -430 2173
1046 -430 2168
1026 -419 2110
938 -380 1913
899 -362 1817
889 -356 1784
897 -357 1786
904 -357 1785
902 -354 1768
907 -354 1764
910 -353 1757
923 -356 1768
929 -356 1766
933 -355 1761
936 -354 1753
944 -355 1754
952 -356 1756
959 -357 1755
956 -354 1737
973 -358 1755
978 -357 1750
979 -356 1739
983 -355 1733
-1342 -447 2295
-1322 -443 2278
-1313 -442 2279
-1312 -445 2294
-1302 -444 2293
-1279 -438 2269
-1267 -437 2264
-1263 -438 2275
-1247 -435 2263
-1240 -435 2267
-1231 -435 2267
-1216 -432 2256
-1215 -434 2272
-1192 -429 2246
-1180 -427 2240
-1175 -428 2248
-1161 -426 2238
-1152 -425 2238
-1143 -424 2238
-1127 -421 2223
-1123 -422 2233
-1102 -417 2207
-1094 -417 2210
-1081 -415 2200
-1075 -415 2204
-1063 -413 2197
-1055 -412 2198
-1049 -413 2203
-1045 -414 2211
-1033 -412 2204
-1020 -410 2193
-1010 -408 2189
-997 -406 2178
-981 -402 2162
-977 -403 2170
-989 -412 2217
-1006 -421 2271
-1001 -423 2279
-994 -423 2282
-995 -426 2304
-992 -428 2315
-985 -428 2320
-985 -431 2339
-985 -434 2358
-974 -433 2354
-971 -435 2365
-963 -435 2368
-962 -437 2384
-961 -440 2402
-957 -442 2415
-945 -440 2405
-949 -446 2437
-947 -448 2452
-936 -446 2446
-935 -450 2466
-930 -451 2475
-929 -454 2496
-921 -454 2496
-915 -455 2504
-912 -457 2517
-906 -458 2525
-901 -460 2534
-898 -462 2550
-891 -462 2554
-887 -465 2567
-879 -465 2570
-878 -468 2592
-878 -472 2616
-869 -472 2615
-859 -471 2611
-855 -473 2626
-852 -476 2642
-842 -475 2639
-840 -478 2659
-833 -479 2664
-829 -481 2681
-825 -484 2694
-817 -484 2699
-812 -486 2710
-805 -486 2714
-798 -487 2719
-793 -489 2735
-786 -490 2739
-783 -493 2760
-778 -496 2775
-766 -493 2761
-751 -488 2737
-734 -483 2709
-727 -484 2714
-719 -484 2714
-706 -480 2698
-697 -480 2698
-689 -480 2697
-681 -480 2700
-672 -479 2697
-661 -477 2686
-654 -478 2691
-647 -479 2699
-637 -477 2690
-628 -477 2688
-618 -475 2682
-607 -473 2668
-597 -471 2658
-589 -471 2661
-585 -474 2679
-574 -472 2667
-563 -470 2655
-557 -471 2662
-549 -471 2664
-542 -472 2669
-531 -469 2656
-523 -468 2652
-514 -468 2649
-506 -468 2650
-498 -467 2649
-487 -464 2632
-479 -464 2634
-472 -465 2638
-464 -465 2639
-458 -467 2651
-449 -466 2644
-439 -463 2629
-430 -462 2622
-423 -463 2630
-413 -460 2613
-406 -460 2617
-397 -459 2611
-390 -460 2616
-382 -460 2616
-375 -460 2618
-364 -457 2598
-358 -459 2610
-349 -457 2603
-342 -457 2603
-333 -455 2593
-325 -456 2594
-318 -457 2602
-310 -456 2596
-302 -455 2594
-293 -453 2582
-286 -454 2588
-278 -453 2579
-270 -453 2583
-262 -451 2573
-253 -448 2557
-247 -451 2573
-237 -447 2549
-230 -449 2559
-223 -449 2560
-215 -448 2556
-207 -447 2549
-199 -447 2546
-192 -446 2543
-185 -448 2553
-177 -447 2550
-170 -447 2548
-161 -444 2532
-154 -444 2531
-146 -443 2528
-139 -444 2530
-132 -443 2528
-125 -444 2533
-117 -445 2536
-109 -442 2522
-102 -441 2517
-95 -443 2527
-87 -441 2512
-80 -442 2520
-72 -440 2507
-65 -441 2515
-57 -438 2500
-51 -441 2516
-43 -438 2499
-36 -439 2501
-28 -439 2501
-21 -437 2493
-14 -440 2506
-7 -438 2493
0 -438 2493
7 -437 2491
14 -437 2487
21 -436 2485
29 -436 2480
36 -435 2475
43 -436 2481
50 -436 2479
57 -435 2476
64 -434 2470
72 -434 2470
79 -433 2465
86 -434 2470
93 -435 2471
100 -433 2462
108 -435 2472
114 -433 2460
121 -432 2454
128 -433 2459
135 -431 2449
142 -431 2444
150 -432 2454
156 -429 2436
163 -430 2440
170 -431 2442
178 -433 2453
184 -429 2431
192 -431 2444
197 -428 2422
205 -429 2428
212 -428 2423
219 -428 2422
226 -428 2420
232 -427 2417
239 -427 2416
246 -426 2410
253 -426 2407
260 -426 2406
267 -426 2405
273 -425 2399
279 -423 2389
287 -425 2394
293 -424 2390
299 -422 2379
306 -422 2377
311 -420 2363
318 -420 2364
324 -418 2353
329 -417 2345
336 -416 2340
343 -417 2342
349 -416 2337
352 -412 2312
360 -412 2314
365 -411 2304
371 -410 2300
375 -407 2279
382 -407 2279
390 -409 2288
399 -411 2301
407 -412 2306
413 -412 2303
419 -411 2296
426 -411 2296
433 -412 2298
439 -411 2295
447 -413 2300
454 -413 2300
461 -412 2296
469 -414 2304
474 -412 2291
481 -413 2293
486 -411 2284
495 -413 2294
501 -412 2288
505 -410 2273
515 -413 2288
521 -413 2285
529 -413 2286
536 -414 2288
548 -418 2309
560 -421 2328
559 -416 2294
561 -412 2274
567 -412 2269
570 -409 2253
575 -408 2244
583 -408 2246
589 -408 2244
589 -404 2218
593 -402 2205
598 -401 2200
604 -401 2196
611 -401 2194
620 -403 2203
631 -406 2218
638 -405 2214
644 -405 2213
650 -405 2207
656 -405 2206
665 -406 2213
669 -404 2199
675 -404 2198
683 -405 2199
690 -406 2201
696 -405 2195
704 -406 2197
710 -406 2195
714 -404 2184
723 -406 2191
728 -405 2184
735 -405 2183
740 -404 2176
748 -405 2178
757 -406 2182
761 -405 2174
769 -405 2174
773 -404 2166
780 -405 2166
789 -406 2171
796 -406 2169
802 -406 2164
810 -406 2166
815 -406 2160
822 -406 2160
828 -406 2155
835 -406 2154
846 -408 2164
849 -407 2152
857 -407 2151
865 -408 2154
870 -407 2146
877 -407 2147
884 -407 2144
894 -409 2149
900 -409 2145
906 -409 2142
915 -410 2145
922 -410 2144
929 -410 2141
935 -410 2137
945 -411 2142
955 -413 2147
961 -412 2142
972 -414 2150
982 -416 2153
995 -418 2164
1007 -420 2173
1022 -424 2188
1042 -429 2213
1038 -425 2188
1024 -416 2140
1025 -414 2125
1017 -408 2093
938 -374 1914
893 -354 1807
888 -349 1782
895 -350 1783
899 -349 1777
907 -350 1779
916 -352 1783
914 -349 1766
921 -349 1765
926 -349 1761
930 -348 1755
938 -349 1757
946 -350 1758
952 -350 1756
962 -352 1762
963 -350 1750
971 -351 1751
976 -351 1747
972 -347 1727
984 -350 1735
-1348 -441 2307
-1334 -439 2300
-1324 -438 2299
-1310 -436 2292
-1304 -437 2299
-1287 -434 2285
-1276 -433 2283
-1263 -431 2275
-1253 -430 2275
-1237 -427 2262
-1229 -427 2265
-1216 -425 2258
-1203 -423 2251
-1195 -423 2253
-1180 -420 2241
-1171 -419 2241
-1159 -418 2235
-1147 -416 2230
-1133 -414 2219
-1120 -411 2210
-1112 -411 2212
-1100 -409 2204
-1081 -405 2185
-1072 -404 2182
-1047 -397 2149
-1038 -396 2146
-1030 -396 2148
-1062 -411 2232
-1066 -415 2258
-1037 -407 2213
-1014 -401 2183
-1004 -400 2179
-996 -399 2178
-985 -397 2172
-981 -398 2180
-991 -405 2220
-1001 -412 2262
-996 -413 2270
-997 -417 2290
-993 -418 2300
-988 -419 2309
-990 -423 2332
-981 -422 2331
-982 -426 2352
-972 -425 2348
-971 -428 2367
-965 -428 2372
-963 -431 2388
-954 -430 2386
-951 -432 2400
-948 -434 2412
-944 -436 2425
-943 -439 2444
-936 -439 2447
-926 -438 2444
-926 -442 2466
-924 -444 2482
-922 -447 2500
-915 -447 2505
-911 -449 2516
-908 -452 2532
-901 -452 2537
-894 -452 2539
-891 -455 2555
-883 -455 2557
-880 -457 2574
-878 -460 2592
-872 -461 2599
-867 -463 2610
-864 -465 2627
-856 -466 2631
-847 -465 2629
-847 -469 2655
-841 -471 2663
-833 -471 2665
-832 -475 2689
-820 -473 2680
-819 -477 2705
-807 -475 2694
-803 -477 2708
-798 -479 2722
-796 -483 2746
-785 -481 2737
-782 -484 2758
-769 -482 2744
-756 -478 2726
-744 -476 2716
-732 -474 2702
-725 -475 2709
-717 -474 2709
-702 -470 2684
-697 -472 2697
-687 -471 2692
-677 -469 2686
-668 -469 2684
-659 -468 2680
-652 -468 2684
-643 -468 2680
-637 -469 2691
-629 -469 2693
-617 -466 2677
-607 -465 2668
-598 -464 2665
-589 -463 2663
-581 -463 2664
-576 -466 2679
-562 -460 2648
-554 -461 2651
-548 -462 2659
-536 -458 2639
-526 -457 2633
-521 -459 2646
-512 -458 2641
-506 -460 2652
-494 -456 2631
-486 -456 2629
-481 -459 2646
-472 -457 2638
-462 -455 2626
-455 -456 2633
-448 -456 2636
-438 -455 2628
-431 -455 2629
-420 -452 2614
-414 -453 2619
-405 -452 2615
-396 -451 2609
-389 -452 2614
-378 -447 2590
-372 -450 2604
-364 -449 2598
-355 -447 2589
-349 -450 2604
-341 -449 2602
-334 -449 2601
-325 -448 2593
-318 -449 2601
-307 -444 2574
-299 -443 2569
-292 -444 2571
-284 -444 2573
-277 -444 2575
-268 -442 2562
-261 -442 2565
-252 -441 2555
-244 -440 2550
-237 -440 2551
-230 -441 2559
-223 -441 2560
-214 -439 2548
-206 -437 2537
-199 -438 2541
-191 -438 2540
-184 -437 2533
-176 -435 2527
-169 -437 2536
-161 -437 2533
-154 -436 2530
-146 -436 2530
-139 -435 2523
-131 -433 2512
-124 -436 2527
-117 -435 2525
-109 -434 2517
-101 -433 2511
-94 -434 2516
-87 -432 2507
-79 -433 2509
-72 -434 2519
-65 -433 2513
-58 -433 2509
-50 -431 2497
-43 -429 2489
-35 -430 2494
-28 -429 2489
-21 -429 2486
-14 -429 2487
-6 -427 2478
0 -430 2492
7 -427 2473
14 -430 2491
21 -428 2481
29 -428 2479
36 -427 2472
43 -428 2476
50 -426 2467
57 -426 2465
64 -426 2468
71 -425 2462
78 -424 2454
85 -424 2450
92 -424 2453
100 -424 2452
106 -422 2442
113 -421 2436
120 -422 2436
127 -421 2432
134 -420 2423
141 -419 2418
147 -418 2415
154 -418 2413
161 -419 2415
168 -416 2401
174 -416 2400
180 -414 2384
188 -414 2387
195 -415 2390
201 -413 2378
207 -412 2373
214 -412 2370
221 -412 2369
227 -411 2366
233 -409 2353
241 -410 2357
247 -409 2352
254 -410 2356
259 -407 2336
266 -407 2337
271 -405 2324
279 -406 2331
286 -406 2329
291 -404 2318
298 -405 2320
304 -403 2310
310 -402 2304
317 -403 2308
324 -403 2306
330 -403 2302
336 -401 2294
341 -399 2281
348 -400 2284
355 -400 2286
363 -402 2294
371 -403 2297
377 -402 2293
381 -400 2278
386 -398 2264
395 -400 2276
403 -402 2286
411 -403 2289
420 -405 2301
425 -404 2295
431 -403 2288
437 -402 2282
445 -403 2288
453 -405 2294
459 -404 2287
465 -404 2285
471 -402 2277
480 -405 2291
484 -403 2277
490 -402 2272
497 -403 2272
505 -403 2274
511 -403 2272
516 -402 2262
529 -406 2286
534 -405 2277
543 -407 2286
554 -410 2302
568 -415 2330
565 -408 2291
564 -402 2256
568 -401 2245
570 -397 2225
572 -395 2207
575 -392 2190
583 -393 2195
588 -392 2188
595 -393 2190
601 -392 2186
606 -391 2179
617 -394 2193
621 -392 2181
630 -394 2188
635 -393 2182
641 -393 2180
647 -392 2175
655 -393 2178
660 -393 2172
668 -393 2173
671 -391 2162
679 -392 2164
687 -393 2166
693 -393 2163
698 -392 2159
707 -393 2163
713 -393 2159
720 -394 2161
728 -394 2162
734 -394 2159
740 -394 2156
745 -393 2149
753 -394 2152
758 -393 2144
766 -394 2146
772 -394 2143
778 -394 2140
784 -393 2137
790 -393 2133
794 -392 2123
801 -392 2124
810 -393 2128
816 -393 2124
823 -394 2125
829 -393 2120
836 -394 2120
841 -393 2112
847 -392 2108
854 -393 2107
860 -393 2105
869 -394 2109
874 -393 2103
884 -395 2108
886 -393 2094
893 -393 2095
902 -394 2097
912 -396 2102
912 -393 2086
921 -394 2088
927 -394 2086
936 -395 2088
945 -396 2091
954 -397 2093
962 -398 2095
971 -399 2097
993 -405 2127
1028 -417 2184
1020 -411 2150
998 -399 2087
1002 -398 2079
1005 -397 2069
948 -372 1935
900 -350 1821
890 -344 1788
901 -346 1795
900 -344 1780
908 -345 1782
909 -343 1770
915 -343 1767
925 -345 1774
922 -342 1753
932 -343 1760
935 -343 1753
950 -346 1767
953 -345 1759
960 -345 1758
965 -345 1754
972 -346 1753
979 -346 1754
978 -344 1739
978 -342 1726
-1348 -434 2308
-1336 -432 2304
-1322 -430 2297
-1305 -427 2285
-1293 -426 2279
-1278 -423 2270
-1268 -423 2270
-1264 -424 2278
-1251 -422 2273
-1243 -422 2275
-1235 -422 2278
-1212 -416 2251
-1196 -413 2238
-1178 -409 2221
-1176 -411 2236
-1162 -409 2225
-1148 -407 2216
-1134 -404 2205
-1120 -402 2194
-1090 -393 2152
-1090 -396 2169
-1075 -393 2157
-1055 -388 2133
-1042 -386 2122
-1035 -386 2126
-1024 -384 2119
-1013 -383 2114
-1041 -396 2188
-1099 -421 2328
-1024 -395 2188
-1007 -391 2168
-1006 -393 2183
-995 -392 2176
-980 -388 2161
-980 -391 2179
-992 -399 2226
-1002 -406 2266
-999 -408 2278
-997 -410 2293
-989 -409 2293
-988 -412 2309
-983 -413 2317
-977 -413 2323
-977 -416 2341
-973 -418 2352
-965 -418 2354
-962 -420 2368
-959 -422 2381
-954 -423 2389
-954 -426 2408
-950 -428 2420
-947 -430 2433
-941 -430 2439
-936 -432 2449
-931 -433 2458
-931 -436 2479
-923 -436 2482
-917 -437 2488
-910 -437 2492
-908 -440 2510
-903 -441 2518
-901 -444 2537
-895 -445 2546
-887 -445 2546
-882 -446 2556
-879 -449 2573
-876 -451 2588
-874 -455 2608
-866 -454 2609
-859 -455 2616
-856 -458 2633
-853 -460 2648
-842 -459 2642
-839 -462 2660
-837 -465 2680
-829 -465 2681
-822 -466 2687
-821 -470 2714
-810 -468 2704
-804 -470 2714
-799 -471 2727
-791 -471 2728
-788 -475 2750
-778 -474 2746
-768 -472 2739
-751 -467 2708
-738 -464 2695
-730 -464 2696
-722 -464 2697
-711 -463 2690
-704 -463 2692
-694 -462 2688
-687 -463 2694
-679 -463 2694
-669 -461 2688
-658 -460 2679
-646 -457 2662
-638 -457 2664
-632 -458 2673
-622 -456 2664
-613 -456 2661
-606 -456 2665
-597 -456 2664
-587 -454 2652
-581 -455 2662
-572 -455 2660
-564 -454 2659
-551 -451 2639
-544 -451 2641
-537 -452 2648
-526 -449 2633
-523 -453 2655
-513 -451 2648
-501 -448 2628
-498 -452 2653
-485 -447 2624
-476 -446 2620
-469 -446 2622
-461 -447 2624
-451 -445 2613
-445 -446 2624
-437 -445 2619
-427 -443 2607
-420 -444 2609
-411 -442 2604
-405 -445 2617
-396 -443 2606
-388 -442 2604
-380 -442 2605
-370 -440 2589
-362 -439 2588
-354 -439 2586
-347 -439 2590
-338 -438 2580
-330 -437 2575
-323 -437 2577
-313 -434 2561
-308 -437 2579
-300 -437 2578
-292 -437 2579
-284 -435 2569
-275 -433 2553
-268 -434 2564
-259 -432 2551
-252 -432 2550
-244 -432 2549
-237 -433 2554
-229 -432 2548
-221 -430 2541
-214 -430 2540
-207 -432 2553
-199 -432 2548
-191 -429 2531
-184 -430 2537
-176 -429 2535
-168 -428 2529
-160 -427 2520
-154 -428 2529
-146 -428 2528
-138 -427 2522
-131 -428 2528
-124 -427 2522
-116 -426 2517
-109 -427 2520
-101 -425 2511
-94 -425 2508
-86 -423 2500
-79 -425 2507
-72 -422 2494
-64 -421 2487
-57 -423 2494
-50 -422 2488
-43 -422 2492
-35 -420 2479
-28 -418 2466
-21 -419 2470
-14 -419 2470
-6 -416 2454
0 -417 2462
7 -415 2449
14 -414 2438
21 -414 2442
28 -414 2439
35 -412 2427
42 -413 2433
49 -411 2422
56 -410 2415
63 -411 2419
70 -409 2406
77 -409 2410
84 -408 2399
90 -407 2393
97 -407 2393
104 -405 2380
111 -405 2382
118 -405 2384
124 -404 2372
131 -404 2375
137 -402 2362
144 -402 2362
151 -401 2355
157 -400 2345
163 -399 2340
170 -399 2341
177 -399 2342
184 -400 2344
191 -399 2339
197 -398 2332
204 -398 2332
210 -398 2331
216 -396 2320
223 -396 2319
229 -394 2307
237 -397 2323
243 -396 2315
249 -395 2306
256 -394 2304
262 -394 2304
269 -395 2306
275 -394 2300
282 -393 2295
288 -393 2291
294 -392 2288
301 -393 2290
308 -393 2291
314 -392 2285
320 -392 2281
327 -392 2282
334 -392 2282
340 -392 2278
347 -392 2276
353 -391 2270
361 -392 2278
368 -394 2284
376 -394 2287
383 -395 2289
388 -393 2276
393 -392 2268
400 -392 2266
407 -392 2267
414 -393 2271
423 -395 2282
429 -395 2280
436 -395 2279
442 -394 2274
448 -393 2269
456 -395 2273
464 -396 2278
468 -393 2264
476 -395 2270
483 -395 2271
488 -394 2263
495 -394 2260
502 -394 2261
508 -394 2257
514 -393 2253
524 -396 2268
530 -395 2263
539 -397 2271
544 -395 2261
548 -394 2250
551 -391 2233
558 -391 2232
557 -387 2204
560 -384 2185
568 -385 2190
575 -385 2192
584 -387 2200
589 -386 2192
595 -386 2190
602 -386 2188
