VERSION 0.7
FIELDS x y z
SIZE 4 4 4
TYPE I I I
COUNT 1 1 1
WIDTH 3299
HEIGHT 1
VIEWPOINT 0.0 0.0 0.0 1.0 0.0 0.0 0.0
POINTS 3299
DATA ascii
-675 -452 2678
-668 -452 2684
-658 -451 2678
-650 -451 2680
-641 -451 2676
-631 -449 2668
-619 -446 2651
-613 -448 2664
-605 -448 2664
-594 -445 2648
-586 -445 2651
-578 -446 2653
-568 -444 2644
-560 -444 2644
-554 -445 2651
-544 -443 2641
-533 -441 2629
-523 -438 2616
-522 -444 2652
-512 -442 2642
-502 -441 2633
-493 -440 2627
-485 -439 2625
-477 -439 2627
-469 -439 2624
-458 -436 2608
-452 -438 2619
-445 -438 2623
-436 -437 2619
-427 -436 2609
-416 -433 2591
-413 -437 2616
-403 -435 2607
-395 -434 2603
-386 -433 2594
-379 -434 2600
-368 -430 2579
-362 -431 2587
-354 -431 2584
-346 -431 2583
-338 -430 2582
-330 -430 2577
-322 -429 2576
-314 -428 2570
-306 -428 2569
-298 -426 2560
-290 -427 2563
-283 -427 2567
-274 -425 2550
-266 -424 2549
-259 -425 2553
-252 -425 2555
-243 -422 2537
-237 -424 2549
-228 -422 2535
-221 -423 2543
-214 -424 2545
-206 -424 2546
-197 -420 2524
-191 -423 2541
-182 -419 2519
-176 -421 2531
-168 -421 2529
-159 -417 2507
-152 -418 2510
-145 -419 2517
-137 -417 2505
-130 -417 2507
-122 -414 2489
-114 -413 2481
-107 -413 2483
-100 -412 2478
-93 -412 2475
-85 -411 2468
-78 -410 2466
-70 -407 2447
-63 -407 2444
-56 -407 2443
-49 -407 2443
-41 -404 2425
-35 -406 2439
-27 -404 2426
-20 -403 2420
-13 -402 2411
-6 -402 2410
0 -402 2412
7 -401 2408
14 -401 2403
21 -400 2399
28 -399 2395
35 -398 2388
42 -398 2387
48 -398 2385
55 -396 2372
62 -396 2374
69 -396 2373
76 -396 2371
82 -395 2366
90 -397 2375
96 -395 2367
103 -394 2360
110 -394 2359
116 -394 2356
123 -394 2358
130 -392 2346
136 -393 2347
143 -392 2342
150 -391 2340
156 -391 2338
163 -390 2329
169 -389 2325
176 -390 2327
183 -390 2325
189 -389 2318
196 -389 2322
203 -389 2322
210 -390 2322
216 -389 2316
223 -390 2321
229 -389 2316
237 -390 2320
243 -389 2316
249 -388 2307
256 -389 2313
262 -388 2305
269 -387 2302
275 -387 2301
282 -387 2299
288 -387 2295
296 -388 2300
302 -387 2297
308 -386 2291
315 -387 2293
322 -387 2290
328 -387 2289
334 -385 2281
341 -386 2284
347 -385 2278
354 -385 2277
359 -384 2267
367 -385 2274
374 -386 2278
381 -386 2276
388 -387 2280
395 -386 2277
397 -382 2252
404 -382 2251
411 -383 2252
418 -384 2256
426 -385 2264
435 -387 2272
440 -385 2263
447 -385 2262
454 -386 2266
461 -386 2265
468 -386 2264
473 -386 2259
479 -385 2254
485 -385 2249
495 -387 2261
500 -386 2252
506 -385 2248
512 -385 2245
520 -386 2251
523 -384 2235
531 -384 2237
535 -382 2224
537 -380 2207
540 -377 2189
544 -375 2180
552 -376 2183
562 -378 2194
568 -378 2191
574 -378 2190
586 -381 2206
592 -381 2205
599 -382 2204
604 -381 2199
611 -381 2198
618 -381 2198
623 -380 2189
631 -381 2192
636 -380 2186
645 -382 2192
649 -381 2184
657 -381 2187
663 -381 2182
669 -381 2178
675 -381 2178
687 -384 2193
689 -381 2175
683 -374 2135
689 -374 2130
699 -376 2142
706 -376 2140
711 -376 2134
718 -376 2135
721 -374 2121
732 -376 2132
739 -377 2132
737 -373 2107
752 -377 2130
762 -379 2138
763 -376 2121
770 -377 2120
777 -377 2120
781 -375 2110
795 -379 2128
804 -380 2133
811 -381 2133
803 -374 2092
807 -373 2085
817 -375 2091
824 -375 2089
829 -374 2085
838 -376 2090
844 -375 2084
863 -381 2114
867 -380 2106
873 -380 2101
878 -379 2095
885 -379 2095
890 -379 2090
899 -380 2091
902 -378 2082
912 -380 2086
916 -379 2080
923 -379 2079
931 -380 2078
946 -383 2095
943 -380 2072
943 -377 2055
967 -384 2090
964 -380 2066
995 -390 2117
1010 -393 2131
982 -380 2056
984 -378 2043
992 -379 2044
966 -366 1973
909 -342 1842
892 -334 1794
890 -331 1775
900 -332 1781
901 -331 1769
914 -333 1780
916 -332 1772
923 -333 1771
930 -333 1772
927 -330 1753
933 -330 1750
949 -334 1768
950 -333 1756
961 -334 1762
960 -332 1747
965 -332 1743
980 -335 1757
976 -332 1736
974 -329 1721
-1332 -414 2283
-1331 -416 2298
-1312 -412 2282
-1302 -411 2282
-1277 -406 2255
-1281 -410 2279
-1262 -406 2262
-1235 -399 2229
-1229 -400 2235
-1203 -394 2204
-1189 -392 2196
-1186 -393 2206
-1164 -388 2182
-1132 -380 2138
-1140 -385 2170
-1122 -381 2151
-1109 -379 2143
-1109 -381 2159
-1100 -381 2157
-1088 -379 2151
-1073 -376 2138
-1061 -374 2129
-1052 -374 2129
-1048 -375 2137
-1034 -372 2125
-1026 -372 2125
-1025 -374 2141
-1029 -378 2167
-1026 -379 2176
-1009 -376 2159
-1003 -376 2162
-998 -377 2169
-989 -376 2168
-980 -375 2164
-982 -378 2187
-992 -385 2227
-1000 -391 2264
-996 -392 2274
-994 -394 2286
-997 -398 2314
-984 -396 2302
-983 -399 2321
-981 -401 2334
-975 -401 2340
-972 -403 2353
-967 -404 2362
-964 -406 2375
-957 -406 2377
-952 -407 2386
-952 -410 2405
-946 -411 2413
-944 -413 2429
-941 -415 2442
-932 -415 2442
-929 -417 2456
-923 -418 2462
-925 -422 2489
-918 -422 2493
-913 -423 2503
-906 -424 2505
-903 -426 2521
-902 -429 2543
-895 -430 2546
-885 -429 2543
-884 -432 2565
-881 -434 2581
-877 -436 2595
-869 -436 2596
-864 -438 2606
-861 -441 2624
-857 -442 2638
-851 -444 2647
-845 -445 2653
-834 -443 2645
-831 -446 2665
-828 -448 2681
-822 -450 2692
-816 -451 2700
-813 -454 2718
-801 -452 2708
-799 -455 2728
-784 -452 2710
-787 -458 2748
-773 -455 2731
-755 -449 2698
-745 -447 2691
-734 -446 2682
-727 -446 2687
-718 -446 2687
-705 -443 2668
-697 -442 2668
-688 -442 2666
-681 -443 2672
-671 -441 2664
-663 -441 2666
-657 -443 2675
-644 -439 2656
-640 -442 2672
-626 -438 2648
-618 -438 2652
-610 -438 2650
-598 -435 2633
-597 -440 2666
-585 -436 2646
-575 -435 2637
-566 -434 2636
-562 -437 2653
-547 -432 2620
-545 -436 2649
-535 -434 2638
-527 -434 2639
-517 -432 2627
-508 -432 2625
-498 -429 2612
-490 -429 2613
-482 -429 2611
-475 -430 2616
-464 -426 2597
-456 -426 2596
-451 -429 2614
-440 -426 2597
-432 -425 2593
-424 -425 2590
-418 -426 2600
-408 -425 2590
-400 -424 2586
-391 -423 2579
-385 -424 2589
-375 -422 2574
-368 -422 2578
-361 -422 2579
-352 -421 2571
-344 -420 2568
-334 -418 2553
-329 -420 2569
-321 -420 2566
-312 -418 2554
-305 -419 2562
-296 -417 2551
-287 -414 2532
-280 -415 2537
-273 -415 2537
-264 -413 2523
-256 -412 2519
-249 -412 2521
-240 -411 2513
-233 -411 2514
-225 -409 2503
-218 -409 2504
-210 -409 2501
-202 -408 2498
-194 -406 2486
-187 -406 2486
-179 -405 2477
-171 -403 2469
-164 -402 2462
-157 -404 2471
-149 -403 2464
-142 -402 2460
-134 -400 2450
-127 -399 2444
-120 -401 2457
-113 -400 2445
-105 -398 2433
-98 -397 2427
-90 -396 2422
-84 -397 2429
-76 -396 2424
-69 -396 2425
-62 -395 2414
-55 -396 2424
-48 -394 2410
-41 -395 2415
-34 -394 2410
-27 -394 2409
-20 -394 2409
-13 -393 2405
-6 -392 2393
0 -392 2396
7 -392 2397
14 -392 2396
21 -391 2388
28 -391 2386
35 -391 2385
41 -390 2383
48 -390 2378
55 -390 2379
62 -389 2374
69 -389 2374
76 -388 2368
82 -388 2364
90 -389 2371
96 -388 2365
103 -388 2362
110 -388 2365
116 -386 2351
123 -385 2347
130 -387 2357
137 -386 2349
143 -385 2346
150 -385 2344
156 -383 2331
163 -384 2338
170 -384 2333
176 -383 2328
183 -383 2324
190 -383 2328
196 -383 2326
203 -383 2328
210 -382 2321
217 -383 2324
223 -383 2324
230 -383 2322
237 -383 2320
242 -381 2310
250 -383 2319
256 -381 2306
262 -381 2307
269 -380 2301
275 -381 2302
281 -380 2295
290 -381 2305
295 -380 2297
302 -380 2295
308 -380 2293
316 -381 2296
322 -380 2292
328 -379 2284
334 -379 2285
341 -379 2283
346 -378 2273
353 -378 2274
359 -377 2269
365 -377 2266
372 -377 2264
381 -379 2276
386 -378 2267
395 -380 2280
400 -378 2267
405 -377 2262
409 -374 2242
416 -375 2243
423 -375 2246
430 -376 2249
436 -376 2245
444 -377 2250
452 -378 2258
459 -378 2254
465 -377 2250
473 -378 2255
478 -377 2248
485 -377 2247
489 -376 2236
498 -378 2247
502 -376 2234
510 -377 2236
517 -377 2238
519 -374 2217
522 -371 2201
525 -369 2184
530 -368 2177
537 -368 2179
545 -370 2184
553 -370 2187
562 -372 2195
570 -373 2200
578 -374 2206
583 -373 2198
591 -374 2202
596 -373 2196
604 -374 2198
610 -374 2193
616 -374 2191
622 -373 2187
630 -374 2191
634 -373 2182
644 -375 2192
651 -375 2192
657 -375 2188
663 -375 2186
670 -375 2184
678 -376 2187
670 -367 2138
678 -368 2141
688 -370 2151
693 -370 2145
699 -369 2141
704 -369 2135
708 -368 2126
716 -369 2130
719 -366 2116
728 -368 2124
738 -370 2130
740 -368 2117
747 -368 2115
751 -367 2108
761 -369 2116
768 -369 2116
773 -368 2109
777 -367 2099
784 -367 2100
790 -367 2096
807 -372 2123
804 -368 2097
817 -371 2111
824 -371 2111
824 -368 2091
836 -371 2102
840 -370 2095
854 -373 2110
848 -368 2077
868 -374 2108
861 -368 2075
875 -371 2090
870 -367 2061
879 -367 2063
884 -367 2057
890 -367 2055
912 -373 2089
907 -369 2059
933 -377 2101
932 -374 2081
940 -374 2081
946 -374 2078
949 -373 2068
950 -371 2054
964 -374 2068
993 -382 2113
1001 -383 2113
979 -372 2050
975 -368 2024
1001 -375 2063
973 -363 1990
920 -341 1866
888 -326 1786
890 -325 1776
907 -329 1796
905 -327 1779
915 -328 1784
911 -325 1762
922 -327 1771
927 -326 1766
935 -327 1769
943 -328 1770
939 -325 1749
948 -326 1752
956 -327 1755
967 -329 1761
968 -327 1749
970 -326 1739
982 -328 1749
981 -326 1733
-1322 -403 2268
-1316 -404 2274
-1306 -403 2273
-1279 -397 2242
-1258 -392 2222
-1251 -393 2226
-1221 -385 2189
-1206 -383 2179
-1212 -387 2205
-1196 -384 2193
-1169 -378 2159
-1162 -378 2162
-1158 -379 2172
-1143 -377 2160
-1132 -375 2155
-1119 -373 2146
-1118 -375 2160
-1107 -374 2157
-1097 -373 2153
-1079 -369 2135
-1076 -370 2145
-1072 -371 2153
-1063 -371 2153
-1053 -370 2148
-1043 -368 2145
-1031 -367 2138
-1026 -367 2143
-1012 -365 2130
-1010 -366 2143
-1007 -368 2155
-1008 -371 2174
-1003 -372 2182
-988 -369 2166
-983 -369 2173
-981 -371 2186
-996 -380 2238
-999 -383 2262
-993 -384 2268
-996 -388 2294
-989 -388 2296
-986 -390 2308
-979 -390 2311
-978 -392 2329
-975 -394 2341
-970 -395 2349
-966 -396 2360
-960 -397 2366
-965 -402 2398
-956 -402 2397
-949 -401 2399
-943 -402 2406
-941 -404 2421
-936 -406 2432
-931 -407 2439
-927 -408 2451
-930 -413 2481
-922 -413 2483
-916 -414 2488
-908 -413 2489
-905 -416 2506
-902 -418 2522
-893 -417 2519
-895 -422 2548
-887 -422 2549
-883 -424 2563
-883 -427 2587
-871 -426 2579
-870 -429 2599
-866 -431 2614
-859 -431 2618
-852 -432 2625
-846 -433 2632
-840 -434 2638
-840 -438 2666
-831 -437 2664
-829 -441 2686
-822 -442 2693
-817 -444 2705
-811 -444 2712
-804 -445 2718
-793 -444 2712
-786 -444 2715
-783 -447 2737
-769 -444 2717
-753 -439 2689
-745 -439 2691
-730 -435 2667
-721 -435 2666
-711 -433 2659
-704 -434 2665
-696 -434 2665
-686 -433 2661
-681 -435 2673
-670 -433 2661
-660 -432 2657
-654 -433 2664
-643 -430 2651
-634 -430 2649
-621 -427 2631
-613 -426 2629
-607 -428 2640
-598 -427 2637
-590 -427 2635
-579 -425 2623
-570 -424 2617
-565 -425 2630
-556 -425 2626
-545 -422 2611
-538 -423 2616
-528 -421 2606
-521 -422 2610
-512 -420 2603
-504 -420 2603
-496 -420 2602
-487 -419 2599
-478 -418 2592
-471 -418 2594
-462 -418 2590
-453 -416 2581
-446 -416 2584
-439 -417 2587
-427 -413 2566
-420 -414 2568
-413 -414 2573
-405 -413 2569
-397 -413 2569
-389 -413 2566
-380 -411 2555
-372 -411 2555
-363 -409 2546
-355 -409 2544
-347 -408 2536
-341 -409 2546
-331 -407 2530
-324 -407 2534
-315 -405 2519
-308 -405 2522
-300 -404 2516
-291 -402 2506
-283 -402 2503
-276 -401 2500
-269 -402 2504
-260 -400 2492
-253 -400 2493
-245 -399 2488
-238 -399 2486
-229 -397 2474
-222 -397 2477
-214 -395 2464
-207 -396 2470
-200 -397 2475
-193 -397 2474
-185 -395 2463
-177 -394 2457
-170 -394 2455
-163 -394 2453
-155 -392 2446
-148 -391 2435
-141 -393 2451
-134 -391 2439
-127 -392 2444
-119 -391 2439
-112 -390 2433
-105 -391 2435
-98 -390 2432
-91 -390 2430
-84 -390 2428
-76 -388 2420
-69 -389 2423
-62 -388 2418
-55 -387 2408
-48 -386 2406
-41 -387 2411
-34 -388 2416
-27 -386 2405
-20 -386 2406
-13 -386 2404
-6 -386 2402
0 -385 2397
7 -385 2396
14 -384 2389
21 -385 2395
28 -385 2397
35 -384 2390
42 -383 2382
49 -384 2388
55 -383 2378
62 -382 2373
69 -383 2379
76 -382 2375
83 -382 2373
89 -382 2370
96 -380 2357
103 -381 2367
110 -380 2357
116 -379 2352
123 -379 2353
129 -378 2344
136 -378 2345
143 -379 2348
149 -377 2336
157 -379 2347
163 -378 2340
169 -375 2323
176 -376 2328
183 -376 2329
190 -377 2330
196 -375 2318
203 -375 2320
210 -377 2329
216 -375 2315
223 -376 2320
229 -375 2315
236 -375 2313
242 -374 2309
249 -374 2307
256 -374 2309
263 -375 2312
269 -374 2306
276 -374 2306
282 -374 2301
289 -374 2299
296 -374 2300
302 -373 2297
308 -372 2289
315 -373 2290
320 -372 2283
327 -372 2282
334 -372 2282
340 -372 2281
347 -372 2280
353 -371 2272
361 -372 2280
366 -371 2270
372 -370 2265
380 -371 2270
385 -370 2263
393 -371 2269
401 -373 2277
406 -371 2267
411 -369 2254
417 -369 2249
420 -366 2233
427 -367 2234
434 -367 2236
444 -369 2248
449 -369 2242
456 -369 2244
462 -368 2237
469 -368 2237
474 -368 2232
480 -367 2228
488 -368 2231
493 -367 2222
499 -367 2220
503 -365 2206
506 -362 2190
510 -361 2177
516 -361 2177
523 -361 2176
529 -361 2175
539 -363 2186
547 -364 2192
554 -365 2194
562 -366 2197
572 -368 2208
576 -366 2199
584 -367 2204
592 -368 2205
598 -368 2203
602 -366 2193
609 -367 2192
615 -367 2190
623 -367 2191
628 -366 2185
633 -365 2178
639 -365 2175
648 -367 2182
653 -366 2174
662 -367 2181
667 -367 2175
677 -369 2186
683 -368 2181
681 -364 2152
685 -362 2143
689 -361 2132
698 -362 2139
704 -362 2135
709 -362 2131
720 -364 2141
723 -362 2131
728 -361 2122
735 -362 2123
740 -361 2118
746 -361 2115
750 -360 2106
760 -362 2113
768 -362 2116
774 -362 2111
785 -364 2122
787 -362 2107
791 -361 2100
801 -363 2108
805 -362 2099
809 -361 2090
823 -364 2107
830 -364 2106
832 -363 2095
832 -360 2075
857 -368 2119
859 -366 2106
862 -365 2095
860 -361 2073
869 -362 2076
870 -360 2061
890 -366 2091
892 -364 2077
894 -362 2066
920 -370 2108
919 -367 2088
920 -365 2072
913 -360 2041
943 -369 2091
943 -367 2074
952 -367 2076
952 -365 2058
942 -359 2021
992 -375 2111
1006 -378 2125
979 -366 2051
985 -366 2048
991 -365 2042
978 -358 2001
932 -339 1890
894 -323 1798
896 -322 1789
900 -321 1784
904 -321 1778
915 -323 1785
920 -322 1781
915 -319 1758
927 -321 1767
939 -323 1777
937 -320 1760
944 -321 1758
959 -324 1775
954 -321 1752
965 -322 1758
965 -321 1745
971 -321 1743
975 -320 1736
980 -320 1733
-1302 -389 2234
-1281 -385 2214
-1275 -386 2221
-1247 -380 2188
-1242 -380 2195
-1226 -378 2183
-1198 -371 2149
-1201 -374 2170
-1200 -376 2185
-1188 -375 2179
-1176 -373 2173
-1165 -372 2169
-1158 -372 2172
-1161 -375 2195
-1131 -368 2155
-1131 -370 2171
-1121 -369 2168
-1103 -366 2150
-1098 -366 2157
-1090 -366 2158
-1080 -365 2155
-1076 -366 2163
-1057 -362 2141
-1050 -362 2144
-1040 -361 2141
-1033 -361 2143
-1023 -359 2138
-1015 -359 2139
-1007 -359 2139
-1007 -361 2155
-1004 -363 2167
-1010 -367 2198
-988 -362 2168
-977 -360 2161
-984 -365 2192
-994 -372 2234
-996 -375 2256
-995 -377 2273
-989 -378 2279
-988 -381 2296
-983 -381 2303
-981 -383 2317
-977 -385 2328
-973 -386 2339
-972 -389 2356
-965 -389 2358
-961 -390 2369
-959 -392 2384
-953 -393 2390
-945 -393 2391
-945 -396 2413
-939 -396 2418
-934 -397 2427
-934 -401 2450
-931 -403 2463
-924 -403 2468
-922 -406 2484
-919 -408 2500
-913 -408 2505
-906 -409 2510
-902 -410 2522
-899 -412 2536
-896 -415 2554
-888 -415 2553
-882 -415 2561
-882 -419 2586
-875 -420 2592
-871 -422 2604
-864 -422 2608
-859 -423 2618
-852 -424 2626
-847 -426 2635
-841 -427 2644
-836 -428 2655
-832 -430 2670
-824 -430 2672
-822 -433 2692
-813 -433 2692
-807 -434 2701
-802 -436 2712
-792 -435 2710
-785 -436 2716
-782 -438 2732
-760 -431 2685
-746 -427 2667
-734 -425 2653
-725 -425 2653
-718 -425 2658
-708 -424 2649
-698 -422 2643
-690 -422 2644
-682 -422 2645
-671 -421 2635
-663 -420 2636
-653 -419 2631
-646 -420 2635
-636 -418 2625
-628 -418 2625
-622 -419 2635
-611 -417 2623
-601 -416 2616
-597 -418 2632
-587 -417 2625
-577 -415 2615
-569 -415 2612
-558 -413 2602
-549 -412 2596
-540 -411 2592
-533 -412 2594
-525 -411 2593
-517 -411 2591
-506 -408 2577
-500 -410 2585
-491 -409 2580
-483 -408 2579
-475 -408 2577
-467 -407 2574
-458 -406 2569
-452 -408 2577
-441 -405 2561
-434 -405 2561
-425 -404 2556
-418 -404 2555
-409 -403 2552
-402 -403 2551
-393 -401 2542
-384 -400 2537
-376 -399 2529
-368 -399 2530
-362 -400 2538
-353 -399 2529
-345 -398 2525
-336 -396 2513
-328 -396 2508
-320 -395 2504
-314 -396 2515
-305 -395 2504
-298 -395 2505
-290 -393 2496
-282 -393 2495
-275 -394 2499
-266 -391 2483
-259 -391 2483
-252 -391 2484
-244 -390 2479
-237 -390 2478
-228 -388 2466
-222 -389 2470
-215 -389 2472
-207 -389 2468
-199 -388 2465
-192 -389 2467
-184 -387 2455
-177 -386 2454
-170 -387 2458
-163 -387 2456
-156 -386 2452
-148 -385 2444
-141 -384 2440
-134 -385 2445
-127 -385 2447
-119 -384 2441
-112 -385 2443
-104 -382 2424
-98 -384 2441
-91 -383 2430
-84 -384 2438
-76 -382 2425
-69 -382 2424
-62 -382 2426
-55 -382 2422
-48 -380 2412
-41 -381 2418
-34 -381 2415
-27 -380 2411
-20 -381 2418
-13 -379 2402
-6 -378 2395
0 -378 2400
7 -378 2398
14 -378 2394
21 -376 2386
28 -377 2390
35 -376 2383
42 -377 2386
48 -376 2379
55 -376 2379
62 -376 2380
69 -377 2385
76 -376 2382
83 -375 2376
89 -374 2367
96 -374 2368
103 -373 2359
110 -373 2359
116 -373 2357
123 -372 2350
130 -372 2350
136 -371 2342
143 -371 2343
150 -371 2341
157 -372 2351
164 -372 2349
169 -368 2323
176 -368 2324
183 -369 2330
189 -369 2325
196 -369 2322
203 -369 2323
209 -368 2315
216 -368 2318
223 -368 2315
229 -367 2312
236 -368 2313
243 -368 2316
249 -368 2312
256 -368 2309
263 -368 2310
269 -367 2304
275 -367 2302
282 -366 2297
289 -367 2299
296 -367 2303
301 -366 2291
308 -366 2292
314 -365 2287
320 -364 2280
328 -366 2288
333 -364 2277
340 -364 2277
347 -365 2279
354 -365 2278
360 -365 2275
366 -364 2269
373 -364 2271
380 -365 2271
386 -364 2266
391 -363 2260
398 -363 2257
407 -365 2272
412 -364 2262
418 -363 2255
421 -360 2236
426 -359 2230
433 -359 2227
438 -358 2219
445 -358 2220
452 -359 2224
459 -360 2225
467 -360 2229
473 -360 2225
478 -359 2219
483 -358 2208
486 -356 2194
489 -353 2174
496 -353 2175
503 -354 2177
507 -352 2168
516 -354 2178
524 -355 2183
531 -355 2181
541 -358 2194
549 -359 2202
558 -360 2208
569 -363 2223
571 -361 2208
579 -362 2212
588 -363 2219
592 -361 2205
598 -361 2204
607 -363 2209
611 -361 2199
616 -360 2191
624 -361 2195
630 -361 2193
636 -361 2190
643 -361 2189
649 -361 2187
658 -362 2192
662 -361 2181
668 -361 2180
677 -362 2186
674 -357 2154
680 -357 2150
688 -357 2152
689 -355 2134
699 -356 2142
707 -357 2145
710 -356 2134
717 -356 2133
719 -353 2117
730 -356 2129
736 -356 2126
741 -355 2119
746 -355 2115
753 -355 2116
759 -355 2112
764 -354 2106
771 -354 2104
777 -354 2102
784 -355 2103
790 -354 2098
800 -356 2105
812 -359 2118
813 -356 2102
812 -353 2080
828 -357 2103
829 -355 2086
836 -355 2086
849 -358 2100
854 -357 2095
866 -360 2105
866 -357 2088
873 -358 2087
888 -361 2104
875 -353 2056
897 -360 2091
917 -365 2118
919 -363 2106
933 -366 2121
912 -355 2054
938 -363 2097
933 -358 2069
946 -361 2080
944 -358 2060
953 -359 2063
963 -360 2066
987 -367 2101
1000 -369 2113
981 -360 2056
985 -359 2048
987 -357 2036
983 -354 2012
938 -335 1904
887 -315 1786
896 -316 1790
905 -317 1793
914 -318 1797
910 -315 1776
908 -312 1758
922 -315 1772
926 -315 1767
933 -315 1765
937 -315 1760
945 -316 1762
947 -314 1752
951 -314 1746
959 -315 1748
967 -316 1750
975 -316 1750
980 -316 1747
986 -316 1744
-1265 -371 2173
-1280 -378 2214
-1274 -378 2221
-1270 -379 2229
-1261 -379 2230
-1232 -372 2195
-1221 -371 2192
-1213 -371 2194
-1211 -372 2206
-1191 -369 2185
-1180 -367 2181
-1173 -368 2186
-1160 -366 2178
-1153 -366 2180
-1142 -364 2176
-1130 -363 2170
-1120 -362 2168
-1118 -364 2181
-1104 -361 2169
-1089 -359 2157
-1079 -358 2153
-1069 -357 2150
-1061 -356 2150
-1052 -356 2150
-1041 -354 2143
-1029 -352 2135
-1021 -352 2136
-1012 -351 2133
-1007 -352 2139
-1010 -356 2164
-1010 -358 2180
-999 -357 2175
-987 -355 2166
-979 -354 2166
-980 -357 2187
-997 -366 2241
-996 -368 2259
-994 -370 2272
-993 -373 2289
-985 -372 2290
-984 -375 2307
-977 -374 2308
-978 -378 2331
-969 -377 2329
-972 -381 2357
-963 -380 2354
-962 -383 2373
-958 -385 2384
-952 -385 2388
-951 -388 2408
-940 -386 2401
-943 -390 2429
-938 -392 2438
-932 -392 2446
-931 -395 2463
-926 -396 2474
-914 -394 2463
-914 -398 2485
-911 -400 2502
-909 -402 2518
-899 -401 2515
-899 -405 2538
-893 -406 2545
-892 -409 2566
-882 -408 2561
-876 -408 2568
-874 -411 2589
-869 -413 2599
-861 -413 2602
-859 -416 2622
-851 -416 2622
-846 -417 2635
-841 -418 2644
-837 -421 2659
-829 -421 2662
-826 -423 2679
-826 -427 2706
-815 -426 2699
-806 -426 2698
-798 -426 2701
-789 -425 2699
-788 -429 2726
-775 -427 2711
-752 -418 2659
-740 -416 2648
-732 -416 2650
-726 -417 2656
-716 -416 2649
-704 -413 2636
-696 -413 2636
-686 -412 2631
-680 -413 2640
-668 -411 2624
-663 -413 2639
-653 -411 2629
-643 -410 2624
-637 -411 2631
-625 -408 2615
-617 -408 2614
-608 -408 2613
-601 -408 2617
-592 -407 2611
-582 -406 2601
-574 -406 2602
-569 -408 2616
-558 -405 2599
-549 -404 2597
-541 -404 2594
-533 -404 2595
-524 -402 2587
-515 -401 2581
-507 -401 2581
-499 -401 2580
-491 -401 2578
-481 -399 2569
-473 -398 2566
-465 -399 2567
-458 -399 2569
-448 -397 2556
-439 -395 2548
-433 -397 2557
-425 -396 2553
-417 -395 2550
-407 -393 2537
-401 -395 2547
-392 -393 2536
-383 -392 2528
-376 -392 2533
-368 -391 2527
-360 -391 2525
-352 -390 2520
-345 -390 2523
-336 -389 2517
-330 -391 2526
-320 -388 2507
-313 -388 2506
-305 -387 2502
-297 -386 2498
-290 -386 2497
-281 -385 2488
-276 -387 2505
-268 -386 2498
-259 -383 2481
-252 -384 2485
-244 -384 2482
-237 -384 2483
-229 -382 2472
-222 -382 2474
-214 -382 2472
-206 -380 2461
-199 -381 2466
-192 -381 2466
-184 -379 2454
-177 -380 2459
-170 -380 2457
-163 -380 2459
-155 -378 2450
-148 -378 2447
-141 -378 2447
-134 -379 2451
-126 -377 2439
-119 -376 2436
-112 -376 2433
-105 -376 2435
-97 -375 2428
-91 -376 2431
-83 -376 2431
-76 -374 2420
-69 -373 2414
-62 -375 2424
-55 -373 2412
-48 -373 2415
-41 -374 2419
-34 -373 2409
-27 -373 2409
-20 -372 2404
-13 -371 2400
-6 -371 2399
0 -371 2396
7 -371 2397
14 -371 2395
21 -370 2390
28 -370 2389
35 -368 2379
42 -369 2383
48 -368 2376
55 -369 2380
62 -369 2384
69 -370 2386
76 -368 2375
83 -368 2374
90 -368 2373
96 -368 2370
103 -367 2363
110 -367 2364
116 -364 2347
123 -366 2357
129 -364 2344
136 -364 2346
143 -363 2337
150 -364 2344
156 -363 2333
163 -364 2338
169 -362 2329
176 -362 2326
183 -363 2333
189 -362 2322
196 -362 2323
203 -362 2323
209 -361 2318
216 -361 2318
223 -362 2319
229 -361 2317
237 -362 2320
242 -361 2311
249 -361 2310
256 -360 2307
262 -360 2306
268 -360 2301
276 -361 2309
283 -361 2307
289 -361 2303
296 -360 2301
301 -359 2289
308 -359 2290
315 -360 2295
321 -359 2288
328 -360 2292
334 -359 2284
341 -359 2284
347 -359 2282
354 -359 2282
360 -358 2279
366 -358 2273
372 -357 2269
379 -357 2266
385 -357 2265
392 -357 2263
401 -359 2279
411 -362 2292
414 -359 2274
417 -356 2251
423 -355 2248
429 -355 2243
432 -352 2222
436 -350 2209
443 -350 2210
450 -351 2215
455 -350 2207
461 -349 2202
466 -348 2192
471 -347 2183
474 -344 2166
483 -346 2177
487 -345 2165
493 -345 2163
502 -347 2175
509 -347 2177
515 -347 2174
525 -349 2186
540 -355 2218
551 -358 2238
560 -360 2246
570 -362 2257
576 -361 2253
579 -359 2238
585 -359 2235
595 -361 2246
600 -360 2236
610 -362 2248
617 -362 2247
621 -360 2236
630 -362 2242
640 -364 2253
640 -360 2227
650 -362 2238
654 -360 2227
665 -363 2241
667 -360 2224
672 -360 2216
678 -359 2214
680 -357 2197
675 -350 2155
682 -351 2158
686 -350 2148
692 -350 2144
697 -349 2138
703 -349 2135
709 -349 2132
715 -348 2128
721 -348 2126
726 -348 2119
733 -348 2120
741 -349 2120
748 -349 2121
752 -348 2112
759 -348 2113
767 -349 2114
772 -348 2108
775 -347 2097
790 -351 2119
793 -349 2106
801 -350 2110
815 -353 2128
810 -348 2095
825 -352 2114
821 -348 2085
838 -352 2110
843 -352 2105
840 -348 2080
851 -349 2087
858 -350 2086
866 -351 2089
868 -349 2076
879 -351 2084
895 -355 2104
899 -353 2095
907 -354 2096
901 -350 2066
922 -355 2096
919 -351 2071
923 -350 2063
941 -355 2087
936 -351 2060
945 -352 2062
948 -350 2052
961 -353 2063
986 -360 2100
1003 -364 2119
984 -354 2063
974 -348 2025
992 -352 2046
988 -349 2023
937 -329 1903
888 -309 1788
887 -307 1772
904 -311 1794
907 -310 1785
911 -310 1778
918 -310 1779
920 -309 1768
927 -309 1768
932 -309 1764
941 -310 1768
938 -308 1750
945 -308 1750
956 -310 1757
955 -308 1741
969 -310 1754
971 -309 1744
972 -308 1733
986 -310 1745
-1294 -373 2223
-1280 -371 2215
-1266 -369 2208
-1262 -370 2216
-1248 -368 2208
-1249 -370 2226
-1227 -366 2204
-1219 -366 2205
-1204 -363 2195
-1196 -363 2196
-1184 -362 2191
-1176 -361 2193
-1163 -360 2185
-1150 -358 2177
-1137 -356 2169
-1134 -357 2179
-1123 -356 2174
-1108 -354 2163
-1100 -353 2163
-1087 -351 2154
-1077 -350 2150
-1070 -350 2152
-1061 -350 2153
-1050 -348 2146
-1044 -348 2150
-1036 -348 2151
-1021 -345 2136
-1013 -345 2137
-1005 -345 2137
-1003 -346 2150
-1003 -349 2166
-995 -348 2167
-983 -347 2159
-973 -345 2153
-985 -352 2198
-996 -359 2240
-994 -361 2255
-991 -362 2267
-992 -365 2287
-987 -366 2294
-981 -366 2300
-975 -367 2306
-977 -370 2329
-972 -371 2338
-971 -374 2355
-966 -375 2363
-960 -375 2369
-954 -376 2375
-953 -378 2394
-946 -378 2395
-945 -381 2415
-940 -382 2424
-940 -385 2444
-935 -386 2455
-930 -387 2463
-925 -388 2472
-919 -389 2479
-918 -392 2498
-911 -392 2503
-907 -394 2514
-902 -395 2524
-898 -397 2537
-894 -399 2550
-890 -400 2561
-882 -400 2563
-875 -400 2568
-874 -403 2589
-871 -406 2606
-863 -406 2608
-856 -407 2614
-850 -407 2619
-845 -409 2632
-840 -410 2642
-838 -413 2663
-831 -414 2668
-820 -412 2660
-815 -414 2674
-813 -417 2695
-807 -418 2703
-800 -419 2708
-792 -419 2712
-787 -421 2725
-768 -415 2686
-753 -411 2663
-741 -408 2650
-735 -410 2661
-721 -407 2641
-716 -408 2651
-705 -407 2643
-699 -407 2648
-691 -407 2649
-680 -405 2640
-671 -405 2639
-663 -405 2637
-653 -404 2632
-645 -403 2630
-637 -404 2633
-624 -400 2613
-618 -401 2619
-609 -401 2617
-603 -401 2623
-588 -397 2594
-583 -399 2608
-575 -398 2605
-564 -397 2595
-557 -397 2600
-549 -396 2596
-539 -395 2588
-531 -395 2588
-522 -394 2580
-515 -394 2587
-506 -393 2579
-496 -392 2569
-490 -392 2574
-480 -391 2565
-471 -390 2559
-463 -389 2558
-456 -390 2560
-449 -390 2563
-439 -388 2549
-431 -387 2547
-424 -387 2548
-417 -388 2552
-408 -387 2546
-400 -387 2544
-391 -385 2534
-385 -387 2544
-376 -385 2534
-367 -384 2525
-360 -384 2526
-352 -383 2521
-345 -383 2524
-336 -381 2513
-328 -380 2507
-321 -381 2514
-313 -381 2510
-305 -380 2505
-298 -380 2504
-290 -379 2501
-282 -378 2495
-275 -379 2497
-267 -378 2493
-259 -377 2490
-252 -377 2485
-244 -375 2477
-237 -376 2483
-230 -377 2485
-222 -375 2477
-214 -374 2468
-207 -375 2475
-199 -373 2463
-192 -374 2468
-184 -371 2451
-177 -372 2454
-170 -372 2457
-163 -372 2452
-156 -372 2455
-148 -371 2450
-141 -370 2445
-133 -370 2441
-126 -370 2444
-119 -368 2431
-112 -370 2443
-105 -369 2433
-98 -369 2432
-91 -369 2432
-83 -368 2429
-76 -367 2421
-69 -368 2427
-62 -367 2421
-55 -366 2413
-48 -367 2422
-41 -365 2407
-34 -365 2408
-27 -365 2409
-20 -365 2407
-13 -364 2400
-6 -363 2395
0 -364 2398
7 -364 2397
14 -364 2400
21 -363 2393
28 -364 2395
35 -363 2388
42 -363 2387
49 -362 2384
55 -362 2382
62 -362 2379
69 -361 2372
76 -362 2381
83 -361 2374
90 -361 2375
96 -359 2361
103 -360 2367
110 -359 2358
116 -359 2355
123 -358 2353
130 -358 2350
136 -357 2345
143 -358 2350
149 -356 2333
157 -359 2355
163 -355 2328
169 -355 2325
177 -356 2335
183 -356 2334
189 -355 2326
196 -355 2324
202 -353 2309
210 -356 2326
215 -353 2311
223 -355 2322
230 -355 2319
236 -354 2314
243 -354 2315
249 -354 2313
256 -354 2308
262 -354 2307
269 -354 2310
276 -354 2310
282 -353 2302
289 -353 2300
295 -353 2298
301 -352 2293
308 -353 2295
315 -353 2295
321 -352 2289
328 -352 2288
334 -352 2286
341 -352 2282
347 -352 2283
354 -352 2283
359 -351 2272
366 -350 2270
374 -352 2276
380 -351 2274
385 -350 2261
391 -350 2261
400 -352 2274
414 -358 2314
421 -359 2315
423 -355 2288
423 -349 2250
432 -351 2260
436 -348 2243
439 -346 2228
442 -343 2207
445 -340 2187
450 -340 2183
456 -339 2180
460 -337 2166
466 -337 2162
474 -338 2168
481 -339 2171
489 -340 2176
496 -340 2178
504 -342 2184
519 -347 2217
529 -349 2231
537 -350 2236
555 -358 2284
568 -362 2306
570 -359 2286
571 -356 2264
573 -352 2241
585 -356 2261
589 -354 2250
594 -353 2241
599 -352 2233
610 -355 2248
618 -356 2251
626 -356 2254
637 -359 2270
637 -355 2244
646 -356 2248
656 -358 2259
662 -358 2256
672 -360 2266
674 -357 2246
684 -359 2256
686 -356 2238
688 -354 2222
675 -344 2159
677 -342 2142
686 -343 2147
694 -344 2150
698 -343 2140
703 -342 2135
711 -343 2137
717 -343 2136
723 -343 2131
727 -341 2122
735 -342 2126
737 -340 2111
747 -342 2118
752 -341 2114
759 -342 2114
764 -341 2107
778 -345 2127
784 -345 2123
786 -342 2108
789 -341 2098
798 -342 2101
799 -340 2086
810 -342 2096
823 -345 2111
833 -346 2117
827 -341 2083
837 -343 2091
851 -346 2107
868 -350 2131
855 -342 2079
863 -343 2082
878 -346 2101
881 -345 2089
879 -342 2068
880 -340 2053
909 -349 2103
899 -342 2062
920 -348 2093
926 -348 2090
918 -342 2054
929 -344 2061
939 -345 2067
946 -345 2065
963 -349 2085
973 -351 2090
986 -353 2101
1004 -357 2124
981 -347 2057
987 -347 2054
1002 -350 2068
989 -343 2025
938 -323 1906
893 -305 1798
889 -302 1778
904 -305 1793
907 -304 1786
909 -303 1776
918 -304 1780
918 -303 1767
924 -303 1765
933 -304 1768
938 -304 1764
943 -303 1759
948 -303 1755
958 -305 1760
957 -302 1745
968 -304 1753
969 -303 1741
964 -299 1719
983 -304 1741
-1292 -365 2221
-1282 -364 2220
-1268 -362 2213
-1261 -362 2216
-1250 -361 2213
-1240 -360 2212
-1228 -359 2206
-1220 -359 2209
-1204 -356 2197
-1202 -358 2209
-1183 -354 2190
-1169 -352 2181
-1163 -353 2186
-1156 -353 2189
-1148 -352 2191
-1128 -348 2169
-1120 -348 2169
-1113 -348 2172
-1100 -346 2164
-1090 -345 2161
-1074 -343 2146
-1073 -344 2159
-1051 -340 2133
-1044 -339 2135
-1041 -341 2145
-1030 -339 2139
-1019 -338 2134
-1012 -338 2135
-1006 -338 2139
-1006 -341 2157
-1005 -342 2171
-998 -342 2174
-984 -340 2162
-972 -338 2153
-986 -346 2202
-991 -350 2231
-996 -354 2260
-991 -355 2267
-990 -357 2285
-983 -357 2288
-982 -359 2303
-976 -360 2309
-976 -363 2329
-971 -364 2337
-969 -365 2351
-962 -366 2355
-961 -368 2371
-953 -368 2374
-953 -371 2393
-947 -372 2401
-943 -373 2410
-941 -375 2426
-935 -375 2432
-930 -376 2441
-928 -379 2458
-926 -381 2475
-920 -382 2482
-917 -384 2495
-915 -386 2513
-906 -386 2513
-901 -387 2522
-895 -388 2530
-891 -389 2542
-888 -392 2559
-882 -392 2564
-878 -394 2579
-870 -394 2580
-867 -396 2596
-865 -399 2615
-857 -399 2618
-848 -399 2616
-848 -402 2642
-839 -402 2641
-834 -403 2652
-830 -405 2668
-823 -406 2673
-818 -407 2683
-807 -406 2675
-802 -408 2689
-799 -410 2705
-793 -411 2717
-785 -411 2718
-768 -407 2688
-755 -404 2671
-742 -401 2655
-736 -402 2664
-723 -400 2649
-716 -400 2654
-709 -401 2656
-697 -398 2643
-687 -397 2636
-677 -396 2631
-671 -397 2640
-660 -395 2626
-653 -396 2630
-642 -394 2619
-634 -394 2621
-624 -393 2615
-614 -391 2605
-609 -393 2617
-599 -391 2608
-591 -392 2611
-580 -389 2596
-572 -389 2596
-566 -390 2602
-556 -389 2596
-548 -388 2594
-538 -387 2584
-531 -387 2589
-523 -387 2588
-513 -385 2578
-507 -386 2585
-498 -385 2577
-489 -384 2571
-479 -383 2562
-473 -383 2566
-464 -383 2564
-456 -382 2563
-449 -383 2566
-440 -381 2556
-433 -382 2560
-423 -379 2543
-416 -380 2551
-408 -380 2547
-402 -381 2554
-392 -378 2539
-383 -377 2531
-376 -377 2533
-368 -376 2529
-360 -377 2531
-353 -377 2530
-342 -373 2508
-337 -375 2522
-328 -373 2510
-321 -374 2515
-312 -373 2505
-305 -372 2503
-297 -371 2497
-290 -372 2502
-281 -370 2491
-275 -372 2500
-266 -370 2488
-260 -371 2493
-251 -369 2484
-244 -369 2485
-236 -368 2475
-229 -368 2477
-220 -366 2460
-213 -366 2463
-206 -366 2465
-200 -368 2474
-192 -366 2461
-184 -366 2461
-177 -365 2457
-170 -366 2460
-163 -365 2457
-155 -363 2445
-148 -364 2447
-141 -364 2450
-134 -364 2447
-126 -363 2443
-119 -362 2438
-112 -363 2442
-105 -363 2441
-98 -362 2436
-90 -361 2427
-83 -361 2427
-76 -360 2423
-69 -359 2416
-62 -360 2425
-55 -359 2416
-48 -360 2420
-41 -360 2422
-34 -359 2412
-27 -358 2409
-20 -359 2411
-13 -358 2407
-6 -358 2404
0 -357 2401
7 -358 2402
14 -358 2403
21 -357 2395
28 -357 2399
35 -356 2390
42 -356 2392
49 -356 2386
55 -355 2382
62 -354 2378
69 -355 2383
76 -354 2376
83 -353 2369
90 -354 2375
96 -353 2364
103 -353 2362
110 -352 2357
117 -352 2358
124 -353 2361
130 -352 2353
137 -352 2355
144 -353 2362
151 -353 2363
156 -348 2326
161 -345 2306
167 -344 2302
176 -348 2323
183 -349 2334
189 -348 2325
196 -348 2324
203 -348 2322
210 -348 2322
217 -349 2327
223 -348 2320
230 -349 2323
236 -348 2316
243 -348 2317
250 -348 2316
257 -349 2320
263 -348 2317
269 -346 2304
276 -347 2310
283 -347 2307
288 -346 2298
296 -347 2302
303 -347 2303
309 -346 2296
315 -346 2291
322 -346 2296
328 -345 2288
334 -345 2283
341 -345 2286
347 -345 2281
355 -346 2288
362 -346 2287
367 -345 2279
373 -344 2272
379 -344 2272
385 -343 2263
391 -343 2262
402 -347 2286
412 -349 2301
421 -352 2315
430 -353 2323
430 -348 2289
434 -346 2273
439 -344 2262
443 -342 2247
445 -339 2223
448 -336 2205
447 -331 2168
453 -330 2165
460 -331 2165
466 -331 2163
474 -332 2171
486 -336 2194
497 -339 2211
507 -341 2226
516 -343 2237
530 -348 2267
543 -352 2292
548 -351 2285
554 -350 2278
562 -351 2282
567 -351 2277
569 -348 2256
572 -345 2240
578 -345 2235
584 -345 2232
592 -345 2234
598 -345 2231
609 -348 2245
612 -346 2232
619 -346 2232
633 -350 2255
634 -347 2233
644 -349 2243
653 -350 2249
661 -351 2252
667 -350 2248
674 -350 2247
679 -350 2242
684 -349 2233
695 -351 2246
682 -341 2180
678 -336 2145
684 -336 2143
689 -335 2137
700 -337 2147
701 -335 2130
710 -336 2137
714 -335 2125
721 -335 2127
724 -334 2115
733 -335 2120
740 -335 2121
744 -334 2112
754 -336 2118
757 -334 2108
765 -335 2110
775 -337 2118
775 -334 2099
791 -338 2123
800 -339 2128
801 -337 2109
797 -333 2082
816 -338 2111
822 -338 2107
828 -338 2105
827 -335 2084
842 -338 2103
852 -339 2109
857 -339 2104
858 -337 2087
866 -338 2089
866 -335 2071
864 -332 2049
892 -340 2098
905 -343 2112
904 -340 2091
907 -339 2081
913 -339 2077
918 -338 2071
924 -338 2068
929 -338 2063
930 -336 2048
940 -337 2053
946 -337 2050
951 -336 2044
986 -347 2103
1005 -351 2126
979 -339 2054
965 -332 2009
990 -339 2044
986 -335 2020
939 -317 1909
905 -304 1824
888 -296 1776
909 -301 1804
903 -297 1778
905 -296 1769
917 -298 1777
919 -297 1768
922 -296 1760
936 -299 1773
935 -297 1758
938 -296 1751
947 -297 1755
961 -300 1768
956 -297 1745
965 -298 1749
970 -298 1745
978 -298 1746
979 -297 1735
-1293 -358 2224
-1285 -357 2226
-1276 -357 2226
-1269 -357 2231
-1247 -353 2208
-1243 -354 2218
-1226 -351 2204
-1215 -350 2200
-1201 -348 2191
-1194 -348 2195
-1187 -348 2198
-1168 -345 2179
-1163 -345 2187
-1153 -345 2185
-1134 -341 2164
-1128 -341 2169
-1119 -341 2168
-1114 -341 2175
-1098 -339 2162
-1087 -337 2156
-1084 -339 2167
-1069 -336 2153
-1058 -335 2147
-1052 -335 2151
-1043 -335 2151
-1028 -332 2136
-1016 -330 2129
-1014 -332 2141
-1004 -331 2136
-1024 -340 2198
-1016 -339 2196
-1012 -340 2206
-984 -333 2162
-979 -334 2168
-986 -339 2203
-998 -345 2247
-998 -348 2266
-993 -348 2272
-987 -349 2279
-986 -351 2294
-977 -351 2294
-977 -353 2311
-972 -354 2319
-969 -355 2332
-969 -358 2354
-962 -358 2356
-958 -360 2367
-960 -363 2392
-951 -362 2389
-948 -365 2405
-944 -366 2414
-943 -368 2433
-936 -368 2436
-934 -371 2454
-928 -371 2459
-926 -374 2476
-921 -375 2485
-916 -376 2495
-911 -377 2505
-903 -377 2506
-900 -379 2520
-894 -380 2527
-895 -383 2554
-890 -384 2563
-879 -383 2557
-876 -385 2573
-874 -388 2593
-870 -389 2604
-862 -390 2607
-856 -391 2615
-849 -391 2620
-848 -394 2642
-842 -395 2651
-834 -395 2653
-833 -399 2677
-825 -398 2678
-823 -402 2700
-809 -399 2683
-805 -401 2700
-796 -400 2697
-790 -401 2705
-778 -400 2695
-761 -395 2666
-750 -393 2656
-740 -393 2651
-730 -391 2643
-723 -392 2648
-714 -391 2646
-705 -390 2642
-696 -390 2640
-688 -390 2641
-678 -389 2636
-669 -388 2631
-659 -387 2623
-650 -386 2622
-642 -386 2624
-635 -386 2624
-627 -387 2627
-617 -385 2618
-608 -385 2615
-601 -385 2618
-592 -384 2615
-584 -384 2614
-574 -382 2604
-566 -382 2606
-558 -382 2603
-548 -380 2593
-539 -379 2587
-533 -381 2598
-522 -378 2581
-514 -378 2582
-506 -378 2582
-496 -376 2568
-490 -377 2576
-483 -378 2580
-472 -375 2562
-461 -373 2547
-454 -373 2553
-449 -375 2566
-439 -373 2551
-431 -373 2550
-423 -372 2549
-417 -373 2557
-407 -371 2543
-399 -370 2537
-393 -372 2551
-384 -371 2539
-377 -371 2540
-367 -369 2527
-361 -370 2535
-353 -369 2530
-344 -368 2524
-337 -368 2523
-328 -366 2512
-321 -367 2515
-313 -366 2510
-304 -364 2497
-298 -366 2513
-290 -365 2504
-283 -365 2503
-274 -363 2493
-267 -363 2494
-259 -363 2492
-251 -362 2483
-244 -362 2483
-237 -362 2484
-229 -361 2480
-221 -359 2468
-214 -360 2469
-207 -360 2472
-199 -359 2468
-191 -358 2460
-185 -359 2464
-177 -357 2454
-170 -358 2457
-163 -358 2459
-155 -357 2452
-148 -357 2450
-141 -357 2449
-133 -356 2444
-126 -356 2446
-119 -356 2443
-112 -355 2438
-105 -355 2437
-97 -354 2431
-91 -355 2436
-83 -354 2429
-76 -354 2427
-69 -353 2426
-62 -353 2424
-55 -353 2424
-48 -353 2421
-41 -353 2424
-34 -353 2420
-27 -351 2407
-20 -351 2410
-13 -351 2406
-6 -352 2410
0 -351 2408
7 -351 2403
14 -349 2395
21 -350 2399
28 -349 2391
35 -349 2393
42 -349 2387
49 -349 2387
55 -348 2379
62 -348 2384
69 -348 2382
76 -347 2377
83 -346 2369
90 -347 2375
96 -347 2370
103 -345 2360
110 -346 2361
117 -345 2360
123 -345 2358
130 -344 2350
137 -346 2359
144 -346 2361
150 -343 2338
154 -338 2305
160 -336 2295
167 -337 2300
175 -339 2310
184 -343 2338
190 -343 2335
197 -343 2337
204 -343 2332
210 -341 2324
217 -342 2326
224 -342 2329
231 -343 2330
237 -342 2322
243 -341 2317
250 -341 2316
257 -342 2320
262 -340 2309
270 -341 2311
277 -341 2315
283 -341 2312
289 -340 2304
295 -340 2299
303 -341 2308
309 -340 2300
314 -339 2290
323 -340 2301
329 -340 2298
335 -339 2291
342 -340 2295
349 -340 2292
356 -340 2293
362 -340 2293
367 -339 2282
374 -338 2279
380 -338 2273
385 -337 2267
393 -338 2271
404 -342 2298
413 -344 2309
421 -344 2311
432 -348 2335
438 -347 2329
442 -345 2311
446 -343 2298
445 -337 2260
451 -337 2253
454 -334 2233
452 -328 2190
458 -327 2187
465 -328 2191
472 -329 2193
480 -329 2196
492 -334 2223
502 -336 2238
516 -341 2267
526 -343 2281
533 -343 2280
539 -343 2277
549 -345 2289
556 -345 2287
566 -347 2299
566 -343 2270
566 -339 2242
576 -341 2253
585 -342 2263
591 -342 2258
596 -341 2251
601 -340 2241
609 -341 2248
610 -338 2223
618 -338 2226
628 -340 2238
640 -344 2257
643 -341 2241
653 -343 2252
662 -345 2258
669 -344 2255
673 -343 2246
681 -344 2248
684 -342 2234
691 -342 2232
683 -335 2185
681 -331 2156
682 -328 2135
690 -329 2139
701 -331 2153
708 -331 2150
710 -329 2135
712 -328 2122
722 -329 2129
729 -330 2131
732 -328 2119
739 -328 2117
747 -329 2121
754 -330 2121
759 -329 2113
760 -327 2098
773 -329 2112
783 -331 2122
784 -329 2104
795 -331 2115
795 -328 2096
814 -333 2127
813 -330 2106
821 -331 2108
827 -331 2104
826 -328 2081
847 -334 2116
846 -331 2097
863 -335 2121
866 -334 2108
873 -334 2107
860 -326 2058
882 -332 2094
887 -332 2087
885 -329 2065
890 -328 2060
908 -333 2084
930 -338 2117
923 -333 2084
935 -335 2094
940 -335 2088
928 -329 2045
935 -329 2042
952 -332 2062
969 -336 2083
985 -340 2101
1013 -347 2144
981 -334 2059
973 -329 2027
977 -328 2019
989 -330 2027
940 -311 1911
896 -295 1808
890 -291 1781
903 -293 1793
909 -294 1791
903 -290 1766
912 -291 1770
918 -291 1767
930 -293 1776
929 -291 1761
934 -291 1757
941 -292 1758
944 -290 1749
953 -292 1754
959 -292 1750
960 -290 1739
968 -291 1742
972 -291 1736
983 -292 1742
-1295 -351 2229
-1281 -349 2220
-1264 -347 2208
-1258 -347 2213
-1254 -348 2222
-1232 -344 2199
-1224 -343 2201
-1216 -343 2204
-1202 -342 2195
-1197 -342 2202
-1180 -339 2187
-1174 -340 2192
-1161 -338 2184
-1153 -338 2185
-1138 -335 2173
-1129 -335 2172
-1116 -333 2163
-1103 -331 2155
-1102 -333 2171
-1087 -331 2157
-1076 -329 2151
-1070 -330 2156
-1056 -328 2145
-1055 -329 2159
-1044 -328 2154
-1034 -327 2149
-1036 -330 2172
-1028 -330 2171
-1022 -330 2175
-1021 -332 2192
-1028 -336 2224
-1012 -334 2208
-980 -325 2154
-976 -326 2163
-980 -330 2191
-999 -339 2250
-997 -341 2265
-992 -341 2271
-985 -341 2274
-987 -344 2298
-983 -345 2308
-977 -346 2313
-975 -348 2328
-972 -349 2341
-964 -349 2341
-962 -351 2357
-961 -353 2374
-956 -354 2382
-952 -356 2395
-947 -357 2402
-944 -358 2415
-945 -361 2439
-933 -360 2431
-928 -361 2439
-927 -363 2458
-921 -364 2465
-921 -367 2486
-916 -368 2495
-911 -369 2507
-907 -371 2518
-898 -370 2515
-895 -372 2532
-894 -375 2552
-887 -375 2556
-878 -375 2557
-880 -379 2585
-871 -379 2583
-867 -381 2599
-862 -382 2609
-859 -384 2625
-853 -385 2633
-842 -384 2626
-842 -387 2651
-830 -385 2641
-828 -388 2662
-818 -387 2659
-816 -390 2679
-810 -391 2688
-802 -391 2691
-798 -393 2704
-791 -394 2710
-775 -390 2684
-759 -386 2659
-750 -386 2659
-739 -384 2647
-730 -383 2645
-723 -384 2651
-716 -384 2654
-705 -383 2645
-695 -382 2640
-687 -382 2640
-681 -383 2649
-671 -382 2643
-661 -380 2635
-652 -380 2632
-641 -378 2619
-635 -379 2629
-625 -378 2621
-618 -378 2625
-610 -378 2624
-601 -377 2618
-591 -376 2610
-584 -377 2617
-574 -375 2606
-564 -374 2598
-557 -374 2600
-549 -374 2603
-540 -373 2597
-532 -372 2594
-524 -373 2596
-514 -371 2583
-506 -370 2580
-499 -371 2584
-489 -369 2575
-482 -370 2579
-473 -368 2569
-463 -367 2561
-456 -367 2562
-448 -366 2557
-441 -368 2567
-432 -366 2554
-422 -364 2540
-415 -364 2545
-407 -364 2543
-400 -364 2543
-392 -363 2541
-384 -363 2539
-376 -363 2537
-369 -363 2537
-360 -361 2527
-353 -362 2533
-345 -361 2530
-336 -360 2517
-330 -361 2525
-321 -359 2516
-313 -359 2511
-305 -358 2510
-298 -358 2506
-290 -357 2503
-282 -357 2498
-274 -356 2493
-267 -356 2492
-259 -355 2491
-251 -354 2484
-243 -354 2478
-237 -355 2487
-229 -354 2483
-221 -353 2474
-215 -354 2479
-206 -352 2469
-199 -352 2467
-192 -352 2469
-184 -350 2455
-177 -350 2455
-169 -350 2452
-162 -350 2456
-155 -350 2453
-148 -350 2453
-141 -350 2453
-134 -350 2456
-126 -349 2449
-119 -348 2438
-112 -348 2441
-104 -347 2434
-97 -346 2428
-90 -347 2432
-83 -346 2423
-76 -347 2431
-69 -347 2428
-62 -346 2421
-55 -346 2423
-48 -346 2423
-41 -346 2422
-34 -345 2419
-27 -346 2419
-20 -345 2413
-13 -345 2413
-6 -344 2410
0 -343 2400
7 -343 2400
14 -343 2399
21 -344 2403
28 -343 2400
35 -342 2391
42 -341 2386
49 -342 2389
56 -341 2383
63 -343 2397
70 -342 2390
76 -342 2387
84 -343 2393
90 -339 2368
97 -340 2372
103 -338 2359
110 -339 2362
117 -339 2366
124 -340 2367
130 -339 2361
138 -340 2370
145 -340 2372
151 -338 2357
153 -329 2291
161 -331 2307
166 -329 2287
176 -334 2325
184 -338 2349
191 -337 2340
200 -342 2374
205 -337 2345
210 -335 2328
216 -334 2320
224 -336 2335
230 -335 2325
237 -336 2330
244 -335 2323
250 -335 2319
257 -335 2322
263 -334 2316
270 -334 2314
276 -334 2310
282 -333 2300
288 -332 2297
296 -334 2305
304 -335 2313
309 -333 2301
316 -333 2301
322 -333 2296
329 -333 2299
335 -333 2294
342 -333 2295
349 -333 2293
355 -333 2292
363 -334 2300
368 -332 2284
374 -332 2282
380 -331 2277
386 -331 2272
392 -330 2267
403 -334 2289
415 -338 2318
423 -340 2327
432 -341 2333
439 -341 2337
444 -340 2324
451 -340 2326
450 -334 2284
455 -333 2275
466 -336 2296
470 -335 2282
470 -330 2248
480 -332 2260
488 -333 2265
493 -332 2256
498 -331 2249
502 -329 2237
515 -333 2264
524 -335 2271
534 -337 2285
536 -334 2263
548 -337 2284
555 -337 2284
556 -334 2259
560 -332 2247
571 -335 2262
576 -334 2255
586 -336 2266
587 -333 2245
592 -332 2235
598 -332 2234
610 -335 2250
615 -334 2244
620 -333 2237
629 -334 2242
635 -334 2237
644 -335 2247
650 -335 2240
660 -337 2251
667 -337 2251
675 -337 2252
683 -338 2257
687 -337 2246
695 -338 2247
687 -330 2196
684 -326 2165
690 -325 2161
695 -325 2157
706 -327 2168
706 -324 2148
716 -326 2156
724 -327 2158
727 -325 2146
737 -327 2154
744 -327 2155
741 -323 2125
757 -327 2148
761 -326 2139
762 -323 2122
768 -324 2121
782 -327 2139
793 -328 2148
789 -324 2120
794 -324 2112
807 -326 2127
819 -329 2141
836 -333 2166
827 -327 2123
836 -328 2128
827 -322 2087
854 -330 2134
845 -324 2094
850 -323 2088
863 -326 2102
870 -326 2101
875 -326 2096
882 -326 2094
890 -326 2095
901 -328 2103
903 -326 2090
910 -327 2090
920 -328 2095
923 -327 2085
935 -329 2095
940 -328 2089
935 -324 2059
954 -329 2085
946 -324 2051
964 -328 2073
984 -332 2099
1008 -338 2134
981 -327 2060
976 -323 2034
993 -327 2051
992 -324 2035
934 -303 1900
897 -290 1811
896 -287 1793
894 -285 1776
904 -286 1782
908 -286 1775
916 -287 1778
920 -286 1772
928 -287 1773
935 -287 1773
938 -287 1767
938 -285 1753
945 -285 1753
952 -286 1753
960 -286 1753
965 -286 1750
968 -285 1742
978 -287 1747
983 -287 1743
-1294 -343 2227
-1288 -344 2234
-1270 -341 2219
-1255 -339 2208
-1248 -339 2214
-1235 -337 2206
-1217 -334 2190
-1210 -335 2194
-1201 -334 2193
-1195 -334 2199
-1181 -333 2190
-1176 -333 2196
-1161 -331 2185
-1153 -331 2187
-1135 -328 2169
-1128 -327 2171
-1122 -328 2178
-1112 -327 2175
-1112 -329 2191
-1090 -325 2163
-1094 -328 2188
-1082 -326 2181
-1072 -326 2179
-1067 -326 2184
-1068 -329 2204
-1069 -331 2223
-1057 -330 2217
-1051 -330 2220
-1043 -330 2222
-1033 -329 2218
-1027 -329 2223
-1016 -328 2217
-980 -319 2157
-976 -319 2164
-982 -324 2196
-997 -331 2247
-994 -332 2259
-992 -334 2273
-983 -334 2271
-983 -336 2289
-985 -339 2313
-977 -339 2314
-976 -341 2331
-968 -341 2332
-964 -342 2344
-967 -346 2370
-960 -346 2374
-956 -347 2383
-954 -349 2399
-950 -350 2410
-943 -351 2414
-940 -352 2429
-935 -353 2435
-932 -355 2451
-929 -357 2465
-925 -358 2475
-921 -359 2487
-914 -360 2492
-913 -363 2513
-903 -362 2507
-899 -363 2519
-893 -364 2527
-890 -366 2543
-890 -369 2567
-879 -368 2559
-877 -370 2579
-873 -372 2592
-870 -374 2608
-864 -375 2616
-856 -375 2617
-847 -374 2615
-846 -377 2639
-842 -379 2653
-836 -380 2663
-825 -379 2656
-823 -382 2676
-815 -382 2677
-805 -381 2673
-802 -383 2692
-797 -385 2702
-786 -383 2694
-775 -382 2687
-763 -380 2674
-752 -379 2665
-739 -376 2650
-731 -376 2649
-710 -369 2603
-713 -375 2646
-691 -367 2593
-699 -376 2655
-691 -376 2655
-675 -372 2627
-667 -371 2626
-661 -372 2634
-647 -369 2613
-640 -369 2615
-634 -370 2624
-626 -371 2626
-617 -370 2620
-610 -370 2624
-599 -369 2614
-591 -368 2613
-584 -369 2616
-574 -367 2609
-564 -366 2599
-558 -367 2607
-549 -366 2603
-540 -365 2597
-533 -366 2601
-523 -364 2589
-515 -364 2587
-509 -365 2601
-497 -362 2575
-488 -361 2572
-480 -361 2571
-473 -361 2570
-463 -359 2558
-455 -359 2558
-448 -359 2563
-440 -359 2561
-432 -358 2556
-425 -359 2561
-414 -356 2543
-407 -356 2543
-400 -357 2548
-392 -356 2542
-385 -357 2550
-376 -355 2536
-367 -354 2527
-360 -354 2528
-352 -354 2527
-344 -353 2525
-338 -354 2531
-329 -353 2522
-321 -353 2521
-313 -351 2511
-306 -351 2513
-298 -351 2510
-290 -350 2504
-283 -350 2506
-275 -350 2505
-267 -348 2492
-259 -348 2487
-252 -348 2491
-244 -347 2482
-236 -347 2482
-229 -346 2477
-222 -346 2478
-213 -345 2467
-207 -345 2472
-200 -347 2483
-193 -347 2481
-184 -344 2459
-177 -345 2467
-170 -344 2459
-163 -344 2463
-155 -342 2450
-148 -343 2456
-141 -342 2451
-133 -342 2445
-126 -342 2446
-119 -341 2444
-112 -341 2438
-105 -342 2447
-98 -341 2439
-90 -340 2431
-83 -340 2434
-76 -340 2435
-69 -339 2426
-62 -338 2420
-55 -338 2417
-48 -338 2417
-41 -339 2423
-34 -340 2429
-27 -339 2421
-20 -339 2422
-13 -338 2419
-6 -338 2418
0 -338 2416
7 -337 2407
14 -336 2400
21 -336 2396
28 -336 2399
35 -336 2398
42 -334 2386
49 -335 2388
56 -335 2389
63 -335 2392
70 -335 2389
77 -336 2394
83 -334 2379
90 -334 2383
97 -333 2372
103 -330 2351
110 -331 2357
117 -331 2359
124 -332 2363
131 -332 2364
138 -333 2367
145 -335 2379
148 -325 2308
153 -323 2293
160 -323 2294
166 -322 2288
175 -327 2320
184 -330 2341
190 -329 2339
196 -327 2322
206 -332 2358
214 -335 2377
217 -329 2332
223 -328 2325
230 -328 2327
237 -328 2321
244 -328 2325
250 -327 2315
257 -328 2323
263 -327 2314
270 -327 2313
276 -327 2310
279 -323 2279
294 -332 2342
296 -327 2305
303 -327 2306
