VERSION 0.7
FIELDS x y z
SIZE 4 4 4
TYPE I I I
COUNT 1 1 1
WIDTH 3978
HEIGHT 1
VIEWPOINT 0.0 0.0 0.0 1.0 0.0 0.0 0.0
POINTS 3978
DATA ascii
-656 -115 3331
-664 -118 3424
0 0 0
-706 -130 3752
-711 -133 3839
-696 -132 3819
-706 -136 3936
-834 -164 4731
-861 -172 4963
-847 -172 4966
-837 -173 4994
-821 -173 4986
-809 -174 5005
-20 -3 141
-20 -3 145
-19 -3 143
-18 -3 139
-14 -2 111
-10 -1 90
-15 -2 123
-16 -3 135
-3 0 42
-11 -2 102
-8 -1 83
-6 -1 69
-33 -8 284
-65 -18 559
-66 -19 580
-53 -15 483
-55 -16 509
-72 -22 685
-96 -31 929
-90 -30 896
-102 -35 1037
-111 -39 1157
-123 -45 1321
0 0 0
-100 -39 1155
-107 -43 1268
-99 -41 1216
-98 -43 1252
-93 -42 1230
-85 -40 1171
-84 -41 1205
-79 -40 1183
-80 -42 1248
-73 -41 1202
-72 -42 1243
-67 -41 1214
-66 -43 1258
0 0 0
-192 -140 3995
-180 -140 3975
-165 -137 3887
-157 -140 3972
-147 -141 4011
-131 -137 3892
-123 -140 3972
-113 -142 4029
-99 -139 3942
-87 -138 3904
-77 -141 3999
-65 -140 3955
-53 -138 3898
-42 -139 3938
-31 -139 3929
-19 -135 3809
-8 -141 3985
2 -137 3876
0 0 0
0 0 0
0 0 0
0 0 0
0 0 0
0 0 0
0 0 0
0 0 0
0 0 0
0 0 0
0 0 0
0 0 0
0 0 0
0 0 0
0 0 0
0 0 0
0 0 0
0 0 0
0 0 0
0 0 0
0 0 0
0 0 0
0 0 0
0 0 0
84 -39 1132
100 -46 1301
104 -46 1305
97 -41 1176
0 0 0
355 -148 4086
360 -145 4008
373 -146 4020
356 -135 3722
364 -134 3694
352 -125 3463
366 -127 3499
365 -123 3397
369 -121 3344
368 -118 3251
364 -114 3128
363 -111 3048
372 -111 3050
379 -110 3034
380 -108 2973
373 -104 2845
377 -103 2816
394 -105 2881
414 -108 2961
420 -107 2941
432 -108 2965
438 -108 2948
451 -109 2975
458 -109 2969
469 -109 2980
479 -110 2990
485 -109 2969
482 -107 2901
469 -102 2768
467 -100 2711
467 -98 2663
479 -99 2688
484 -98 2669
497 -100 2696
502 -99 2684
511 -100 2689
513 -98 2656
506 -96 2580
333 -61 1665
325 -59 1602
352 -63 1709
375 -66 1795
344 -60 1622
272 -46 1259
221 -37 1008
199 -32 892
233 -38 1035
0 0 0
0 0 0
190 -29 808
0 0 0
141 -20 579
0 0 0
149 -21 595
0 0 0
0 0 0
0 0 0
75 -9 280
17 0 50
1271 -185 4842
1284 -185 4832
1308 -187 4865
1311 -185 4823
0 0 0
0 0 0
0 0 0
0 0 0
0 0 0
0 0 0
0 0 0
0 0 0
0 0 0
0 0 0
0 0 0
0 0 0
1032 -128 3293
0 0 0
0 0 0
0 0 0
0 0 0
0 0 0
0 0 0
918 -107 2730
990 -114 2917
1011 -116 2948
0 0 0
0 0 0
0 0 0
0 0 0
0 0 0
1051 -115 2897
1061 -115 2899
1065 -114 2882
1072 -114 2875
1084 -115 2881
1085 -114 2858
1080 -113 2820
1082 -112 2799
1098 -113 2818
1099 -112 2795
1090 -110 2749
1089 -109 2721
1075 -107 2662
1085 -107 2665
1094 -108 2665
1089 -106 2629
1095 -106 2621
1091 -105 2590
1092 -104 2570
1097 -104 2562
1080 -102 2500
1100 -103 2526
1093 -102 2489
1075 -99 2429
1097 -101 2457
1088 -99 2418
1097 -99 2418
1099 -99 2404
1105 -99 2396
1111 -99 2390
1100 -97 2349
1102 -97 2334
1086 -95 2281
1110 -96 2314
1102 -95 2280
1065 -91 2185
1050 -89 2138
1052 -89 2125
1057 -89 2120
1057 -88 2104
1050 -87 2072
1054 -87 2065
1056 -87 2053
1052 -86 2030
1057 -86 2023
1056 -85 2007
1061 -85 2002
1071 -86 2005
1061 -84 1971
1062 -84 1959
1063 -84 1947
1065 -83 1936
1069 -83 1929
1072 -83 1919
-473 -26 824
-479 -26 840
-478 -26 846
-469 -26 836
-460 -25 826
-474 -26 858
-468 -26 852
-475 -27 872
-470 -27 870
-468 -27 871
-495 -29 929
-523 -31 990
-919 -56 1751
-1091 -67 2094
-1087 -67 2101
-1077 -67 2098
-1071 -67 2103
-1065 -67 2106
-1055 -67 2103
-1046 -67 2101
-1037 -67 2098
-1031 -67 2102
-1023 -67 2103
-1016 -67 2104
-1007 -67 2103
-1000 -67 2104
-992 -67 2104
-989 -67 2115
-975 -66 2101
-969 -66 2105
-963 -67 2108
-957 -67 2111
-955 -67 2124
-938 -66 2104
-912 -65 2061
-911 -65 2077
-902 -65 2072
-891 -65 2066
-878 -64 2052
-886 -66 2087
-880 -66 2090
-874 -66 2093
-858 -65 2072
-852 -65 2077
-849 -65 2087
-833 -65 2064
-819 -64 2047
-804 -63 2027
-811 -64 2061
-807 -65 2071
-799 -65 2069
-798 -65 2085
-792 -65 2088
-785 -65 2086
-776 -65 2082
-770 -65 2085
-763 -65 2083
-755 -65 2082
-739 -64 2056
-737 -64 2069
-725 -64 2055
-724 -65 2072
-717 -64 2070
-721 -66 2102
-719 -66 2118
-709 -66 2106
-699 -65 2098
-682 -64 2068
-685 -65 2098
-687 -66 2123
-676 -66 2109
-668 -66 2106
-650 -64 2072
-651 -65 2097
-640 -65 2083
-632 -65 2076
-632 -65 2099
-629 -66 2113
-624 -66 2118
-614 -66 2107
-610 -66 2115
-599 -65 2101
-596 -66 2113
-592 -66 2121
-584 -66 2116
-576 -66 2111
-568 -65 2106
-560 -65 2101
-562 -66 2132
-551 -66 2115
-543 -66 2110
-539 -66 2122
-529 -66 2109
-526 -66 2120
-517 -66 2110
-512 -66 2115
-507 -66 2120
-498 -66 2112
-492 -66 2112
-487 -66 2120
-504 -69 2224
-561 -78 2505
-585 -83 2651
-590 -85 2707
-619 -90 2879
0 0 0
-681 -103 3260
0 0 0
0 0 0
-681 -107 3405
-626 -100 3179
-684 -111 3527
-714 -118 3738
-715 -120 3804
-714 -122 3857
-696 -121 3823
-703 -124 3923
-820 -148 4650
-861 -158 4965
-848 -158 4975
-836 -159 4989
2 1 -4
-807 -159 4995
2 1 0
-16 -2 120
-30 -5 211
-14 -2 113
-10 -1 86
-5 0 53
-11 -1 96
-9 -1 82
-5 0 54
-4 0 49
-4 0 54
-8 -1 84
-33 -7 285
-79 -20 673
-68 -17 596
-51 -13 470
-55 -15 513
-71 -20 674
-85 -25 822
-93 -28 927
-111 -35 1129
-116 -38 1214
-121 -40 1303
-109 -38 1215
-113 -40 1299
-98 -36 1172
-98 -38 1215
-99 -39 1261
-88 -36 1169
-87 -37 1206
-81 -36 1161
-78 -36 1170
-78 -38 1218
-79 -40 1290
-72 -39 1238
-63 -36 1156
-62 -37 1200
-208 -131 4078
-187 -125 3880
-176 -125 3882
-166 -126 3910
-154 -126 3890
-143 -126 3915
-131 -125 3878
-121 -127 3922
-110 -127 3916
-98 -126 3893
-86 -126 3885
-76 -128 3944
-64 -127 3901
-53 -127 3915
-41 -125 3849
-31 -127 3896
-19 -127 3895
-8 -127 3918
2 -126 3857
13 -128 3927
25 -128 3914
35 -125 3820
47 -128 3924
58 -128 3911
69 -127 3890
83 -131 4014
91 -127 3880
104 -129 3928
115 -129 3935
124 -127 3871
137 -129 3916
148 -129 3914
161 -130 3945
175 -132 4004
184 -130 3946
194 -129 3926
204 -128 3898
219 -131 3961
231 -131 3978
243 -132 3990
257 -133 4029
262 -130 3931
272 -129 3900
288 -131 3966
97 -41 1265
104 -42 1304
92 -35 1102
0 0 0
367 -140 4217
357 -132 3969
346 -124 3725
354 -123 3702
360 -122 3654
358 -117 3521
360 -115 3442
371 -115 3457
380 -115 3448
363 -107 3204
349 -100 3003
366 -103 3074
377 -103 3085
388 -104 3107
387 -101 3024
362 -93 2766
384 -96 2865
392 -96 2863
407 -98 2909
419 -99 2937
435 -101 2985
437 -99 2943
453 -101 2990
456 -100 2953
467 -100 2965
473 -100 2950
484 -100 2962
468 -95 2817
462 -92 2726
474 -93 2750
467 -90 2665
479 -91 2686
482 -90 2662
497 -92 2700
500 -91 2672
507 -91 2666
512 -90 2650
493 -86 2513
335 -57 1676
350 -58 1723
365 -60 1773
370 -60 1773
343 -55 1616
258 -40 1195
0 0 0
0 0 0
0 0 0
0 0 0
184 -26 791
100 -13 418
104 -13 427
159 -21 656
127 -16 511
184 -24 741
0 0 0
0 0 0
0 0 0
69 -7 254
1263 -172 4868
16 0 45
1289 -172 4853
1312 -173 4882
1301 -169 4784
0 0 0
0 0 0
0 0 0
0 0 0
0 0 0
0 0 0
0 0 0
0 0 0
0 0 0
0 0 0
0 0 0
0 0 0
995 -114 3173
0 0 0
0 0 0
0 0 0
0 0 0
0 0 0
0 0 0
1035 -111 3078
1034 -110 3046
1044 -110 3047
1035 -108 2990
0 0 0
0 0 0
0 0 0
0 0 0
1055 -106 2909
1051 -105 2870
1067 -106 2888
1074 -106 2882
1082 -106 2876
1092 -106 2876
1089 -105 2844
1080 -103 2795
1089 -103 2794
1092 -103 2777
1076 -101 2713
1084 -101 2709
1081 -100 2679
1083 -99 2660
1098 -100 2673
1100 -99 2657
1100 -99 2634
1095 -97 2599
1096 -97 2580
1099 -96 2566
1101 -96 2550
1102 -95 2530
1095 -94 2493
1109 -95 2506
1089 -92 2440
1103 -93 2451
1106 -93 2439
1102 -92 2409
1123 -93 2437
1113 -92 2395
1099 -90 2347
1107 -90 2345
1112 -90 2337
1112 -89 2318
1100 -88 2277
1066 -84 2187
1053 -83 2144
1056 -83 2134
1055 -82 2116
1055 -82 2099
1061 -82 2095
1057 -81 2070
1053 -80 2047
1060 -80 2045
1064 -80 2039
1061 -79 2017
1062 -79 2004
1064 -79 1992
1063 -78 1976
1073 -78 1979
1072 -78 1963
1070 -77 1944
1070 -77 1929
1067 -76 1909
-482 -23 840
-483 -24 848
-482 -24 853
-469 -23 837
-471 -23 846
-463 -23 838
-470 -24 857
-470 -24 863
-479 -24 886
-482 -25 899
-495 -26 930
-522 -27 988
-944 -51 1798
-1095 -60 2102
-1088 -60 2103
-1080 -60 2104
-1071 -60 2103
-1062 -60 2102
-1057 -60 2107
-1049 -60 2108
-1040 -60 2105
-1034 -60 2109
-1024 -60 2105
-1016 -60 2105
-1006 -60 2100
-1001 -60 2107
-993 -60 2107
-981 -60 2097
-976 -60 2102
-969 -60 2105
-961 -60 2103
-958 -60 2114
-950 -60 2114
-941 -60 2110
-911 -58 2061
-902 -58 2056
-903 -59 2075
-885 -58 2051
-892 -59 2085
-883 -59 2080
-876 -59 2081
-870 -59 2083
-859 -59 2076
-853 -59 2079
-851 -59 2090
-843 -59 2090
-807 -57 2019
-813 -58 2050
-808 -58 2056
-788 -57 2021
-803 -59 2078
-798 -59 2085
-790 -59 2081
-787 -59 2091
-775 -59 2079
-772 -59 2089
-759 -58 2073
-754 -59 2079
-747 -59 2079
-748 -59 2101
-731 -58 2071
-726 -58 2076
-717 -58 2071
-726 -60 2116
-713 -59 2100
-704 -59 2091
-692 -58 2077
-684 -58 2072
-682 -59 2088
-689 -60 2131
-677 -59 2113
-666 -59 2101
-657 -59 2093
-646 -59 2081
-632 -58 2058
-629 -58 2067
-633 -59 2103
-626 -59 2100
-624 -60 2116
-615 -59 2109
-609 -59 2113
-605 -60 2121
-596 -59 2113
-587 -59 2103
-579 -59 2098
-576 -59 2112
-573 -60 2127
-568 -60 2132
-560 -60 2125
-553 -60 2125
-545 -60 2120
-541 -60 2128
-532 -60 2120
-527 -60 2124
-519 -60 2119
-510 -59 2107
-506 -60 2117
-499 -60 2118
-491 -59 2110
-489 -60 2128
-490 -61 2163
-506 -64 2263
-510 -65 2312
0 0 0
0 0 0
0 0 0
0 0 0
0 0 0
0 0 0
0 0 0
0 0 0
0 0 0
0 0 0
0 0 0
0 0 0
0 0 0
0 0 0
-850 -139 4818
-861 -143 4965
-849 -144 4984
-836 -144 4994
-819 -144 4981
-805 -144 4985
-3 0 37
-14 -1 107
-24 -3 172
-17 -2 128
-12 -1 98
-10 -1 88
-9 0 79
-10 -1 93
-15 -2 127
-8 0 77
-6 0 66
-8 -1 87
-32 -6 279
-73 -16 624
-62 -14 545
-56 -13 513
-49 -12 462
-71 -18 675
-80 -21 772
-100 -27 992
-98 -28 997
-105 -31 1101
-120 -36 1288
0 0 0
-99 -32 1143
-98 -33 1170
-99 -34 1217
-95 -34 1220
-89 -33 1183
-88 -34 1217
-86 -35 1235
-77 -33 1162
-83 -37 1296
-72 -33 1186
-73 -35 1252
-68 -35 1243
-65 -35 1237
-210 -121 4122
-190 -116 3954
-177 -115 3921
-166 -115 3928
-153 -114 3878
-142 -114 3886
-135 -118 3992
-123 -118 3997
-112 -118 4013
-99 -117 3956
-89 -118 4010
-77 -118 4007
-66 -119 4012
-55 -121 4075
-42 -117 3953
-31 -119 4001
-20 -117 3948
-8 -118 3976
2 -118 3975
14 -119 3995
26 -122 4088
37 -120 4029
49 -121 4060
59 -119 3991
72 -120 4042
82 -119 3987
94 -119 4002
105 -118 3962
118 -121 4046
127 -118 3947
138 -118 3945
149 -118 3939
160 -117 3915
170 -117 3893
182 -117 3910
192 -117 3890
205 -118 3909
216 -117 3905
226 -117 3889
239 -118 3922
251 -119 3936
261 -118 3903
273 -118 3921
283 -118 3898
0 0 0
100 -37 1253
97 -34 1174
0 0 0
355 -124 4084
382 -129 4252
371 -122 3995
356 -113 3713
380 -117 3854
362 -108 3558
360 -105 3440
340 -96 3166
346 -95 3133
351 -94 3097
346 -91 2978
358 -91 2999
369 -92 3022
383 -94 3062
366 -87 2860
360 -84 2748
374 -86 2794
393 -88 2871
413 -91 2953
418 -90 2932
423 -89 2903
438 -91 2945
448 -91 2960
456 -91 2950
463 -91 2944
475 -91 2959
469 -89 2873
462 -86 2778
461 -84 2722
458 -82 2659
468 -83 2669
480 -84 2693
483 -83 2666
491 -83 2666
502 -84 2684
505 -83 2657
518 -84 2681
493 -78 2510
423 -66 2118
364 -56 1796
363 -55 1765
374 -56 1791
352 -51 1658
0 0 0
0 0 0
0 0 0
0 0 0
0 0 0
156 -20 669
66 -7 272
124 -15 513
67 -7 266
0 0 0
109 -12 431
123 -14 485
0 0 0
0 0 0
58 -5 212
1266 -158 4879
1280 -158 4876
1284 -156 4832
1289 -156 4797
1292 -154 4753
0 0 0
0 0 0
0 0 0
0 0 0
0 0 0
0 0 0
0 0 0
0 0 0
0 0 0
0 0 0
0 0 0
0 0 0
0 0 0
0 0 0
0 0 0
0 0 0
0 0 0
0 0 0
0 0 0
0 0 0
1057 -103 3115
1004 -97 2930
0 0 0
0 0 0
0 0 0
0 0 0
0 0 0
1040 -96 2866
1059 -97 2894
1066 -97 2886
1071 -97 2874
1084 -97 2883
1090 -97 2871
1088 -96 2842
1087 -95 2813
1083 -94 2779
1078 -93 2742
1081 -93 2725
1074 -91 2683
1089 -92 2699
1090 -91 2677
1092 -91 2660
1092 -90 2638
1092 -90 2615
1082 -88 2569
1094 -89 2575
1089 -88 2544
1096 -88 2538
1107 -88 2541
1104 -87 2514
1098 -86 2482
1094 -85 2451
1098 -85 2439
1110 -85 2447
1097 -84 2399
1114 -85 2416
1114 -84 2398
1108 -83 2366
1113 -83 2359
1113 -83 2340
1111 -82 2316
1109 -81 2294
1065 -77 2186
1058 -76 2154
1055 -76 2131
1052 -75 2109
1046 -74 2082
1053 -74 2079
1055 -74 2068
1055 -74 2050
1059 -73 2044
1060 -73 2031
1059 -73 2014
1069 -73 2017
1061 -72 1987
1069 -72 1987
1070 -72 1974
1068 -71 1956
1069 -71 1943
1070 -71 1931
1073 -70 1921
-487 -21 849
-474 -20 832
-479 -21 848
-469 -20 835
-472 -21 848
-459 -20 830
-473 -21 863
-478 -21 877
-477 -22 883
-483 -22 901
-491 -23 922
-525 -24 992
-956 -46 1821
-1090 -53 2093
-1087 -54 2102
-1079 -54 2102
-1072 -54 2104
-1062 -54 2101
-1054 -54 2101
-1051 -54 2111
-1036 -53 2098
-1031 -54 2104
-1020 -53 2098
-1016 -54 2106
-1008 -53 2106
-1001 -53 2106
-995 -54 2110
-982 -53 2099
-977 -53 2105
-972 -53 2110
-964 -53 2111
-952 -53 2101
-950 -53 2113
-940 -53 2109
-917 -52 2074
-914 -53 2084
-908 -53 2088
-893 -52 2069
-889 -52 2077
-882 -52 2079
-876 -53 2083
-869 -53 2083
-868 -53 2098
-855 -52 2082
-852 -53 2095
-836 -52 2073
-817 -51 2043
-825 -52 2081
-812 -52 2065
-809 -52 2077
-806 -53 2087
-795 -52 2076
-792 -53 2088
-786 -53 2091
-773 -52 2075
-774 -53 2095
-760 -52 2078
-759 -53 2094
-731 -51 2035
-743 -52 2088
-737 -53 2090
-730 -52 2088
-720 -52 2079
-721 -53 2102
-717 -53 2113
-706 -53 2099
-703 -53 2111
-688 -52 2087
-692 -53 2118
-689 -54 2129
-682 -54 2130
-668 -53 2109
-655 -52 2089
-640 -52 2062
-635 -52 2066
-630 -52 2072
-634 -53 2107
-626 -53 2102
-620 -53 2104
-616 -53 2115
-607 -53 2104
-602 -53 2112
-596 -53 2114
-589 -53 2111
-580 -53 2103
-574 -53 2105
-570 -53 2116
-563 -53 2114
-559 -53 2121
-553 -54 2125
-549 -54 2135
-541 -54 2128
-535 -54 2131
-527 -54 2124
-518 -53 2113
-511 -53 2111
-505 -53 2113
-497 -53 2106
-493 -53 2117
-485 -53 2113
-471 -52 2077
-467 -53 2089
-472 -54 2140
0 0 0
-444 -52 2072
0 0 0
0 0 0
0 0 0
0 0 0
0 0 0
0 0 0
0 0 0
0 0 0
0 0 0
0 0 0
0 0 0
0 0 0
-868 -128 4922
-864 -129 4985
-848 -129 4975
-833 -129 4977
-819 -129 4979
-806 -130 4992
2 1 -2
-2 0 29
-28 -3 201
-16 -1 124
-17 -2 135
-18 -2 139
-11 -1 99
-16 -2 133
-7 0 72
-4 0 53
-4 0 54
-3 0 47
-28 -5 245
-75 -15 640
-73 -15 639
-53 -11 480
-52 -11 491
-66 -15 630
-71 -16 688
-88 -21 871
-82 -21 845
-96 -25 1008
-116 -32 1253
-118 -33 1309
-102 -29 1173
-96 -29 1144
-99 -31 1218
-95 -31 1212
-93 -31 1235
-80 -28 1112
-82 -30 1178
-83 -32 1246
-81 -32 1273
-76 -32 1248
-72 -32 1245
-65 -30 1185
-57 -27 1091
-216 -112 4236
-193 -106 4021
-182 -106 4017
-172 -108 4075
-163 -110 4137
-145 -106 3977
-157 -124 4659
-7 -7 332
-5 -5 268
-5 -6 308
-3 -5 256
-4 -8 375
-4 -10 422
-5 -13 551
-1 -8 347
0 -8 366
1 -3 192
2 -3 175
2 -2 125
3 -5 251
3 -3 169
5 -6 285
3 0 21
74 -135 5017
87 -132 4896
100 -131 4859
112 -129 4783
128 -132 4867
136 -126 4654
148 -125 4624
168 -130 4799
174 -125 4590
174 -116 4276
176 -109 4020
190 -111 4088
197 -108 3985
209 -109 3993
217 -107 3934
230 -108 3954
243 -108 3977
252 -108 3950
266 -109 3989
278 -109 3987
286 -108 3937
0 0 0
107 -36 1342
0 0 0
0 0 0
348 -110 3999
363 -111 4034
356 -105 3836
362 -104 3785
361 -101 3655
347 -94 3410
320 -84 3054
307 -78 2855
309 -77 2793
330 -80 2906
324 -77 2785
331 -76 2775
354 -80 2899
358 -79 2863
352 -76 2748
347 -73 2647
366 -76 2730
395 -80 2887
405 -81 2899
410 -80 2872
421 -80 2887
431 -81 2903
434 -80 2863
445 -80 2877
456 -81 2898
461 -80 2873
454 -78 2781
446 -75 2678
457 -76 2698
458 -75 2659
471 -75 2684
473 -75 2652
482 -75 2660
484 -74 2626
494 -74 2640
507 -75 2665
504 -74 2606
491 -71 2503
441 -62 2211
368 -51 1817
369 -50 1791
368 -49 1762
324 -43 1525
0 0 0
0 0 0
0 0 0
0 0 0
0 0 0
0 0 0
87 -9 359
0 0 0
155 -17 640
100 -10 402
0 0 0
0 0 0
99 -9 382
0 0 0
75 -6 278
29 -1 97
1262 -141 4807
1285 -142 4838
1285 -141 4781
0 0 0
0 0 0
0 0 0
0 0 0
0 0 0
0 0 0
0 0 0
0 0 0
0 0 0
0 0 0
0 0 0
0 0 0
0 0 0
0 0 0
0 0 0
0 0 0
0 0 0
0 0 0
0 0 0
0 0 0
0 0 0
998 -89 2939
1021 -90 2978
0 0 0
0 0 0
0 0 0
0 0 0
0 0 0
1049 -88 2892
1058 -88 2892
1066 -88 2886
1077 -89 2890
1084 -88 2883
1087 -88 2863
1089 -87 2844
1084 -86 2806
1082 -86 2776
1085 -85 2759
1091 -85 2750
1087 -84 2717
1095 -84 2713
1092 -83 2683
1088 -83 2649
1085 -82 2619
1092 -82 2615
1091 -81 2590
1086 -80 2557
1090 -80 2546
1090 -79 2525
1100 -80 2527
1105 -79 2518
1093 -78 2470
1106 -78 2477
1103 -78 2451
1103 -77 2433
1098 -76 2401
1111 -77 2411
1101 -76 2370
1106 -76 2361
1109 -75 2350
1112 -75 2337
1105 -74 2304
1113 -74 2303
1060 -70 2176
1060 -70 2158
1051 -69 2123
1056 -69 2117
1051 -68 2091
1053 -68 2078
1060 -68 2076
1062 -68 2065
1064 -67 2054
1061 -67 2031
1065 -67 2025
1068 -66 2014
1064 -66 1992
1064 -65 1978
1066 -65 1966
1058 -64 1937
1066 -65 1938
1067 -64 1926
1070 -64 1916
-489 -18 853
-482 -18 847
-473 -18 838
-471 -18 839
-480 -18 862
-456 -17 826
-460 -18 839
-469 -18 862
-485 -19 898
-493 -20 919
-497 -20 934
-527 -21 997
-974 -41 1856
-1094 -47 2099
-1089 -47 2106
-1079 -47 2103
-1069 -47 2099
-1064 -47 2105
-1057 -47 2107
-1049 -47 2107
-1039 -47 2105
-1031 -47 2104
-1024 -47 2106
-1017 -47 2107
-1007 -47 2102
-1002 -47 2110
-992 -47 2105
-985 -47 2106
-981 -47 2115
-972 -47 2112
-963 -47 2108
-956 -47 2111
-955 -47 2125
-932 -46 2092
-921 -46 2084
-908 -46 2070
-904 -46 2077
-893 -46 2070
-886 -46 2071
-886 -46 2087
-876 -46 2081
-877 -47 2101
-860 -46 2079
-853 -46 2080
-848 -46 2085
-842 -46 2087
-825 -46 2064
-823 -46 2076
-819 -46 2085
-802 -46 2058
-808 -46 2091
-802 -46 2096
-798 -47 2102
-787 -46 2093
-780 -46 2094
-771 -46 2087
-762 -46 2081
-757 -46 2087
-740 -46 2060
-721 -45 2026
-725 -45 2055
-728 -46 2084
-723 -46 2089
-724 -47 2110
-713 -46 2099
-711 -47 2115
-695 -46 2088
-696 -47 2109
-691 -47 2117
-687 -47 2124
-680 -47 2124
-666 -47 2103
-653 -46 2081
-640 -46 2060
-637 -46 2074
-632 -46 2079
-635 -47 2111
-630 -47 2115
-622 -47 2111
-612 -47 2098
-610 -47 2114
-600 -47 2104
-591 -47 2096
-592 -47 2124
-579 -47 2098
-575 -47 2109
-575 -47 2131
-567 -47 2129
-560 -47 2127
-554 -47 2130
-547 -47 2127
-539 -47 2123
-531 -47 2116
-529 -48 2133
-517 -47 2110
-509 -47 2103
-505 -47 2117
-498 -47 2113
-491 -47 2112
-482 -47 2097
-466 -46 2058
-455 -45 2036
-470 -48 2129
0 0 0
-434 -45 2022
-413 -44 1954
0 0 0
0 0 0
0 0 0
0 0 0
0 0 0
0 0 0
0 0 0
0 0 0
0 0 0
0 0 0
0 0 0
-865 -113 4908
-864 -115 4987
-850 -115 4992
-831 -115 4967
-820 -115 4984
-808 -116 5005
-791 -115 4987
2 1 -3
-13 0 100
-17 -1 128
-18 -1 143
-14 -1 116
-16 -1 130
-6 0 64
-11 0 99
-6 0 64
-5 0 62
-8 0 88
-28 -4 247
-80 -14 680
-76 -14 667
-56 -10 510
-48 -9 452
-61 -12 585
-79 -16 767
-84 -18 842
-93 -21 952
-101 -23 1062
-106 -25 1144
-101 -25 1131
-98 -25 1132
-92 -24 1098
-95 -26 1171
-89 -25 1143
-76 -22 1017
-79 -24 1101
-75 -24 1084
-76 -25 1142
-74 -26 1171
-68 -25 1122
-64 -25 1115
-65 -27 1190
-52 -22 1003
-217 -101 4266
-194 -95 4036
-180 -94 3977
0 0 0
0 0 0
0 0 0
-21 -15 701
-23 -18 832
-21 -18 827
-18 -18 840
-17 -19 865
-12 -17 779
-11 -19 842
-9 -19 846
-6 -18 831
-4 -19 841
-2 -19 856
0 -19 869
2 -19 857
5 -20 883
7 -19 849
10 -20 879
12 -19 862
14 -19 835
17 -18 827
20 -20 886
21 -18 802
23 -17 787
25 -18 789
27 -17 773
31 -18 816
32 -18 798
35 -18 803
32 -15 685
0 0 0
0 0 0
0 0 0
0 0 0
253 -106 4352
264 -106 4339
264 -101 4138
274 -100 4097
283 -99 4069
294 -99 4049
0 0 0
98 -29 1229
0 0 0
0 0 0
340 -96 3911
364 -99 4043
360 -96 3882
359 -92 3747
344 -86 3488
329 -79 3230
276 -64 2632
285 -65 2646
292 -65 2638
299 -65 2632
304 -64 2608
312 -64 2613
322 -65 2631
332 -65 2651
336 -65 2622
344 -65 2623
356 -66 2660
370 -67 2701
380 -67 2714
386 -67 2703
397 -68 2725
404 -68 2718
409 -67 2700
423 -68 2737
430 -68 2732
433 -68 2701
440 -67 2689
451 -68 2709
447 -66 2639
463 -67 2684
456 -65 2600
467 -66 2617
466 -65 2569
481 -66 2612
485 -65 2590
489 -65 2568
487 -64 2517
457 -59 2325
406 -51 2035
357 -44 1761
359 -44 1745
365 -44 1746
329 -39 1549
0 0 0
0 0 0
0 0 0
0 0 0
0 0 0
0 0 0
121 -11 506
103 -9 426
122 -11 500
81 -7 322
0 0 0
88 -7 342
0 0 0
0 0 0
35 -1 122
1256 -128 4839
1280 -129 4874
1281 -128 4822
5 1 3
1251 -122 4599
0 0 0
0 0 0
0 0 0
0 0 0
0 0 0
0 0 0
0 0 0
0 0 0
0 0 0
0 0 0
0 0 0
0 0 0
0 0 0
0 0 0
0 0 0
0 0 0
0 0 0
0 0 0
0 0 0
0 0 0
0 0 0
0 0 0
0 0 0
0 0 0
0 0 0
0 0 0
0 0 0
1050 -79 2895
1061 -80 2900
1066 -80 2887
1073 -79 2878
1078 -79 2865
1093 -80 2881
1080 -78 2821
1076 -77 2785
1083 -77 2778
1093 -77 2781
1079 -76 2720
1088 -76 2720
1090 -76 2702
1078 -74 2649
1095 -75 2666
1095 -74 2644
1092 -74 2615
1100 -74 2613
1093 -73 2574
1085 -72 2533
1098 -72 2542
1099 -72 2525
1098 -71 2501
1104 -71 2494
1100 -70 2465
1109 -71 2464
1098 -69 2421
1107 -70 2421
1107 -69 2403
1101 -68 2369
1118 -69 2388
1106 -68 2344
1110 -68 2333
1106 -67 2307
1108 -67 2293
1067 -64 2190
1059 -63 2158
1058 -62 2137
1060 -62 2125
1054 -62 2097
1064 -62 2101
1054 -61 2065
1057 -61 2056
1058 -60 2042
1060 -60 2031
1063 -60 2021
1070 -60 2019
1065 -59 1995
1068 -59 1985
1071 -59 1975
1069 -59 1957
1065 -58 1935
1064 -58 1920
1071 -58 1917
-481 -15 838
-482 -15 848
-480 -15 850
-467 -15 832
-474 -15 851
-465 -15 842
-465 -15 848
-476 -16 874
-462 -15 854
-482 -16 898
-481 -16 903
-541 -19 1023
-977 -36 1862
-1097 -40 2105
-1091 -40 2110
-1084 -41 2112
-1073 -40 2107
-1068 -41 2114
-1053 -40 2100
-1046 -40 2101
-1038 -40 2103
-1032 -40 2105
-1022 -40 2102
-1014 -40 2101
-1011 -40 2112
-1003 -40 2112
-991 -40 2103
-988 -40 2112
-975 -40 2102
-968 -40 2104
-965 -40 2113
-955 -40 2108
-952 -40 2119
-937 -40 2103
-920 -40 2082
-920 -40 2098
-899 -39 2067
-895 -40 2074
-882 -39 2063
-882 -40 2079
-873 -40 2074
-870 -40 2084
-860 -40 2078
-856 -40 2088
-848 -40 2084
-839 -40 2080
-829 -40 2072
-814 -39 2053
-802 -39 2042
-797 -39 2045
-799 -39 2070
-801 -40 2093
-789 -40 2079
-786 -40 2091
-776 -40 2083
-777 -40 2103
-767 -40 2097
-759 -40 2093
-738 -39 2053
-732 -39 2058
-728 -39 2065
-726 -40 2078
-723 -40 2088
-720 -40 2100
-713 -40 2100
-711 -40 2113
-699 -40 2100
-692 -40 2097
-685 -40 2097
-684 -40 2115
-682 -41 2132
-672 -41 2122
-645 -39 2055
-640 -39 2062
-635 -40 2068
-641 -40 2107
-634 -40 2106
-630 -41 2115
-621 -40 2107
-617 -41 2118
-608 -41 2110
-600 -40 2105
-593 -40 2104
-591 -41 2118
-579 -40 2099
-570 -40 2092
-570 -41 2115
-562 -41 2111
-557 -41 2114
-554 -41 2127
-545 -41 2120
-539 -41 2120
-533 -41 2124
-523 -41 2109
-522 -41 2131
-511 -41 2113
-505 -41 2117
-498 -41 2113
-493 -41 2119
-486 -41 2115
-469 -40 2068
-445 -39 1991
-439 -39 1991
-454 -41 2087
-436 -39 2035
0 0 0
0 0 0
0 0 0
0 0 0
0 0 0
0 0 0
0 0 0
0 0 0
-72 -6 395
-38 -3 217
-63 -5 356
0 0 0
-853 -97 4840
-858 -100 4952
-847 -100 4974
-831 -100 4968
-820 -101 4987
-803 -100 4973
-789 -100 4977
-777 -101 4991
-2 0 28
-16 -1 126
-11 0 93
-9 0 79
-5 0 56
-10 0 87
-9 0 83
-10 0 93
0 1 13
-4 0 52
-26 -3 228
-42 -6 365
-41 -6 371
-52 -8 473
-40 -6 382
-44 -7 426
-63 -11 620
-66 -12 661
-71 -13 737
-79 -16 838
-74 -15 805
-58 -12 658
-54 -11 637
-62 -14 755
-68 -16 847
-65 -16 844
-70 -18 943
-59 -16 830
-56 -15 819
-46 -13 703
-51 -15 820
-55 -17 911
-53 -18 928
-48 -17 888
-45 -17 873
-232 -94 4548
-199 -86 4137
-187 -86 4142
0 0 0
0 0 0
0 0 0
-29 -18 932
-25 -17 887
-21 -16 838
-20 -17 881
-17 -17 875
-14 -16 848
-13 -19 969
-10 -18 912
-7 -18 925
-5 -18 930
-2 -18 915
0 -16 844
2 -17 890
5 -17 901
8 -17 900
10 -18 932
12 -16 815
17 -19 985
19 -19 953
19 -16 838
24 -18 930
25 -17 882
26 -16 808
30 -17 878
33 -17 889
35 -17 856
34 -15 784
37 -15 791
40 -16 804
41 -15 780
0 0 0
0 0 0
0 0 0
0 0 0
0 0 0
276 -89 4129
283 -88 4068
0 0 0
0 0 0
91 -23 1137
0 0 0
0 0 0
363 -91 4173
360 -87 4006
351 -82 3782
360 -82 3754
0 0 0
317 -68 3120
282 -58 2695
279 -56 2591
286 -56 2584
297 -57 2612
303 -56 2601
313 -57 2621
328 -58 2679
330 -57 2634
337 -57 2632
346 -58 2638
358 -58 2670
367 -59 2682
374 -59 2676
381 -59 2669
387 -58 2653
390 -58 2624
396 -57 2613
404 -57 2611
412 -58 2612
421 -58 2620
429 -58 2625
431 -57 2589
438 -57 2585
437 -56 2536
456 -58 2600
441 -55 2473
458 -56 2524
453 -55 2458
460 -55 2454
458 -54 2404
435 -50 2249
409 -46 2081
365 -40 1826
342 -37 1685
365 -39 1772
355 -38 1698
304 -31 1431
0 0 0
0 0 0
0 0 0
0 0 0
0 0 0
0 0 0
146 -13 615
102 -8 419
0 0 0
0 0 0
96 -7 380
87 -6 340
0 0 0
73 -5 274
54 -3 197
12 0 32
1285 -115 4895
1284 -114 4833
1309 -115 4870
1297 -112 4770
0 0 0
0 0 0
0 0 0
0 0 0
0 0 0
1038 -84 3568
1054 -85 3582
1056 -84 3551
1048 -83 3488
0 0 0
0 0 0
0 0 0
0 0 0
0 0 0
0 0 0
0 0 0
0 0 0
0 0 0
0 0 0
0 0 0
0 0 0
0 0 0
0 0 0
0 0 0
0 0 0
0 0 0
0 0 0
1058 -71 2917
1062 -71 2901
1061 -70 2872
1078 -71 2891
1089 -71 2896
1092 -71 2877
1092 -70 2853
1072 -69 2775
1086 -69 2786
1089 -69 2770
1088 -68 2743
1087 -68 2716
1084 -67 2687
1089 -67 2676
1106 -67 2693
1094 -66 2643
1086 -65 2600
1090 -65 2587
1098 -65 2586
1085 -64 2534
1099 -64 2545
1104 -64 2535
1098 -63 2501
1093 -63 2468
1099 -63 2463
1112 -63 2473
1109 -63 2445
1103 -62 2412
1115 -62 2419
1114 -62 2397
1120 -62 2391
1106 -60 2342
1115 -61 2344
1107 -60 2308
1103 -59 2282
1062 -57 2179
1055 -56 2148
1056 -56 2134
1051 -55 2108
1057 -55 2103
1058 -55 2090
1047 -54 2051
1055 -54 2051
1055 -54 2037
1056 -53 2022
1061 -53 2017
1059 -53 1999
1065 -53 1995
1061 -53 1972
1068 -53 1970
1065 -52 1951
1063 -52 1931
1071 -52 1933
1059 -51 1897
-492 -13 859
-480 -12 843
-478 -12 845
-468 -12 835
-471 -12 846
-469 -12 849
-468 -13 853
-459 -12 842
-481 -13 890
-475 -13 886
-489 -14 918
-549 -16 1039
-975 -30 1857
-1092 -34 2097
-1086 -34 2100
-1079 -34 2104
-1077 -34 2115
-1067 -34 2112
-1054 -34 2102
-1050 -34 2110
-1041 -34 2108
-1031 -34 2104
-1025 -34 2109
-1014 -34 2102
-1009 -34 2108
-1002 -34 2110
-993 -34 2107
-987 -34 2112
-978 -34 2109
-971 -34 2110
-964 -34 2111
-955 -34 2110
-954 -34 2122
-936 -34 2101
-917 -33 2074
-904 -33 2062
-900 -33 2070
-905 -34 2099
-892 -33 2084
-886 -33 2089
-871 -33 2070
-871 -33 2087
-866 -34 2093
-853 -33 2079
-854 -34 2101
-843 -33 2090
-839 -34 2099
-813 -33 2051
-800 -33 2037
-795 -33 2040
-809 -34 2095
-797 -33 2083
-794 -34 2093
-787 -34 2092
-779 -34 2092
-778 -34 2107
-769 -34 2100
-750 -33 2069
-744 -33 2072
-728 -33 2045
-730 -33 2071
-726 -33 2077
-725 -34 2096
-719 -34 2098
-709 -34 2089
-712 -34 2116
-697 -34 2094
-693 -34 2102
-693 -34 2123
-685 -34 2119
-680 -34 2124
-672 -34 2120
-646 -33 2061
-642 -33 2067
-642 -34 2088
-633 -34 2082
-633 -34 2105
-628 -34 2111
-619 -34 2103
-610 -34 2093
-611 -34 2119
-601 -34 2108
-599 -35 2123
-590 -34 2116
-578 -34 2098
-572 -34 2100
-573 -35 2126
-565 -35 2122
-561 -35 2131
-557 -35 2139
-543 -35 2114
-541 -35 2131
-534 -35 2127
-526 -35 2122
-517 -35 2111
-514 -35 2125
-504 -35 2111
-499 -35 2117
-495 -35 2128
-481 -34 2095
-464 -34 2049
-460 -34 2059
-439 -33 1992
-436 -33 2004
0 0 0
0 0 0
0 0 0
0 0 0
0 0 0
0 0 0
0 0 0
-951 -84 4902
-942 -84 4932
-922 -84 4901
-913 -85 4930
-903 -85 4958
-842 -81 4698
-797 -78 4525
-859 -85 4959
-848 -86 4982
-836 -86 4994
-820 -86 4990
-803 -86 4972
-788 -86 4973
-772 -86 4964
-763 -87 5000
-746 -86 4986
-733 -87 4994
0 1 11
2 1 -4
-692 -87 5012
-678 -87 5024
-664 -88 5027
-649 -88 5024
-634 -88 5018
0 1 10
0 1 21
-5 0 68
-7 0 82
-9 0 104
-5 0 67
-2 0 45
-5 0 79
-7 0 98
-10 0 134
-4 0 68
-462 -89 5049
0 1 19
0 1 16
0 0 36
-403 -89 5042
0 0 27
1 1 18
-1 0 60
-2 0 71
0 0 39
-5 0 122
-36 -10 640
-47 -14 872
0 0 0
0 0 0
0 0 0
0 0 0
0 0 0
0 0 0
0 0 0
-28 -15 910
-24 -14 858
-21 -14 851
-19 -14 856
-16 -13 823
-15 -15 894
-11 -14 844
-7 -12 733
-7 -14 860
-4 -14 881
-2 -14 864
0 -13 800
2 -15 916
5 -13 784
7 -12 757
9 -13 805
11 -11 716
13 -12 752
17 -14 843
20 -15 886
22 -14 836
25 -14 869
28 -15 892
29 -14 853
35 -16 938
32 -13 788
36 -14 826
34 -12 737
26 -8 513
0 0 0
29 -8 501
0 0 0
0 0 0
0 0 0
0 0 0
267 -74 3999
276 -74 3966
0 0 0
0 0 0
0 0 0
0 0 0
0 0 0
0 0 0
0 0 0
0 0 0
353 -69 3680
351 -67 3551
317 -58 3116
277 -49 2646
281 -49 2611
288 -49 2601
294 -48 2587
303 -49 2602
310 -49 2591
325 -50 2656
330 -50 2633
338 -50 2636
347 -50 2648
355 -50 2652
356 -49 2602
371 -50 2653
373 -50 2611
362 -47 2485
338 -43 2268
318 -39 2089
333 -41 2152
349 -42 2210
362 -43 2249
362 -42 2211
344 -39 2061
343 -38 2020
341 -38 1974
334 -36 1899
339 -36 1895
333 -35 1831
358 -37 1937
371 -38 1975
381 -38 1996
357 -35 1842
334 -32 1698
333 -32 1663
312 -29 1537
321 -30 1557
322 -29 1537
278 -25 1308
207 -18 956
195 -16 889
205 -17 918
193 -16 855
202 -16 879
126 -9 539
150 -11 635
0 0 0
125 -9 512
0 0 0
0 0 0
0 0 0
0 0 0
73 -4 272
46 -2 167
1271 -100 4898
1288 -101 4903
1268 -98 4773
1317 -101 4898
1315 -100 4838
0 0 0
0 0 0
0 0 0
0 0 0
1038 -74 3606
1031 -73 3544
1050 -74 3568
1051 -73 3534
1055 -73 3510
0 0 0
0 0 0
0 0 0
0 0 0
0 0 0
0 0 0
0 0 0
0 0 0
0 0 0
0 0 0
0 0 0
0 0 0
0 0 0
0 0 0
0 0 0
0 0 0
0 0 0
0 0 0
1045 -62 2881
1057 -62 2888
1064 -62 2881
1077 -62 2889
1081 -62 2875
1077 -61 2837
1071 -60 2797
1080 -61 2795
1078 -60 2766
1068 -59 2716
1075 -59 2711
1088 -59 2720
1080 -58 2675
1086 -58 2667
1073 -57 2613
1091 -58 2634
1091 -58 2613
1079 -56 2561
1091 -57 2568
1091 -56 2546
1103 -57 2554
1102 -56 2532
1100 -56 2506
1098 -55 2480
1104 -55 2475
1102 -55 2448
1110 -55 2447
1101 -54 2408
1112 -54 2413
1109 -54 2387
1103 -53 2356
1096 -53 2322
1111 -53 2335
1110 -53 2314
1112 -52 2300
1068 -50 2193
1051 -49 2140
1059 -49 2140
1052 -48 2109
1060 -49 2109
1055 -48 2083
1063 -48 2084
1063 -48 2067
1053 -47 2033
1059 -47 2028
1059 -47 2013
1062 -47 2004
1064 -47 1992
1066 -47 1981
1068 -46 1971
1061 -46 1942
1066 -46 1937
1073 -46 1936
1075 -46 1925
-493 -10 860
-487 -10 855
-477 -10 844
-472 -10 842
-473 -10 850
-470 -10 851
-472 -10 860
-475 -10 872
-479 -10 886
-471 -10 877
-489 -11 918
-584 -13 1105
-995 -24 1897
-1092 -27 2097
-1088 -27 2105
-1082 -27 2110
-1074 -27 2110
-1063 -27 2104
-1058 -27 2110
-1048 -27 2106
-1042 -27 2110
-1033 -27 2109
-1024 -27 2107
-1016 -27 2107
-1009 -27 2107
-1002 -27 2110
-993 -27 2107
-986 -27 2108
-979 -27 2110
-969 -27 2107
-964 -27 2112
-960 -27 2120
-950 -27 2116
-939 -27 2107
-920 -27 2082
-898 -26 2049
-897 -27 2063
-897 -27 2079
-896 -27 2094
-888 -27 2094
-873 -27 2075
-875 -27 2097
-863 -27 2086
-858 -27 2091
-850 -27 2089
-846 -27 2099
-832 -27 2080
-803 -26 2027
-797 -26 2028
-798 -27 2049
-814 -27 2108
-796 -27 2080
-799 -27 2106
-787 -27 2093
-778 -27 2088
-779 -27 2109
-769 -27 2103
-758 -27 2091
-741 -27 2062
-731 -27 2055
-724 -27 2054
-718 -27 2055
-724 -27 2093
-722 -28 2106
-719 -28 2117
-714 -28 2125
-704 -28 2116
-699 -28 2119
-692 -28 2121
-687 -28 2126
-680 -28 2124
-667 -28 2105
-655 -28 2090
-642 -27 2068
-640 -27 2082
-626 -27 2059
-631 -28 2096
-623 -28 2094
-622 -28 2112
-616 -28 2114
-616 -28 2138
-604 -28 2118
-596 -28 2113
-590 -28 2117
-584 -28 2119
-571 -28 2093
-571 -28 2120
-561 -28 2106
-556 -28 2113
-556 -29 2137
-543 -28 2111
-538 -28 2119
-533 -29 2124
-529 -29 2133
-520 -29 2126
-512 -28 2116
-504 -28 2111
-496 -28 2104
-486 -28 2092
-478 -28 2084
-454 -27 2006
-471 -29 2107
-470 -29 2130
-481 -30 2211
0 0 0
0 0 0
0 0 0
0 0 0
0 0 0
-975 -69 4878
-970 -70 4925
-941 -69 4852
-929 -69 4866
-916 -69 4870
-902 -69 4871
-886 -69 4865
-862 -69 4814
-792 -64 4495
-855 -71 4935
-842 -71 4947
-827 -71 4945
-813 -71 4946
-797 -71 4935
-784 -71 4948
-769 -71 4945
-756 -71 4951
-743 -72 4967
-725 -71 4941
-716 -72 4977
-701 -72 4975
-686 -72 4975
-673 -72 4987
-658 -72 4980
-642 -72 4972
-629 -72 4978
-612 -72 4964
-596 -72 4953
-584 -73 4971
-569 -73 4967
-557 -73 4989
-541 -73 4974
-527 -73 4979
-512 -73 4976
-499 -73 4986
-483 -73 4966
-469 -73 4970
-454 -73 4966
-440 -73 4977
-427 -74 4985
-412 -74 4976
-397 -74 4969
-383 -74 4971
-368 -74 4966
-354 -74 4971
-339 -74 4962
-325 -74 4971
-311 -74 4980
1 1 21
0 0 0
0 0 0
0 0 0
0 0 0
0 0 0
0 0 0
0 0 0
0 0 0
0 0 0
-15 -7 575
-15 -8 627
0 0 0
-14 -10 737
-10 -9 673
0 0 0
-10 -12 902
-6 -11 816
-4 -12 858
0 0 0
0 -10 736
2 -10 762
5 -10 769
7 -10 783
9 -10 735
10 -8 622
13 -9 710
15 -9 720
17 -9 699
21 -11 816
20 -9 693
23 -10 720
27 -10 766
26 -9 692
28 -9 689
30 -9 677
0 0 0
0 0 0
0 0 0
0 0 0
0 0 0
0 0 0
0 0 0
0 0 0
0 0 0
0 0 0
0 0 0
0 0 0
0 0 0
0 0 0
0 0 0
0 0 0
0 0 0
0 0 0
346 -58 3613
0 0 0
0 0 0
278 -42 2652
276 -40 2559
282 -40 2549
289 -40 2545
306 -42 2625
324 -43 2715
338 -44 2767
336 -43 2686
330 -41 2572
344 -42 2625
349 -42 2602
356 -42 2595
355 -41 2534
357 -40 2500
274 -30 1874
171 -17 1135
163 -16 1062
167 -16 1070
175 -17 1097
179 -17 1103
179 -16 1082
176 -16 1047
181 -16 1055
189 -17 1082
185 -16 1046
189 -16 1046
192 -16 1046
196 -16 1055
204 -17 1076
208 -17 1081
208 -16 1066
208 -16 1047
217 -17 1078
217 -17 1065
221 -17 1068
225 -17 1069
213 -16 1000
217 -16 1004
212 -15 964
209 -15 939
216 -15 957
202 -14 880
152 -10 650
0 0 0
119 -7 494
114 -6 466
0 0 0
0 0 0
114 -6 446
0 0 0
0 0 0
37 0 129
35 0 122
1286 -86 4899
1287 -85 4845
1312 -86 4881
1319 -86 4849
0 0 0
0 0 0
0 0 0
0 0 0
1015 -62 3524
1032 -63 3547
1045 -63 3551
1037 -62 3488
1052 -62 3500
1057 -62 3478
0 0 0
0 0 0
0 0 0
0 0 0
0 0 0
0 0 0
0 0 0
0 0 0
0 0 0
0 0 0
0 0 0
0 0 0
0 0 0
0 0 0
0 0 0
0 0 0
0 0 0
1046 -53 2883
1059 -53 2892
1071 -53 2899
1071 -53 2874
1075 -53 2858
1075 -53 2831
1071 -52 2796
1073 -52 2776
1066 -51 2734
1100 -52 2796
1041 -49 2624
1097 -51 2743
1077 -50 2668
1074 -50 2637
1076 -49 2621
1081 -49 2610
1070 -49 2562
1060 -48 2516
1085 -49 2554
1097 -49 2562
1089 -48 2521
1092 -48 2509
1106 -48 2518
1102 -48 2489
1100 -47 2466
1105 -47 2457
1100 -47 2426
1103 -47 2413
1117 -47 2424
1108 -46 2386
1103 -46 2356
1105 -46 2341
1122 -46 2359
1107 -45 2309
1109 -45 2294
1063 -43 2181
1048 -42 2135
1058 -42 2139
1052 -42 2111
1054 -42 2097
1050 -41 2073
1060 -41 2078
1059 -41 2059
1057 -41 2041
1060 -41 2030
1059 -40 2012
1068 -41 2014
1063 -40 1991
1064 -40 1978
1063 -40 1961
1069 -40 1958
1065 -40 1936
1061 -39 1914
1077 -40 1929
-495 -7 864
-487 -7 856
-486 -7 861
-483 -7 862
-471 -7 847
-477 -7 864
-478 -7 872
-479 -7 881
-494 -8 915
-490 -8 914
-550 -9 1032
-881 -16 1666
-1091 -20 2079
-1094 -20 2101
-1088 -20 2106
-1078 -20 2101
-1073 -20 2107
-1064 -20 2106
-1054 -20 2103
-1047 -20 2104
-1040 -20 2106
-1030 -20 2102
-1025 -20 2108
-1018 -21 2111
-1010 -21 2110
-1002 -21 2109
-994 -21 2109
-986 -21 2108
-977 -21 2107
-969 -21 2106
-962 -21 2108
-957 -21 2114
-950 -21 2115
-943 -21 2116
-920 -20 2081
-917 -21 2093
-906 -20 2083
-894 -20 2072
-891 -20 2084
-876 -20 2064
-877 -21 2086
-870 -21 2087
-860 -21 2080
-859 -21 2095
-845 -21 2079
-843 -21 2090
-826 -20 2067
-799 -20 2017
-794 -20 2022
-809 -21 2076
-814 -21 2108
-800 -21 2090
-795 -21 2096
-792 -21 2107
-780 -21 2093
-774 -21 2097
-771 -21 2107
-754 -21 2079
-735 -20 2047
-736 -21 2069
-724 -21 2052
-722 -21 2068
-719 -21 2078
-718 -21 2096
-716 -21 2109
-707 -21 2103
-702 -21 2110
-695 -21 2109
-689 -21 2112
-676 -21 2091
-676 -21 2112
-668 -21 2108
-649 -21 2069
-642 -21 2068
-648 -22 2109
-640 -22 2104
-634 -22 2107
-623 -21 2093
-623 -22 2116
-620 -22 2127
-609 -22 2112
-602 -22 2110
-600 -22 2127
-590 -22 2117
-582 -22 2110
-574 -22 2108
-569 -22 2112
-565 -22 2122
-557 -22 2115
-554 -22 2129
-546 -22 2125
-537 -22 2114
-534 -22 2127
-523 -22 2109
-517 -22 2112
-511 -22 2114
-508 -22 2128
-501 -22 2125
-493 -22 2118
-480 -22 2094
-433 -20 1914
-460 -22 2057
-491 -24 2226
0 0 0
-450 -22 2099
0 0 0
0 0 0
0 0 0
0 0 0
-991 -56 4956
-956 -55 4854
-946 -55 4877
-930 -55 4870
-919 -55 4889
-906 -55 4897
-886 -55 4867
-862 -55 4815
-828 -53 4704
-853 -56 4925
-838 -56 4924
-826 -56 4936
-812 -56 4939
-799 -57 4950
-783 -57 4940
-768 -57 4940
-755 -57 4948
-740 -57 4947
-727 -57 4957
-711 -57 4947
-698 -57 4959
-683 -57 4955
-668 -57 4950
-655 -58 4961
-640 -58 4953
-627 -58 4969
-611 -58 4953
-596 -58 4953
-582 -58 4954
-568 -58 4958
-552 -58 4945
-540 -58 4964
-525 -58 4955
-511 -58 4961
-497 -59 4963
-483 -59 4972
-468 -59 4968
-453 -59 4957
-440 -59 4975
-424 -59 4958
-410 -59 4957
-395 -59 4951
-381 -59 4947
-367 -59 4954
-353 -59 4954
-339 -60 4958
-324 -60 4951
-310 -60 4964
-299 -60 5006
0 0 0
0 0 0
0 0 0
0 0 0
0 0 0
0 0 0
-151 -46 3838
0 0 0
0 0 0
0 0 0
0 0 0
0 0 0
0 0 0
0 0 0
0 0 0
0 0 0
0 0 0
0 0 0
0 0 0
0 0 0
0 0 0
0 0 0
0 0 0
0 0 0
0 0 0
0 0 0
0 0 0
0 0 0
0 0 0
0 0 0
0 0 0
0 0 0
0 0 0
0 0 0
0 0 0
0 0 0
0 0 0
0 0 0
0 0 0
0 0 0
0 0 0
0 0 0
0 0 0
0 0 0
0 0 0
0 0 0
0 0 0
0 0 0
0 0 0
0 0 0
0 0 0
0 0 0
0 0 0
0 0 0
0 0 0
0 0 0
300 -37 2858
275 -33 2547
288 -34 2604
298 -34 2624
319 -36 2739
350 -38 2930
361 -39 2952
333 -35 2660
335 -34 2609
337 -34 2565
354 -35 2640
360 -35 2628
331 -31 2359
0 0 0
168 -14 1138
149 -12 988
147 -11 955
152 -12 971
154 -12 964
160 -12 984
160 -12 965
164 -12 971
166 -12 969
169 -12 969
176 -12 992
178 -12 988
183 -12 997
187 -12 1004
189 -12 995
193 -12 1001
196 -12 1004
201 -13 1013
203 -13 1008
208 -13 1017
207 -12 995
212 -13 1008
207 -12 970
217 -13 1003
205 -12 934
206 -12 923
216 -12 958
212 -12 925
190 -10 815
135 -6 566
144 -7 598
134 -6 549
147 -7 596
95 -4 377
110 -4 430
0 0 0
0 0 0
70 -2 259
4 1 2
1264 -70 4814
12 1 29
1312 -72 4881
42 0 141
0 0 0
0 0 0
0 0 0
0 0 0
1032 -53 3585
1039 -53 3568
1042 -52 3542
1022 -51 3437
1033 -51 3437
1044 -51 3436
0 0 0
0 0 0
0 0 0
0 0 0
0 0 0
0 0 0
0 0 0
0 0 0
0 0 0
0 0 0
0 0 0
0 0 0
0 0 0
0 0 0
0 0 0
0 0 0
0 0 0
1044 -44 2879
1064 -45 2908
1065 -44 2884
1067 -44 2863
1070 -44 2845
1074 -44 2830
1105 -45 2887
1055 -43 2731
1074 -43 2754
1080 -43 2747
1090 -43 2748
1074 -42 2683
1067 -42 2643
1050 -41 2580
1044 -40 2541
1038 -40 2506
1070 -41 2561
1091 -41 2589
1060 -40 2495
1074 -40 2508
1088 -40 2519
1089 -40 2502
1086 -40 2473
1083 -39 2447
1091 -39 2445
1100 -40 2446
1095 -39 2415
1091 -39 2387
1092 -39 2369
1093 -38 2352
1110 -39 2370
1103 -38 2337
1099 -38 2309
1100 -38 2295
1101 -38 2278
1061 -36 2178
1055 -36 2149
1058 -35 2137
1049 -35 2104
1052 -35 2094
1053 -35 2080
1054 -35 2066
1062 -35 2066
1057 -34 2040
1056 -34 2023
1062 -34 2019
1053 -34 1986
1066 -34 1997
1066 -34 1982
1064 -34 1962
1064 -33 1947
1064 -33 1933
1070 -33 1930
1070 -33 1916
-504 -4 879
-495 -4 870
-495 -4 876
-483 -4 862
-493 -4 885
-478 -4 866
-467 -4 852
-470 -4 864
-475 -4 880
-519 -5 968
-614 -7 1153
-1057 -13 2001
-1102 -14 2101
-1092 -14 2097
-1084 -14 2099
-1081 -14 2108
-1070 -14 2103
-1065 -14 2108
-1055 -14 2105
-1047 -14 2105
-1034 -14 2095
-1033 -14 2109
-1022 -14 2103
-1019 -14 2114
-1007 -14 2104
-1003 -14 2113
-992 -14 2107
-987 -14 2111
-975 -14 2104
-970 -14 2109
-963 -14 2109
-959 -14 2118
-949 -14 2112
-940 -14 2110
-920 -14 2082
-902 -14 2059
-904 -14 2080
-897 -14 2081
-897 -14 2098
-892 -14 2102
-873 -14 2075
-878 -14 2106
-867 -14 2096
-866 -14 2113
-844 -14 2077
-838 -14 2079
-827 -14 2069
-807 -14 2036
-809 -14 2060
-814 -14 2091
-807 -14 2091
-802 -15 2097
-800 -15 2110
-788 -15 2096
-783 -15 2103
-775 -15 2099
-765 -15 2092
-764 -15 2109
-743 -14 2068
-739 -15 2078
-728 -15 2065
-729 -15 2088
-725 -15 2095
-716 -15 2091
-711 -15 2094
-710 -15 2113
-701 -15 2106
-691 -15 2096
-693 -15 2122
-676 -15 2093
-674 -15 2108
-661 -15 2088
-649 -15 2071
-642 -15 2068
-645 -15 2101
-635 -15 2091
-633 -15 2105
-628 -15 2111
-620 -15 2107
-615 -15 2110
-608 -15 2109
-600 -15 2104
-599 -16 2125
-590 -16 2118
-582 -16 2112
-574 -16 2106
-571 -16 2118
-564 -16 2117
-557 -16 2115
-552 -16 2122
-545 -16 2119
-541 -16 2130
-535 -16 2132
-528 -16 2129
-518 -16 2118
-512 -16 2119
-505 -16 2118
-502 -16 2132
-494 -16 2125
-484 -16 2108
-391 -13 1729
-463 -16 2073
-499 -17 2262
-482 -17 2219
-437 -16 2039
0 0 0
0 0 0
0 0 0
-18 0 102
-983 -41 4918
-961 -41 4878
-946 -41 4880
-931 -41 4875
-919 -41 4889
-904 -41 4885
-890 -41 4890
-863 -41 4817
-840 -40 4768
-851 -42 4914
-838 -42 4921
-823 -42 4919
-809 -42 4922
-797 -42 4940
-782 -42 4939
-767 -42 4933
-751 -42 4923
-739 -43 4942
-726 -43 4947
-710 -43 4940
-700 -43 4969
-682 -43 4948
-669 -43 4958
-657 -43 4977
-641 -43 4964
-625 -43 4955
-609 -43 4943
-595 -43 4945
-582 -44 4957
-567 -44 4954
-554 -44 4960
-538 -44 4950
-526 -44 4974
-512 -44 4976
-496 -44 4958
-481 -44 4956
-467 -44 4958
-453 -44 4959
-438 -45 4956
-426 -45 4973
-409 -45 4948
-395 -45 4955
-380 -45 4945
-367 -45 4955
-352 -45 4955
-338 -45 4955
-323 -45 4942
-310 -45 4964
-299 -46 5014
0 0 0
0 0 0
0 0 0
0 0 0
0 0 0
0 0 0
0 0 0
0 0 0
0 0 0
0 0 0
0 0 0
0 0 0
0 0 0
0 0 0
0 0 0
0 0 0
0 0 0
0 0 0
0 0 0
0 0 0
0 0 0
0 0 0
0 0 0
0 0 0
0 0 0
0 0 0
0 0 0
0 0 0
0 0 0
0 0 0
0 0 0
0 0 0
0 0 0
0 0 0
0 0 0
0 0 0
0 0 0
0 0 0
0 0 0
0 0 0
0 0 0
0 0 0
0 0 0
0 0 0
0 0 0
0 0 0
0 0 0
0 0 0
0 0 0
138 -15 1623
0 0 0
138 -14 1510
0 0 0
0 0 0
0 0 0
0 0 0
263 -25 2504
280 -26 2598
289 -26 2607
297 -26 2609
326 -28 2798
358 -31 3003
358 -30 2924
333 -27 2657
342 -27 2663
351 -27 2673
0 0 0
0 0 0
0 0 0
0 0 0
146 -9 991
147 -9 978
148 -9 963
152 -9 967
152 -9 953
154 -9 948
158 -9 956
163 -9 969
166 -9 965
170 -9 975
175 -9 987
176 -9 972
180 -9 983
185 -9 990
186 -9 981
187 -9 973
196 -10 1003
199 -10 1005
198 -9 984
204 -10 997
203 -9 977
207 -9 981
207 -9 969
212 -9 978
216 -10 985
210 -9 941
217 -9 963
203 -8 887
181 -7 778
178 -7 754
133 -5 552
0 0 0
146 -5 593
0 0 0
0 0 0
0 0 0
132 -4 509
153 -5 582
36 0 123
1289 -57 4909
15 0 43
66 -1 231
103 -2 366
0 0 0
0 0 0
0 0 0
0 0 0
0 0 0
1045 -42 3590
1036 -42 3521
1033 -41 3473
1046 -41 3480
1044 -41 3436
0 0 0
0 0 0
0 0 0
0 0 0
0 0 0
0 0 0
0 0 0
0 0 0
0 0 0
0 0 0
0 0 0
0 0 0
0 0 0
0 0 0
0 0 0
0 0 0
0 0 0
1054 -36 2906
1059 -36 2892
1070 -36 2896
1068 -36 2864
1061 -35 2821
1061 -35 2795
1063 -35 2775
1050 -34 2717
1050 -34 2693
1040 -33 2643
1028 -33 2592
1013 -32 2531
1075 -34 2664
1040 -32 2554
1023 -32 2490
1038 -32 2507
1032 -32 2471
1081 -33 2567
1065 -32 2507
1045 -31 2441
1037 -31 2400
1075 -32 2469
1105 -33 2517
1063 -31 2402
1071 -31 2399
1082 -31 2406
1078 -31 2377
1059 -30 2317
1069 -31 2319
1077 -31 2318
1093 -31 2334
1104 -31 2339
1105 -31 2323
1104 -31 2302
1092 -30 2259
1056 -29 2168
1051 -29 2141
1050 -29 2122
1059 -29 2123
1056 -28 2102
1056 -28 2086
1057 -28 2071
1060 -28 2062
1056 -28 2037
1057 -28 2024
1066 -28 2027
1062 -28 2004
1061 -27 1988
1061 -27 1972
1061 -27 1957
1065 -27 1951
1065 -27 1936
1064 -27 1919
1065 -27 1907
-499 -2 870
-509 -2 894
-496 -2 879
-490 -2 874
-487 -2 874
-474 -2 858
-470 -2 858
-469 -2 862
-482 -2 893
-488 -2 909
-632 -3 1188
-1076 -7 2035
-1100 -7 2097
-1096 -7 2104
-1091 -7 2112
-1081 -7 2108
-1072 -7 2106
-1066 -7 2110
-1057 -7 2108
-1047 -7 2106
-1042 -7 2111
-1032 -7 2107
-1023 -7 2105
-1016 -7 2107
-1009 -7 2109
-1002 -7 2110
-992 -7 2106
-985 -7 2107
-979 -7 2111
-971 -7 2110
-963 -7 2110
-958 -8 2117
-950 -8 2116
-935 -8 2100
-924 -8 2090
-914 -8 2085
-901 -8 2073
-892 -8 2068
-890 -8 2081
-875 -8 2062
-882 -8 2098
-872 -8 2091
-862 -8 2084
-865 -8 2109
-853 -8 2097
-842 -8 2089
-830 -8 2076
-815 -8 2056
-821 -8 2090
-818 -8 2100
-813 -8 2105
-803 -8 2098
-789 -8 2081
-789 -8 2100
-782 -8 2099
-780 -8 2114
-769 -8 2103
-767 -8 2115
-739 -8 2058
-737 -8 2071
-743 -8 2109
-712 -8 2039
-725 -9 2096
-717 -9 2092
-715 -9 2108
-706 -9 2102
-699 -9 2099
-698 -9 2118
-691 -9 2118
-682 -9 2112
-676 -9 2113
-667 -9 2105
-651 -9 2076
-645 -9 2080
-650 -9 2115
-632 -9 2081
-630 -9 2094
-624 -9 2098
-623 -9 2116
-614 -9 2109
-612 -9 2123
-603 -9 2117
-596 -9 2114
-586 -9 2104
-588 -9 2134
-578 -9 2121
-565 -9 2096
-564 -9 2117
-557 -10 2118
-550 -10 2115
-547 -10 2128
-539 -10 2122
-535 -10 2133
-528 -10 2133
-519 -10 2120
-510 -10 2113
-510 -10 2140
-500 -10 2123
-496 -10 2135
-480 -10 2094
-424 -9 1875
-423 -9 1894
-483 -10 2192
-466 -10 2144
-474 -11 2212
-470 -11 2225
0 0 0
0 0 0
0 0 0
-978 -26 4892
-967 -27 4912
-943 -26 4862
-929 -27 4867
-914 -27 4862
-903 -27 4879
-885 -27 4862
-861 -27 4807
-839 -26 4767
-847 -27 4893
-836 -27 4911
-822 -28 4915
-807 -28 4912
-795 -28 4929
-781 -28 4932
-767 -28 4937
-753 -28 4939
-739 -28 4937
-724 -28 4939
-709 -28 4936
-699 -29 4962
-684 -29 4960
-671 -29 4972
-654 -29 4954
-638 -29 4943
-624 -29 4944
-612 -29 4962
-593 -29 4929
-582 -29 4953
-568 -29 4960
-553 -29 4952
-538 -29 4945
-525 -30 4958
-510 -30 4956
-496 -30 4957
-483 -30 4970
-468 -30 4972
-453 -30 4963
-438 -30 4952
-424 -30 4953
-409 -30 4948
-395 -30 4949
-380 -31 4948
-366 -31 4944
-352 -31 4955
-338 -31 4951
-323 -31 4946
-309 -31 4949
2 1 -4
0 0 0
0 0 0
0 0 0
0 0 0
-52 -6 1209
-45 -6 1120
0 0 0
0 0 0
0 0 0
0 0 0
0 0 0
0 0 0
0 0 0
0 0 0
0 0 0
0 0 0
0 0 0
0 0 0
0 0 0
0 0 0
0 0 0
0 0 0
0 0 0
0 0 0
0 0 0
0 0 0
0 0 0
0 0 0
0 0 0
0 0 0
0 0 0
0 0 0
0 0 0
0 0 0
0 0 0
0 0 0
0 0 0
0 0 0
0 0 0
0 0 0
0 0 0
0 0 0
0 0 0
0 0 0
0 0 0
0 0 0
0 0 0
0 0 0
0 0 0
0 0 0
129 -9 1456
131 -9 1435
136 -9 1441
142 -9 1462
0 0 0
0 0 0
0 0 0
256 -17 2367
282 -18 2547
293 -18 2574
327 -20 2809
353 -22 2959
344 -20 2812
331 -19 2641
333 -19 2599
0 0 0
0 0 0
0 0 0
0 0 0
0 0 0
151 -6 1025
144 -6 951
147 -6 955
151 -6 966
154 -6 962
155 -6 950
161 -6 975
164 -6 970
169 -6 983
168 -6 960
172 -6 970
180 -6 997
180 -6 980
186 -6 997
191 -7 1006
193 -7 1002
199 -7 1021
200 -7 1006
207 -7 1028
203 -7 994
201 -6 970
212 -7 1009
211 -7 986
208 -6 960
208 -6 945
211 -6 946
212 -6 939
201 -6 879
206 -6 889
136 -3 571
135 -3 563
109 -2 444
116 -2 467
0 0 0
0 0 0
0 0 0
100 -1 382
136 -3 519
31 0 103
7 1 10
5 1 6
61 0 213
31 0 100
0 0 0
0 0 0
0 0 0
0 0 0
0 0 0
0 0 0
1073 -32 3646
1030 -31 3462
1034 -30 3441
1059 -31 3484
0 0 0
0 0 0
0 0 0
0 0 0
0 0 0
0 0 0
0 0 0
0 0 0
0 0 0
0 0 0
0 0 0
0 0 0
0 0 0
0 0 0
0 0 0
0 0 0
0 0 0
1050 -27 2894
1059 -27 2892
1067 -27 2888
1078 -27 2893
1083 -27 2880
1074 -27 2829
1090 -27 2846
1050 -26 2718
1104 -27 2833
1052 -25 2676
1055 -25 2660
1109 -27 2771
1080 -26 2677
1049 -25 2575
1055 -25 2570
1076 -25 2599
1085 -25 2599
1040 -24 2469
1025 -23 2413
1040 -24 2427
1057 -24 2447
1035 -23 2376
1036 -23 2359
1083 -24 2446
1050 -23 2353
1019 -22 2265
1051 -23 2316
1082 -24 2367
1073 -23 2328
1078 -23 2320
1079 -23 2304
1099 -24 2328
1071 -23 2250
1086 -23 2263
1075 -23 2223
1059 -22 2174
1055 -22 2148
1060 -22 2142
1064 -22 2133
1065 -22 2120
1066 -22 2105
1060 -22 2078
1060 -22 2061
1061 -21 2048
1060 -21 2030
1065 -21 2025
1058 -21 1997
1063 -21 1991
1060 -21 1970
1064 -21 1962
1064 -21 1948
1067 -21 1939
1069 -21 1929
1070 -21 1916
-503 0 878
-498 0 876
-500 0 886
-495 0 883
-483 0 867
-489 0 885
-476 0 869
-481 0 883
-484 0 896
-501 0 934
-633 0 1190
-1084 0 2050
-1103 0 2103
-1097 0 2107
-1093 0 2116
-1081 0 2108
-1074 0 2110
-1064 0 2107
-1054 0 2103
-1049 0 2109
-1041 -1 2110
-1031 -1 2105
-1026 -1 2111
-1015 -1 2105
-1009 -1 2109
-1005 -1 2118
-996 -1 2114
-984 -1 2105
-977 -1 2107
-970 -1 2108
-959 -1 2103
-956 -1 2112
-955 -1 2126
-940 -1 2110
-919 -1 2079
-912 -1 2080
-903 -1 2078
-900 -1 2088
-898 -1 2100
-886 -1 2090
-873 -1 2075
-869 -1 2084
-860 -1 2080
-855 -1 2085
-847 -1 2083
-837 -1 2077
-837 -2 2095
-828 -2 2089
-821 -2 2091
-809 -2 2079
-804 -2 2084
-804 -2 2102
-790 -2 2084
-786 -2 2092
-786 -2 2110
-775 -2 2101
-772 -2 2111
-756 -2 2087
-748 -2 2084
-738 -2 2073
-734 -2 2083
-728 -2 2084
-721 -2 2085
-721 -2 2106
-717 -2 2113
-710 -2 2114
-707 -2 2125
-698 -2 2117
-690 -2 2115
-683 -3 2113
-676 -3 2114
-664 -3 2097
-648 -3 2067
-648 -3 2090
-641 -3 2087
-634 -3 2086
-630 -3 2095
-627 -3 2107
-620 -3 2105
-613 -3 2105
-607 -3 2109
-603 -3 2115
-591 -3 2097
-591 -3 2119
-586 -3 2127
-578 -3 2121
-568 -3 2109
-566 -3 2127
-560 -3 2128
-551 -3 2121
-545 -3 2120
-538 -3 2120
-533 -3 2125
-524 -3 2114
-521 -4 2131
-515 -4 2133
-506 -4 2120
-499 -4 2119
-494 -4 2126
-481 -4 2098
-456 -3 2014
-457 -4 2048
-457 -4 2075
-441 -4 2028
-442 -4 2061
0 0 0
0 0 0
0 0 0
0 0 0
-986 -12 4933
-964 -12 4895
-947 -12 4882
-928 -12 4862
-916 -12 4872
-905 -13 4892
-886 -13 4867
-859 -12 4796
-829 -12 4707
-844 -13 4875
-837 -13 4918
-823 -13 4922
-810 -13 4929
-798 -13 4946
-782 -14 4936
-766 -14 4928
-753 -14 4939
-737 -14 4927
-727 -14 4955
-712 -14 4958
-699 -14 4968
-686 -14 4978
-670 -14 4969
-655 -14 4962
-638 -14 4941
-625 -15 4958
-613 -15 4975
-597 -15 4963
-583 -15 4963
-569 -15 4969
-556 -15 4977
-539 -15 4956
-524 -15 4952
-511 -15 4970
-496 -16 4959
-481 -16 4956
-468 -16 4973
-453 -16 4963
-439 -16 4964
-424 -16 4954
-408 -16 4936
-394 -16 4936
-380 -16 4941
-366 -16 4943
-351 -16 4943
-337 -17 4944
-323 -17 4949
-310 -17 4966
0 1 29
-81 -4 1462
-93 -5 1770
0 0 0
0 0 0
-45 -2 1052
-36 -2 918
-32 -1 875
-29 -1 854
-31 -2 984
0 0 0
0 0 0
0 0 0
0 0 0
0 0 0
0 0 0
-23 -6 1849
-19 -6 1977
-11 -5 1737
-6 -5 1601
-2 -6 1834
0 0 0
8 -5 1709
0 0 0
0 0 0
0 0 0
31 -7 1980
0 0 0
36 -5 1652
0 0 0
0 0 0
48 -5 1576
0 0 0
0 0 0
0 0 0
0 0 0
0 0 0
0 0 0
0 0 0
0 0 0
0 0 0
0 0 0
0 0 0
0 0 0
0 0 0
0 0 0
0 0 0
0 0 0
167 -8 2117
0 0 0
150 -6 1766
147 -6 1671
145 -6 1595
125 -4 1320
133 -5 1369
117 -4 1159
127 -4 1231
147 -5 1385
187 -7 1724
