VERSION 0.7
FIELDS x y z
SIZE 4 4 4
TYPE I I I
COUNT 1 1 1
WIDTH 3553
HEIGHT 1
VIEWPOINT 0.0 0.0 0.0 1.0 0.0 0.0 0.0
POINTS 3553
DATA ascii
931 598 1753
939 599 1753
939 596 1741
957 603 1760
956 598 1744
957 596 1733
962 595 1729
974 599 1737
978 598 1732
986 599 1731
985 595 1717
986 592 1706
1010 603 1734
1008 598 1718
1013 597 1713
-1402 844 2329
-1394 844 2332
-1370 834 2310
-1357 831 2305
-1356 835 2321
-1331 824 2294
-1327 827 2306
-1309 820 2292
-1298 818 2290
-1286 815 2285
-1275 813 2284
-1259 808 2273
-1256 811 2285
-1236 803 2266
-1220 797 2254
-1215 799 2263
-1201 794 2253
-1185 789 2242
-1176 787 2242
-1167 786 2242
-1154 782 2235
-1145 781 2235
-1136 780 2234
-1124 777 2229
-1108 771 2214
-1099 770 2216
-1088 767 2210
-1077 764 2205
-1033 738 2134
-979 704 2038
-953 690 2001
-952 694 2014
-958 703 2043
-957 707 2059
-955 711 2073
-951 713 2081
-952 718 2100
-955 726 2125
-970 742 2176
-976 752 2208
-975 756 2224
-969 758 2231
-962 757 2233
-959 761 2246
-960 767 2268
-955 769 2275
-949 770 2281
-946 774 2295
-945 778 2312
-941 781 2324
-939 786 2341
-927 782 2331
-927 788 2353
-923 791 2364
-920 795 2377
-918 800 2395
-912 800 2400
-910 806 2419
-903 806 2422
-902 812 2442
-892 810 2439
-884 810 2441
-884 816 2463
-875 815 2463
-874 821 2483
-866 821 2486
-868 830 2515
-865 835 2533
-854 832 2527
-850 835 2538
-843 836 2544
-844 845 2573
-837 846 2578
-834 852 2598
-826 851 2600
-821 854 2612
-814 855 2616
-810 859 2631
-800 857 2627
-792 857 2630
-784 858 2634
-778 860 2644
-771 861 2649
-759 856 2636
-751 857 2641
-745 859 2649
-738 860 2655
-731 861 2660
-721 859 2656
-711 857 2650
-707 862 2667
-700 863 2674
-692 863 2676
-681 860 2668
-672 858 2664
-662 856 2660
-652 854 2654
-646 856 2664
-633 849 2643
-627 853 2657
-620 853 2661
-612 853 2662
-603 853 2662
-596 855 2669
-588 853 2667
-578 852 2663
-569 849 2656
-560 849 2657
-551 847 2654
-543 847 2655
-534 845 2650
-515 827 2594
-465 760 2384
-465 771 2422
0 0 0
0 0 0
0 0 0
0 0 0
0 0 0
-435 795 2504
-414 770 2428
0 0 0
-377 729 2299
-361 709 2238
-367 735 2321
-332 678 2140
-340 708 2237
-362 768 2428
-326 707 2237
-309 685 2165
-336 759 2402
-323 745 2359
-291 688 2178
-289 699 2214
-294 728 2306
-267 677 2147
-259 672 2130
-261 695 2204
-248 676 2145
-258 723 2297
-237 681 2162
-244 721 2290
-229 698 2219
-223 698 2218
-215 695 2210
-212 707 2248
-203 697 2218
-191 678 2158
-196 719 2291
-182 692 2204
-180 713 2272
-169 694 2210
-169 721 2299
-154 686 2185
-152 708 2256
-145 707 2256
-136 692 2209
-130 699 2229
-125 704 2247
-116 692 2208
-119 751 2398
-104 698 2229
-102 733 2342
-87 676 2159
-81 678 2164
-75 681 2174
-70 694 2216
-64 695 2222
-54 665 2126
-50 687 2196
-43 684 2187
-37 688 2198
-31 707 2260
-25 712 2276
-19 738 2360
-12 780 2495
-5 797 2551
1 807 2583
9 799 2558
16 778 2490
23 755 2417
30 759 2430
37 753 2411
43 734 2350
50 725 2319
56 720 2303
63 713 2282
69 712 2279
79 735 2353
87 749 2396
96 760 2432
105 776 2483
112 776 2484
119 772 2469
127 773 2473
134 775 2479
141 773 2474
149 774 2477
156 774 2477
164 775 2479
171 771 2467
177 768 2457
184 767 2452
192 770 2461
199 769 2458
206 768 2454
213 767 2451
221 768 2453
228 766 2449
236 768 2453
242 763 2438
249 764 2439
257 764 2439
263 761 2430
271 763 2434
277 761 2428
285 762 2432
292 762 2430
299 759 2422
306 760 2423
313 758 2417
320 758 2417
326 755 2407
334 756 2409
342 758 2414
348 756 2408
356 758 2411
362 754 2399
368 753 2396
375 753 2394
383 753 2393
389 752 2389
396 751 2386
404 751 2386
411 752 2387
416 748 2374
424 750 2378
430 748 2372
440 752 2383
446 750 2376
452 747 2367
448 729 2309
466 748 2366
474 748 2368
479 746 2357
486 745 2353
491 742 2345
499 742 2344
506 742 2343
513 743 2343
520 742 2340
527 742 2337
534 743 2340
539 740 2328
548 741 2333
554 741 2330
562 741 2329
568 739 2323
574 739 2321
579 736 2310
587 737 2311
595 738 2315
604 741 2320
611 740 2318
620 742 2321
625 739 2312
628 735 2296
636 736 2298
643 736 2297
650 736 2294
656 735 2290
660 731 2276
667 731 2275
672 729 2267
679 729 2266
689 732 2272
698 734 2278
706 735 2278
710 731 2266
721 736 2278
728 736 2276
734 735 2272
738 731 2259
748 734 2266
753 732 2258
761 733 2259
768 733 2256
772 730 2247
781 732 2250
793 737 2263
795 732 2246
800 730 2239
807 730 2235
815 731 2237
824 732 2239
830 732 2235
833 728 2221
841 729 2222
849 730 2222
855 729 2217
866 732 2225
877 735 2233
882 734 2226
886 731 2214
890 728 2205
895 727 2197
904 728 2199
911 728 2197
917 728 2193
921 725 2182
930 726 2185
938 728 2186
945 727 2182
948 724 2170
957 726 2172
964 726 2169
970 725 2165
973 722 2154
979 721 2148
1015 743 2209
998 725 2154
1029 742 2203
1036 742 2199
1047 745 2205
1040 734 2171
1033 725 2140
1040 725 2136
1024 709 2086
995 684 2012
954 652 1912
781 529 1550
693 467 1364
707 473 1381
720 479 1396
701 463 1348
742 487 1416
842 549 1594
924 599 1738
939 605 1751
951 609 1760
958 610 1760
952 602 1736
966 607 1747
970 606 1741
977 607 1741
986 608 1743
988 606 1734
983 600 1712
999 606 1726
999 602 1714
1005 602 1711
1009 601 1705
-1404 853 2328
-1390 849 2324
-1384 850 2330
-1370 846 2324
-1344 835 2298
-1334 834 2297
-1325 833 2299
-1307 827 2286
-1300 827 2291
-1275 816 2263
-1273 819 2277
-1261 817 2274
-1251 815 2273
-1247 817 2283
-1227 809 2264
-1219 808 2266
-1204 804 2258
-1192 800 2251
-1177 795 2240
-1172 797 2248
-1160 794 2245
-1147 790 2236
-1138 789 2237
-1124 784 2227
-1115 783 2227
-1104 781 2223
-1094 779 2221
-1085 777 2220
-1052 759 2171
-994 721 2066
-958 701 2010
-955 703 2018
-955 708 2036
-956 713 2055
-958 719 2075
-952 720 2081
-948 722 2089
-952 730 2116
-964 745 2160
-972 756 2197
-971 761 2214
-968 764 2227
-964 766 2235
-960 769 2247
-958 773 2260
-952 774 2266
-952 780 2288
-949 783 2299
-947 787 2315
-938 787 2315
-939 793 2338
-929 791 2334
-928 797 2353
-922 797 2358
-917 800 2367
-916 805 2386
-912 808 2398
-909 812 2413
-905 816 2427
-892 811 2414
-893 818 2439
-888 821 2449
-882 822 2456
-875 823 2462
-877 832 2490
-868 831 2490
-863 833 2500
-861 839 2520
-854 840 2525
-850 844 2538
-845 846 2548
-839 848 2557
-835 852 2572
-832 857 2589
-819 852 2576
-817 858 2597
-811 860 2606
-801 858 2602
-790 854 2592
-789 862 2618
-781 863 2622
-773 863 2625
-759 855 2604
-759 865 2635
-749 862 2630
-743 865 2638
-731 860 2626
-726 864 2640
-723 870 2660
-709 862 2640
-701 863 2644
-697 867 2659
-681 858 2633
-676 861 2644
-660 851 2615
-654 854 2626
-647 855 2630
-636 851 2621
-631 855 2633
-615 845 2604
-609 847 2614
-602 848 2618
-593 846 2614
-586 847 2620
-574 842 2604
-568 845 2614
-560 844 2615
-547 837 2592
-537 834 2584
-528 831 2579
-518 828 2569
-498 809 2511
-461 759 2358
-443 742 2307
0 0 0
0 0 0
0 0 0
-431 769 2395
-410 745 2320
0 0 0
0 0 0
0 0 0
-376 732 2285
-379 753 2353
-366 740 2312
-346 713 2228
-353 741 2318
-346 742 2322
-329 720 2254
-326 729 2282
-313 715 2241
-292 682 2136
-300 715 2243
-296 722 2265
-293 731 2294
-284 727 2280
-279 729 2290
-262 703 2207
-250 689 2163
-251 710 2231
-241 701 2203
-239 714 2244
-234 719 2262
-220 697 2192
-223 725 2283
-209 703 2212
-203 706 2223
-195 699 2202
-189 704 2218
-183 703 2217
-177 709 2235
-170 704 2222
-166 716 2258
-161 723 2280
-152 713 2252
-148 728 2298
-145 746 2356
-141 760 2401
-140 798 2521
-136 815 2577
-130 826 2611
-116 786 2485
-103 744 2353
-93 722 2284
-85 719 2273
-75 689 2179
-70 696 2201
-64 709 2244
-56 692 2189
-49 685 2166
-44 708 2239
-38 721 2282
-34 768 2430
-27 785 2486
-21 826 2615
-13 832 2636
-5 806 2554
2 765 2423
9 748 2368
16 746 2362
22 736 2331
30 742 2350
36 720 2280
42 710 2249
49 712 2256
55 705 2232
61 703 2227
69 711 2251
77 729 2311
85 741 2347
95 760 2406
104 774 2452
112 781 2475
120 786 2490
127 783 2480
135 785 2485
143 787 2494
150 789 2499
159 793 2512
166 790 2503
172 784 2483
178 780 2468
185 776 2455
192 776 2456
200 777 2458
206 775 2452
214 776 2454
221 775 2452
229 776 2454
235 774 2446
242 772 2440
249 771 2439
257 772 2439
263 769 2431
271 770 2434
278 769 2429
285 768 2426
292 769 2427
299 769 2426
306 766 2419
312 765 2413
322 770 2428
327 765 2412
333 763 2405
341 764 2408
348 764 2406
356 764 2406
361 760 2394
369 761 2395
376 761 2393
382 759 2389
390 761 2393
396 758 2382
403 757 2379
410 757 2379
417 758 2380
425 758 2381
430 755 2369
438 756 2373
446 757 2374
451 753 2361
449 738 2311
466 755 2363
471 751 2352
479 752 2353
487 754 2357
494 753 2355
499 750 2344
506 750 2344
513 750 2343
522 752 2347
528 751 2342
535 750 2338
542 750 2338
547 748 2330
555 748 2329
561 748 2325
569 748 2326
573 744 2312
580 745 2312
589 746 2315
596 747 2317
604 748 2318
608 744 2305
618 747 2313
623 745 2304
628 742 2296
637 744 2298
643 743 2293
648 741 2287
653 738 2276
658 736 2269
665 736 2265
673 737 2269
681 738 2270
689 739 2270
697 740 2271
707 743 2280
714 743 2278
720 742 2272
727 742 2272
733 741 2266
739 739 2260
745 739 2257
752 738 2253
759 738 2252
768 740 2256
775 740 2253
786 744 2263
789 740 2250
797 741 2249
803 740 2244
811 740 2244
814 737 2232
821 737 2230
828 737 2228
834 736 2223
841 736 2221
851 738 2225
856 737 2218
867 740 2225
874 740 2223
882 741 2223
884 736 2208
886 733 2194
895 734 2196
904 736 2198
909 734 2191
920 737 2197
923 734 2186
929 733 2180
937 734 2181
946 735 2181
952 735 2178
957 733 2170
963 732 2165
970 732 2162
978 732 2161
985 733 2160
1004 741 2182
1013 743 2184
1027 747 2195
1039 751 2204
1043 749 2194
1047 746 2183
1039 736 2149
1039 731 2132
1019 712 2074
994 690 2007
919 634 1840
785 537 1556
716 487 1408
718 485 1402
720 484 1394
737 492 1415
756 501 1441
869 572 1644
928 607 1742
947 616 1766
952 615 1761
950 610 1744
957 611 1743
961 610 1737
960 606 1722
979 614 1742
978 610 1728
981 608 1719
985 606 1713
995 609 1718
1006 612 1724
1011 612 1719
1009 607 1703
-1404 861 2326
-1392 859 2324
-1374 852 2311
-1355 845 2297
-1352 848 2309
-1334 842 2295
-1324 840 2295
-1313 838 2294
-1299 834 2287
-1286 830 2281
-1280 832 2288
-1263 826 2275
-1252 823 2273
-1237 818 2263
-1231 819 2269
-1216 815 2260
-1202 810 2250
-1193 809 2252
-1178 804 2241
-1174 806 2250
-1159 801 2239
-1146 797 2233
-1140 798 2238
-1130 796 2237
-1115 790 2225
-1104 787 2220
-1100 790 2230
-1093 790 2235
-1063 773 2190
-1001 734 2080
-963 711 2018
-954 709 2016
-953 713 2030
-956 720 2054
-950 721 2058
-952 727 2078
-948 729 2087
-947 734 2104
-961 749 2152
-974 765 2201
-973 770 2217
-966 770 2219
-963 773 2231
-960 776 2243
-958 780 2258
-953 782 2267
-949 785 2278
-948 790 2296
-946 794 2311
-940 796 2318
-934 797 2323
-932 801 2339
-931 806 2358
-924 807 2362
-918 808 2368
-911 809 2373
-910 814 2391
-904 815 2398
-900 818 2409
-894 820 2416
-887 821 2421
-880 821 2425
-879 827 2445
-876 832 2462
-872 836 2476
-872 842 2498
-861 839 2491
-862 848 2519
-854 848 2523
-852 853 2541
-846 855 2549
-838 855 2552
-833 858 2564
-829 862 2577
-818 859 2570
-811 860 2576
-801 857 2570
-798 863 2590
-788 861 2585
-781 861 2589
-773 862 2592
-765 861 2593
-762 867 2612
-751 864 2606
-743 863 2605
-740 870 2628
-729 866 2619
-716 860 2602
-712 865 2620
-702 863 2614
-692 860 2607
-680 855 2593
-674 857 2602
-673 866 2631
-661 861 2620
-654 863 2626
-643 859 2615
-637 860 2622
-631 864 2634
-615 852 2600
-603 846 2583
-600 853 2607
-594 856 2616
-585 855 2615
-577 854 2615
-569 855 2618
-559 851 2609
-548 846 2594
-542 849 2607
-530 842 2587
-518 835 2566
-501 821 2525
-464 772 2375
-455 769 2364
-441 757 2330
-445 776 2389
0 0 0
0 0 0
-393 722 2226
0 0 0
-381 724 2234
0 0 0
0 0 0
-363 727 2248
-368 752 2325
-343 713 2207
-334 709 2196
-332 719 2228
-318 704 2181
-318 719 2228
-319 736 2283
0 0 0
-312 751 2330
-301 741 2302
-285 719 2234
-276 712 2211
-262 693 2153
-261 709 2204
-258 717 2229
-252 719 2237
-248 727 2264
-222 669 2082
-240 743 2314
-222 710 2211
-208 686 2137
-221 751 2340
-195 686 2138
-191 694 2163
-191 716 2235
-194 755 2355
-179 720 2248
-170 712 2221
-171 745 2328
-158 716 2237
-155 734 2292
-157 778 2431
-155 803 2511
-153 836 2614
-148 850 2659
-141 852 2665
-127 818 2561
-115 787 2464
-109 795 2490
-101 792 2480
-89 752 2354
-78 718 2246
-72 724 2267
-65 723 2265
-57 705 2209
-54 752 2355
-49 793 2485
-44 824 2583
-36 825 2586
-28 819 2569
-20 808 2532
-12 777 2435
-4 749 2347
2 729 2285
9 738 2313
15 731 2293
22 732 2295
29 737 2311
36 737 2312
41 706 2214
47 699 2192
54 698 2187
61 708 2220
69 717 2247
76 726 2277
85 740 2322
94 761 2385
103 774 2427
112 786 2466
120 789 2473
128 798 2503
136 801 2513
143 798 2501
152 805 2524
161 814 2551
167 806 2528
174 801 2510
179 792 2483
186 788 2469
192 783 2453
200 784 2455
207 782 2451
214 783 2452
221 782 2448
228 779 2440
236 783 2451
243 781 2444
249 778 2436
257 780 2441
264 778 2434
270 776 2427
278 778 2433
285 777 2430
292 776 2425
299 776 2424
306 775 2420
313 774 2419
320 774 2416
327 772 2408
334 771 2407
342 772 2409
348 771 2404
355 770 2400
362 770 2400
369 770 2398
376 769 2394
384 769 2395
391 770 2396
396 765 2382
405 769 2391
410 765 2380
418 766 2382
426 767 2384
431 764 2372
439 764 2374
446 765 2374
451 760 2358
447 742 2301
465 760 2357
473 762 2361
480 761 2356
487 761 2357
493 759 2349
499 757 2342
508 759 2348
516 761 2352
521 757 2339
528 758 2340
534 756 2332
542 758 2337
548 756 2331
554 755 2325
561 754 2323
569 755 2323
574 752 2314
581 753 2313
589 754 2315
598 755 2319
604 754 2315
610 753 2308
617 753 2307
624 753 2306
628 750 2294
636 750 2293
643 750 2291
646 746 2277
652 744 2270
660 745 2272
668 746 2274
678 750 2283
683 747 2274
694 751 2284
705 755 2296
712 756 2296
722 759 2302
723 752 2279
730 752 2279
735 749 2269
737 744 2252
744 744 2249
754 748 2259
764 750 2263
769 748 2255
779 751 2262
790 755 2271
789 747 2246
797 748 2248
800 744 2235
812 748 2245
815 745 2232
823 746 2232
828 744 2224
835 743 2221
842 743 2219
850 744 2219
855 743 2212
865 745 2218
876 748 2225
878 745 2212
883 742 2203
888 741 2197
898 743 2201
903 742 2194
911 742 2193
917 741 2188
925 742 2188
930 741 2182
939 742 2182
946 742 2180
955 743 2181
958 740 2170
963 739 2163
970 739 2161
976 738 2155
985 740 2157
991 739 2151
1002 742 2158
1030 757 2201
1038 758 2200
1045 758 2197
1039 748 2164
1038 742 2145
1038 737 2127
1018 718 2069
1002 702 2021
888 618 1775
773 534 1531
711 488 1396
701 478 1366
738 500 1427
705 475 1353
765 512 1457
885 589 1673
929 614 1742
945 620 1759
939 613 1735
957 621 1754
962 620 1750
960 615 1734
963 613 1725
972 615 1727
971 611 1713
986 617 1727
994 618 1728
998 617 1721
1003 616 1717
1016 620 1725
1014 616 1710
-1406 870 2327
-1387 863 2313
-1372 859 2306
-1364 859 2309
-1350 855 2302
-1337 852 2299
-1330 852 2304
-1313 846 2292
-1298 841 2282
-1295 844 2295
-1276 837 2279
-1276 842 2297
-1252 831 2270
-1239 827 2265
-1229 825 2263
-1213 820 2252
-1199 816 2243
-1193 817 2250
-1188 818 2258
-1173 813 2246
-1156 806 2231
-1151 808 2239
-1143 808 2243
-1133 805 2239
-1115 798 2222
-1102 793 2214
-1094 793 2216
-1081 789 2208
-1067 784 2196
-1015 751 2107
-971 723 2032
-954 715 2013
-951 718 2023
-958 729 2056
-956 732 2068
-952 734 2077
-949 737 2088
-949 742 2105
-956 753 2139
-971 769 2190
-973 777 2215
-963 774 2210
-963 780 2230
-959 783 2240
-958 787 2256
-949 786 2256
-951 794 2280
-948 797 2294
-944 800 2303
-941 804 2317
-934 804 2320
-934 810 2342
-922 807 2334
-922 813 2354
-914 812 2356
-908 813 2362
-913 825 2398
-906 825 2401
-898 825 2403
-890 824 2403
-889 831 2426
-888 837 2446
-880 836 2446
-875 839 2457
-875 846 2481
-871 849 2493
-866 852 2504
-861 855 2515
-851 852 2510
-846 856 2523
-835 852 2514
-835 860 2541
-825 858 2537
-820 861 2548
-809 857 2539
-808 865 2563
-802 867 2571
-791 863 2564
-786 866 2575
-774 862 2565
-770 866 2580
-762 867 2584
-758 871 2597
-750 871 2601
-741 869 2597
-734 871 2605
-724 868 2598
-718 870 2606
-704 863 2588
-694 861 2583
-679 852 2557
-667 847 2543
-660 848 2548
-655 851 2562
-647 851 2561
-643 855 2576
-639 861 2595
-633 863 2605
-623 861 2598
-615 860 2597
-603 854 2582
-595 855 2585
-589 857 2593
-582 858 2600
-576 860 2608
-566 858 2601
-560 861 2613
-552 861 2614
-547 864 2625
-537 861 2617
-527 858 2609
-505 835 2540
-460 772 2350
-442 755 2298
-444 769 2343
0 0 0
0 0 0
0 0 0
-433 801 2448
0 0 0
0 0 0
0 0 0
-381 758 2318
-397 802 2455
-372 767 2349
-356 747 2289
-345 740 2268
-332 726 2227
-302 674 2067
-326 742 2278
-305 709 2177
-309 735 2257
-308 748 2298
-282 702 2156
-279 709 2180
-275 717 2204
-267 714 2197
-276 754 2320
-250 702 2160
-250 721 2222
-248 733 2258
-249 757 2333
-240 751 2315
-213 689 2124
-210 698 2154
-210 719 2218
-199 704 2173
-195 712 2199
-187 709 2189
-185 728 2248
-168 686 2119
-168 711 2197
-162 713 2204
-157 720 2228
-161 768 2376
-159 796 2463
-140 734 2270
-141 775 2400
-149 862 2668
-137 841 2604
-122 794 2459
-116 800 2480
-113 835 2589
-106 837 2595
-95 813 2521
-85 787 2439
-80 812 2519
-71 798 2476
-65 807 2504
-59 829 2572
-52 839 2603
-44 840 2605
-35 807 2505
-26 762 2363
-18 749 2323
-11 732 2272
-4 732 2272
2 724 2245
8 722 2239
15 731 2269
23 755 2343
31 787 2442
38 785 2436
43 752 2336
48 710 2205
54 711 2207
62 725 2250
69 731 2268
77 740 2298
86 755 2344
94 767 2379
103 780 2420
111 785 2437
120 798 2476
130 817 2537
134 793 2462
143 803 2491
151 806 2503
160 815 2528
169 823 2554
177 821 2546
181 806 2500
188 804 2493
193 796 2468
200 792 2457
207 792 2455
214 790 2448
221 790 2448
228 788 2442
236 791 2450
243 790 2446
250 788 2440
257 788 2441
264 785 2432
272 786 2435
278 784 2427
285 784 2427
292 784 2425
300 783 2422
307 783 2420
314 783 2420
319 778 2405
328 781 2415
334 778 2403
341 778 2402
348 778 2402
356 779 2403
363 778 2400
369 777 2396
375 774 2388
384 777 2396
391 776 2391
397 773 2383
403 772 2379
411 774 2382
419 775 2383
426 774 2382
432 772 2374
437 768 2362
446 772 2372
450 766 2352
448 750 2302
464 765 2347
476 774 2373
481 769 2359
486 766 2347
492 765 2343
500 765 2344
506 764 2339
514 766 2342
522 766 2343
528 765 2338
534 764 2333
542 764 2333
550 766 2336
555 762 2325
562 763 2326
569 763 2323
573 758 2307
581 759 2310
590 762 2318
598 764 2320
602 759 2305
606 755 2292
614 756 2295
625 760 2305
630 759 2298
635 756 2290
640 754 2281
649 755 2284
655 754 2279
664 757 2285
671 757 2284
681 760 2291
690 762 2296
699 764 2300
709 767 2307
715 766 2302
721 765 2297
722 758 2276
725 754 2262
732 754 2259
735 750 2245
746 753 2253
755 756 2259
765 758 2265
773 759 2265
783 762 2272
787 759 2261
792 756 2252
800 757 2253
802 753 2238
809 753 2236
815 752 2230
823 753 2230
828 751 2222
835 751 2221
843 752 2221
851 752 2220
854 749 2209
869 756 2226
876 756 2225
881 754 2217
887 753 2212
890 749 2198
895 747 2190
906 751 2199
913 751 2197
920 751 2193
922 747 2180
933 750 2186
940 750 2183
943 747 2171
953 749 2175
959 748 2169
965 747 2165
973 748 2164
977 746 2156
990 750 2165
1023 770 2220
1027 767 2210
1031 765 2201
1038 765 2196
1044 764 2192
1041 756 2166
1036 748 2139
1036 743 2122
1019 725 2069
1002 708 2018
842 591 1680
738 515 1460
697 483 1367
708 488 1378
703 481 1358
727 494 1393
784 530 1491
901 605 1702
936 624 1754
938 621 1744
943 621 1740
949 621 1737
959 624 1742
961 621 1732
970 624 1736
977 624 1735
981 623 1729
981 619 1715
998 626 1733
1004 626 1729
1001 620 1710
1005 620 1706
1003 615 1689
-1411 881 2333
-1389 873 2314
-1373 867 2304
-1368 869 2314
-1347 861 2295
-1335 858 2292
-1322 855 2288
-1318 857 2297
-1292 845 2270
-1289 848 2281
-1280 847 2283
-1275 849 2291
-1264 847 2290
-1239 835 2263
-1228 832 2258
-1225 836 2272
-1213 833 2267
-1197 826 2254
-1185 823 2249
-1167 816 2233
-1165 820 2247
-1152 816 2240
-1138 811 2231
-1130 811 2232
-1117 806 2224
-1104 802 2215
-1095 801 2215
-1082 797 2208
-1071 794 2202
-1030 769 2136
-977 734 2043
-950 719 2002
-952 725 2022
-956 734 2050
-955 737 2063
-949 738 2068
-950 744 2089
-946 746 2096
-954 758 2131
-972 778 2191
-969 781 2204
-964 782 2210
-964 788 2229
-957 788 2233
-954 791 2245
-955 798 2267
-950 800 2276
-946 803 2287
-940 804 2293
-938 809 2308
-937 814 2327
-932 816 2334
-927 818 2344
-917 815 2339
-911 817 2345
-912 825 2371
-903 823 2368
-899 827 2382
-898 832 2400
-894 835 2412
-892 840 2430
-886 842 2438
-877 841 2436
-878 849 2463
-878 857 2487
-872 858 2494
-864 858 2496
-855 856 2494
-847 856 2496
-847 864 2521
-835 860 2511
-826 858 2510
-821 862 2523
-816 865 2533
-810 866 2540
-802 867 2544
-794 867 2546
-786 866 2546
-780 868 2554
-770 866 2551
-762 865 2551
-754 865 2553
-746 865 2554
-739 866 2559
-732 867 2564
-722 864 2559
-717 868 2571
-702 859 2546
-696 862 2558
-679 850 2524
-664 841 2497
-662 848 2523
-657 852 2534
-656 861 2563
-651 864 2576
-644 865 2581
-639 869 2594
-629 865 2585
-619 863 2578
-612 863 2583
-600 858 2568
-588 853 2554
-581 853 2555
-573 853 2559
-567 855 2566
-562 860 2582
-558 866 2601
-551 867 2606
-545 869 2614
-536 868 2611
-527 867 2610
-508 848 2556
-473 802 2416
-449 774 2334
0 0 0
0 0 0
0 0 0
0 0 0
0 0 0
-410 780 2358
-414 800 2421
-400 788 2386
-378 758 2295
-348 711 2154
-354 738 2236
-350 743 2255
-338 732 2222
-323 714 2167
-339 764 2320
-337 776 2356
-313 736 2236
-300 721 2192
-298 731 2222
-297 746 2270
-278 714 2174
-266 701 2134
-264 711 2164
-259 715 2179
-261 740 2255
-254 738 2250
-257 769 2346
-244 749 2285
-229 726 2215
-213 693 2114
-218 731 2232
-215 745 2277
-209 746 2280
-191 705 2155
-187 715 2186
-186 736 2251
-176 725 2218
-168 716 2191
-163 725 2219
-154 715 2188
-152 737 2257
-143 724 2217
-132 703 2154
-127 710 2174
-138 809 2480
-132 819 2512
-118 773 2369
-114 794 2434
-113 839 2576
-105 843 2587
-97 834 2559
-91 855 2625
-83 848 2604
-74 841 2582
-67 846 2597
-59 845 2595
-50 818 2511
-41 799 2455
-32 758 2327
-24 726 2230
-17 722 2218
-11 726 2229
-4 726 2230
2 723 2221
8 728 2237
16 757 2327
24 798 2453
31 808 2484
38 802 2464
45 788 2421
50 748 2299
55 726 2232
63 742 2280
71 755 2321
79 762 2341
86 769 2362
95 781 2401
103 789 2424
111 794 2440
120 803 2467
130 824 2533
134 800 2459
140 791 2430
151 811 2493
145 743 2283
167 818 2512
170 797 2448
186 836 2569
185 800 2456
193 803 2464
201 805 2471
207 798 2450
215 799 2454
222 801 2459
229 799 2451
236 797 2446
243 797 2445
250 794 2436
257 795 2438
264 794 2434
272 794 2433
279 793 2429
285 789 2418
292 789 2418
299 790 2418
307 791 2423
314 790 2417
322 791 2419
328 788 2411
335 788 2411
342 787 2407
348 785 2398
356 786 2402
363 786 2400
368 781 2386
377 784 2393
383 782 2387
389 781 2381
397 781 2381
404 781 2382
412 782 2383
419 783 2384
425 779 2371
433 780 2375
439 779 2369
448 781 2376
453 777 2364
452 764 2322
461 768 2332
475 778 2363
480 775 2354
487 775 2350
493 774 2347
502 775 2350
509 775 2349
514 773 2339
520 770 2332
527 771 2331
537 774 2340
543 774 2338
548 770 2326
554 769 2320
562 770 2323
570 771 2323
576 769 2319
583 769 2317
589 768 2311
597 769 2314
604 769 2312
610 767 2303
617 767 2302
626 769 2309
632 768 2302
635 763 2287
643 764 2287
651 766 2291
658 765 2288
665 765 2286
675 768 2295
686 772 2305
688 766 2286
698 770 2296
707 771 2297
710 767 2284
719 769 2287
710 752 2234
719 755 2241
725 754 2235
735 756 2242
746 760 2251
758 766 2266
762 763 2255
767 760 2244
776 762 2249
784 763 2251
792 764 2252
798 763 2247
805 763 2244
810 761 2237
817 760 2232
822 759 2226
829 759 2224
834 757 2216
843 758 2218
850 758 2215
858 759 2215
866 760 2215
877 764 2225
881 760 2213
885 758 2204
894 759 2205
896 756 2192
904 756 2190
912 757 2190
920 758 2192
926 757 2186
931 755 2179
940 757 2180
944 755 2172
953 756 2174
958 754 2166
964 754 2161
971 753 2158
978 753 2154
986 754 2154
1011 768 2192
1034 780 2222
1034 774 2203
1038 772 2194
1047 773 2195
1040 763 2163
1034 754 2133
1038 751 2123
1011 727 2051
989 706 1989
820 582 1635
728 513 1439
722 505 1415
718 499 1397
713 492 1375
733 503 1403
802 547 1524
917 621 1729
933 628 1746
939 629 1745
945 628 1742
963 637 1762
960 630 1742
972 634 1750
973 631 1740
977 630 1732
980 628 1725
983 626 1716
995 630 1725
998 628 1717
1005 629 1716
1012 630 1715
1024 634 1723
-1404 885 2318
-1383 877 2301
-1369 873 2295
-1364 875 2304
-1345 868 2290
-1346 873 2308
-1325 865 2291
-1316 864 2292
-1299 857 2279
-1295 860 2290
-1289 861 2296
-1265 850 2271
-1250 845 2262
-1251 851 2282
-1229 841 2259
-1219 839 2258
-1206 835 2251
-1205 840 2267
-1183 830 2243
-1187 838 2269
-1163 826 2241
-1152 823 2236
-1144 823 2240
-1127 816 2223
-1119 816 2227
-1107 812 2221
-1097 810 2218
-1093 812 2227
-1080 808 2218
-1039 783 2152
-983 746 2053
-955 730 2012
-953 733 2023
-953 738 2041
-957 746 2066
-950 746 2068
-946 748 2077
-949 756 2102
-951 762 2123
-963 777 2168
-972 791 2209
-965 790 2211
-962 794 2223
-962 800 2243
-956 801 2249
-950 802 2255
-947 805 2267
-944 808 2279
-946 817 2304
-933 812 2293
-936 820 2321
-933 824 2335
-922 821 2328
-919 825 2343
-912 826 2347
-910 831 2364
-910 837 2385
-903 838 2390
-902 843 2408
-891 841 2403
-895 851 2437
-887 851 2438
-877 849 2435
-878 857 2460
-869 855 2458
-863 857 2467
-856 858 2472
-850 859 2477
-842 860 2481
-833 858 2479
-828 861 2490
-824 864 2502
-819 867 2512
-812 869 2520
-801 865 2510
-795 867 2519
-782 862 2505
-776 863 2511
-771 866 2524
-760 862 2514
-755 865 2525
-744 862 2517
-737 862 2521
-731 865 2530
-724 865 2533
-715 864 2531
-705 861 2525
-700 864 2536
-685 856 2515
-671 847 2490
-665 849 2499
-663 857 2523
-664 868 2558
-658 870 2567
-653 874 2579
-641 869 2567
-636 873 2581
-623 866 2561
-617 868 2568
-607 865 2562
-596 860 2549
-588 860 2551
-579 858 2545
-574 862 2558
-563 858 2548
-556 858 2550
-545 854 2539
-540 857 2550
-532 857 2552
-523 856 2549
-514 854 2545
-500 842 2510
-475 813 2426
-440 764 2282
-428 756 2259
0 0 0
-430 785 2347
-409 758 2268
-414 781 2337
0 0 0
0 0 0
-396 788 2361
0 0 0
-355 732 2196
-352 740 2221
-351 751 2256
-342 747 2245
-326 728 2186
-320 729 2190
-322 747 2247
-296 703 2115
-297 720 2166
-305 755 2274
-292 741 2232
-275 712 2147
-268 711 2143
-271 737 2224
-264 736 2220
-258 738 2227
-252 741 2238
-242 729 2203
-241 748 2260
-230 733 2216
-231 758 2292
-227 767 2320
-215 750 2269
-202 728 2201
-198 737 2229
-186 720 2178
-183 732 2217
-177 735 2226
-171 736 2230
-160 719 2178
-154 722 2188
-148 721 2185
-138 706 2142
-134 718 2178
-129 727 2205
-128 760 2307
-124 777 2358
-117 776 2356
-114 807 2450
-112 840 2551
-108 868 2639
-98 857 2606
-90 853 2593
-81 843 2564
-74 844 2566
-65 834 2537
-55 800 2431
-45 756 2300
-38 749 2277
-31 738 2244
-24 735 2235
-17 735 2235
-10 725 2205
-4 727 2210
2 728 2213
9 749 2279
16 779 2370
24 805 2450
31 791 2408
37 777 2364
44 773 2353
51 766 2331
56 742 2259
63 752 2289
73 779 2369
81 788 2397
88 792 2409
96 794 2415
107 825 2511
116 834 2539
118 801 2436
125 796 2423
129 776 2361
131 750 2282
144 780 2373
138 713 2167
155 765 2326
169 798 2428
171 774 2352
192 836 2543
195 818 2487
202 817 2483
208 811 2465
216 810 2461
223 810 2460
230 809 2457
238 811 2465
244 806 2448
251 806 2446
258 803 2437
264 800 2428
272 801 2432
279 802 2432
285 798 2420
292 797 2416
299 797 2416
307 797 2417
314 798 2418
321 797 2415
327 794 2405
335 794 2405
342 795 2406
348 792 2397
355 791 2394
362 791 2392
369 789 2386
377 791 2390
384 791 2389
388 785 2370
397 788 2378
404 787 2377
412 789 2380
418 787 2374
425 787 2373
433 788 2374
440 788 2374
447 787 2370
452 783 2357
454 775 2333
461 774 2329
476 788 2370
481 785 2358
486 781 2345
494 782 2347
499 778 2334
506 778 2334
512 777 2329
522 781 2340
528 779 2333
535 779 2331
543 780 2334
549 778 2326
557 779 2328
562 776 2318
569 776 2316
574 773 2306
581 774 2307
589 775 2308
598 777 2313
603 774 2305
609 773 2298
618 775 2304
625 775 2304
631 774 2299
642 778 2309
647 775 2299
655 777 2303
660 775 2294
668 775 2293
679 780 2306
687 781 2307
691 778 2296
698 777 2292
706 778 2293
700 764 2250
695 750 2208
698 746 2194
712 754 2216
725 761 2234
736 765 2244
744 766 2245
758 772 2262
757 764 2236
752 753 2200
768 761 2224
783 769 2244
793 772 2252
799 771 2245
807 771 2245
813 770 2240
817 767 2230
825 769 2231
831 767 2226
835 764 2215
843 766 2216
850 766 2215
861 769 2222
868 769 2219
874 768 2213
881 768 2211
882 763 2195
891 764 2197
892 759 2180
906 765 2193
913 765 2192
919 764 2187
924 762 2178
933 764 2181
940 764 2178
947 764 2175
956 765 2176
959 762 2165
966 762 2164
968 758 2149
978 760 2152
983 759 2145
1023 784 2214
1013 771 2174
1032 780 2196
1040 781 2196
1045 779 2189
1037 768 2155
1036 762 2134
1029 751 2102
1008 731 2042
981 706 1971
790 565 1572
724 515 1429
687 485 1346
697 489 1353
719 501 1386
797 552 1525
824 567 1564
921 629 1735
934 635 1747
936 632 1736
951 638 1751
954 636 1743
963 638 1747
966 637 1738
970 635 1731
994 647 1760
979 633 1721
990 636 1726
998 638 1729
1003 637 1723
1002 633 1709
1005 631 1702
1019 636 1711
-1389 884 2292
-1372 878 2280
-1372 882 2297
-1345 870 2269
-1347 876 2290
-1346 881 2306
-1329 875 2295
-1316 871 2289
-1295 863 2271
-1291 865 2280
-1277 861 2273
-1265 858 2269
-1264 862 2285
-1246 855 2270
-1229 849 2257
-1218 846 2255
-1203 841 2243
-1201 845 2258
-1189 841 2252
-1175 837 2244
-1167 836 2246
-1153 831 2236
-1147 832 2242
-1128 824 2223
-1121 824 2227
-1114 824 2230
-1105 823 2231
-1084 813 2206
-1077 813 2210
-1055 801 2182
-994 761 2074
-960 740 2019
-951 738 2017
-952 744 2036
-954 751 2058
-952 754 2071
-951 758 2085
-946 760 2093
-950 768 2119
-962 784 2165
-969 795 2198
-962 796 2203
-962 801 2220
-959 804 2233
-957 809 2248
-949 808 2250
-939 805 2245
-941 814 2271
-939 818 2285
-931 818 2287
-930 823 2305
-925 825 2314
-927 833 2339
-924 837 2354
-920 840 2364
-911 838 2362
-912 847 2389
-904 846 2389
-898 847 2395
-893 850 2406
-887 852 2413
-880 851 2415
-871 850 2414
-865 852 2423
-860 854 2431
-846 849 2417
-845 855 2438
-841 858 2450
-833 858 2450
-826 859 2456
-815 855 2449
-810 857 2457
-805 861 2468
-797 860 2469
-787 858 2465
-781 859 2471
-772 858 2471
-767 860 2479
-763 865 2495
-754 863 2491
-744 860 2486
-739 863 2497
-733 866 2505
-726 866 2510
-717 865 2509
-709 865 2510
-700 863 2505
-695 867 2519
-676 853 2480
-668 852 2481
-668 861 2509
-663 865 2521
-659 869 2536
-652 871 2544
-645 872 2548
-639 874 2554
-629 872 2550
-622 872 2553
-611 867 2541
-602 866 2540
-595 866 2542
-586 864 2537
-577 863 2534
-572 867 2550
-561 863 2538
-556 866 2548
-544 860 2533
-532 852 2510
-523 850 2505
-513 846 2496
-505 845 2494
-489 831 2454
-464 801 2367
-443 777 2296
-445 793 2345
-433 784 2320
-445 819 2425
-422 790 2340
-403 767 2274
-389 753 2232
-388 764 2267
-402 806 2393
-370 756 2244
-370 769 2286
-372 788 2341
-344 744 2212
-361 796 2367
-340 764 2274
-327 751 2237
-322 754 2245
-311 744 2217
-315 770 2297
-309 772 2301
-289 740 2208
-287 751 2240
-265 711 2121
-287 789 2356
-274 771 2303
-248 716 2139
-254 753 2250
-241 733 2191
-234 733 2193
-226 730 2184
-218 725 2169
-219 748 2240
-211 746 2233
-197 720 2155
-202 758 2273
-190 742 2224
-185 749 2245
-176 736 2207
-170 738 2214
-162 733 2199
-156 737 2212
-148 730 2192
-142 734 2205
-135 729 2189
-132 750 2254
-130 780 2343
-132 834 2506
-125 836 2515
-114 809 2434
-107 815 2451
-102 832 2501
-95 837 2518
-87 833 2507
-82 852 2566
-73 847 2549
-63 816 2458
-52 768 2312
-44 744 2239
-38 749 2256
-31 754 2269
-24 748 2252
-17 741 2232
-10 742 2233
-4 748 2252
2 761 2293
9 813 2448
17 830 2500
24 821 2473
30 785 2364
36 766 2309
44 772 2327
52 797 2400
59 794 2392
65 774 2332
72 781 2353
82 807 2431
89 806 2428
98 819 2469
105 815 2457
112 816 2458
120 819 2468
121 779 2345
130 793 2387
139 804 2421
148 811 2442
150 783 2358
159 791 2383
173 827 2490
176 805 2423
178 782 2354
194 821 2470
203 824 2482
209 821 2470
213 808 2432
222 814 2448
229 813 2446
236 812 2442
245 816 2454
252 817 2456
259 815 2449
266 812 2440
271 807 2426
278 806 2422
286 807 2423
293 806 2421
300 805 2416
306 803 2409
313 803 2408
321 803 2409
328 802 2405
335 802 2404
342 801 2402
348 799 2393
356 801 2399
362 797 2386
370 798 2390
375 795 2380
383 797 2383
390 796 2379
398 797 2381
404 795 2375
411 795 2375
419 796 2378
426 795 2374
432 794 2370
440 794 2369
446 793 2366
452 790 2355
457 788 2346
460 779 2320
473 789 2350
480 790 2350
488 790 2349
494 789 2346
501 788 2341
510 791 2350
514 787 2335
521 787 2334
528 787 2332
533 783 2321
543 787 2332
549 786 2326
556 785 2323
563 785 2320
568 782 2312
576 783 2314
584 785 2316
588 780 2301
596 781 2304
603 781 2302
607 778 2291
618 783 2303
626 784 2304
633 783 2303
641 784 2303
646 782 2295
653 781 2292
661 783 2294
669 783 2294
679 787 2303
689 790 2310
693 786 2298
692 777 2270
697 775 2263
696 767 2235
680 741 2158
692 747 2175
710 759 2208
722 764 2221
738 773 2246
753 782 2269
760 782 2267
757 771 2234
757 764 2212
766 767 2217
785 778 2247
794 780 2252
798 776 2240
806 777 2240
813 777 2238
819 777 2235
821 772 2219
827 771 2212
835 771 2213
844 774 2217
850 773 2212
861 776 2218
870 778 2222
877 778 2220
876 771 2198
887 774 2203
890 770 2191
895 768 2184
901 768 2180
911 770 2184
919 771 2184
926 771 2182
935 773 2183
940 771 2176
944 769 2167
956 773 2176
962 772 2171
963 767 2154
970 766 2150
980 769 2154
983 766 2144
1000 773 2162
1015 780 2177
1038 792 2208
1040 788 2194
1045 786 2187
1036 774 2149
1035 768 2131
1032 760 2106
1006 736 2037
959 697 1924
772 558 1536
712 511 1405
714 509 1396
708 501 1374
729 513 1403
744 520 1422
849 590 1611
930 642 1751
937 643 1751
937 639 1738
950 643 1747
963 648 1757
964 645 1746
971 645 1744
965 638 1721
979 643 1732
978 638 1718
989 641 1723
994 641 1720
1008 646 1730
1005 641 1712
1014 643 1715
1022 644 1715
-1391 893 2292
-1386 894 2301
-1368 888 2288
-1357 886 2287
-1349 886 2291
-1337 883 2288
-1321 878 2278
-1320 882 2293
-1303 875 2281
-1291 873 2278
-1283 872 2281
-1263 864 2263
-1261 868 2278
-1241 859 2259
-1231 857 2257
-1221 856 2257
-1217 858 2267
-1206 855 2264
-1187 848 2246
-1175 844 2241
-1171 847 2251
-1159 843 2246
-1144 838 2235
-1134 836 2232
-1120 831 2223
-1112 830 2225
-1100 827 2218
-1088 823 2213
-1078 821 2211
-1062 814 2194
-1005 776 2095
-967 752 2032
-953 746 2019
-951 750 2033
-955 758 2058
-953 762 2070
-948 763 2077
-944 765 2087
-947 773 2112
-954 784 2145
-966 800 2191
-965 805 2207
-958 805 2210
-955 808 2221
-951 811 2233
-948 815 2246
-946 819 2260
-945 825 2279
-938 825 2282
-930 824 2282
-927 827 2295
-926 833 2314
-924 838 2330
-922 843 2345
-917 845 2356
-908 843 2353
-902 845 2359
-896 847 2367
-894 852 2384
-883 848 2377
-875 847 2377
-871 851 2391
-866 854 2400
-857 852 2397
-852 854 2406
-848 857 2418
-835 853 2408
-833 858 2424
-823 856 2420
-821 861 2439
-811 859 2434
-802 857 2431
-798 861 2445
-789 860 2444
-782 860 2447
-780 866 2466
-771 864 2464
-760 861 2455
-756 865 2470
-750 867 2478
-739 862 2467
-734 866 2480
-724 863 2474
-718 865 2482
-710 864 2480
-701 862 2478
-695 865 2487
-689 867 2495
-674 857 2469
-666 857 2468
-666 866 2498
-656 863 2491
-655 872 2520
-649 875 2529
-639 871 2521
-631 872 2523
-625 874 2531
-618 874 2535
-609 873 2532
-600 870 2526
-593 872 2534
-584 870 2528
-578 872 2538
-569 870 2533
-559 867 2524
-553 869 2532
-544 867 2529
-536 867 2530
-524 861 2513
-516 860 2512
-506 854 2497
-492 844 2467
-459 799 2338
-435 771 2255
-425 764 2239
-409 748 2191
-397 738 2162
-388 734 2152
-382 734 2153
-372 728 2138
-366 729 2140
-380 769 2261
-379 781 2296
-360 757 2226
-351 750 2208
-352 769 2263
-348 773 2278
-342 776 2287
-338 782 2306
-339 800 2360
-312 753 2222
-297 733 2162
-295 743 2195
-289 747 2207
-283 747 2208
-274 741 2190
-273 756 2237
-273 774 2291
-254 742 2195
-257 770 2280
-254 780 2309
-229 725 2148
-223 725 2149
-230 771 2284
-222 764 2267
-210 747 2214
-201 739 2192
-199 756 2243
-193 758 2249
-180 734 2179
-172 728 2163
-164 722 2144
-158 723 2148
-155 737 2191
-152 754 2241
-150 778 2313
-149 812 2415
-145 829 2466
-143 861 2562
-136 867 2582
-125 843 2509
-113 810 2413
-101 781 2325
-98 808 2408
-95 842 2510
-88 846 2522
-78 828 2467
-67 787 2346
-58 754 2247
-52 765 2279
-45 768 2289
-37 752 2241
-30 746 2223
-23 732 2183
-17 731 2180
-10 742 2212
-4 759 2264
2 781 2330
9 841 2508
17 848 2532
24 825 2463
30 786 2346
36 771 2301
44 781 2330
54 827 2466
62 845 2522
68 828 2470
75 817 2437
82 814 2429
89 811 2421
97 818 2441
105 822 2451
113 828 2471
121 837 2497
130 842 2512
136 832 2483
139 809 2413
150 830 2474
154 810 2416
164 825 2460
172 827 2467
185 853 2543
188 831 2479
194 825 2459
198 814 2426
206 816 2433
211 805 2399
221 818 2438
229 820 2442
237 821 2446
242 815 2426
251 818 2435
257 814 2424
267 822 2447
273 818 2435
279 815 2426
286 814 2421
292 811 2410
299 811 2412
308 814 2419
314 812 2411
321 811 2410
328 809 2404
335 810 2403
341 806 2391
349 808 2397
356 806 2392
362 805 2388
369 803 2381
376 803 2379
376 788 2333
390 803 2377
397 802 2374
403 800 2367
412 803 2375
418 802 2371
425 801 2368
433 803 2372
440 802 2369
446 799 2358
452 798 2356
458 795 2346
458 782 2307
473 797 2350
482 800 2357
487 796 2343
494 796 2342
502 798 2346
507 794 2336
516 797 2341
522 795 2336
529 795 2333
535 793 2326
543 794 2327
547 790 2315
558 795 2328
563 792 2320
569 790 2312
576 791 2313
586 794 2320
591 791 2310
597 790 2307
601 785 2290
607 784 2285
619 791 2304
623 786 2290
632 789 2297
639 789 2293
647 790 2295
652 788 2288
662 790 2294
670 792 2298
684 800 2318
689 797 2309
677 776 2245
674 763 2208
678 760 2197
686 762 2199
689 757 2184
693 754 2175
709 765 2202
726 775 2230
743 786 2260
751 787 2261
759 787 2261
759 781 2239
763 777 2226
768 775 2218
773 773 2212
779 772 2206
786 772 2204
804 783 2234
812 784 2234
818 783 2230
825 783 2227
828 778 2213
834 778 2208
846 782 2218
850 780 2210
861 783 2218
873 787 2227
873 781 2207
880 781 2204
889 782 2206
893 780 2196
893 774 2178
901 775 2177
912 778 2184
920 779 2184
929 780 2186
935 779 2180
941 779 2176
949 779 2175
954 778 2169
961 778 2166
961 772 2148
970 774 2149
980 776 2152
1011 795 2202
1026 801 2217
1027 796 2200
1035 796 2198
1040 795 2192
1040 790 2174
1034 779 2142
1036 775 2129
1025 762 2090
1003 740 2027
917 673 1839
769 560 1527
716 518 1410
719 517 1405
717 512 1390
713 506 1371
757 534 1445
875 613 1658
931 648 1750
947 656 1768
946 651 1752
950 649 1744
952 647 1736
959 647 1735
967 648 1735
974 650 1736
981 650 1734
979 645 1717
992 650 1727
991 645 1713
1008 652 1729
1018 655 1732
1025 655 1730
1016 646 1703
-1401 907 2306
-1384 901 2295
-1362 892 2276
-1357 894 2285
-1348 893 2287
-1338 892 2288
-1326 889 2284
-1305 880 2266
-1308 887 2287
-1285 876 2265
-1285 882 2283
-1265 873 2264
-1258 874 2270
-1238 865 2250
-1230 865 2254
-1218 861 2248
-1217 866 2265
-1203 861 2256
-1187 855 2245
-1173 850 2235
-1166 851 2239
-1158 850 2241
-1143 845 2231
-1131 841 2224
-1126 843 2232
-1120 844 2239
-1106 839 2229
-1090 832 2215
-1079 829 2210
-1068 826 2206
-1022 796 2127
-973 763 2043
-952 752 2016
-951 756 2030
-950 761 2045
-950 766 2062
-947 769 2074
-947 774 2090
-945 778 2103
-954 792 2143
-965 807 2187
-969 815 2213
-959 813 2209
-955 816 2221
-951 818 2229
-944 819 2234
-942 823 2248
-938 825 2258
-934 829 2270
-924 826 2265
-919 828 2273
-915 831 2284
-916 838 2308
-912 841 2318
-910 846 2335
-905 848 2344
-898 849 2347
-890 849 2350
-886 851 2359
-878 850 2360
-871 851 2365
-866 853 2373
-860 855 2380
-852 854 2381
-849 859 2397
-839 856 2392
-831 856 2393
-825 857 2400
-817 857 2401
-811 858 2407
-804 859 2412
-798 860 2417
-796 867 2438
-786 864 2433
-776 862 2428
-773 866 2442
-764 865 2441
-757 865 2443
-748 864 2443
-743 867 2453
-732 862 2443
-728 867 2458
-720 866 2458
-716 871 2473
-702 863 2452
-692 859 2445
-686 861 2451
-678 861 2452
-668 858 2446
-667 866 2472
-662 869 2482
-653 868 2480
-648 871 2490
-645 877 2510
-638 878 2515
-627 874 2505
-619 873 2506
-612 874 2510
-603 872 2506
-596 873 2509
-585 868 2497
-579 870 2504
-572 871 2508
-563 870 2507
-554 867 2502
-544 863 2490
-529 851 2456
-514 839 2423
-496 822 2376
-478 804 2324
-462 788 2281
-442 766 2218
-420 740 2143
-410 732 2122
-405 736 2133
-397 733 2127
-393 736 2137
-385 734 2131
-379 735 2135
-374 738 2144
-369 741 2155
-374 765 2225
-376 783 2279
-357 756 2201
-361 780 2274
-351 774 2256
-338 759 2214
-326 747 2179
-327 765 2233
-316 754 2202
-305 743 2171
-290 723 2113
-284 723 2115
-279 728 2128
-270 720 2106
-264 720 2108
-272 762 2231
-260 745 2184
-260 765 2241
-259 781 2289
-242 752 2206
-233 742 2178
-231 757 2220
-210 710 2084
-217 756 2219
-210 756 2220
-203 752 2208
-195 749 2202
-192 762 2241
-187 768 2260
-174 741 2180
-164 727 2138
-157 725 2134
-160 772 2271
-168 843 2484
-168 881 2596
-161 885 2608
-153 880 2594
-143 870 2566
-134 863 2545
-124 847 2497
-114 825 2432
-101 782 2305
-97 810 2389
-92 825 2435
-85 825 2435
-73 783 2311
-65 767 2262
-57 753 2222
-50 747 2204
-43 745 2200
-36 734 2168
-29 733 2165
-23 732 2162
-16 732 2163
-10 731 2158
-4 736 2173
2 747 2205
9 782 2311
16 822 2430
24 823 2433
30 793 2342
37 788 2328
45 808 2388
54 845 2498
62 852 2517
70 850 2513
77 846 2500
82 821 2427
92 849 2511
96 818 2416
104 825 2437
111 822 2430
122 846 2501
127 829 2450
134 830 2452
140 820 2421
142 789 2331
149 790 2334
163 827 2441
169 820 2420
178 827 2443
187 835 2465
191 820 2420
208 862 2546
209 836 2468
208 801 2364
220 820 2420
231 834 2459
238 831 2452
244 828 2441
251 826 2436
257 823 2427
266 828 2440
274 829 2442
282 832 2451
287 823 2425
294 824 2426
299 818 2407
307 819 2411
314 820 2411
320 816 2400
327 814 2392
335 816 2398
341 814 2391
349 814 2392
355 813 2387
361 810 2379
368 809 2375
374 806 2365
379 801 2350
388 806 2362
398 812 2379
403 807 2364
417 821 2404
416 805 2357
424 807 2361
433 809 2368
439 808 2362
446 806 2358
453 806 2354
460 806 2355
457 789 2303
469 797 2325
483 809 2360
487 804 2344
493 802 2337
501 803 2338
509 803 2339
515 802 2335
522 802 2332
528 800 2326
534 798 2319
542 800 2322
550 801 2324
559 804 2331
566 803 2328
573 803 2326
579 801 2320
584 798 2310
593 801 2317
599 799 2311
596 787 2272
605 789 2277
618 796 2297
626 798 2300
633 798 2299
641 798 2297
648 799 2298
653 795 2287
663 799 2295
673 803 2306
683 805 2311
677 790 2266
667 770 2206
663 758 2169
675 764 2186
670 751 2147
692 767 2192
708 778 2220
718 781 2226
732 788 2246
743 793 2257
751 793 2257
757 792 2253
760 789 2240
760 781 2216
752 766 2171
736 742 2102
750 750 2122
766 759 2145
796 782 2208
814 793 2237
820 792 2233
823 788 2220
821 779 2192
827 778 2187
839 783 2200
851 787 2208
861 790 2215
870 792 2218
877 791 2213
877 785 2193
886 787 2197
889 784 2185
891 779 2170
902 782 2176
915 788 2189
922 788 2187
928 787 2181
937 788 2183
942 787 2176
948 785 2170
956 786 2171
959 783 2159
966 783 2156
982 790 2173
985 787 2161
1004 797 2185
1014 799 2188
1028 804 2200
1037 805 2201
1043 804 2195
1039 796 2169
1036 788 2144
1034 781 2122
1021 766 2080
1005 749 2029
878 650 1758
779 573 1546
691 504 1358
713 517 1392
706 509 1366
716 513 1375
772 549 1472
884 625 1674
928 652 1744
936 654 1745
948 658 1753
951 656 1745
958 656 1744
962 655 1738
964 653 1728
973 654 1731
981 656 1731
987 656 1729
986 651 1714
999 656 1723
1003 655 1717
1009 655 1715
1010 652 1703
1016 652 1700
-1392 909 2288
-1380 907 2286
-1361 899 2271
-1362 905 2290
-1346 899 2280
-1334 897 2278
-1312 887 2257
-1310 891 2271
-1299 889 2269
-1287 885 2266
-1284 889 2278
-1263 879 2258
-1257 881 2265
-1237 872 2246
-1240 879 2270
-1220 870 2250
-1207 866 2244
-1200 867 2248
-1192 867 2252
-1187 868 2259
-1166 858 2237
-1150 852 2223
-1150 858 2243
-1135 852 2230
-1120 845 2218
-1114 846 2224
-1105 846 2225
-1094 843 2220
-1081 838 2212
-1067 832 2200
-1038 816 2159
-981 776 2057
-955 761 2020
-951 763 2029
-951 768 2045
-952 774 2063
-952 780 2081
-945 780 2084
-945 785 2102
-945 791 2121
-967 815 2189
-965 819 2202
-958 820 2206
-956 824 2220
-952 827 2231
-943 825 2228
-945 833 2254
-942 836 2266
-934 836 2268
-931 839 2279
-929 844 2295
-919 842 2291
-907 837 2281
-904 841 2295
-905 849 2319
-898 849 2324
-890 848 2324
-887 853 2339
-879 853 2340
-870 851 2338
-865 853 2345
-863 858 2364
-852 855 2356
-848 858 2369
-838 855 2363
-832 857 2369
-830 862 2386
-822 862 2388
-811 858 2382
-804 859 2385
-800 862 2395
-793 863 2401
-784 861 2399
-780 865 2411
-773 865 2413
-765 865 2415
-756 863 2413
-750 865 2420
-744 867 2428
-738 868 2434
-726 863 2420
-722 867 2435
-713 866 2433
-705 865 2432
-699 866 2438
-690 865 2436
-676 856 2414
-672 861 2428
-662 858 2423
-659 864 2441
-653 866 2448
-648 869 2459
-643 872 2470
-640 878 2490
-629 874 2480
-620 872 2476
-608 866 2459
-593 855 2431
-577 841 2393
-560 828 2356
-544 814 2319
-529 802 2287
-513 789 2250
-502 783 2234
-490 775 2212
-479 768 2195
-469 763 2180
-460 758 2169
-449 752 2151
-440 747 2140
-433 745 2136
-422 738 2116
-415 737 2114
-409 737 2116
-404 741 2128
-399 743 2136
-389 736 2117
-384 740 2127
-379 741 2133
-374 745 2145
-376 761 2192
-374 771 2221
-368 773 2228
-374 799 2305
-353 769 2218
-349 774 2235
-345 782 2259
-333 769 2221
-321 756 2187
-319 768 2222
-296 727 2104
-283 713 2063
-274 704 2037
-274 720 2087
-266 715 2073
-259 714 2069
-254 718 2082
-258 746 2165
-249 739 2144
-261 795 2308
-249 778 2260
-247 795 2311
-237 786 2284
-225 766 2226
-219 770 2241
-213 773 2249
-199 746 2170
-196 758 2207
-186 744 2166
-181 753 2191
-170 733 2135
-163 729 2123
-158 735 2141
-171 826 2409
-176 891 2600
-167 883 2576
-158 875 2554
-148 863 2520
-135 828 2418
-129 838 2446
-122 837 2443
-108 794 2318
-98 772 2256
-94 794 2321
-87 789 2306
-80 788 2302
-72 783 2289
-65 776 2269
-58 771 2255
-50 754 2203
-42 739 2159
-36 736 2151
-29 741 2166
-23 749 2189
-17 756 2210
-10 737 2157
-3 730 2134
2 736 2153
9 744 2175
15 754 2207
22 778 2276
30 801 2345
38 823 2408
46 846 2475
54 856 2504
62 858 2513
70 857 2509
77 856 2506
85 860 2518
90 835 2444
96 821 2404
103 826 2416
113 841 2462
119 831 2432
124 819 2396
135 843 2465
132 783 2289
137 771 2256
149 800 2340
163 836 2444
172 844 2468
179 841 2460
180 811 2372
188 814 2378
205 856 2503
210 848 2479
211 821 2400
216 812 2372
228 829 2422
239 842 2460
246 843 2461
254 844 2465
261 843 2461
269 843 2460
276 843 2459
284 843 2460
289 838 2445
297 838 2444
302 833 2429
310 834 2430
316 831 2423
323 831 2421
329 826 2407
337 828 2412
343 824 2399
350 825 2401
358 826 2403
363 821 2388
370 821 2387
377 819 2381
383 818 2375
391 819 2379
397 816 2369
404 816 2368
411 816 2366
418 815 2363
424 813 2358
432 814 2358
438 811 2350
447 815 2359
453 813 2352
458 810 2344
459 799 2309
465 797 2305
480 811 2343
486 809 2336
493 809 2334
500 808 2332
508 810 2334
515 809 2330
522 809 2329
530 810 2332
539 813 2339
546 813 2338
552 812 2333
557 808 2322
564 807 2318
570 806 2314
576 805 2307
582 803 2302
589 802 2297
596 802 2297
597 795 2274
605 796 2275
620 806 2303
626 804 2297
633 804 2295
641 805 2295
647 805 2293
653 803 2287
651 791 2251
658 792 2252
663 789 2241
663 781 2216
664 773 2194
672 775 2198
678 774 2193
684 773 2188
699 783 2214
716 794 2244
727 798 2253
732 795 2244
738 795 2240
747 796 2244
747 789 2220
755 790 2222
726 753 2114
710 729 2045
720 733 2056
731 738 2067
753 753 2107
787 780 2183
811 797 2227
818 797 2224
819 791 2205
809 775 2158
812 770 2145
837 788 2190
852 796 2210
868 803 2229
872 801 2220
876 797 2209
881 796 2203
884 792 2189
887 788 2177
882 778 2144
895 783 2157
909 789 2172
922 795 2184
928 793 2178
936 794 2178
943 794 2175
950 794 2172
957 794 2169
980 807 2203
969 792 2160
984 799 2174
982 791 2152
988 791 2148
1028 816 2215
1027 810 2194
1038 813 2200
1039 808 2184
1035 799 2157
1033 792 2135
1031 786 2115
1021 773 2077
993 747 2003
836 624 1671
711 528 1409
715 527 1404
712 521 1388
710 516 1373
718 518 1376
782 561 1488
910 649 1721
934 662 1753
941 663 1753
939 657 1735
952 662 1745
964 667 1754
968 665 1746
977 667 1749
977 663 1736
982 662 1731
989 663 1730
992 661 1722
999 662 1722
1000 659 1711
1014 664 1722
1021 665 1720
1018 659 1702
-1389 916 2282
-1388 920 2297
-1371 913 2285
-1360 912 2285
-1346 907 2278
-1339 908 2283
-1323 902 2274
-1309 898 2267
-1287 888 2246
-1288 894 2266
-1275 890 2259
-1257 883 2244
-1257 888 2261
-1243 884 2255
-1227 878 2244
-1227 883 2261
-1212 877 2250
-1199 873 2243
