VERSION 0.7
FIELDS x y z
SIZE 4 4 4
TYPE I I I
COUNT 1 1 1
WIDTH 3598
HEIGHT 1
VIEWPOINT 0.0 0.0 0.0 1.0 0.0 0.0 0.0
POINTS 3598
DATA ascii
-231 320 1617
-225 318 1608
-223 321 1624
-218 322 1628
-210 317 1603
-208 321 1626
-203 320 1623
-197 317 1608
-195 322 1631
-190 321 1631
-185 322 1633
-180 321 1629
-175 320 1624
-169 318 1615
-165 320 1628
-161 320 1629
-156 320 1626
-149 317 1611
-145 317 1613
-141 319 1625
-136 318 1621
-131 317 1616
-122 307 1566
-115 301 1536
-106 289 1473
-98 278 1413
-90 267 1358
-84 261 1328
-78 254 1295
-73 252 1284
-70 253 1289
-66 252 1286
-63 254 1296
-59 253 1289
-56 257 1310
-52 257 1312
-49 262 1339
-45 263 1341
-43 272 1391
-39 275 1405
-36 280 1430
-34 294 1502
-31 314 1607
-27 314 1604
-23 325 1664
-18 326 1666
-13 324 1661
-9 328 1680
-4 324 1657
0 323 1656
5 324 1661
10 328 1678
15 327 1676
20 322 1650
25 328 1682
29 324 1657
34 327 1675
39 323 1656
44 326 1671
49 327 1674
53 321 1645
58 322 1651
64 327 1673
69 326 1672
74 328 1678
78 327 1673
83 326 1670
88 326 1671
93 325 1664
97 324 1663
103 327 1676
108 327 1673
112 324 1661
117 324 1658
123 328 1679
128 328 1681
134 330 1691
137 327 1675
143 329 1684
148 330 1688
152 328 1677
158 330 1691
164 331 1695
168 330 1689
174 331 1696
179 332 1700
183 330 1687
188 331 1691
194 332 1698
200 333 1702
203 329 1684
211 334 1710
216 335 1713
220 333 1702
230 341 1744
233 337 1723
238 337 1723
242 335 1713
247 335 1712
249 331 1692
256 334 1704
263 337 1721
262 329 1681
271 334 1706
276 333 1701
279 331 1690
284 332 1691
287 330 1680
295 332 1693
302 335 1705
303 331 1684
308 330 1680
320 338 1719
318 331 1683
325 333 1693
330 332 1690
335 332 1688
342 335 1700
339 326 1657
345 328 1664
355 332 1684
360 332 1685
367 334 1693
371 333 1690
378 334 1694
384 336 1701
381 328 1663
394 335 1697
397 334 1689
398 330 1670
410 336 1699
408 330 1669
418 334 1689
422 333 1681
429 335 1688
436 336 1696
435 332 1672
446 336 1692
454 338 1704
455 336 1688
458 334 1680
466 336 1689
475 338 1700
478 337 1693
487 340 1704
492 340 1703
498 341 1707
505 341 1710
510 341 1708
509 337 1688
517 339 1695
527 342 1709
531 341 1703
535 341 1699
537 338 1687
551 344 1716
556 344 1712
556 341 1697
573 348 1730
565 340 1689
577 344 1708
576 340 1689
590 345 1713
601 349 1729
605 348 1721
634 361 1788
651 368 1819
647 362 1790
649 360 1779
649 357 1762
657 359 1768
645 349 1720
657 353 1735
659 351 1725
663 351 1722
675 354 1735
685 356 1747
689 355 1741
697 357 1745
709 360 1759
707 356 1739
718 359 1752
723 359 1749
731 360 1753
739 361 1758
735 357 1733
741 357 1732
745 356 1727
754 358 1733
756 356 1723
760 356 1718
770 358 1726
765 353 1701
773 354 1704
770 350 1685
745 336 1615
723 324 1554
707 315 1508
610 270 1290
615 270 1289
693 302 1443
723 313 1494
776 334 1591
795 340 1618
809 344 1633
809 342 1621
824 346 1639
822 342 1621
829 343 1622
834 343 1620
834 341 1607
839 341 1604
843 340 1599
842 338 1585
827 330 1546
832 329 1542
823 324 1514
821 321 1500
822 320 1490
822 318 1479
827 318 1476
811 310 1437
845 321 1487
789 298 1378
-498 196 853
-475 188 820
-486 194 844
-492 197 861
-493 199 870
-480 195 854
-495 202 887
-489 200 882
-486 200 884
-498 206 912
-468 195 864
-484 203 900
-494 209 926
-497 211 939
-485 207 922
-470 202 902
-504 218 975
-485 211 945
-487 213 955
-496 218 982
-494 219 985
-481 215 967
-499 224 1009
-494 223 1009
-516 234 1060
-538 246 1115
-537 247 1122
-537 248 1131
-532 248 1130
-521 244 1116
-522 246 1126
-534 254 1161
-562 268 1232
-576 277 1273
-574 278 1281
-563 275 1267
-536 263 1215
-486 241 1111
-506 252 1166
-502 252 1168
-497 252 1166
-515 262 1218
-521 267 1242
-533 275 1282
-568 296 1379
-625 327 1530
-642 338 1583
-634 337 1578
-626 335 1572
-633 341 1603
-622 338 1590
-620 340 1600
-617 341 1605
-608 339 1598
-606 340 1606
-599 339 1602
-597 340 1611
-587 338 1600
-587 340 1613
-577 337 1602
-567 334 1588
-561 333 1586
-560 336 1601
-552 334 1593
-545 333 1586
-551 339 1621
-539 335 1601
-543 340 1628
-533 337 1614
-528 337 1616
-525 338 1622
-519 337 1620
-511 336 1614
-517 342 1647
-513 344 1654
-509 344 1657
-494 337 1626
-488 336 1624
-482 336 1622
-476 335 1618
-480 341 1650
-467 335 1624
-464 336 1629
-452 331 1608
-453 336 1629
-452 338 1643
-443 335 1629
-449 344 1672
-431 334 1624
-431 337 1642
-429 340 1657
-419 336 1638
-420 340 1662
-411 337 1646
-405 336 1642
-402 337 1649
-396 336 1645
-391 337 1649
-387 337 1651
-381 336 1649
-374 334 1639
-366 332 1628
-359 329 1617
-352 327 1609
-347 327 1610
-345 330 1624
-339 329 1619
-334 328 1616
-330 329 1624
-327 331 1632
-317 326 1609
-311 324 1600
-309 327 1617
-306 329 1628
-298 325 1610
-294 326 1613
-288 325 1609
-284 325 1611
-281 327 1622
-272 323 1600
-267 322 1599
-262 322 1597
-256 320 1588
-251 320 1589
-243 315 1565
-241 319 1588
-235 316 1574
-233 320 1593
-226 317 1579
-224 321 1598
-218 319 1590
-214 320 1597
-209 320 1596
-206 322 1606
-198 316 1579
-196 321 1604
-193 325 1621
-188 323 1615
-182 322 1609
-178 322 1608
-176 328 1639
-167 320 1599
-164 322 1611
-156 317 1585
-154 321 1607
-151 324 1624
-144 320 1606
-141 323 1620
-134 320 1602
-129 318 1595
-122 313 1568
-115 306 1536
-104 288 1443
-95 275 1381
-88 265 1331
-83 262 1312
-77 256 1285
-72 252 1266
-69 253 1267
-65 255 1278
-61 254 1274
-58 256 1287
-55 258 1296
-51 259 1301
-48 262 1315
-45 264 1328
-42 271 1361
-38 273 1375
-35 278 1397
-33 292 1468
-30 307 1548
-26 315 1585
-23 326 1645
-18 328 1651
-13 325 1640
-8 328 1651
-3 326 1642
0 329 1660
5 324 1635
10 326 1642
15 326 1646
19 324 1636
24 326 1647
29 327 1648
34 327 1650
39 327 1648
44 330 1665
49 329 1658
54 329 1660
58 329 1659
62 324 1634
68 331 1668
73 331 1668
77 326 1645
82 328 1653
88 329 1662
92 327 1651
97 329 1660
103 333 1681
107 330 1666
113 332 1676
117 329 1659
121 329 1658
127 330 1667
132 332 1673
138 333 1678
140 327 1650
147 331 1671
152 331 1667
157 331 1669
162 333 1677
168 334 1683
173 334 1684
177 332 1674
184 335 1691
187 333 1680
191 331 1666
196 332 1672
204 337 1695
208 335 1686
214 336 1693
218 334 1683
220 330 1663
226 332 1670
230 331 1663
239 337 1695
244 337 1693
251 339 1705
258 341 1716
257 334 1678
262 334 1676
267 334 1677
271 333 1674
276 333 1671
280 332 1668
286 332 1668
292 334 1674
297 334 1676
301 333 1672
306 333 1668
307 329 1646
318 336 1681
315 327 1635
321 329 1645
333 335 1676
337 335 1674
346 338 1689
344 331 1657
351 334 1667
354 332 1657
364 337 1680
368 336 1675
369 332 1655
378 335 1673
379 332 1656
389 336 1673
393 335 1669
397 335 1666
406 338 1680
406 334 1661
414 336 1672
419 336 1671
424 336 1668
425 333 1651
431 333 1654
445 340 1687
442 334 1657
446 334 1654
456 337 1671
465 340 1683
472 341 1688
472 338 1672
479 339 1677
490 344 1697
492 341 1685
489 336 1655
497 338 1664
503 338 1665
508 338 1664
516 340 1673
520 340 1669
528 341 1676
531 340 1670
539 342 1677
544 342 1675
559 348 1705
558 344 1685
565 345 1688
580 351 1717
577 346 1691
590 350 1710
587 346 1688
606 354 1725
637 369 1797
647 371 1808
649 369 1795
643 363 1763
646 361 1754
649 360 1745
647 356 1725
646 352 1705
650 352 1702
655 351 1697
669 356 1721
673 355 1715
678 355 1711
700 364 1753
709 365 1758
707 362 1739
713 362 1738
723 364 1747
728 364 1745
725 360 1723
728 359 1716
739 361 1726
743 360 1720
748 360 1719
750 359 1709
757 359 1709
764 360 1713
766 359 1703
766 356 1688
766 353 1673
768 352 1665
767 349 1650
741 335 1581
718 322 1519
700 312 1467
584 259 1214
628 276 1294
707 309 1448
733 318 1489
790 341 1593
801 343 1604
809 344 1607
821 347 1619
812 341 1587
827 345 1605
827 343 1593
835 344 1597
839 344 1591
848 345 1596
840 340 1569
836 336 1549
825 330 1517
831 330 1517
831 328 1505
825 324 1483
825 322 1473
825 320 1462
827 319 1453
821 315 1433
-487 195 833
-486 195 838
-495 200 860
-484 197 847
-479 196 844
-495 204 880
-484 200 866
-482 200 869
-487 204 884
-492 207 900
-495 209 912
-483 206 898
-492 211 922
-486 209 917
-488 212 929
-494 215 947
-489 214 944
-495 218 963
-494 219 969
-493 220 975
-508 228 1012
-498 225 1000
-506 230 1023
-514 235 1048
-537 247 1104
-546 253 1131
-541 252 1129
-533 250 1123
-530 251 1126
-524 249 1121
-525 252 1133
-535 258 1162
-550 267 1205
-569 278 1258
-568 279 1265
-567 281 1274
-535 267 1213
-535 268 1221
-495 251 1141
-498 254 1156
-495 254 1159
-511 264 1208
-518 270 1235
-542 284 1304
-583 308 1413
-627 333 1532
-636 340 1568
-626 338 1558
-629 342 1580
-618 338 1565
-625 345 1597
-619 344 1596
-613 344 1595
-608 344 1597
-597 340 1582
-595 342 1590
-587 340 1584
-582 340 1584
-577 340 1587
-571 339 1585
-564 338 1580
-557 336 1574
-557 339 1591
-550 338 1585
-545 338 1588
-538 336 1581
-541 341 1606
-537 342 1610
-534 343 1618
-533 345 1631
-521 341 1610
-520 343 1624
-512 341 1613
-501 337 1597
-516 350 1661
-506 347 1648
-492 340 1618
-484 338 1609
-476 336 1600
-474 338 1609
-465 335 1599
-467 340 1622
-460 339 1617
-452 336 1606
-448 337 1610
-439 334 1596
-439 337 1614
-435 337 1617
-431 339 1624
-425 338 1621
-425 341 1638
-418 339 1632
-415 341 1640
-407 339 1631
-401 337 1624
-396 337 1624
-390 336 1621
-385 336 1621
-379 335 1619
-373 334 1615
-369 335 1618
-362 333 1609
-357 332 1609
-352 332 1610
-345 330 1601
-337 327 1586
-333 328 1591
-329 328 1594
-326 329 1601
-320 328 1596
-313 326 1586
-310 328 1595
-308 331 1610
-300 327 1593
-297 330 1606
-290 327 1593
-288 330 1609
-283 330 1609
-278 328 1603
-271 326 1591
-267 327 1600
-258 321 1571
-250 317 1553
-249 321 1573
-245 322 1577
-238 320 1566
-233 318 1560
-229 319 1566
-226 322 1577
-222 323 1584
-217 322 1581
-213 323 1584
-207 321 1578
-205 325 1595
-197 320 1576
-196 326 1601
-188 320 1573
-186 324 1596
-179 322 1583
-176 323 1591
-172 324 1597
-168 325 1603
-164 327 1612
-158 324 1600
-153 324 1598
-148 324 1597
-143 323 1596
-139 325 1604
-134 322 1592
-127 318 1572
-121 315 1556
-113 305 1505
-101 283 1398
-93 274 1354
-86 265 1307
-81 261 1287
-76 258 1273
-72 255 1260
-68 254 1256
-65 256 1267
-61 257 1273
-57 253 1250
-54 259 1279
-50 258 1279
-47 260 1285
-44 266 1317
-41 269 1334
-38 276 1368
-35 280 1386
-32 287 1423
-29 304 1510
-26 317 1575
-22 326 1620
-18 328 1628
-13 327 1624
-8 329 1631
-3 328 1631
0 329 1633
5 327 1622
10 331 1644
15 329 1633
19 326 1622
24 329 1636
29 326 1621
34 330 1637
38 324 1610
44 333 1654
48 327 1627
53 327 1626
57 326 1618
62 327 1624
67 329 1633
72 331 1643
77 331 1646
81 326 1622
86 329 1634
91 329 1637
96 329 1635
101 329 1635
105 328 1628
111 331 1644
115 328 1629
120 329 1637
125 329 1633
130 330 1642
135 332 1648
140 332 1649
146 334 1660
151 335 1664
155 332 1651
161 334 1658
165 333 1653
170 333 1655
176 335 1664
181 336 1665
185 334 1657
188 331 1641
195 334 1656
198 332 1645
203 332 1644
209 334 1655
214 333 1653
221 337 1669
225 335 1661
233 340 1684
232 332 1645
239 335 1657
246 337 1668
248 334 1654
253 333 1649
260 336 1664
269 341 1687
272 339 1677
272 333 1647
279 335 1658
281 332 1642
288 335 1654
292 333 1645
296 332 1639
302 333 1646
307 334 1649
312 334 1647
318 335 1652
323 335 1653
330 337 1662
330 332 1635
336 333 1640
341 334 1644
354 341 1678
352 334 1644
359 336 1654
362 335 1645
369 337 1655
377 339 1666
377 335 1643
382 335 1645
384 332 1629
394 337 1650
398 336 1644
405 337 1652
411 339 1658
416 339 1657
419 337 1647
426 338 1655
429 337 1644
435 338 1649
445 342 1667
446 338 1651
452 339 1653
457 340 1655
463 340 1656
460 334 1627
476 342 1665
488 347 1689
483 340 1652
491 342 1661
497 343 1664
501 342 1657
505 341 1652
513 343 1661
509 337 1633
527 346 1672
525 341 1649
537 345 1668
541 345 1666
545 344 1660
547 342 1650
559 346 1668
559 343 1653
565 344 1653
574 346 1664
590 352 1693
600 356 1707
626 368 1763
636 371 1776
644 372 1782
639 365 1749
643 365 1746
636 358 1711
638 356 1699
645 357 1702
651 357 1702
649 353 1682
664 359 1705
660 354 1681
679 361 1713
685 361 1714
692 362 1716
701 364 1723
699 360 1703
711 363 1717
710 360 1699
717 361 1704
725 362 1707
735 365 1715
729 359 1687
740 362 1698
742 360 1690
752 362 1697
745 356 1668
755 359 1677
764 360 1681
765 358 1671
769 358 1665
774 357 1663
769 353 1639
761 347 1609
734 332 1539
711 320 1480
690 308 1423
581 258 1188
665 293 1350
717 314 1445
749 326 1497
792 342 1571
810 348 1595
812 346 1586
816 346 1582
819 345 1577
831 348 1586
830 345 1572
836 346 1573
839 345 1566
845 345 1564
831 337 1527
832 336 1517
836 335 1513
833 332 1496
834 330 1487
824 324 1458
825 323 1450
824 320 1436
-480 194 820
-494 201 851
-485 199 842
-492 203 861
-476 197 838
-489 204 867
-485 204 868
-489 206 882
-491 208 892
-478 204 874
-492 211 906
-478 206 887
-486 211 910
-491 214 925
-497 218 945
-501 222 960
-500 222 965
-482 216 937
-483 218 947
-480 218 948
-494 225 983
-508 233 1020
-524 241 1059
-552 256 1126
-564 263 1159
-548 257 1134
-529 250 1104
-530 252 1116
-533 256 1132
-526 254 1124
-527 256 1136
-532 260 1155
-550 271 1205
-569 282 1257
-565 282 1259
-563 283 1264
-543 275 1230
-540 275 1232
-508 261 1170
-516 267 1198
-498 259 1166
-512 268 1209
-523 276 1245
-534 284 1284
-602 322 1459
-636 343 1554
-631 343 1556
-620 339 1541
-622 343 1562
-622 345 1573
-617 346 1577
-607 342 1564
-597 340 1553
-598 343 1570
-594 343 1573
-595 347 1590
-587 345 1583
-587 347 1597
-574 343 1578
-564 339 1564
-552 335 1545
-552 338 1561
-552 341 1577
-543 338 1565
-540 339 1571
-540 342 1585
-536 343 1591
-531 342 1590
-530 345 1604
-521 342 1592
-516 342 1593
-511 342 1594
-511 345 1612
-505 344 1608
-507 349 1633
-500 348 1626
-489 344 1609
-474 336 1574
-470 337 1578
-470 341 1598
-466 341 1600
-462 341 1603
-456 340 1600
-448 338 1592
-442 337 1589
-439 338 1595
-434 338 1596
-430 339 1599
-425 338 1599
-419 337 1596
-419 342 1617
-411 339 1604
-404 337 1595
-400 338 1601
-395 337 1600
-392 339 1609
-388 340 1614
-381 338 1606
-380 341 1621
-374 340 1619
-369 339 1616
-357 333 1587
-349 330 1574
-346 332 1583
-340 330 1578
-336 331 1580
-335 334 1598
-326 330 1580
-323 331 1586
-318 331 1585
-315 333 1594
-304 326 1563
-303 330 1583
-298 330 1584
-294 330 1585
-289 330 1587
-284 330 1584
-275 324 1559
-274 329 1583
-267 326 1567
-261 325 1565
-256 324 1562
-249 321 1549
-248 325 1569
-239 319 1540
-238 324 1562
-232 323 1559
-228 323 1559
-225 325 1570
-220 325 1572
-215 323 1564
-209 322 1559
-206 324 1570
-201 324 1567
-197 324 1570
-191 322 1560
-189 327 1585
-182 322 1562
-178 323 1566
-175 327 1587
-168 321 1558
-166 327 1587
-162 328 1596
-155 324 1574
-153 328 1595
-148 328 1596
-143 328 1593
-140 330 1607
-132 324 1575
-124 316 1536
-117 310 1507
-108 297 1445
-99 283 1379
-92 274 1332
-85 266 1297
-80 261 1269
-74 255 1243
-71 255 1241
-67 255 1243
-64 256 1246
-60 257 1253
-57 258 1255
-54 260 1269
-50 260 1267
-47 262 1275
-43 264 1287
-41 270 1318
-37 274 1339
-34 280 1369
-32 292 1428
-29 307 1501
-25 314 1534
-22 329 1609
-17 330 1612
-13 329 1610
-8 326 1595
-3 329 1608
0 331 1618
5 328 1604
10 327 1601
14 326 1595
19 330 1614
24 334 1635
29 331 1623
33 330 1616
38 329 1612
43 334 1637
48 331 1620
52 329 1610
58 333 1633
62 331 1621
66 329 1609
71 329 1611
76 329 1609
81 330 1616
85 330 1614
91 332 1628
95 330 1617
100 331 1620
104 330 1615
111 336 1645
115 332 1626
119 332 1627
124 331 1618
129 332 1624
135 335 1638
139 333 1629
142 330 1612
148 333 1630
155 336 1645
158 334 1632
164 335 1638
167 333 1628
172 333 1630
178 336 1641
183 336 1643
189 338 1651
194 337 1647
197 334 1633
204 339 1654
205 332 1622
216 341 1665
220 340 1658
221 334 1630
227 336 1641
234 339 1655
240 340 1661
244 340 1657
245 334 1629
251 335 1634
258 339 1651
258 333 1621
269 340 1656
273 339 1650
277 338 1644
281 337 1640
282 333 1619
289 335 1629
298 339 1649
299 335 1631
301 332 1615
307 333 1618
313 334 1624
320 337 1637
324 336 1629
330 337 1633
330 332 1613
339 336 1632
345 338 1637
343 330 1600
355 337 1634
362 339 1643
363 336 1627
369 336 1628
376 339 1637
378 336 1624
384 337 1630
385 333 1610
395 338 1632
400 338 1630
406 339 1637
412 340 1641
416 339 1635
414 334 1607
423 337 1621
431 339 1632
435 338 1627
441 340 1632
449 342 1643
447 336 1615
459 342 1642
461 340 1629
472 344 1650
477 344 1650
482 344 1647
484 342 1637
495 346 1654
490 339 1620
501 343 1639
511 347 1654
511 344 1638
521 346 1651
519 342 1627
526 343 1632
535 346 1644
538 344 1637
547 347 1649
549 345 1637
559 348 1650
555 343 1624
570 349 1651
580 352 1664
594 357 1688
622 370 1750
627 371 1750
633 371 1748
639 371 1748
637 367 1727
631 360 1696
635 359 1690
643 361 1697
656 365 1715
649 359 1681
653 358 1677
659 358 1676
668 360 1685
671 359 1677
681 361 1687
686 361 1685
693 362 1686
698 362 1684
698 359 1669
705 361 1674
718 364 1690
721 363 1681
724 362 1675
731 363 1678
732 360 1664
743 363 1676
741 360 1657
744 359 1651
756 362 1665
756 359 1650
766 362 1659
769 361 1652
775 361 1651
771 356 1629
777 357 1628
754 344 1568
731 331 1508
713 321 1458
688 308 1396
593 263 1193
685 302 1369
722 317 1431
756 329 1487
800 346 1562
799 343 1547
821 351 1579
818 347 1561
821 347 1555
826 346 1552
832 347 1552
833 345 1542
830 342 1525
841 344 1533
836 340 1512
844 341 1515
828 333 1475
832 332 1471
824 327 1446
828 327 1443
-485 200 830
-486 201 837
-484 201 839
-484 202 845
-499 210 878
-479 203 850
-466 198 833
-489 209 880
-487 210 884
-489 212 895
-489 213 901
-481 211 893
-493 217 922
-485 215 914
-473 211 898
-491 220 940
-494 223 953
-493 224 958
-514 235 1008
-494 227 975
-511 236 1016
-533 248 1070
-545 255 1102
-557 262 1135
-550 261 1130
-534 254 1105
-535 257 1116
-537 259 1128
-533 259 1130
-531 260 1136
-523 257 1126
-527 261 1145
-556 277 1218
-569 286 1255
-569 288 1266
-564 287 1265
-543 279 1230
-512 264 1168
-512 266 1178
-488 256 1133
-513 271 1202
-512 272 1208
-528 283 1256
-550 297 1321
-607 329 1469
-634 346 1549
-628 346 1547
-611 339 1520
-617 345 1546
-607 342 1536
-604 343 1543
-597 342 1537
-588 339 1528
-597 347 1565
-591 346 1564
-582 344 1554
-572 341 1541
-576 346 1568
-564 342 1549
-552 337 1531
-551 339 1541
-540 336 1527
-543 340 1550
-545 344 1569
-531 339 1544
-528 340 1551
-539 350 1598
-524 343 1570
-522 345 1579
-512 341 1564
-516 347 1593
-510 347 1592
-498 341 1570
-493 341 1569
-497 348 1601
-495 349 1610
-480 342 1579
-470 338 1562
-465 338 1563
-465 342 1580
-458 340 1574
-459 344 1593
-454 344 1594
-443 339 1574
-437 338 1570
-430 336 1562
-433 342 1591
-424 339 1576
-421 340 1583
-416 340 1583
-409 338 1578
-407 340 1587
-396 335 1565
-398 341 1592
-395 342 1598
-391 343 1603
-383 340 1594
-382 343 1608
-372 338 1586
-370 341 1602
-360 336 1578
-357 338 1586
-349 335 1573
-337 328 1541
-335 330 1554
-332 332 1561
-328 332 1563
-321 330 1556
-319 333 1569
-311 329 1553
-309 332 1567
-302 329 1554
-296 327 1545
-290 326 1542
-288 328 1554
-286 332 1572
-280 330 1563
-275 329 1559
-271 330 1565
-263 326 1545
-260 328 1557
-255 327 1553
-249 325 1543
-247 329 1562
-237 322 1530
-234 324 1539
-230 325 1545
-226 325 1546
-220 323 1540
-217 325 1549
-212 324 1546
-209 326 1556
-204 326 1553
-200 326 1557
-194 325 1551
-191 326 1558
-186 326 1556
-181 325 1554
-178 328 1566
-173 327 1564
-166 323 1547
-163 325 1556
-159 326 1560
-154 326 1561
-149 326 1562
-146 328 1571
-142 329 1577
-137 329 1579
-131 326 1564
-123 318 1526
-115 307 1471
-104 291 1393
-98 283 1358
-91 275 1318
-84 266 1276
-80 264 1267
-74 259 1241
-70 256 1229
-67 257 1234
-63 259 1242
-59 256 1230
-56 258 1240
-53 259 1242
-50 264 1267
-46 263 1263
-43 266 1279
-40 268 1288
-37 275 1323
-34 283 1359
-31 292 1405
-29 307 1479
-25 317 1525
-22 329 1587
-17 332 1601
-12 328 1580
-8 332 1602
-3 330 1591
1 327 1578
5 327 1578
10 331 1598
14 329 1588
19 330 1590
24 331 1596
28 330 1594
33 332 1604
38 329 1586
42 330 1591
47 328 1584
52 330 1591
56 331 1597
61 331 1596
66 330 1594
71 334 1611
76 333 1604
79 329 1588
85 331 1596
90 334 1613
94 333 1606
99 332 1604
104 335 1615
108 332 1602
114 336 1621
117 331 1594
123 334 1612
127 332 1599
132 332 1601
136 332 1599
141 332 1601
147 335 1613
151 333 1605
157 335 1613
162 336 1619
167 336 1618
171 335 1616
177 338 1629
179 333 1604
188 340 1636
191 337 1625
196 338 1627
201 337 1622
204 335 1610
212 340 1637
217 340 1634
219 336 1617
224 336 1616
230 338 1624
237 342 1643
239 338 1623
247 341 1639
247 335 1611
253 337 1617
257 335 1610
262 335 1609
269 339 1627
275 340 1629
277 337 1617
280 334 1601
285 335 1607
291 337 1613
294 335 1603
299 335 1603
302 332 1590
311 337 1615
314 335 1601
323 339 1622
328 340 1625
331 338 1615
332 334 1598
339 336 1607
345 337 1610
350 338 1613
352 335 1599
358 336 1601
360 333 1589
365 334 1589
374 337 1605
378 337 1605
382 336 1598
388 337 1601
396 340 1615
397 337 1600
404 339 1608
407 337 1599
413 338 1604
422 341 1616
426 340 1613
434 343 1625
434 339 1604
443 342 1620
451 345 1630
453 343 1619
461 344 1627
458 339 1600
467 342 1613
473 343 1616
485 347 1637
481 342 1608
492 346 1627
489 340 1599
499 344 1615
508 346 1626
513 346 1625
519 347 1628
522 346 1620
526 345 1618
533 347 1623
541 348 1630
551 351 1643
551 348 1626
560 351 1637
559 347 1617
560 345 1606
583 355 1655
610 369 1718
624 374 1740
629 374 1738
626 369 1711
617 360 1671
616 357 1652
629 361 1673
628 358 1656
640 361 1670
643 361 1665
650 361 1666
670 370 1704
672 367 1692
676 367 1688
686 369 1698
685 366 1681
686 364 1670
692 364 1670
690 360 1649
701 363 1661
705 363 1656
707 361 1648
715 363 1653
728 367 1670
730 365 1659
733 364 1653
738 363 1649
743 363 1648
751 365 1652
749 361 1633
761 364 1646
759 361 1629
769 363 1637
768 360 1621
773 360 1619
778 360 1617
769 353 1585
751 343 1536
732 332 1485
717 323 1442
682 305 1360
608 270 1202
701 310 1378
728 320 1420
760 332 1472
795 345 1528
805 347 1536
816 350 1545
817 348 1534
825 349 1538
831 349 1536
840 351 1542
839 348 1528
841 347 1521
843 346 1513
837 341 1490
836 339 1478
833 336 1461
826 331 1439
-484 202 826
-462 194 796
-495 209 858
-502 213 876
-478 204 841
-483 207 856
-489 211 874
-486 211 875
-501 218 908
-488 214 891
-485 214 893
-493 219 915
-489 218 914
-490 220 923
-496 224 941
-486 221 930
-492 225 948
-489 225 950
-503 233 985
-528 246 1043
-544 254 1081
-538 253 1078
-552 262 1116
-549 262 1118
-541 260 1111
-532 257 1100
-534 260 1114
-541 265 1136
-533 262 1128
-509 252 1086
-512 256 1103
-527 265 1144
-552 279 1208
-568 289 1254
-568 291 1265
-563 291 1263
-548 285 1240
-513 269 1169
-497 262 1143
-499 265 1158
-508 272 1189
-508 274 1198
-524 285 1248
-565 309 1356
-625 344 1513
-628 348 1533
-623 348 1534
-609 343 1514
-610 346 1528
-607 347 1535
-601 346 1533
-600 348 1545
-591 346 1535
-585 345 1534
-578 344 1530
-574 344 1533
-573 346 1543
-563 343 1531
-563 346 1544
-552 342 1530
-546 341 1526
-533 336 1505
-539 342 1536
-534 342 1536
-525 339 1526
-520 339 1527
-521 343 1544
-519 345 1554
-520 349 1574
-508 344 1552
-507 346 1565
-499 344 1557
-492 342 1549
-488 343 1555
-487 345 1567
-485 347 1578
-481 347 1580
-469 342 1557
-461 340 1547
-461 344 1566
-457 344 1568
-452 344 1569
-448 344 1572
-442 343 1570
-431 338 1547
-429 341 1559
-424 340 1557
-421 342 1567
-417 342 1569
-410 340 1561
-406 341 1566
-402 341 1569
-398 341 1570
-393 341 1573
-385 338 1559
-387 344 1586
-382 344 1588
-374 341 1576
-368 340 1572
-362 338 1565
-357 338 1565
-348 334 1544
-346 337 1560
-337 333 1541
-338 337 1564
-327 331 1538
-324 333 1546
-319 332 1544
-312 330 1533
-313 336 1561
-304 330 1538
-300 331 1542
-297 333 1554
-290 330 1538
-288 333 1552
-281 331 1542
-277 331 1545
-270 328 1533
-267 330 1541
-263 330 1543
-257 329 1539
-251 327 1530
-247 327 1530
-241 325 1523
-236 325 1524
-232 325 1525
-226 323 1514
-221 322 1511
-218 325 1525
-213 324 1519
-210 326 1532
-207 327 1539
-202 328 1542
-196 325 1527
-193 327 1541
-190 331 1557
-183 325 1530
-180 328 1545
-175 328 1546
-171 328 1547
-165 325 1533
-161 327 1543
-157 327 1545
-153 329 1553
-148 328 1550
-145 331 1563
-140 331 1562
-135 329 1554
-130 328 1549
-122 320 1510
-112 305 1442
-104 293 1384
-95 280 1324
-89 274 1295
-83 265 1254
-79 264 1249
-73 257 1216
-69 257 1213
-66 258 1222
-63 259 1224
-58 255 1205
-56 259 1228
-52 259 1226
-49 262 1239
-46 264 1249
-42 267 1264
-39 268 1271
-36 276 1306
-33 280 1328
-31 299 1417
-29 315 1496
-25 318 1511
-21 328 1560
-17 333 1584
-12 333 1582
-7 327 1553
-3 330 1569
1 330 1567
5 329 1563
10 333 1581
14 332 1576
19 331 1573
24 334 1588
28 335 1592
33 334 1586
37 332 1579
42 333 1583
47 333 1582
51 331 1573
56 330 1567
61 336 1598
65 333 1582
70 331 1574
74 330 1569
80 334 1590
83 331 1574
88 332 1581
94 336 1596
97 330 1570
103 334 1589
108 336 1597
113 337 1602
116 332 1577
122 335 1592
127 337 1601
131 335 1592
135 333 1583
140 333 1584
144 331 1574
151 337 1600
155 335 1592
158 332 1579
163 333 1581
169 336 1594
173 335 1592
182 343 1626
185 339 1609
187 335 1589
194 338 1605
199 339 1608
203 338 1605
206 335 1589
215 341 1618
216 337 1596
224 341 1617
227 338 1601
234 341 1617
235 336 1593
240 336 1590
248 341 1616
252 340 1607
257 341 1613
259 337 1594
262 335 1583
268 337 1591
272 335 1585
277 336 1588
282 335 1584
285 334 1578
293 338 1594
297 337 1588
302 337 1590
307 338 1593
313 339 1599
322 343 1617
325 341 1608
328 340 1601
332 338 1593
338 340 1601
338 335 1578
349 341 1603
352 340 1597
355 338 1589
364 342 1604
370 343 1609
366 335 1572
377 341 1599
385 343 1609
386 340 1595
388 338 1581
397 341 1598
400 340 1590
408 342 1600
416 345 1614
412 337 1576
422 342 1597
421 338 1576
438 347 1619
432 339 1579
447 346 1613
450 345 1608
449 341 1585
457 343 1595
468 347 1616
468 344 1596
470 342 1586
479 345 1599
481 343 1590
488 344 1596
502 350 1623
501 346 1602
501 343 1588
512 347 1604
518 348 1607
519 345 1594
531 350 1613
540 353 1626
541 350 1611
546 350 1610
541 343 1579
562 354 1627
566 353 1622
581 359 1649
603 370 1696
615 374 1712
623 375 1719
620 370 1694
617 365 1669
619 364 1660
619 361 1645
627 362 1650
619 355 1615
636 361 1644
641 361 1642
645 361 1638
665 369 1674
667 367 1664
674 368 1667
681 369 1671
684 368 1663
684 365 1649
692 367 1655
699 368 1656
709 370 1666
709 368 1653
711 366 1643
724 370 1659
723 366 1642
731 368 1647
738 369 1648
746 370 1653
740 365 1627
747 365 1628
760 369 1644
766 369 1643
760 364 1616
763 363 1609
765 362 1602
778 365 1615
770 359 1586
779 361 1592
774 356 1569
759 347 1527
744 338 1484
723 326 1430
673 302 1321
625 278 1216
699 309 1351
727 320 1394
758 331 1444
806 350 1524
817 353 1533
817 351 1522
823 351 1520
829 351 1519
827 348 1506
838 351 1514
841 350 1508
835 345 1486
845 347 1492
840 343 1472
840 341 1461
-493 208 842
-480 204 825
-493 211 853
-488 210 851
-475 206 836
-484 210 857
-492 215 878
-489 215 879
-496 219 899
-482 214 880
-493 220 906
-493 222 914
-467 211 872
-490 223 922
-499 229 947
-490 226 936
-495 230 954
-545 254 1058
-633 296 1238
-606 286 1196
-534 253 1060
-552 263 1105
-552 265 1114
-549 265 1116
-539 263 1106
-540 265 1117
-542 267 1129
-538 267 1130
-534 267 1131
-552 277 1178
-517 262 1112
-525 267 1138
-555 285 1215
-572 295 1261
-561 291 1247
-562 294 1259
-539 284 1219
-511 272 1166
-501 268 1152
-499 269 1157
-509 277 1191
-508 278 1199
-533 293 1268
-588 326 1410
-617 344 1493
-613 345 1497
-608 344 1496
-600 342 1489
-604 347 1514
-601 348 1519
-600 350 1529
-580 342 1494
-590 350 1531
-580 346 1518
-578 348 1528
-578 351 1542
-562 344 1513
-558 345 1518
-557 347 1527
-542 340 1501
-540 342 1509
-539 344 1520
-530 341 1510
-526 342 1514
-524 344 1523
-512 339 1503
-516 345 1530
-513 345 1535
-507 344 1533
-504 346 1539
-496 343 1531
-495 346 1542
-491 347 1548
-483 344 1538
-481 346 1547
-481 349 1563
-472 346 1551
-463 343 1537
-459 343 1542
-456 344 1547
-453 346 1555
-448 346 1555
-440 343 1544
-437 344 1552
-426 339 1528
-426 342 1545
-418 340 1535
-418 344 1554
-411 341 1544
-407 342 1549
-398 338 1531
-399 343 1555
-389 338 1535
-388 341 1549
-384 342 1554
-374 337 1533
-372 340 1547
-371 343 1560
-366 343 1562
-364 345 1572
-353 339 1545
-345 335 1530
-338 334 1524
-333 333 1520
-335 339 1549
-327 336 1535
-321 334 1528
-316 334 1530
-311 334 1529
-307 333 1528
-303 334 1533
-298 334 1534
-290 330 1515
-287 331 1523
-284 333 1530
-278 331 1524
-270 328 1508
-270 332 1529
-263 330 1521
-260 331 1527
-255 331 1526
-248 327 1509
-244 328 1512
-237 324 1497
-232 323 1492
-230 327 1511
-224 325 1501
-221 327 1511
-218 329 1522
-211 325 1505
-208 327 1516
-202 325 1505
-198 326 1512
-196 330 1529
-192 330 1528
-187 330 1532
-182 329 1527
-178 329 1526
-172 326 1515
-169 329 1527
-162 325 1510
-160 330 1532
-153 325 1510
-151 328 1527
-147 330 1537
-143 332 1546
-139 331 1543
-135 332 1548
-128 327 1522
-118 313 1456
-110 305 1419
-102 292 1359
-93 279 1298
-88 274 1275
-82 267 1244
-77 262 1222
-72 259 1205
-69 259 1206
-65 258 1201
-61 256 1196
-58 258 1203
-55 259 1209
-51 259 1207
-48 261 1219
-45 264 1232
-42 269 1256
-39 270 1262
-36 280 1310
-33 282 1319
-31 297 1390
-28 313 1465
-24 311 1456
-21 326 1524
-17 335 1567
-12 332 1553
-8 334 1564
-3 331 1549
1 331 1551
5 335 1570
10 333 1560
14 329 1541
19 330 1545
23 333 1561
28 335 1569
33 333 1561
37 335 1572
42 335 1568
46 333 1562
51 334 1565
56 334 1566
61 338 1584
64 329 1543
69 335 1570
74 334 1564
79 334 1567
83 334 1567
87 333 1559
92 333 1560
97 334 1566
102 337 1578
106 333 1562
110 332 1558
116 335 1571
120 333 1561
124 333 1562
130 337 1580
133 332 1555
139 337 1576
143 335 1568
149 337 1579
154 338 1581
159 340 1593
164 339 1589
168 339 1585
172 338 1582
178 340 1589
184 341 1597
186 337 1577
189 335 1565
199 343 1603
203 343 1602
206 340 1591
212 341 1595
215 339 1582
222 343 1601
224 339 1582
229 338 1579
234 339 1581
237 336 1569
242 337 1573
249 340 1586
250 336 1565
258 340 1585
263 340 1586
267 339 1582
273 341 1587
274 336 1566
281 339 1581
283 336 1563
290 339 1579
293 337 1569
297 336 1561
299 333 1549
309 339 1574
315 341 1584
319 340 1579
321 336 1561
327 339 1571
330 336 1561
339 341 1582
344 341 1579
350 342 1585
355 343 1589
354 337 1559
363 341 1579
365 339 1567
373 341 1578
379 343 1586
383 342 1578
391 345 1593
393 342 1580
394 339 1566
402 342 1578
403 339 1561
410 341 1570
419 345 1586
422 343 1578
433 348 1601
434 345 1584
444 349 1602
443 344 1580
450 346 1587
453 345 1580
461 347 1590
468 348 1595
470 347 1586
476 347 1587
475 343 1567
479 343 1565
486 344 1571
494 346 1580
505 350 1597
506 348 1585
512 348 1586
516 348 1584
521 348 1581
530 351 1594
538 353 1601
537 349 1584
546 352 1595
554 354 1602
557 352 1594
571 358 1619
592 368 1664
612 377 1704
614 375 1692
609 369 1663
604 363 1634
605 360 1621
608 359 1615
619 362 1628
617 358 1608
629 363 1626
639 365 1637
642 364 1629
648 364 1629
659 368 1644
663 367 1639
672 370 1648
668 364 1623
690 374 1662
694 373 1658
698 372 1654
711 376 1670
715 375 1664
715 373 1651
724 375 1657
727 373 1649
723 369 1628
729 369 1627
737 370 1631
742 371 1630
746 370 1626
743 366 1605
752 368 1611
757 368 1609
761 367 1605
759 364 1588
769 366 1596
770 364 1586
778 365 1589
776 362 1572
780 361 1568
775 357 1546
752 344 1488
730 332 1434
714 323 1390
641 288 1238
616 275 1179
699 310 1329
731 322 1379
771 338 1446
801 349 1491
811 351 1497
818 352 1500
824 352 1499
830 352 1498
830 350 1487
836 351 1487
838 350 1480
844 350 1478
839 346 1459
-479 205 816
-488 210 839
-469 203 811
-493 215 860
-485 213 853
-468 206 829
-494 219 882
-487 217 876
-497 223 899
-490 221 894
-489 222 899
-492 224 912
-490 225 915
-487 225 916
-502 233 951
-502 234 958
-549 258 1056
-748 352 1450
-827 392 1617
-775 369 1526
-629 302 1249
-551 266 1102
-543 265 1096
-539 264 1097
-541 267 1110
-538 267 1112
-541 271 1127
-535 269 1122
-517 262 1093
-537 274 1146
-526 270 1131
-527 272 1143
-555 288 1212
-565 296 1246
-570 300 1267
-562 298 1259
-552 295 1247
-513 276 1169
-495 269 1138
-497 272 1153
-495 272 1156
-508 281 1196
-547 305 1299
-604 339 1449
-608 344 1471
-611 348 1490
-608 349 1496
-595 344 1477
-588 343 1472
-585 344 1479
-581 344 1480
-583 348 1500
-572 344 1483
-568 344 1487
-577 352 1525
-566 349 1509
-561 348 1509
-555 348 1509
-550 347 1509
-543 345 1502
-535 343 1494
-525 340 1480
-519 339 1477
-523 344 1503
-520 345 1509
-510 342 1495
-510 345 1511
-506 345 1514
-507 349 1531
-502 349 1532
-498 350 1537
-492 349 1534
-485 346 1525
-478 345 1519
-473 344 1520
-468 344 1519
-467 347 1533
-458 343 1519
-453 343 1519
-448 343 1521
-449 347 1540
-447 349 1548
-438 345 1534
-434 346 1539
-424 342 1520
-422 344 1530
-415 342 1522
-414 345 1538
-408 344 1534
-402 343 1529
-400 345 1539
-393 342 1530
-390 344 1537
-382 341 1526
-380 343 1537
-372 340 1523
-372 344 1544
-366 343 1538
-362 344 1544
-359 345 1552
-349 340 1528
-342 338 1520
-335 334 1505
-335 339 1529
-327 336 1515
-320 334 1505
-318 336 1514
-312 334 1508
-311 338 1526
-306 338 1526
-299 335 1513
-296 336 1519
-288 332 1503
-282 331 1499
-277 330 1496
-274 331 1502
-270 331 1503
-265 331 1503
-259 330 1497
-256 331 1503
-253 333 1513
-246 329 1495
-241 329 1498
-236 328 1493
-233 330 1501
-229 330 1506
-224 329 1502
-219 328 1497
-216 331 1508
-210 328 1497
-205 327 1494
-199 325 1484
-198 330 1509
-193 330 1507
-189 329 1505
-185 330 1509
-179 328 1502
-175 329 1506
-171 328 1504
-166 328 1502
-164 333 1525
-159 332 1523
-153 328 1505
-150 331 1519
-146 331 1520
-140 330 1513
-135 329 1508
-131 328 1508
-124 322 1477
-115 310 1425
-107 301 1381
-100 291 1336
-92 279 1282
-86 272 1250
-81 268 1233
-75 260 1195
-71 260 1193
-67 257 1180
-64 259 1190
-60 258 1185
-57 260 1194
-54 261 1202
-51 261 1199
-47 262 1204
-44 263 1212
-41 265 1218
-38 270 1245
-36 278 1279
-32 281 1293
-30 295 1361
-28 317 1463
-24 314 1451
-20 326 1505
-16 334 1543
-12 331 1529
-7 332 1532
-3 335 1545
1 333 1538
5 335 1549
10 333 1538
14 334 1542
19 335 1546
23 336 1551
28 336 1552
32 332 1534
37 334 1541
41 332 1534
46 333 1538
50 333 1540
54 331 1528
60 336 1552
65 338 1560
69 336 1550
73 336 1552
77 331 1528
82 334 1544
88 339 1566
91 334 1542
96 336 1555
102 340 1570
104 333 1537
110 337 1557
115 338 1560
118 332 1535
123 336 1552
130 340 1571
132 334 1541
138 338 1561
142 337 1554
147 337 1554
152 339 1563
157 340 1568
161 339 1565
166 339 1563
171 341 1571
177 342 1578
180 339 1563
186 342 1578
190 341 1574
194 340 1567
199 341 1570
205 342 1576
206 337 1551
215 344 1586
218 340 1568
223 341 1569
227 340 1566
234 344 1584
236 340 1564
242 342 1571
246 341 1568
250 340 1565
257 343 1576
261 342 1572
266 342 1573
272 344 1580
272 339 1554
276 338 1553
281 338 1552
288 341 1563
294 342 1570
295 339 1553
305 344 1578
303 337 1544
311 341 1561
314 339 1550
319 339 1551
324 340 1555
331 342 1562
337 343 1569
341 343 1566
341 338 1542
351 343 1567
355 343 1565
360 343 1566
363 341 1555
369 343 1563
371 340 1548
374 339 1542
383 342 1558
389 343 1562
394 343 1562
395 341 1550
404 344 1562
405 341 1550
412 343 1558
417 343 1556
424 345 1563
429 345 1563
434 346 1565
436 344 1555
441 344 1555
451 348 1572
452 345 1558
465 351 1584
465 348 1568
469 347 1563
474 347 1563
477 346 1557
479 344 1546
489 348 1563
490 345 1549
503 351 1576
501 346 1551
508 347 1557
523 354 1588
521 350 1567
532 354 1583
539 355 1587
542 354 1582
545 353 1575
550 353 1572
567 361 1607
589 371 1653
608 380 1691
598 371 1648
600 368 1637
599 365 1621
598 361 1601
608 364 1615
618 367 1624
618 364 1610
622 364 1607
628 364 1608
634 364 1607
644 368 1620
644 364 1605
652 366 1610
658 367 1612
661 366 1605
677 372 1630
685 373 1635
695 376 1644
691 371 1620
700 373 1629
709 375 1635
710 372 1623
714 372 1619
721 373 1622
727 373 1621
735 375 1626
737 373 1617
741 372 1612
746 373 1611
748 371 1601
754 371 1600
756 370 1593
759 369 1587
766 370 1589
775 372 1595
775 369 1582
771 365 1561
776 365 1559
778 363 1550
785 364 1552
769 355 1509
746 342 1452
732 333 1414
700 317 1342
607 273 1152
626 280 1180
693 308 1297
718 317 1334
779 341 1436
810 353 1483
811 351 1474
824 355 1485
823 352 1473
833 354 1480
835 353 1473
842 354 1473
835 349 1451
-479 208 816
-473 207 812
-482 212 834
-493 218 859
-488 216 856
-489 218 866
-491 220 875
-474 214 851
-487 221 881
-485 222 885
-497 228 913
-478 221 885
-477 222 891
-481 225 905
-513 241 972
-545 258 1041
-657 312 1264
-834 398 1617
-860 413 1680
-800 386 1574
-619 301 1228
-547 268 1095
-544 269 1098
-538 267 1094
-544 272 1114
-543 273 1121
-539 273 1122
-531 271 1113
-546 280 1156
-538 278 1147
-525 273 1128
-524 275 1136
-557 293 1216
-564 299 1242
-556 297 1235
-556 299 1245
-548 297 1238
-505 276 1150
-506 278 1162
-492 273 1140
-503 281 1175
-502 282 1183
-558 315 1325
-614 349 1471
-605 346 1461
-598 345 1458
-604 351 1485
-594 348 1473
-580 342 1450
-581 346 1467
-582 349 1483
-570 344 1464
-576 351 1494
-571 351 1494
-564 349 1490
-553 345 1473
-552 347 1485
-547 347 1486
-543 348 1490
-536 346 1484
-526 342 1470
-519 341 1463
-519 344 1479
-519 347 1493
-503 339 1462
-508 345 1490
-512 351 1514
-504 349 1507
-500 349 1511
-494 348 1507
-483 344 1490
-481 345 1499
-477 346 1500
-469 343 1492
-470 347 1511
-467 348 1516
-461 347 1514
-453 344 1502
-446 342 1494
-448 348 1519
-442 346 1514
-446 354 1547
-438 350 1533
-424 343 1504
-418 342 1500
-413 341 1496
-407 340 1495
-410 347 1523
-400 342 1504
-396 342 1505
-389 339 1496
-389 344 1516
-386 345 1523
-379 343 1513
-373 342 1509
-368 341 1508
-367 344 1523
-359 341 1511
-361 348 1540
-354 345 1528
-346 341 1513
-341 341 1513
-332 336 1492
-328 337 1495
-324 337 1497
-321 338 1505
-314 336 1496
-311 337 1502
-303 334 1489
-299 334 1489
-295 335 1495
-290 334 1492
-287 335 1498
-282 335 1498
-273 329 1471
-270 331 1481
-266 332 1485
-265 335 1501
-257 331 1480
-253 332 1487
-247 330 1478
-244 331 1484
-239 331 1484
-234 330 1480
-232 333 1495
-228 333 1494
-221 330 1484
-217 330 1486
-213 330 1484
-209 331 1488
-205 331 1490
-199 329 1483
-197 332 1497
-191 330 1490
-187 330 1489
-183 331 1492
-179 333 1500
-173 329 1486
-169 330 1491
-167 334 1510
-162 334 1507
-157 332 1499
-153 332 1503
-148 331 1496
-142 329 1488
-140 332 1505
-135 332 1501
-130 331 1500
-123 323 1461
-115 313 1419
-106 301 1363
-97 286 1294
-90 278 1257
-85 273 1235
-79 266 1206
-75 263 1192
-71 260 1180
-67 261 1181
-64 262 1188
-60 260 1179
-57 260 1176
-53 260 1178
-50 260 1181
-47 263 1194
-44 267 1211
-41 269 1219
-38 273 1239
-35 277 1260
-32 284 1289
-30 301 1370
-28 318 1446
-24 322 1464
-20 327 1487
-16 338 1539
-12 335 1525
-7 333 1516
-3 335 1526
1 333 1517
5 331 1509
10 334 1521
14 335 1527
18 333 1517
23 336 1533
28 335 1527
32 334 1522
36 334 1520
41 336 1531
45 336 1529
50 337 1536
55 337 1536
59 334 1523
63 335 1525
68 337 1534
72 336 1532
77 338 1541
81 335 1526
87 338 1542
90 336 1532
95 335 1526
99 334 1523
104 337 1535
108 335 1525
114 340 1550
119 340 1550
123 338 1540
128 341 1553
131 335 1527
136 338 1538
141 339 1545
146 339 1544
151 340 1548
155 340 1549
158 337 1533
163 336 1531
169 340 1549
173 339 1542
180 343 1562
183 341 1549
188 341 1552
192 340 1547
200 347 1577
201 340 1545
206 341 1551
211 342 1554
217 344 1564
219 340 1546
223 338 1536
229 341 1546
232 338 1534
237 339 1537
242 341 1544
246 339 1538
248 336 1521
254 338 1533
259 338 1530
265 340 1538
271 341 1546
274 340 1538
279 340 1539
283 340 1538
288 340 1540
293 340 1538
297 340 1538
304 343 1547
308 342 1546
311 341 1537
314 339 1527
323 343 1548
327 343 1547
329 340 1533
339 345 1554
341 343 1543
340 337 1518
349 341 1535
355 342 1540
357 340 1527
363 342 1536
366 340 1526
378 347 1556
378 342 1535
382 342 1535
389 344 1543
391 342 1533
397 343 1534
398 340 1521
407 343 1535
409 341 1525
414 342 1526
430 351 1566
430 347 1548
433 346 1542
441 349 1554
452 353 1573
450 348 1550
450 344 1533
459 347 1545
459 344 1531
464 344 1529
472 347 1540
479 349 1546
481 346 1535
484 345 1529
488 345 1527
499 349 1543
507 351 1553
506 348 1535
518 352 1555
526 355 1564
529 353 1558
530 351 1545
546 358 1575
543 353 1551
562 362 1591
579 370 1624
590 374 1641
594 373 1635
594 370 1620
597 369 1613
598 366 1602
607 369 1610
611 368 1605
619 370 1613
623 369 1608
627 369 1605
619 361 1568
634 367 1593
631 362 1572
635 361 1567
649 367 1588
657 368 1594
663 369 1595
671 371 1600
678 371 1603
688 374 1613
698 377 1622
699 375 1611
709 377 1620
707 374 1603
714 374 1605
714 372 1592
733 379 1621
729 374 1600
731 373 1590
740 375 1597
739 372 1582
752 375 1596
750 372 1579
756 373 1580
761 372 1577
765 372 1573
759 367 1548
774 371 1567
774 368 1553
772 366 1538
776 365 1533
779 364 1527
785 364 1527
771 356 1488
740 339 1417
713 325 1355
691 313 1302
579 261 1081
641 286 1188
694 309 1279
731 323 1337
787 345 1428
813 355 1464
818 355 1462
824 355 1462
831 356 1465
830 354 1452
829 351 1439
-466 205 794
-483 214 828
-489 217 844
-470 210 818
-485 218 851
-488 221 863
-482 220 859
-494 226 887
-497 229 899
-467 216 852
-474 221 870
-507 237 937
-498 235 929
-528 250 992
-575 274 1089
-635 304 1211
-677 326 1301
-811 392 1571
-849 413 1658
-763 373 1501
-596 294 1182
-549 273 1097
-544 272 1096
-536 270 1088
-537 272 1099
-544 277 1122
-538 276 1119
-545 281 1142
-531 276 1123
-509 267 1085
-540 285 1160
-526 279 1139
-555 296 1211
-558 300 1228
-562 304 1247
-555 302 1242
-546 300 1233
-510 282 1161
-502 279 1151
-497 279 1149
-492 278 1149
-505 288 1190
-557 319 1322
-604 348 1445
-601 349 1451
-602 352 1465
-594 350 1460
-594 353 1472
-581 348 1454
-577 348 1456
-579 352 1473
-565 346 1451
-577 356 1495
-564 351 1474
-563 353 1486
-552 349 1470
-546 348 1469
-543 349 1473
-537 348 1471
-526 344 1454
-518 342 1446
-517 344 1456
-510 342 1451
-506 342 1454
-496 339 1441
-501 345 1469
-498 346 1473
-503 353 1505
-490 347 1480
-490 350 1493
-482 348 1486
-479 349 1492
-480 352 1508
-464 344 1474
-462 345 1482
-460 348 1493
-461 352 1512
-445 343 1476
-440 342 1474
-438 344 1483
-438 348 1502
-430 345 1490
-425 345 1490
-421 345 1493
-416 345 1491
-407 341 1476
-408 345 1496
-406 348 1507
-399 346 1500
-392 343 1488
-390 345 1499
-381 341 1484
-377 342 1486
-377 346 1507
-370 343 1494
-363 341 1488
-358 340 1484
-358 344 1503
-355 346 1511
-349 344 1504
-344 344 1504
-335 339 1484
-330 338 1482
-326 339 1486
-319 337 1475
-315 337 1478
-308 334 1468
-306 336 1477
-304 339 1491
-294 333 1466
-293 337 1484
-287 335 1475
-282 334 1472
-279 335 1477
-273 334 1470
-269 335 1476
-265 334 1475
-260 333 1471
-255 333 1469
-250 332 1465
-246 332 1468
-240 330 1460
-236 330 1461
-232 330 1463
-228 332 1469
-223 331 1466
-219 331 1469
-214 330 1463
-211 332 1472
-206 331 1468
-203 332 1476
-199 333 1482
-193 331 1469
-188 330 1467
-186 334 1485
-180 330 1469
-177 334 1486
-174 335 1494
-167 330 1471
-164 334 1486
-159 332 1480
-155 333 1483
-150 332 1479
-146 331 1476
-142 333 1487
-137 331 1479
-134 333 1487
-128 330 1474
-120 321 1434
-113 313 1400
-103 298 1330
-96 286 1279
-89 279 1247
-84 273 1219
-79 269 1202
-74 265 1183
-70 262 1170
-66 261 1166
-62 259 1159
-59 260 1161
-56 263 1176
-53 262 1171
-49 262 1173
-46 263 1176
-43 265 1185
-40 268 1199
-37 274 1226
-34 278 1245
-31 281 1259
-29 298 1336
-27 313 1405
-23 321 1442
-20 326 1465
-16 335 1505
-11 333 1497
-7 335 1504
-3 335 1505
1 336 1509
5 332 1492
10 334 1502
14 336 1508
18 335 1503
23 337 1514
27 335 1506
32 335 1505
36 337 1515
41 337 1515
45 335 1505
50 337 1513
54 339 1524
58 337 1515
63 336 1510
67 333 1496
72 339 1523
77 341 1533
81 337 1516
85 338 1517
89 335 1506
94 338 1519
98 337 1515
103 338 1518
108 340 1526
112 337 1516
116 337 1513
121 337 1514
126 340 1528
130 339 1521
134 337 1515
140 342 1535
144 340 1526
149 342 1534
153 340 1526
157 338 1518
162 340 1527
165 336 1508
171 340 1527
176 341 1528
180 339 1520
185 341 1528
190 341 1528
193 339 1522
198 339 1521
203 340 1522
206 338 1515
213 342 1532
214 336 1507
224 344 1541
226 340 1523
231 342 1530
237 344 1541
238 339 1517
245 342 1528
248 341 1522
252 340 1518
256 339 1513
262 341 1522
269 343 1534
271 340 1517
275 339 1514
282 343 1530
284 339 1513
293 345 1540
296 343 1528
297 340 1512
304 342 1523
306 339 1507
309 337 1501
317 341 1517
318 337 1499
328 343 1524
334 344 1530
333 339 1507
341 343 1522
347 344 1524
347 339 1505
352 340 1506
358 341 1513
365 344 1522
366 340 1506
371 341 1509
380 345 1524
384 344 1520
389 345 1523
393 344 1518
399 345 1522
400 343 1511
405 343 1511
409 342 1506
421 348 1533
421 345 1517
427 345 1518
435 348 1530
438 347 1523
449 352 1545
444 344 1510
449 344 1510
452 344 1506
464 349 1528
469 349 1527
470 347 1517
477 349 1523
483 349 1525
495 354 1547
495 351 1532
496 349 1520
497 346 1507
506 349 1518
516 353 1534
521 353 1533
523 351 1524
530 352 1527
541 357 1546
554 362 1567
566 367 1588
573 367 1590
576 367 1585
582 367 1586
578 362 1560
586 364 1567
595 366 1577
606 370 1591
605 366 1574
619 372 1597
614 365 1568
619 366 1567
623 365 1564
621 361 1545
627 362 1547
641 367 1567
646 367 1565
653 368 1568
659 369 1571
669 372 1581
682 376 1597
681 373 1583
689 374 1587
702 379 1603
699 374 1583
708 376 1589
719 379 1601
724 379 1599
726 378 1590
732 378 1590
736 377 1585
731 373 1563
745 377 1579
747 375 1571
752 376 1570
757 376 1568
760 374 1561
767 375 1564
767 373 1551
766 370 1537
772 371 1537
776 370 1532
774 367 1516
779 367 1515
786 367 1515
784 364 1500
763 352 1450
728 334 1372
701 320 1310
671 304 1243
582 262 1069
660 295 1204
706 314 1279
745 330 1341
799 351 1428
815 356 1445
817 355 1438
820 354 1433
829 356 1438
-491 219 835
-478 214 820
-495 223 855
-491 222 855
-481 219 844
-484 222 856
-484 223 862
-493 228 884
-490 228 885
-479 225 873
-493 232 904
-504 239 931
-527 251 983
-600 287 1126
-644 310 1218
-629 305 1200
-687 335 1319
-824 403 1594
-838 413 1634
-766 380 1506
-582 291 1153
-550 277 1099
-542 275 1091
-541 276 1098
-541 277 1106
-542 280 1117
-545 283 1132
-546 286 1145
-530 279 1119
-522 277 1112
-507 271 1089
-525 282 1136
-551 298 1202
-555 302 1222
-549 301 1218
-557 308 1247
-546 303 1231
-515 288 1171
-514 290 1179
-489 278 1132
-508 291 1186
-501 289 1180
-541 314 1284
-583 341 1396
-595 350 1437
-590 350 1436
-589 351 1445
-582 350 1443
-573 348 1433
-563 344 1421
-571 352 1452
-562 349 1443
-563 352 1459
-558 352 1458
-558 355 1472
-546 350 1454
-548 354 1474
-536 349 1453
-536 352 1469
-529 350 1461
-520 347 1451
-509 343 1433
-511 347 1453
-499 342 1433
-493 341 1430
-495 345 1448
-501 352 1481
-493 350 1473
-488 350 1473
-486 351 1480
-477 348 1469
-473 348 1470
-465 346 1463
-460 345 1460
-453 344 1455
-455 348 1474
-451 349 1479
-441 344 1461
-435 343 1457
-432 344 1462
-428 345 1467
-430 349 1488
-418 344 1465
-418 347 1481
-415 348 1487
-408 346 1477
-400 343 1467
-395 343 1467
-397 348 1491
-391 347 1485
-386 346 1484
-379 344 1474
-373 343 1470
-369 343 1473
-368 346 1486
-362 345 1484
-358 345 1484
-354 346 1488
-347 343 1477
-349 349 1504
-343 347 1500
-332 341 1473
-325 338 1460
-319 336 1454
-318 340 1472
-312 339 1466
-306 337 1458
-302 337 1461
-297 335 1454
-295 339 1471
-289 336 1459
-284 336 1457
-280 336 1458
-278 340 1476
-272 337 1467
-266 334 1455
-262 336 1462
-259 337 1466
-252 333 1451
-249 335 1460
-242 331 1445
-238 332 1448
-235 334 1458
-228 330 1443
-227 334 1462
-220 331 1447
-218 334 1460
-213 332 1454
-207 330 1446
-204 333 1456
-201 334 1461
-197 335 1467
-194 336 1474
-187 332 1456
-183 332 1457
-181 336 1477
-176 336 1475
-170 332 1460
-167 335 1472
-162 333 1462
-157 333 1464
-153 334 1467
-149 333 1465
-145 334 1470
-140 333 1465
-138 337 1482
-131 331 1459
-127 331 1458
-119 322 1417
-111 311 1371
-101 295 1300
-94 285 1256
-87 277 1218
-82 271 1192
-78 268 1183
-73 264 1161
-69 262 1157
-65 261 1152
-62 262 1154
-59 262 1155
-55 261 1151
-52 261 1150
-49 263 1162
-46 264 1166
-43 266 1175
-40 270 1194
-37 272 1202
-34 278 1229
-31 282 1245
-28 290 1280
-27 314 1388
-23 318 1407
-19 326 1444
-16 337 1494
-11 338 1496
-7 337 1494
-3 338 1496
1 335 1483
5 339 1501
9 331 1466
14 337 1494
18 338 1496
23 335 1487
27 341 1510
32 340 1507
36 337 1494
40 334 1479
44 335 1486
49 335 1483
54 339 1504
58 340 1508
63 340 1509
66 337 1493
71 337 1495
76 340 1507
80 337 1492
84 339 1502
89 339 1501
93 338 1500
98 340 1506
102 337 1495
108 342 1517
111 339 1502
115 338 1498
120 339 1500
124 338 1498
