VERSION 0.7
FIELDS x y z
SIZE 4 4 4
TYPE I I I
COUNT 1 1 1
WIDTH 3391
HEIGHT 1
VIEWPOINT 0.0 0.0 0.0 1.0 0.0 0.0 0.0
POINTS 3391
DATA ascii
725 -133 2111
743 -135 2142
767 -139 2192
746 -134 2111
740 -132 2074
740 -131 2055
640 -112 1759
667 -115 1816
691 -119 1865
641 -109 1714
628 -106 1663
732 -123 1924
818 -137 2133
840 -139 2169
848 -140 2172
853 -140 2166
859 -139 2162
866 -139 2160
871 -139 2154
878 -139 2153
887 -140 2157
891 -140 2149
898 -140 2146
905 -140 2144
910 -139 2139
916 -139 2135
925 -140 2139
932 -140 2137
939 -140 2136
945 -140 2131
950 -140 2125
956 -140 2122
965 -140 2124
968 -140 2114
975 -140 2113
999 -142 2147
1029 -146 2194
1029 -145 2178
1006 -141 2112
1011 -141 2106
1017 -140 2100
995 -137 2040
912 -124 1855
887 -120 1788
888 -119 1776
898 -120 1784
899 -119 1772
910 -120 1779
917 -120 1779
917 -120 1767
920 -119 1760
929 -120 1762
935 -120 1761
941 -120 1760
949 -120 1761
950 -120 1749
960 -120 1755
965 -120 1751
966 -120 1739
973 -120 1739
-1313 -133 2285
-1307 -134 2291
-1296 -133 2288
-1284 -133 2284
-1265 -132 2267
-1267 -133 2287
-1251 -132 2276
-1239 -131 2270
-1225 -131 2260
-1216 -131 2261
-1206 -130 2259
-1184 -129 2235
-1184 -130 2251
-1169 -129 2240
-1162 -129 2244
-1148 -128 2234
-1141 -128 2237
-1127 -127 2225
-1114 -127 2217
-1112 -127 2231
-1100 -127 2222
-1089 -126 2218
-1075 -126 2206
-1067 -126 2207
-1062 -126 2214
-1040 -124 2186
-1040 -125 2203
-1025 -124 2187
-1016 -124 2185
-1008 -124 2185
-1000 -124 2185
-979 -122 2157
-971 -122 2157
-986 -125 2208
-999 -127 2255
-998 -128 2272
-996 -129 2286
-992 -129 2295
-989 -130 2308
-982 -130 2311
-982 -131 2329
-976 -131 2335
-973 -132 2347
-964 -131 2346
-960 -132 2356
-960 -133 2376
-953 -133 2379
-950 -134 2391
-948 -134 2407
-943 -135 2415
-942 -136 2433
-935 -136 2437
-931 -136 2450
-927 -137 2461
-920 -137 2464
-917 -138 2479
-913 -138 2490
-908 -139 2500
-906 -140 2516
-897 -140 2515
-892 -140 2523
-891 -141 2546
-887 -142 2556
-881 -142 2564
-876 -143 2573
-873 -143 2590
-865 -143 2590
-861 -144 2605
-856 -145 2614
-849 -145 2620
-840 -145 2619
-840 -146 2643
-830 -146 2640
-825 -146 2652
-823 -147 2672
-815 -148 2673
-809 -148 2682
-802 -148 2687
-795 -148 2690
-788 -149 2697
-779 -148 2694
-762 -147 2667
-743 -145 2628
-740 -146 2646
-750 -149 2714
-740 -149 2706
-730 -149 2700
-724 -149 2710
-714 -149 2703
-705 -149 2703
-696 -148 2698
-687 -148 2697
-680 -148 2701
-671 -148 2698
-659 -147 2684
-651 -147 2686
-643 -147 2684
-634 -147 2682
-625 -147 2680
-619 -147 2686
-606 -146 2665
-599 -146 2670
-590 -146 2668
-581 -146 2665
-573 -146 2664
-564 -146 2659
-557 -146 2663
-547 -146 2654
-537 -145 2645
-531 -145 2652
-522 -145 2646
-514 -145 2647
-504 -145 2639
-498 -145 2645
-489 -145 2640
-481 -145 2639
-471 -144 2626
-464 -144 2631
-456 -144 2630
-446 -143 2618
-439 -144 2622
-432 -144 2631
-423 -144 2621
-415 -143 2618
-406 -143 2613
-397 -143 2604
-391 -143 2610
-382 -143 2604
-374 -142 2599
-367 -143 2606
-359 -143 2601
-350 -142 2595
-343 -143 2599
-335 -142 2594
-327 -142 2590
-319 -142 2586
-311 -142 2583
-303 -141 2578
-295 -142 2579
-288 -142 2580
-279 -141 2570
-272 -141 2571
-264 -141 2571
-256 -141 2566
-248 -140 2556
-241 -141 2565
-233 -140 2553
-225 -140 2547
-218 -140 2546
-209 -139 2536
-203 -140 2544
-195 -140 2537
-187 -139 2534
-180 -139 2530
-172 -139 2525
-165 -139 2527
-157 -139 2527
-150 -139 2517
-142 -139 2519
-135 -138 2509
-127 -138 2511
-119 -137 2484
-111 -136 2468
-104 -137 2476
-97 -137 2479
-91 -138 2501
-83 -137 2488
-76 -137 2488
-69 -137 2482
-62 -137 2488
-54 -137 2484
-47 -137 2483
-40 -137 2483
-33 -137 2473
-26 -137 2474
-19 -137 2475
-11 -137 2473
-4 -137 2469
2 -136 2463
9 -137 2466
16 -137 2467
23 -137 2466
30 -136 2453
37 -137 2460
44 -136 2452
51 -136 2445
58 -136 2443
65 -136 2442
72 -136 2441
79 -136 2444
86 -135 2432
93 -135 2426
99 -135 2421
106 -134 2405
112 -134 2395
120 -134 2407
127 -134 2408
134 -135 2415
141 -135 2408
147 -134 2405
155 -135 2413
161 -134 2397
168 -135 2403
175 -135 2403
182 -135 2401
189 -134 2397
196 -135 2400
202 -134 2392
209 -135 2396
215 -134 2386
223 -134 2388
230 -134 2390
236 -134 2387
242 -134 2375
249 -134 2378
256 -134 2375
263 -134 2375
270 -134 2378
277 -134 2376
283 -134 2366
290 -134 2368
297 -134 2369
302 -133 2357
310 -134 2362
315 -133 2352
323 -134 2358
330 -134 2356
336 -134 2351
343 -133 2349
349 -133 2346
355 -133 2341
362 -133 2343
368 -133 2338
375 -133 2333
381 -133 2331
386 -132 2320
391 -132 2310
396 -131 2294
403 -131 2297
412 -132 2310
420 -133 2314
427 -133 2314
433 -133 2313
440 -133 2309
447 -133 2311
454 -133 2312
459 -133 2304
467 -133 2308
472 -132 2297
479 -133 2299
485 -133 2296
492 -133 2294
499 -133 2293
505 -133 2290
511 -132 2285
518 -133 2288
524 -132 2283
531 -132 2280
537 -132 2278
543 -132 2275
549 -132 2269
557 -132 2273
561 -132 2263
568 -132 2262
577 -133 2268
575 -131 2234
580 -130 2227
587 -131 2228
597 -131 2237
605 -132 2241
614 -132 2249
619 -132 2242
625 -132 2239
633 -132 2242
640 -132 2243
645 -132 2233
653 -132 2236
657 -132 2228
663 -132 2224
669 -132 2221
678 -132 2227
684 -132 2223
693 -133 2230
705 -134 2245
719 -135 2267
730 -136 2277
722 -133 2230
594 -108 1814
624 -113 1887
632 -113 1894
597 -106 1771
611 -107 1794
602 -105 1751
595 -103 1712
636 -109 1816
715 -122 2023
717 -121 2008
707 -119 1963
652 -108 1792
671 -111 1828
685 -112 1849
722 -117 1931
707 -114 1874
671 -107 1763
776 -123 2022
835 -132 2157
845 -133 2164
853 -133 2165
858 -133 2159
867 -133 2162
873 -133 2160
878 -133 2152
884 -133 2151
890 -133 2147
900 -133 2151
904 -133 2144
912 -133 2144
917 -133 2139
923 -133 2134
931 -133 2134
939 -133 2136
945 -133 2132
949 -133 2123
958 -133 2126
951 -132 2093
970 -133 2119
978 -134 2118
1002 -136 2155
1032 -139 2202
1027 -138 2174
1008 -134 2117
1008 -133 2099
1013 -133 2094
1001 -131 2053
915 -119 1861
891 -115 1797
887 -114 1775
899 -114 1785
896 -113 1766
912 -115 1784
912 -114 1770
921 -115 1774
920 -114 1759
929 -114 1764
930 -114 1751
943 -115 1762
940 -114 1745
949 -114 1748
958 -114 1751
964 -115 1750
964 -114 1736
974 -115 1742
-1314 -126 2287
-1304 -126 2286
-1293 -126 2283
-1281 -125 2279
-1267 -125 2270
-1261 -125 2277
-1245 -124 2264
-1236 -124 2265
-1230 -124 2271
-1212 -123 2254
-1204 -123 2257
-1193 -123 2252
-1181 -122 2246
-1171 -122 2244
-1157 -121 2234
-1147 -121 2232
-1142 -121 2239
-1123 -120 2219
-1118 -120 2224
-1109 -120 2225
-1101 -120 2226
-1086 -119 2212
-1078 -119 2212
-1062 -118 2198
-1056 -118 2203
-1050 -118 2206
-1040 -118 2204
-1024 -117 2185
-1013 -117 2180
-1014 -118 2199
-999 -117 2185
-984 -116 2168
-975 -116 2167
-986 -118 2207
-998 -120 2254
-998 -121 2272
-995 -121 2283
-994 -122 2299
-987 -122 2302
-984 -123 2315
-976 -123 2316
-977 -124 2337
-971 -124 2343
-969 -125 2357
-963 -125 2363
-962 -126 2380
-956 -126 2386
-950 -126 2393
-948 -127 2408
-943 -127 2416
-945 -129 2443
-938 -129 2445
-931 -129 2448
-929 -130 2465
-924 -130 2474
-917 -130 2477
-915 -131 2495
-908 -131 2500
-902 -132 2506
-899 -132 2521
-890 -132 2518
-886 -133 2531
-882 -133 2543
-884 -135 2572
-871 -134 2561
-868 -135 2577
-863 -135 2585
-861 -136 2606
-850 -136 2598
-849 -137 2620
-844 -138 2631
-838 -138 2638
-835 -139 2656
-826 -139 2654
-822 -139 2669
-818 -140 2682
-808 -140 2679
-807 -141 2704
-796 -141 2697
-788 -141 2699
-784 -141 2711
-768 -140 2687
-750 -138 2652
-740 -138 2648
-749 -141 2710
-746 -142 2728
-734 -141 2718
-723 -141 2708
-713 -140 2699
-706 -141 2706
-699 -141 2710
-687 -140 2698
-680 -140 2702
-668 -140 2688
-663 -140 2701
-651 -139 2684
-644 -140 2690
-633 -139 2677
-627 -140 2688
-619 -140 2688
-609 -139 2681
-601 -139 2683
-592 -139 2677
-583 -139 2671
-573 -138 2662
-564 -138 2658
-555 -138 2657
-546 -138 2651
-539 -138 2655
-532 -138 2657
-522 -137 2647
-514 -137 2648
-505 -137 2641
-497 -137 2641
-490 -137 2645
-481 -137 2638
-473 -137 2640
-464 -137 2635
-455 -136 2626
-446 -136 2620
-439 -136 2622
-430 -136 2619
-423 -136 2619
-413 -135 2606
-405 -135 2607
-398 -135 2610
-389 -135 2602
-382 -135 2605
-373 -135 2595
-365 -135 2595
-358 -135 2595
-351 -135 2598
-341 -134 2585
-334 -134 2588
-327 -135 2590
-318 -134 2582
-311 -134 2588
-303 -134 2579
-294 -134 2569
-286 -133 2565
-278 -133 2561
-271 -133 2567
-263 -133 2562
-256 -133 2559
-248 -133 2553
-240 -133 2554
-232 -132 2542
-225 -133 2549
-217 -132 2540
-210 -132 2542
-202 -132 2537
-195 -132 2537
-187 -132 2530
-180 -132 2534
-172 -132 2529
-164 -132 2524
-157 -131 2519
-149 -131 2510
-142 -131 2519
-134 -131 2507
-127 -131 2508
-120 -131 2503
-111 -129 2471
-104 -129 2468
-97 -130 2488
-91 -130 2496
-83 -130 2491
-76 -130 2482
-69 -130 2481
-61 -130 2479
-54 -129 2472
-47 -130 2480
-40 -130 2481
-33 -130 2478
-26 -130 2473
-18 -129 2466
-11 -130 2473
-4 -130 2469
2 -129 2461
9 -130 2467
16 -129 2459
23 -129 2456
30 -129 2455
37 -129 2454
44 -129 2451
51 -129 2456
58 -128 2437
65 -129 2448
72 -129 2446
79 -128 2433
86 -129 2435
93 -129 2434
99 -128 2418
106 -128 2413
112 -127 2393
120 -128 2412
127 -128 2417
134 -128 2420
141 -128 2411
147 -127 2403
155 -128 2409
162 -128 2408
169 -128 2412
175 -128 2405
181 -127 2392
188 -127 2392
195 -127 2392
202 -127 2391
209 -127 2393
215 -127 2386
222 -127 2386
229 -127 2385
236 -127 2381
243 -127 2383
249 -127 2371
257 -127 2383
263 -127 2378
270 -127 2381
277 -128 2381
283 -127 2371
288 -126 2358
295 -126 2352
302 -127 2356
308 -126 2352
316 -127 2358
323 -127 2358
330 -127 2356
336 -127 2352
342 -126 2345
349 -126 2345
355 -126 2343
363 -127 2345
368 -126 2336
375 -126 2334
382 -127 2338
388 -126 2332
393 -126 2316
398 -125 2306
405 -125 2310
413 -126 2315
420 -126 2316
426 -126 2313
434 -126 2316
439 -126 2307
446 -126 2308
453 -126 2309
459 -126 2303
467 -126 2306
472 -126 2298
479 -126 2300
486 -126 2297
492 -126 2295
500 -126 2297
506 -126 2294
511 -126 2286
517 -125 2281
524 -126 2280
529 -125 2275
537 -126 2277
544 -126 2278
550 -126 2273
556 -126 2271
563 -126 2269
569 -126 2268
577 -126 2270
581 -125 2256
583 -124 2238
591 -125 2242
596 -124 2236
607 -125 2250
612 -125 2242
620 -125 2247
625 -125 2240
633 -125 2242
640 -126 2243
646 -126 2238
652 -125 2235
657 -125 2227
666 -126 2235
671 -125 2227
676 -125 2219
684 -125 2222
695 -126 2234
710 -128 2261
727 -130 2291
710 -126 2216
620 -108 1914
613 -106 1872
558 -95 1686
551 -93 1648
552 -93 1636
502 -83 1471
489 -81 1421
495 -81 1423
512 -83 1458
544 -88 1535
576 -92 1612
596 -95 1652
629 -99 1729
617 -96 1679
669 -104 1807
676 -104 1810
723 -111 1918
700 -106 1838
775 -117 2021
830 -125 2144
842 -125 2157
853 -126 2166
859 -126 2162
864 -126 2157
872 -126 2157
879 -126 2155
885 -126 2152
893 -126 2152
900 -127 2152
906 -127 2148
911 -126 2142
917 -126 2138
925 -127 2140
934 -127 2143
937 -127 2132
943 -127 2128
949 -126 2123
957 -127 2123
968 -127 2132
986 -129 2154
981 -127 2125
1004 -130 2158
1027 -132 2190
1029 -131 2177
1007 -128 2114
1007 -127 2098
1019 -127 2106
1001 -124 2052
917 -113 1864
892 -109 1799
890 -108 1781
898 -109 1784
901 -108 1776
910 -109 1780
912 -108 1772
918 -109 1769
925 -109 1768
928 -108 1761
933 -108 1759
935 -108 1749
943 -108 1750
952 -109 1753
960 -109 1756
957 -108 1738
966 -109 1740
968 -108 1732
-1319 -119 2296
-1301 -118 2281
-1286 -118 2273
-1281 -118 2279
-1269 -118 2275
-1259 -117 2274
-1247 -117 2269
-1236 -117 2265
-1219 -116 2250
-1208 -115 2247
-1199 -115 2246
-1189 -115 2245
-1180 -115 2244
-1164 -114 2231
-1156 -114 2232
-1144 -114 2227
-1135 -113 2225
-1127 -113 2227
-1120 -113 2230
-1106 -113 2219
-1094 -112 2212
-1084 -112 2209
-1076 -112 2209
-1061 -111 2196
-1052 -111 2195
-1045 -111 2197
-1037 -111 2197
-1024 -110 2186
-1016 -110 2186
-1009 -110 2189
-997 -110 2181
-983 -109 2167
-973 -108 2162
-986 -111 2210
-998 -113 2255
-998 -114 2271
-991 -114 2275
-990 -115 2292
-988 -115 2306
-982 -115 2311
-980 -116 2324
-977 -117 2337
-973 -117 2348
-966 -117 2351
-963 -118 2363
-955 -118 2364
-960 -119 2396
-953 -119 2400
-944 -119 2398
-943 -120 2416
-941 -121 2432
-938 -121 2447
-936 -122 2462
-927 -122 2461
-919 -122 2463
-921 -123 2489
-915 -124 2497
-906 -123 2494
-903 -124 2508
-898 -125 2518
-893 -125 2527
-891 -126 2545
-882 -126 2545
-880 -127 2562
-874 -127 2569
-873 -128 2591
-865 -128 2593
-857 -128 2593
-853 -129 2607
-849 -129 2622
-843 -130 2629
-837 -130 2635
-833 -131 2651
-828 -131 2662
-823 -132 2672
-818 -132 2683
-812 -132 2692
-806 -133 2701
-795 -132 2694
-788 -133 2697
-785 -134 2718
-774 -133 2707
-748 -130 2648
-742 -130 2653
-753 -134 2725
-747 -134 2734
-738 -134 2731
-725 -133 2716
-718 -133 2719
-707 -133 2710
-697 -133 2704
-687 -132 2699
-680 -132 2702
-670 -132 2696
-663 -132 2702
-652 -132 2690
-644 -132 2690
-636 -132 2693
-624 -131 2674
-612 -130 2660
-599 -129 2637
-590 -129 2630
-585 -130 2648
-578 -130 2649
-572 -130 2659
-565 -131 2666
-556 -130 2660
-547 -130 2656
-539 -130 2656
-530 -130 2647
-520 -129 2641
-513 -129 2642
-506 -130 2646
-497 -129 2642
-488 -129 2639
-479 -129 2630
-470 -129 2626
-464 -129 2634
-455 -129 2628
-447 -129 2626
-439 -129 2626
-431 -129 2626
-423 -128 2618
-414 -128 2612
-404 -127 2596
-397 -128 2606
-390 -128 2607
-380 -127 2589
-373 -127 2593
-364 -127 2588
-356 -127 2583
-350 -127 2598
-342 -127 2593
-334 -127 2588
-326 -127 2588
-318 -126 2579
-310 -126 2577
-302 -126 2576
-294 -126 2566
-288 -127 2578
-279 -126 2572
-271 -126 2568
-263 -126 2557
-256 -126 2560
-248 -126 2556
-240 -125 2550
-233 -125 2553
-225 -125 2546
-218 -125 2548
-210 -125 2541
-202 -125 2539
-195 -125 2538
-187 -125 2532
-179 -124 2521
-171 -124 2521
-165 -124 2526
-157 -124 2518
-150 -124 2521
-142 -124 2511
-135 -124 2521
-128 -125 2525
-121 -124 2521
-112 -123 2491
-105 -123 2488
-98 -124 2509
-91 -123 2500
-83 -123 2494
-76 -123 2491
-69 -123 2493
-61 -123 2482
-54 -123 2486
-47 -123 2476
-40 -123 2484
-33 -123 2483
-26 -123 2480
-19 -123 2475
-11 -123 2476
-4 -123 2469
2 -122 2467
9 -123 2468
16 -122 2458
23 -122 2461
30 -122 2454
37 -122 2461
44 -122 2450
51 -122 2456
58 -122 2447
65 -122 2448
72 -122 2446
79 -122 2445
86 -122 2442
93 -122 2446
100 -122 2439
107 -121 2422
113 -121 2412
121 -121 2428
128 -121 2426
134 -121 2420
141 -121 2414
148 -121 2422
155 -121 2411
162 -121 2418
169 -121 2408
176 -121 2408
183 -121 2411
189 -121 2406
196 -121 2409
203 -121 2401
209 -121 2397
217 -121 2400
222 -120 2377
230 -121 2389
236 -120 2387
243 -120 2385
249 -120 2378
256 -120 2379
264 -120 2381
270 -121 2381
278 -121 2385
283 -120 2369
290 -120 2368
297 -120 2372
303 -120 2361
309 -120 2358
316 -120 2360
322 -120 2352
330 -120 2356
335 -120 2347
343 -120 2349
349 -120 2343
356 -120 2348
363 -120 2349
368 -119 2337
377 -120 2346
383 -120 2342
391 -120 2350
397 -120 2343
401 -119 2324
406 -119 2313
413 -119 2315
422 -120 2324
428 -120 2322
435 -119 2319
440 -119 2313
447 -119 2312
454 -119 2312
461 -120 2313
466 -119 2303
474 -120 2309
480 -119 2301
487 -119 2301
493 -119 2298
499 -119 2296
505 -119 2291
511 -119 2286
520 -119 2293
526 -119 2289
533 -120 2291
538 -119 2282
546 -119 2285
550 -119 2273
557 -119 2273
564 -119 2274
569 -119 2267
577 -119 2270
580 -119 2256
585 -118 2248
592 -118 2247
602 -119 2259
609 -119 2256
613 -119 2248
621 -119 2250
628 -119 2248
634 -119 2247
641 -119 2245
645 -119 2236
653 -119 2238
659 -119 2234
666 -119 2234
673 -119 2232
679 -119 2230
686 -119 2231
695 -120 2236
712 -122 2269
736 -125 2321
695 -116 2167
607 -100 1874
554 -91 1692
532 -86 1607
530 -85 1586
524 -83 1551
492 -77 1441
485 -76 1409
491 -76 1411
491 -75 1399
510 -78 1439
538 -81 1505
542 -81 1501
574 -85 1576
578 -85 1573
604 -89 1629
690 -101 1848
740 -107 1964
773 -111 2031
813 -116 2118
833 -119 2153
843 -119 2159
850 -119 2158
859 -120 2163
867 -120 2163
870 -119 2151
878 -120 2154
883 -119 2148
892 -120 2151
898 -120 2147
904 -120 2143
912 -120 2146
918 -120 2140
925 -120 2140
929 -120 2130
937 -120 2132
945 -120 2133
950 -120 2127
955 -120 2119
962 -120 2119
955 -118 2086
979 -120 2121
1003 -123 2157
1030 -125 2198
1029 -124 2177
1010 -121 2120
1005 -120 2093
1015 -120 2098
1005 -118 2062
917 -107 1864
888 -103 1792
889 -103 1781
896 -103 1781
903 -103 1780
902 -102 1765
912 -103 1772
918 -103 1770
922 -103 1763
933 -103 1772
935 -103 1762
938 -103 1753
947 -103 1757
953 -103 1756
945 -102 1727
963 -103 1748
963 -103 1736
972 -103 1739
-1317 -112 2294
-1304 -111 2287
-1288 -110 2276
-1285 -111 2286
-1267 -110 2271
-1250 -109 2258
-1242 -109 2261
-1228 -109 2252
-1218 -108 2250
-1209 -108 2249
-1206 -109 2261
-1187 -108 2242
-1175 -107 2236
-1165 -107 2234
-1153 -107 2227
-1139 -106 2217
-1136 -106 2229
-1126 -106 2225
-1112 -106 2215
-1104 -106 2215
-1093 -105 2210
-1085 -105 2211
-1073 -105 2203
-1069 -105 2211
-1048 -104 2186
-1048 -104 2203
-1029 -103 2181
-1018 -103 2174
-1022 -104 2201
-1004 -103 2179
-992 -102 2170
-987 -103 2176
-977 -102 2172
-987 -104 2212
-997 -106 2252
-999 -107 2275
-995 -107 2285
-995 -108 2303
-987 -108 2305
-980 -108 2307
-978 -109 2322
-976 -109 2335
-970 -110 2341
-967 -110 2354
-961 -110 2359
-960 -111 2377
-957 -112 2389
-950 -112 2394
-947 -112 2407
-946 -113 2424
-939 -113 2428
-936 -114 2443
-932 -114 2453
-922 -114 2449
-924 -115 2476
-913 -115 2469
-912 -116 2487
-912 -117 2510
-900 -116 2501
-897 -117 2517
-892 -117 2526
-886 -117 2532
-883 -118 2548
-880 -119 2562
-875 -119 2572
-867 -119 2574
-863 -120 2586
-859 -120 2600
-855 -121 2613
-850 -121 2623
-843 -122 2630
-838 -122 2638
-833 -123 2650
-825 -123 2654
-821 -123 2668
-820 -124 2690
-805 -123 2671
-804 -125 2695
-795 -124 2694
-787 -125 2697
-781 -125 2703
-771 -125 2698
-749 -122 2651
-738 -122 2642
-751 -125 2719
-746 -126 2730
-735 -125 2719
-723 -125 2708
-716 -125 2712
-706 -125 2708
-699 -125 2711
-687 -124 2698
-680 -125 2705
-669 -124 2690
-663 -124 2701
-650 -124 2684
-644 -124 2690
-632 -123 2676
-620 -122 2658
-569 -114 2472
-538 -109 2372
-525 -108 2342
-548 -114 2481
-567 -120 2601
-572 -122 2659
-564 -123 2662
-555 -122 2657
-547 -122 2657
-538 -122 2648
-531 -122 2657
-522 -122 2651
-512 -122 2642
-506 -122 2650
-498 -122 2647
-488 -121 2635
-481 -122 2640
-472 -121 2634
-464 -121 2634
-455 -121 2628
-447 -121 2625
-438 -121 2621
-432 -121 2629
-422 -120 2616
-415 -121 2620
-407 -121 2616
-398 -120 2610
-391 -120 2613
-383 -120 2609
-373 -120 2595
-366 -120 2602
-359 -120 2604
-350 -120 2595
-342 -120 2595
-336 -120 2605
-326 -119 2588
-319 -120 2593
-311 -119 2589
-303 -119 2585
-295 -119 2575
-287 -119 2572
-279 -119 2570
-272 -119 2572
-264 -119 2570
-256 -118 2564
-246 -117 2540
-241 -118 2561
-233 -118 2559
-225 -118 2554
-218 -118 2552
-210 -118 2548
-202 -118 2540
-194 -117 2536
-187 -118 2538
-180 -118 2543
-172 -117 2534
-165 -117 2534
-157 -117 2519
-150 -117 2526
-142 -117 2520
-135 -117 2524
-128 -117 2524
-121 -117 2525
-113 -117 2518
-105 -117 2510
-98 -117 2515
-91 -116 2501
-83 -116 2495
-77 -118 2539
-69 -116 2499
-62 -116 2490
-54 -116 2486
-47 -116 2491
-40 -116 2478
-33 -116 2477
-26 -116 2483
-18 -115 2473
-11 -116 2479
-4 -114 2451
2 -115 2467
9 -115 2460
16 -115 2449
23 -115 2455
30 -115 2456
38 -119 2542
44 -115 2456
52 -116 2471
58 -115 2443
65 -114 2436
73 -116 2462
79 -115 2443
86 -115 2445
94 -115 2451
101 -115 2455
108 -115 2449
114 -115 2440
121 -115 2437
128 -114 2428
135 -115 2431
144 -116 2462
151 -117 2467
155 -114 2419
162 -114 2410
169 -114 2416
176 -114 2414
183 -114 2411
189 -114 2408
196 -114 2403
203 -114 2405
210 -114 2398
216 -114 2391
224 -114 2399
230 -114 2393
236 -114 2388
243 -114 2386
252 -115 2407
257 -114 2383
264 -114 2384
271 -114 2382
278 -114 2387
284 -114 2377
296 -116 2422
296 -113 2366
297 -111 2317
311 -114 2370
316 -113 2359
324 -114 2366
330 -113 2357
337 -113 2355
343 -113 2349
350 -113 2350
356 -113 2349
363 -113 2348
370 -113 2345
377 -113 2348
384 -113 2349
391 -113 2347
398 -114 2351
406 -114 2352
410 -113 2335
417 -113 2335
422 -113 2327
429 -113 2325
435 -113 2321
440 -112 2309
449 -113 2323
455 -113 2317
463 -113 2321
468 -113 2313
476 -113 2316
481 -113 2307
487 -113 2303
495 -113 2309
500 -113 2301
507 -113 2298
514 -113 2298
520 -113 2296
526 -113 2292
533 -113 2291
538 -113 2284
544 -112 2278
551 -113 2280
558 -113 2278
564 -112 2273
570 -112 2271
579 -113 2276
585 -113 2275
590 -113 2267
596 -112 2263
603 -113 2262
608 -112 2253
614 -112 2252
624 -113 2260
628 -112 2250
633 -112 2243
640 -112 2241
649 -113 2249
653 -112 2239
660 -112 2240
669 -113 2245
672 -112 2232
679 -112 2232
684 -112 2224
697 -113 2242
716 -115 2280
743 -119 2342
704 -111 2197
585 -91 1803
564 -87 1722
531 -81 1604
524 -79 1568
506 -76 1498
486 -72 1425
487 -72 1414
486 -71 1396
491 -71 1398
500 -72 1412
526 -75 1470
533 -75 1476
541 -76 1486
625 -87 1703
599 -83 1615
647 -89 1730
703 -96 1864
765 -104 2013
824 -112 2150
838 -113 2166
847 -113 2169
855 -113 2170
860 -113 2165
866 -113 2161
872 -113 2157
879 -113 2156
885 -113 2153
893 -113 2152
898 -113 2148
907 -113 2150
913 -113 2148
919 -113 2144
927 -114 2144
935 -114 2145
938 -113 2133
943 -113 2127
949 -113 2125
956 -113 2124
971 -114 2138
975 -114 2129
976 -113 2115
1007 -116 2165
1028 -118 2193
1032 -118 2184
1011 -115 2124
1010 -114 2105
1016 -114 2099
1005 -112 2062
926 -102 1883
891 -98 1799
886 -97 1774
896 -97 1779
903 -97 1780
906 -97 1773
908 -97 1763
921 -98 1775
916 -96 1752
923 -97 1751
933 -97 1758
939 -97 1756
946 -97 1756
945 -97 1742
955 -97 1747
963 -98 1749
963 -97 1736
971 -97 1737
-1315 -104 2290
-1300 -103 2282
-1287 -103 2274
-1283 -103 2284
-1266 -103 2270
-1254 -102 2266
-1242 -102 2261
-1224 -101 2245
-1224 -102 2261
-1209 -101 2249
-1198 -101 2246
-1191 -101 2249
-1176 -100 2238
-1166 -100 2236
-1154 -100 2229
-1145 -99 2228
-1129 -99 2215
-1116 -98 2205
-1108 -98 2207
-1106 -99 2220
-1093 -98 2211
-1083 -98 2208
-1073 -98 2204
-1060 -97 2195
-1050 -97 2191
-1042 -97 2191
-1033 -97 2188
-1020 -96 2178
-1008 -96 2170
-1003 -96 2177
-995 -96 2177
-973 -94 2146
-972 -95 2162
-986 -97 2210
-1003 -100 2266
-995 -100 2267
-993 -100 2281
-992 -101 2298
-991 -101 2313
-983 -101 2313
-974 -101 2313
-974 -102 2332
-971 -102 2343
-969 -103 2359
-964 -103 2367
-960 -104 2377
-954 -104 2383
-952 -105 2397
-947 -105 2406
-943 -105 2418
-939 -106 2427
-935 -106 2439
-931 -107 2452
-927 -107 2461
-921 -107 2469
-918 -108 2483
-912 -108 2487
-908 -109 2500
-904 -109 2512
-895 -109 2511
-893 -110 2530
-888 -110 2538
-881 -110 2541
-877 -111 2555
-875 -111 2572
-870 -112 2584
-866 -112 2595
-856 -112 2592
-856 -113 2619
-848 -113 2618
-845 -114 2636
-837 -114 2636
-832 -115 2648
-827 -115 2661
-818 -115 2658
-815 -116 2677
-809 -116 2683
-804 -116 2695
-798 -117 2705
-792 -117 2714
-784 -117 2714
-777 -117 2718
-751 -115 2659
-736 -114 2635
-751 -117 2719
-746 -118 2731
-736 -118 2726
-723 -117 2710
-716 -117 2712
-708 -117 2716
-700 -117 2718
-687 -116 2699
-681 -117 2707
-671 -117 2703
-662 -116 2697
-653 -116 2696
-642 -116 2685
-635 -116 2690
-615 -114 2636
-530 -99 2305
-491 -93 2163
-498 -95 2222
-528 -103 2391
-565 -112 2593
-573 -115 2664
-564 -115 2661
-556 -115 2660
-549 -115 2664
-539 -114 2655
-532 -115 2662
-522 -114 2650
-515 -114 2657
-505 -114 2647
-498 -114 2647
-491 -114 2655
-482 -114 2650
-474 -114 2648
-463 -113 2632
-457 -114 2638
-447 -113 2626
-440 -114 2632
-431 -113 2626
-422 -113 2617
-414 -113 2616
-406 -113 2610
-399 -113 2619
-391 -113 2617
-383 -113 2610
-374 -112 2605
-366 -112 2600
-359 -113 2606
-351 -113 2606
-343 -112 2598
-334 -112 2592
-328 -112 2599
-319 -112 2588
-312 -112 2594
-303 -112 2584
-295 -112 2580
-287 -112 2578
-279 -111 2574
-272 -112 2577
-264 -111 2569
-257 -111 2571
-249 -111 2566
-240 -111 2557
-233 -111 2561
-226 -111 2563
-218 -111 2551
-210 -111 2550
-202 -110 2542
-194 -110 2537
-188 -110 2545
-180 -110 2538
-172 -110 2536
-165 -110 2542
-158 -110 2533
-150 -110 2534
-143 -110 2527
-135 -109 2514
-128 -110 2523
-120 -110 2522
-113 -110 2515
-106 -110 2516
-98 -109 2506
-91 -109 2502
-83 -109 2493
-78 -111 2550
-69 -109 2493
-62 -109 2491
-54 -109 2495
-47 -108 2480
-40 -109 2483
-33 -108 2477
-26 -109 2483
-18 -108 2477
-11 -109 2493
-4 -107 2437
2 -108 2468
9 -108 2471
16 -108 2461
23 -108 2454
30 -108 2468
38 -109 2480
45 -108 2463
53 -112 2540
59 -108 2459
68 -112 2533
73 -108 2450
81 -110 2485
87 -108 2457
94 -108 2445
101 -108 2444
108 -108 2445
115 -108 2446
121 -107 2431
129 -108 2449
137 -109 2460
145 -110 2485
148 -107 2419
155 -107 2418
162 -107 2420
169 -107 2409
175 -107 2404
183 -107 2412
190 -107 2409
200 -109 2447
203 -107 2400
212 -108 2431
217 -107 2404
224 -107 2399
231 -107 2405
237 -107 2392
243 -107 2388
249 -106 2378
256 -106 2377
264 -107 2383
271 -107 2390
278 -107 2384
284 -107 2381
290 -106 2371
296 -106 2361
302 -106 2359
311 -107 2369
324 -109 2415
323 -106 2360
330 -106 2360
336 -106 2353
343 -106 2349
350 -106 2353
357 -106 2353
364 -107 2354
369 -106 2339
375 -106 2335
384 -106 2345
390 -106 2343
398 -107 2348
404 -107 2342
409 -106 2333
417 -106 2335
422 -106 2326
429 -106 2329
436 -106 2327
443 -106 2327
449 -106 2322
454 -106 2314
462 -106 2318
468 -106 2311
477 -107 2323
482 -106 2315
487 -106 2305
494 -106 2302
499 -106 2294
507 -106 2300
513 -106 2297
520 -106 2296
527 -106 2293
533 -106 2291
539 -106 2288
546 -106 2286
553 -106 2285
558 -106 2279
564 -106 2276
572 -106 2280
577 -106 2271
584 -106 2271
593 -106 2276
595 -106 2258
603 -106 2260
610 -106 2262
615 -106 2254
623 -106 2257
628 -106 2251
635 -106 2250
640 -106 2242
648 -106 2245
654 -106 2243
659 -106 2234
667 -106 2238
674 -106 2237
681 -106 2238
685 -106 2228
695 -106 2237
715 -108 2278
727 -109 2292
681 -101 2126
554 -81 1709
541 -78 1651
512 -73 1545
533 -76 1596
490 -69 1451
490 -68 1437
482 -67 1398
484 -66 1391
485 -66 1382
503 -68 1420
514 -69 1439
519 -69 1439
555 -73 1523
561 -74 1526
624 -81 1683
671 -87 1796
686 -88 1819
772 -99 2029
833 -106 2171
839 -106 2169
846 -106 2167
853 -106 2167
861 -106 2167
867 -106 2163
875 -107 2166
880 -106 2158
885 -106 2153
892 -107 2153
898 -106 2147
907 -107 2151
911 -107 2143
920 -107 2147
927 -107 2145
932 -107 2139
940 -107 2138
945 -107 2133
951 -107 2129
957 -107 2124
970 -108 2136
964 -106 2105
977 -107 2118
1006 -110 2163
1034 -112 2207
1031 -111 2182
1009 -108 2119
1012 -107 2109
1014 -107 2097
1001 -105 2053
913 -95 1857
888 -92 1792
888 -91 1777
901 -92 1790
900 -91 1776
900 -91 1762
912 -92 1772
916 -91 1766
924 -92 1767
923 -91 1752
929 -91 1751
939 -92 1757
944 -92 1753
948 -91 1747
955 -92 1746
957 -91 1738
960 -91 1731
979 -92 1752
-1306 -96 2276
-1293 -95 2269
-1287 -96 2276
-1267 -95 2257
-1262 -95 2264
-1247 -94 2254
-1236 -94 2250
-1213 -93 2224
-1210 -93 2236
-1209 -94 2251
-1187 -93 2226
-1178 -93 2226
-1171 -93 2229
-1163 -93 2231
-1150 -92 2222
-1132 -91 2204
-1121 -91 2199
-1117 -91 2208
-1106 -91 2203
-1099 -91 2206
-1085 -91 2194
-1073 -90 2188
-1070 -91 2199
-1057 -90 2188
-1051 -90 2192
-1040 -90 2187
-1030 -90 2182
-1016 -89 2170
-1006 -89 2166
-999 -89 2168
-987 -88 2159
-976 -88 2153
-970 -88 2158
-986 -90 2210
-1001 -92 2261
-999 -93 2275
-994 -93 2283
-993 -94 2299
-985 -94 2301
-982 -94 2313
-976 -94 2318
-978 -95 2341
-968 -95 2337
-971 -96 2364
-963 -96 2365
-961 -97 2380
-957 -97 2391
-952 -97 2398
-948 -98 2410
-945 -98 2422
-938 -98 2425
-934 -99 2436
-932 -99 2453
-924 -99 2455
-917 -99 2458
-913 -100 2468
-909 -100 2480
-908 -101 2501
-901 -101 2506
-895 -101 2512
-892 -102 2527
-888 -102 2538
-879 -102 2535
-880 -103 2564
-872 -103 2564
-868 -104 2578
-863 -104 2587
-857 -105 2596
-854 -105 2611
-853 -106 2633
-840 -106 2620
-838 -106 2642
-833 -107 2652
-827 -107 2658
-822 -107 2670
-816 -108 2679
-811 -108 2690
-802 -108 2689
-795 -108 2693
-793 -109 2716
-785 -109 2718
-775 -109 2712
-754 -107 2669
-733 -106 2626
-752 -109 2723
-751 -111 2751
-737 -110 2729
-723 -109 2710
-716 -109 2715
-705 -109 2706
-697 -109 2707
-689 -109 2709
-678 -108 2697
-672 -109 2704
-661 -108 2694
-654 -108 2699
-645 -108 2695
-634 -108 2686
-616 -106 2642
-527 -92 2293
-493 -87 2171
-488 -87 2178
-511 -93 2313
-561 -103 2573
-572 -107 2661
-563 -107 2656
-557 -107 2666
-549 -107 2667
-541 -107 2668
-531 -107 2657
-523 -107 2658
-515 -107 2654
-505 -106 2647
-498 -106 2649
-489 -106 2642
-481 -106 2641
-474 -106 2645
-465 -106 2640
-458 -106 2647
-446 -105 2624
-443 -106 2647
-432 -106 2631
-424 -106 2631
-415 -105 2622
-408 -106 2624
-397 -105 2607
-392 -105 2620
-382 -105 2608
-375 -105 2608
-366 -105 2604
-359 -105 2610
-352 -105 2610
-343 -105 2604
-335 -105 2600
-327 -105 2593
-319 -104 2588
-312 -105 2593
-302 -104 2579
-296 -104 2589
-288 -104 2581
-281 -105 2588
-272 -104 2577
-264 -104 2572
-256 -104 2569
-249 -104 2571
-242 -104 2574
-234 -104 2564
-226 -104 2565
-218 -103 2552
-210 -103 2550
-202 -103 2540
-195 -103 2539
-187 -103 2535
-180 -103 2545
-172 -103 2534
-165 -103 2535
-157 -103 2528
-150 -103 2531
-143 -103 2527
-135 -103 2532
-127 -102 2516
-120 -102 2518
-113 -103 2525
-105 -102 2508
-98 -102 2509
-91 -102 2500
-85 -104 2548
-76 -102 2498
-69 -102 2500
-62 -102 2511
-55 -102 2502
-47 -101 2487
-40 -101 2482
-33 -102 2485
-25 -101 2469
-18 -102 2484
-11 -101 2480
-4 -101 2468
2 -99 2430
9 -101 2457
16 -102 2479
23 -100 2446
30 -100 2434
38 -101 2471
45 -103 2507
52 -102 2476
59 -102 2470
65 -100 2432
73 -101 2452
80 -101 2453
87 -101 2461
93 -101 2442
100 -101 2440
108 -101 2446
115 -101 2444
121 -100 2432
128 -101 2434
138 -103 2483
141 -100 2420
150 -102 2451
156 -101 2427
162 -100 2419
169 -100 2412
176 -100 2409
182 -100 2406
190 -100 2410
199 -102 2440
203 -100 2396
210 -100 2402
216 -100 2396
224 -100 2403
230 -100 2396
237 -100 2396
243 -100 2384
250 -100 2383
257 -100 2388
264 -100 2385
271 -100 2381
278 -100 2388
285 -100 2386
290 -100 2372
301 -101 2399
303 -99 2362
310 -99 2362
317 -100 2363
323 -99 2361
331 -100 2365
337 -100 2358
343 -99 2355
351 -100 2358
357 -99 2349
363 -99 2347
372 -100 2358
376 -99 2342
384 -100 2349
391 -100 2347
396 -99 2337
403 -99 2337
410 -99 2335
417 -100 2335
422 -99 2328
430 -100 2332
436 -99 2325
442 -99 2323
449 -99 2324
456 -100 2324
462 -99 2318
469 -99 2316
474 -99 2307
481 -99 2310
487 -99 2306
493 -99 2300
500 -99 2298
508 -99 2302
514 -99 2299
520 -99 2294
526 -99 2292
533 -99 2289
539 -99 2286
547 -99 2291
552 -99 2282
557 -99 2276
564 -99 2275
571 -99 2273
577 -99 2271
585 -99 2274
590 -99 2266
597 -99 2265
603 -99 2263
609 -99 2257
616 -99 2257
623 -99 2259
629 -99 2254
636 -99 2253
643 -99 2254
648 -99 2245
653 -99 2238
658 -99 2233
668 -99 2241
673 -99 2235
682 -99 2239
688 -99 2235
694 -99 2232
693 -98 2208
680 -95 2142
597 -83 1860
556 -76 1715
519 -70 1583
522 -70 1577
507 -67 1515
517 -68 1531
487 -64 1427
483 -63 1404
488 -63 1404
496 -63 1414
505 -64 1424
523 -66 1463
530 -66 1469
565 -70 1553
562 -69 1529
585 -71 1578
646 -79 1729
680 -82 1802
761 -91 2002
828 -99 2160
839 -99 2169
846 -100 2169
855 -100 2171
860 -100 2165
869 -100 2169
873 -100 2161
881 -100 2160
888 -100 2161
892 -100 2152
899 -100 2151
905 -100 2146
913 -100 2147
923 -101 2153
927 -100 2145
930 -100 2135
937 -100 2133
945 -100 2133
947 -100 2121
955 -100 2120
963 -100 2121
963 -100 2105
979 -101 2122
1004 -103 2160
1031 -105 2199
1033 -104 2186
1012 -101 2125
1012 -101 2109
1021 -101 2110
1005 -99 2061
923 -90 1878
891 -86 1799
888 -86 1777
897 -86 1783
897 -85 1770
907 -86 1775
910 -86 1767
922 -86 1777
923 -86 1767
930 -86 1765
934 -86 1759
941 -86 1760
941 -86 1747
951 -86 1752
949 -85 1736
959 -86 1741
972 -87 1752
969 -86 1733
-1299 -88 2263
-1297 -88 2276
-1281 -88 2264
-1261 -87 2246
-1261 -88 2262
-1254 -88 2265
-1228 -86 2235
-1229 -87 2255
-1201 -86 2219
-1191 -85 2217
-1189 -86 2230
-1177 -85 2224
-1157 -85 2202
-1149 -84 2203
-1149 -85 2220
-1130 -84 2201
-1121 -84 2200
-1108 -84 2190
-1108 -84 2207
-1089 -83 2186
-1083 -84 2192
-1074 -83 2189
-1051 -82 2160
-1049 -83 2172
-1038 -82 2165
-1032 -82 2170
-1021 -82 2164
-1013 -82 2164
-1005 -82 2164
-1000 -82 2172
-990 -82 2167
-975 -81 2150
-972 -82 2161
-984 -83 2207
-1000 -85 2261
-997 -86 2271
-995 -86 2285
-990 -86 2292
-989 -87 2309
-982 -87 2313
-978 -87 2323
-976 -88 2338
-968 -88 2338
-969 -89 2360
-965 -89 2369
-959 -89 2376
-953 -89 2381
-951 -90 2396
-948 -90 2410
-937 -90 2403
-939 -91 2428
-933 -91 2436
-931 -92 2453
-926 -92 2459
-926 -93 2482
-913 -92 2469
-908 -93 2479
-907 -93 2498
-899 -93 2499
-900 -94 2524
-888 -94 2516
-888 -95 2538
-884 -95 2552
-874 -95 2546
-875 -96 2574
-868 -96 2580
-861 -96 2583
-858 -97 2597
-853 -97 2608
-850 -98 2627
-844 -98 2635
-839 -99 2643
-833 -99 2652
-828 -99 2665
-821 -99 2669
-815 -100 2675
-810 -100 2687
-801 -100 2685
-797 -101 2702
-792 -101 2713
-782 -101 2708
-772 -101 2703
-752 -99 2662
-734 -98 2628
-749 -101 2711
-752 -103 2755
-737 -102 2729
-723 -101 2711
-717 -101 2720
-707 -101 2713
-700 -101 2717
-691 -101 2713
-681 -101 2710
-673 -101 2710
-663 -101 2704
-656 -101 2707
-643 -100 2689
-634 -100 2686
-617 -98 2647
-532 -86 2313
-488 -80 2153
-483 -80 2160
-506 -85 2290
-555 -95 2546
-572 -99 2664
-566 -99 2669
-557 -99 2665
-549 -99 2667
-540 -99 2662
-531 -99 2658
-523 -99 2657
-514 -99 2653
-506 -99 2650
-497 -99 2647
-490 -99 2647
-482 -99 2650
-472 -98 2638
-462 -98 2627
-456 -98 2635
-447 -98 2630
-440 -98 2632
-432 -98 2633
-424 -98 2633
-415 -98 2623
-407 -98 2622
-399 -98 2621
-392 -98 2624
-382 -97 2606
-374 -97 2604
-368 -98 2614
-360 -98 2613
-350 -97 2600
-343 -97 2603
-335 -97 2599
-327 -97 2595
-319 -97 2590
-312 -97 2598
-304 -97 2597
-295 -97 2584
-289 -97 2593
-279 -97 2575
-268 -95 2542
-264 -97 2574
-257 -97 2579
-250 -97 2576
-241 -96 2568
-234 -96 2566
-226 -96 2561
-219 -96 2564
-211 -96 2559
-203 -96 2549
-195 -96 2545
-188 -96 2544
-180 -96 2545
-172 -95 2534
-165 -95 2533
-157 -95 2534
-150 -96 2535
-142 -95 2528
-135 -95 2520
-128 -95 2524
-120 -95 2524
-113 -95 2516
-105 -95 2505
-96 -93 2471
-91 -95 2511
-82 -94 2477
-76 -94 2495
-69 -95 2498
-62 -95 2515
-55 -96 2520
-47 -94 2491
-40 -95 2491
-33 -94 2483
-25 -94 2464
-19 -95 2503
-11 -94 2463
-4 -95 2506
2 -94 2475
9 -95 2503
16 -94 2469
23 -94 2469
30 -94 2470
38 -94 2466
45 -95 2482
51 -94 2452
59 -94 2461
66 -94 2454
73 -95 2480
80 -94 2447
86 -93 2428
93 -93 2437
100 -93 2433
107 -93 2436
114 -93 2423
120 -92 2402
128 -93 2424
135 -94 2431
141 -93 2417
149 -93 2422
156 -93 2422
163 -93 2422
169 -93 2415
176 -93 2415
182 -93 2406
188 -92 2389
197 -93 2410
202 -93 2394
208 -92 2379
216 -93 2395
224 -93 2402
230 -93 2389
237 -93 2394
246 -94 2411
246 -91 2348
261 -94 2422
260 -91 2345
271 -93 2388
278 -93 2388
285 -93 2382
290 -93 2370
299 -93 2384
306 -94 2390
315 -94 2400
320 -94 2390
322 -92 2347
330 -93 2359
336 -93 2354
344 -93 2356
351 -93 2357
357 -93 2350
364 -93 2354
370 -93 2348
376 -92 2342
384 -93 2347
389 -92 2334
397 -93 2342
403 -93 2336
410 -93 2338
417 -93 2337
423 -93 2332
429 -92 2325
435 -92 2323
441 -92 2318
450 -93 2326
456 -93 2323
464 -93 2326
469 -93 2315
475 -93 2313
481 -93 2310
488 -93 2311
495 -93 2308
502 -93 2306
506 -92 2296
513 -92 2296
520 -93 2296
527 -92 2293
534 -93 2293
540 -93 2290
547 -93 2293
551 -92 2277
560 -93 2285
564 -92 2272
574 -93 2287
579 -93 2277
585 -93 2275
590 -92 2266
597 -92 2264
602 -92 2260
610 -92 2260
617 -93 2262
622 -92 2256
629 -92 2254
634 -92 2247
641 -92 2247
648 -92 2246
655 -92 2244
661 -92 2241
668 -93 2240
675 -93 2240
680 -92 2233
687 -93 2233
690 -92 2219
682 -90 2170
642 -84 2024
578 -75 1802
527 -67 1625
515 -65 1572
502 -63 1515
504 -63 1508
488 -60 1444
498 -61 1460
494 -60 1434
486 -58 1397
495 -59 1411
513 -60 1447
525 -61 1467
544 -63 1508
543 -63 1492
577 -66 1572
567 -64 1528
596 -67 1593
670 -75 1777
796 -89 2095
829 -92 2162
837 -93 2163
847 -93 2171
853 -93 2168
859 -93 2163
866 -93 2162
872 -93 2159
880 -93 2158
887 -93 2157
896 -94 2161
900 -93 2152
906 -93 2149
914 -94 2151
919 -93 2143
926 -94 2143
933 -94 2142
936 -93 2129
935 -93 2110
939 -92 2102
951 -93 2113
963 -94 2122
986 -95 2156
980 -94 2124
1006 -96 2164
1029 -98 2196
1033 -97 2187
1013 -95 2128
1017 -95 2120
1024 -95 2116
997 -92 2045
912 -83 1855
887 -80 1790
884 -80 1770
894 -80 1778
901 -80 1777
900 -80 1762
914 -80 1776
915 -80 1765
922 -80 1764
928 -80 1761
936 -81 1764
940 -80 1759
941 -80 1746
953 -81 1757
954 -80 1745
957 -80 1738
965 -80 1740
972 -80 1739
-1296 -80 2259
-1277 -80 2242
-1266 -80 2239
-1257 -80 2239
-1252 -80 2247
-1237 -79 2236
-1233 -79 2245
-1224 -79 2245
-1201 -78 2220
-1196 -79 2226
-1176 -78 2205
-1183 -79 2236
-1166 -78 2220
-1145 -77 2197
-1149 -78 2222
-1133 -77 2206
-1121 -77 2200
-1112 -77 2200
-1099 -77 2190
-1097 -77 2203
-1074 -76 2174
-1062 -76 2165
-1059 -76 2176
-1052 -76 2178
-1046 -76 2184
-1030 -75 2167
-1020 -75 2164
-1015 -75 2169
-1001 -75 2156
-988 -74 2146
-996 -76 2180
-976 -75 2154
-975 -75 2169
-989 -77 2218
-1001 -78 2262
-1001 -79 2282
-994 -79 2283
-991 -79 2296
-989 -80 2310
-980 -80 2309
-977 -80 2320
-977 -81 2339
-971 -81 2344
-969 -81 2360
-964 -82 2367
-956 -82 2369
-957 -82 2392
-952 -83 2399
-950 -83 2415
-943 -83 2418
-940 -84 2432
-933 -84 2434
-928 -84 2443
-928 -85 2466
-918 -85 2460
-915 -85 2477
-912 -86 2489
-906 -86 2495
-903 -86 2510
-898 -87 2521
-890 -87 2522
-887 -87 2536
-881 -87 2543
-878 -88 2557
-871 -88 2562
-868 -88 2578
-861 -89 2584
-859 -89 2601
-852 -89 2606
-847 -90 2617
-844 -90 2634
-837 -91 2640
-831 -91 2647
-831 -92 2675
-820 -91 2665
-818 -92 2685
-812 -92 2695
-807 -93 2706
-799 -93 2708
-788 -93 2701
-784 -93 2716
-779 -93 2727
-751 -91 2659
-730 -90 2615
-750 -93 2718
-748 -94 2739
-738 -94 2735
-725 -93 2718
-716 -93 2714
-709 -93 2720
-699 -93 2714
-691 -93 2717
-678 -92 2697
-674 -93 2714
-662 -92 2698
-655 -93 2706
-643 -92 2691
-634 -92 2685
-619 -91 2658
-543 -81 2363
-492 -74 2171
-487 -74 2178
-508 -79 2299
-555 -87 2548
-570 -91 2653
-568 -92 2682
-558 -92 2671
-549 -92 2669
-539 -91 2657
-530 -91 2654
-522 -91 2652
-515 -91 2656
-505 -91 2647
-498 -91 2648
-489 -91 2647
-484 -91 2659
-474 -91 2649
-466 -91 2649
-459 -91 2656
-450 -91 2646
-441 -91 2642
-432 -90 2630
-425 -91 2636
-417 -91 2635
-408 -90 2628
-400 -90 2623
-391 -90 2620
-383 -90 2613
-375 -90 2616
-368 -90 2615
-359 -90 2608
-351 -90 2605
-343 -90 2600
-335 -90 2601
-327 -90 2599
-319 -89 2591
-312 -90 2594
-305 -90 2602
-296 -89 2589
-288 -89 2589
-280 -89 2581
-275 -90 2607
-265 -89 2578
-257 -89 2575
-249 -89 2571
-242 -89 2571
-233 -89 2557
-226 -89 2564
-218 -89 2560
-210 -89 2555
-203 -89 2554
-195 -88 2547
-187 -88 2537
-180 -88 2539
-172 -88 2538
-165 -88 2533
-157 -88 2533
-150 -88 2531
-143 -88 2534
-135 -88 2533
-128 -88 2536
-120 -88 2521
-113 -88 2519
-107 -89 2552
-98 -88 2506
-91 -88 2517
-84 -88 2527
-76 -88 2506
-69 -87 2496
-62 -87 2496
-55 -88 2512
-47 -87 2489
-40 -87 2481
-33 -87 2484
-26 -88 2504
-18 -86 2463
-11 -87 2469
-4 -87 2474
2 -88 2496
9 -90 2559
16 -87 2467
23 -87 2463
30 -86 2451
38 -87 2474
45 -87 2457
53 -89 2509
59 -88 2477
67 -88 2494
73 -87 2455
80 -87 2454
87 -87 2444
94 -87 2457
101 -87 2448
109 -88 2482
115 -87 2442
121 -86 2432
130 -88 2473
138 -88 2478
142 -87 2434
148 -86 2417
156 -86 2421
162 -86 2409
168 -86 2401
176 -86 2418
182 -86 2404
190 -86 2416
197 -86 2413
207 -88 2446
210 -86 2397
218 -87 2414
224 -86 2403
231 -86 2400
236 -86 2380
246 -87 2415
250 -86 2380
256 -86 2376
264 -86 2382
271 -86 2382
279 -86 2390
284 -86 2379
293 -87 2395
298 -86 2376
308 -87 2402
309 -85 2357
314 -85 2344
330 -87 2408
330 -86 2356
337 -86 2354
344 -86 2359
351 -86 2362
357 -86 2355
364 -86 2352
370 -86 2345
377 -86 2348
384 -86 2348
391 -86 2350
397 -86 2344
403 -86 2334
410 -86 2336
416 -86 2333
424 -86 2338
430 -86 2333
436 -86 2326
443 -86 2325
450 -86 2326
455 -86 2318
462 -86 2318
468 -86 2313
474 -86 2310
482 -86 2311
488 -86 2309
495 -86 2307
502 -86 2307
509 -86 2310
514 -86 2298
520 -86 2296
526 -86 2293
535 -86 2298
540 -86 2289
546 -86 2288
552 -86 2284
561 -86 2288
568 -86 2288
572 -86 2279
579 -86 2280
585 -86 2272
591 -86 2271
598 -86 2268
604 -86 2264
610 -86 2263
617 -86 2263
622 -86 2255
630 -86 2256
638 -86 2260
641 -86 2248
649 -86 2248
656 -86 2248
663 -86 2247
667 -86 2239
673 -86 2235
681 -86 2238
687 -86 2234
692 -86 2226
691 -85 2199
681 -83 2145
618 -74 1927
550 -65 1697
504 -59 1537
506 -59 1529
495 -57 1480
504 -58 1494
488 -55 1432
483 -54 1402
500 -56 1437
490 -54 1396
505 -55 1426
515 -56 1440
532 -57 1473
551 -59 1514
551 -59 1500
573 -61 1546
602 -63 1608
691 -72 1833
813 -85 2139
834 -86 2175
838 -86 2166
847 -86 2171
855 -87 2171
860 -87 2166
867 -87 2164
876 -87 2169
882 -87 2165
888 -87 2160
895 -87 2160
898 -87 2148
907 -87 2152
914 -87 2150
918 -87 2141
926 -87 2143
935 -87 2145
934 -87 2125
923 -85 2084
930 -85 2082
943 -86 2093
961 -87 2118
970 -87 2121
981 -88 2127
1008 -89 2168
1033 -91 2204
1032 -90 2185
1012 -88 2125
1015 -88 2115
1021 -88 2111
998 -85 2048
910 -77 1852
886 -75 1789
887 -74 1777
899 -75 1788
904 -75 1783
904 -74 1770
911 -75 1770
918 -75 1769
923 -75 1767
926 -74 1758
934 -75 1760
940 -75 1759
939 -74 1744
945 -74 1742
951 -74 1741
962 -75 1746
964 -75 1737
977 -75 1748
-1294 -73 2256
-1292 -73 2269
-1271 -73 2247
-1268 -73 2258
-1253 -73 2249
-1242 -72 2245
-1241 -73 2260
-1217 -72 2233
-1198 -71 2214
-1190 -71 2217
-1184 -71 2222
-1182 -72 2234
-1164 -71 2216
-1158 -71 2221
-1145 -71 2214
-1133 -70 2208
-1125 -70 2208
-1119 -71 2213
-1109 -70 2211
-1091 -70 2191
-1082 -70 2190
-1072 -69 2186
-1062 -69 2182
-1055 -69 2185
-1047 -69 2185
-1041 -69 2190
-1032 -69 2189
-1028 -70 2198
-1006 -69 2167
-1003 -69 2179
-988 -68 2162
-977 -68 2156
-976 -69 2172
-991 -70 2223
-998 -71 2257
-996 -72 2271
-994 -72 2285
-986 -72 2284
-986 -73 2302
-981 -73 2312
-974 -73 2314
-972 -73 2329
-970 -74 2343
-968 -74 2358
-963 -74 2367
-962 -75 2383
-958 -75 2394
-950 -75 2394
-948 -76 2411
-945 -76 2424
-939 -76 2429
-934 -77 2440
-929 -77 2448
-928 -77 2465
-921 -77 2468
-919 -78 2487
-911 -78 2486
-906 -78 2497
-902 -79 2509
-892 -78 2504
-890 -79 2521
-890 -80 2544
-879 -79 2538
-876 -80 2554
-872 -80 2567
-866 -81 2573
-859 -81 2577
-858 -81 2599
-852 -82 2606
-844 -82 2607
-841 -82 2626
-839 -83 2644
-832 -83 2651
-823 -83 2649
-823 -84 2675
-820 -84 2692
-807 -84 2678
-803 -84 2693
-794 -84 2694
-791 -85 2710
-784 -85 2716
-773 -85 2707
-751 -83 2659
-731 -82 2618
-750 -85 2716
-752 -86 2754
-739 -86 2737
-723 -85 2711
-717 -85 2721
-707 -85 2713
-700 -85 2717
-688 -85 2704
-680 -85 2705
-670 -84 2699
-664 -85 2709
-656 -85 2709
-644 -84 2694
-635 -84 2688
-620 -83 2662
-562 -76 2446
-526 -72 2319
-508 -71 2271
-521 -74 2362
-555 -80 2551
-573 -84 2669
-561 -83 2649
-542 -81 2595
-540 -82 2623
-540 -83 2661
-531 -83 2658
-521 -83 2650
-516 -84 2661
-508 -84 2661
-499 -83 2655
-490 -83 2651
-481 -83 2645
-473 -83 2643
-466 -83 2647
-457 -83 2642
-448 -83 2634
-441 -83 2638
-433 -83 2638
-424 -83 2633
-416 -83 2628
-409 -83 2635
-401 -83 2630
-392 -83 2627
-384 -83 2621
-376 -83 2618
-367 -82 2613
-359 -82 2610
-351 -82 2603
-344 -82 2610
-336 -82 2604
-327 -82 2598
-320 -82 2603
-312 -82 2598
-303 -82 2584
-296 -82 2592
-289 -82 2593
-285 -83 2624
-273 -82 2591
-267 -83 2604
-254 -81 2551
-248 -81 2562
-244 -82 2594
-233 -81 2563
-226 -82 2568
-218 -81 2557
-211 -82 2565
-203 -81 2559
-195 -81 2548
-187 -81 2544
-180 -81 2539
-173 -81 2547
-165 -81 2543
-158 -81 2544
-151 -82 2555
-143 -81 2542
-134 -80 2517
-128 -81 2525
-120 -81 2528
-113 -81 2523
-106 -81 2521
-98 -81 2515
-91 -80 2507
-83 -80 2503
-75 -79 2475
-70 -81 2533
-62 -81 2527
-54 -80 2496
-47 -80 2498
-40 -81 2509
-33 -80 2485
-25 -80 2483
-19 -81 2523
-11 -80 2481
-4 -80 2471
2 -80 2468
9 -81 2493
16 -80 2469
24 -82 2541
31 -81 2494
38 -80 2457
45 -81 2494
52 -81 2486
59 -79 2450
66 -80 2475
74 -81 2484
80 -80 2464
87 -80 2447
94 -80 2444
101 -80 2445
108 -80 2446
116 -81 2482
121 -80 2437
130 -81 2468
135 -79 2422
142 -80 2431
149 -79 2422
156 -79 2426
163 -79 2420
171 -80 2436
176 -79 2415
183 -79 2411
190 -79 2418
197 -79 2407
202 -79 2389
211 -79 2408
222 -81 2461
227 -81 2440
231 -79 2398
241 -80 2433
243 -79 2387
253 -80 2417
260 -80 2408
265 -80 2398
271 -79 2384
278 -79 2385
285 -79 2385
290 -79 2370
296 -79 2358
305 -79 2377
311 -79 2367
312 -78 2326
323 -79 2356
329 -79 2352
337 -79 2361
345 -79 2364
351 -79 2358
358 -79 2358
364 -79 2356
372 -79 2358
377 -79 2350
384 -79 2347
390 -79 2344
397 -79 2340
404 -79 2342
410 -79 2337
416 -79 2333
424 -79 2337
430 -79 2333
437 -79 2331
443 -79 2326
449 -79 2323
455 -79 2318
463 -79 2322
470 -79 2322
476 -79 2318
481 -79 2307
489 -79 2313
494 -79 2305
501 -79 2304
507 -79 2300
515 -79 2302
521 -79 2299
528 -79 2298
534 -79 2294
540 -79 2290
546 -79 2287
552 -79 2284
559 -79 2282
568 -79 2288
573 -79 2282
579 -79 2277
584 -79 2271
590 -79 2265
596 -79 2263
603 -79 2262
610 -79 2262
617 -79 2261
622 -79 2253
629 -79 2255
636 -79 2253
642 -79 2249
648 -79 2246
655 -79 2247
660 -79 2239
669 -79 2244
675 -79 2242
681 -79 2236
688 -79 2237
691 -79 2224
701 -79 2232
695 -78 2192
631 -70 1969
551 -60 1699
529 -57 1614
514 -55 1554
515 -55 1541
517 -54 1531
499 -52 1465
487 -50 1413
480 -49 1380
508 -52 1447
506 -51 1428
521 -52 1456
552 -55 1530
561 -56 1542
570 -56 1551
595 -58 1606
601 -58 1608
705 -68 1871
820 -79 2158
835 -80 2178
842 -80 2176
849 -80 2175
855 -80 2173
861 -80 2167
869 -80 2170
876 -80 2169
882 -80 2164
888 -80 2161
895 -80 2159
901 -80 2155
907 -80 2151
916 -81 2155
923 -81 2154
927 -80 2145
935 -81 2145
938 -80 2134
924 -79 2085
933 -79 2089
949 -80 2107
963 -80 2121
973 -81 2128
981 -81 2126
1008 -83 2168
1030 -84 2198
1036 -84 2195
1013 -82 2128
1016 -81 2117
1023 -81 2115
996 -79 2043
908 -71 1848
883 -69 1783
886 -69 1775
893 -69 1774
900 -69 1775
908 -69 1778
910 -69 1768
913 -69 1761
921 -69 1762
926 -69 1759
936 -69 1764
933 -69 1745
947 -69 1759
951 -69 1754
955 -69 1747
961 -69 1745
967 -69 1743
968 -69 1732
-1315 -67 2293
-1291 -66 2266
-1285 -66 2273
-1270 -66 2263
-1258 -66 2258
-1251 -66 2262
-1243 -66 2265
-1228 -65 2253
-1222 -65 2259
-1213 -65 2259
-1193 -65 2238
-1184 -65 2239
-1169 -64 2227
-1156 -64 2219
-1151 -64 2225
-1143 -64 2228
-1134 -64 2227
-1129 -64 2234
-1113 -64 2219
-1099 -63 2207
-1098 -64 2223
-1085 -63 2213
-1072 -63 2204
-1065 -63 2206
-1056 -63 2204
-1044 -63 2196
-1034 -63 2193
-1025 -62 2191
-1016 -62 2189
-1008 -62 2190
-998 -62 2185
-979 -61 2161
-973 -62 2165
-985 -63 2210
-997 -64 2254
-998 -65 2274
-995 -65 2288
-992 -65 2298
-985 -65 2302
-977 -65 2303
-977 -66 2320
-978 -67 2343
-971 -67 2346
-966 -67 2353
-959 -67 2357
-956 -67 2370
-953 -68 2381
-953 -68 2403
-946 -68 2405
-943 -69 2419
-939 -69 2430
-935 -69 2443
-925 -69 2436
-920 -69 2446
-921 -70 2470
-921 -71 2492
-912 -70 2490
-903 -70 2489
-904 -71 2514
-896 -71 2516
-889 -71 2519
-886 -72 2534
-883 -72 2549
-874 -72 2547
-868 -72 2556
-866 -73 2573
-862 -73 2586
-859 -74 2603
-852 -74 2607
-846 -74 2616
-841 -74 2624
-834 -74 2630
-831 -75 2648
-825 -75 2654
-820 -76 2667
-813 -76 2672
-812 -76 2694
-799 -76 2681
-796 -76 2700
-788 -76 2701
-786 -77 2723
-774 -77 2713
-745 -75 2640
-726 -74 2602
-746 -77 2702
-750 -78 2748
-737 -77 2732
-724 -77 2716
-716 -77 2718
-708 -77 2719
-699 -77 2714
-690 -77 2714
-684 -77 2720
-674 -77 2714
-662 -77 2701
-639 -75 2640
-610 -72 2554
-612 -74 2594
-617 -75 2647
-573 -71 2491
-560 -70 2470
-572 -72 2554
-552 -71 2499
-534 -70 2454
-556 -74 2591
-539 -72 2545
-495 -67 2372
-502 -69 2439
-528 -74 2605
-530 -75 2653
-525 -76 2667
-517 -76 2668
-506 -76 2653
-500 -76 2661
-492 -76 2660
-482 -75 2649
-473 -75 2645
-466 -76 2651
-457 -75 2642
-448 -75 2635
-442 -76 2645
-433 -75 2641
-424 -75 2634
-416 -75 2630
-408 -75 2629
-400 -75 2625
-393 -75 2630
-385 -75 2627
-375 -75 2617
-366 -74 2601
-359 -75 2607
-352 -75 2615
-344 -75 2613
-337 -75 2615
-325 -74 2584
-319 -75 2597
-313 -75 2604
-304 -75 2598
-295 -74 2580
-287 -74 2576
-278 -74 2566
-273 -75 2588
-264 -74 2577
-257 -74 2583
-249 -74 2574
-234 -72 2497
-236 -75 2593
-226 -74 2564
-218 -74 2559
-211 -74 2562
-203 -74 2560
-195 -74 2546
-188 -74 2558
-180 -74 2546
-173 -74 2555
-166 -74 2555
-158 -74 2546
-147 -72 2488
-135 -70 2403
-124 -67 2319
-121 -70 2399
-119 -73 2497
-113 -74 2535
