VERSION 0.7
FIELDS x y z
SIZE 4 4 4
TYPE I I I
COUNT 1 1 1
WIDTH 3430
HEIGHT 1
VIEWPOINT 0.0 0.0 0.0 1.0 0.0 0.0 0.0
POINTS 3430
DATA ascii
-709 -765 2015
-701 -763 2011
-694 -762 2011
-699 -774 2046
-685 -766 2025
-681 -769 2035
-681 -777 2057
-650 -748 1982
-658 -765 2030
-646 -758 2013
-648 -768 2042
-642 -768 2043
-630 -761 2026
-628 -767 2044
-612 -755 2013
-614 -765 2041
-605 -762 2036
-604 -770 2057
-600 -773 2067
-590 -768 2054
-579 -762 2039
-564 -750 2010
-568 -765 2050
-569 -774 2076
-557 -767 2059
-550 -765 2057
-544 -767 2061
-538 -767 2064
-529 -763 2054
-527 -769 2072
-522 -772 2080
-509 -762 2054
-504 -765 2063
-493 -758 2046
-482 -750 2027
-481 -759 2051
-475 -759 2052
-473 -765 2070
-468 -768 2080
-503 -836 2264
-521 -878 2379
-567 -970 2630
-562 -975 2644
-601 -1057 2868
-620 -1107 3006
-639 -1158 3146
-626 -1151 3127
-603 -1127 3065
-633 -1201 3266
-702 -1353 3682
-693 -1358 3697
0 0 0
0 0 0
0 0 0
0 0 0
0 0 0
0 0 0
0 0 0
0 0 0
-590 -1353 3697
-617 -1442 3942
-608 -1451 3966
-592 -1442 3943
-579 -1438 3934
-571 -1449 3964
-558 -1446 3957
-552 -1462 4001
-539 -1461 4000
-529 -1466 4016
-520 -1476 4043
-505 -1466 4017
-494 -1469 4028
-479 -1463 4012
-466 -1460 4004
-454 -1459 4002
-442 -1460 4006
-429 -1458 4001
-417 -1459 4004
-404 -1453 3989
-396 -1469 4032
-390 -1494 4104
-423 -1673 4594
0 -10 27
-405 -1714 4710
-303 -1332 3660
-251 -1147 3152
-237 -1124 3089
-224 -1107 3043
-217 -1117 3070
-207 -1113 3060
-199 -1119 3078
-184 -1086 2987
-177 -1100 3025
-171 -1119 3079
-158 -1094 3008
-151 -1108 3047
-142 -1112 3059
-133 -1115 3068
-125 -1122 3087
-115 -1120 3082
-108 -1145 3150
-99 -1150 3163
-89 -1139 3133
-79 -1137 3128
-69 -1132 3113
-61 -1158 3185
-52 -1155 3176
-42 -1154 3173
-32 -1137 3129
-23 -1160 3191
-13 -1149 3160
-4 -1148 3157
5 -1128 3103
14 -1145 3148
24 -1149 3160
33 -1133 3116
42 -1133 3115
51 -1131 3108
58 -1085 2983
54 -864 2374
58 -816 2243
58 -731 2007
64 -731 2009
69 -714 1962
70 -668 1835
78 -692 1899
82 -672 1845
84 -649 1782
98 -711 1951
106 -725 1989
114 -737 2021
128 -791 2169
155 -909 2493
203 -1144 3137
219 -1175 3220
227 -1167 3197
239 -1179 3229
251 -1192 3265
257 -1174 3213
267 -1173 3212
277 -1175 3215
287 -1178 3222
298 -1184 3237
306 -1174 3210
317 -1180 3226
332 -1199 3276
338 -1184 3234
350 -1192 3254
362 -1201 3278
372 -1202 3279
379 -1191 3247
387 -1187 3237
401 -1199 3269
411 -1198 3263
416 -1186 3230
429 -1195 3253
431 -1174 3194
0 0 0
456 -1188 3231
456 -1162 3159
468 -1168 3172
480 -1175 3191
488 -1171 3177
503 -1183 3209
517 -1194 3237
519 -1174 3182
530 -1177 3189
539 -1176 3183
555 -1189 3218
563 -1187 3210
575 -1190 3216
587 -1195 3229
595 -1191 3217
605 -1192 3217
616 -1195 3222
623 -1188 3203
639 -1200 3233
651 -1204 3243
647 -1179 3173
665 -1194 3212
648 -1146 3082
640 -1116 2997
635 -1092 2932
627 -1063 2851
622 -1040 2788
584 -963 2579
583 -947 2536
580 -930 2488
564 -893 2388
508 -792 2117
0 0 0
146 -218 582
0 0 0
0 0 0
0 0 0
0 0 0
0 0 0
108 -148 393
67 -89 235
80 -107 283
28 -34 90
0 0 0
0 0 0
0 0 0
0 0 0
0 0 0
0 0 0
0 0 0
0 0 0
0 0 0
0 0 0
0 0 0
0 0 0
0 0 0
0 0 0
0 0 0
0 0 0
0 0 0
0 0 0
0 0 0
0 0 0
0 0 0
0 0 0
0 0 0
0 0 0
0 0 0
0 0 0
0 0 0
1010 -1053 2715
1062 -1098 2829
1077 -1104 2841
1082 -1100 2829
1096 -1106 2839
1096 -1096 2811
1099 -1090 2794
1061 -1044 2670
1078 -1052 2688
1078 -1043 2663
1072 -1030 2625
1120 -1068 2719
1080 -1021 2597
1072 -1006 2555
1111 -1034 2624
1102 -1018 2580
1107 -1015 2568
1095 -997 2519
1116 -1009 2545
1111 -996 2511
1114 -992 2496
1110 -981 2466
1101 -966 2424
1074 -936 2345
1081 -935 2340
1085 -932 2328
1088 -928 2316
1102 -934 2326
1103 -928 2308
1104 -922 2291
1111 -922 2288
1113 -917 2272
1135 -929 2298
1121 -912 2252
1120 -905 2231
1121 -900 2216
1124 -896 2203
1116 -884 2170
1110 -874 2141
1117 -874 2137
1122 -872 2129
1125 -869 2118
1126 -864 2103
1127 -859 2088
1127 -854 2073
1123 -845 2048
1134 -849 2052
1135 -845 2038
1131 -837 2016
1140 -838 2016
1148 -839 2013
1139 -827 1983
1140 -823 1969
1144 -821 1960
1141 -814 1941
1143 -811 1930
1147 -809 1921
-735 -488 1187
-722 -483 1175
-710 -477 1164
-664 -449 1097
-541 -368 900
-493 -338 828
-495 -341 837
-486 -337 829
-489 -341 840
-490 -343 847
-474 -334 826
-471 -334 828
-473 -337 837
-468 -336 835
-455 -329 818
-471 -342 853
-454 -332 829
-473 -348 870
-488 -361 905
-480 -358 897
-594 -445 1119
-1042 -786 1979
-1074 -815 2055
-1063 -813 2052
-1057 -813 2056
-1048 -811 2055
-1044 -814 2064
-1032 -809 2056
-1026 -810 2061
-1017 -808 2059
-1006 -805 2054
-998 -804 2053
-991 -804 2057
-982 -802 2054
-960 -790 2025
-945 -783 2011
-960 -801 2060
-953 -801 2062
-945 -800 2062
-938 -800 2064
-927 -796 2058
-892 -772 1996
-892 -778 2015
-882 -774 2008
-884 -782 2032
-872 -778 2022
-869 -780 2031
-842 -762 1986
-852 -777 2028
-823 -757 1977
-814 -754 1972
-829 -774 2025
-800 -753 1972
-811 -769 2019
-801 -766 2012
-753 -726 1909
-763 -742 1953
-758 -743 1958
-766 -757 1997
-757 -755 1992
-754 -758 2003
-752 -763 2018
-739 -756 2001
-719 -742 1967
-734 -764 2025
-718 -754 2002
-724 -767 2039
-708 -757 2015
-700 -755 2009
-686 -747 1991
-690 -758 2021
-687 -762 2034
-685 -766 2048
-672 -760 2032
-652 -744 1992
-655 -754 2021
-649 -756 2026
-647 -761 2041
-638 -757 2033
-628 -753 2024
-623 -754 2028
-621 -760 2044
-615 -760 2048
-608 -760 2048
-604 -763 2059
-603 -770 2079
-591 -762 2059
-577 -753 2034
-569 -751 2032
-566 -756 2046
-566 -764 2069
-560 -764 2071
-550 -759 2058
-540 -755 2049
-537 -758 2060
-529 -757 2056
-527 -764 2076
-515 -755 2055
-511 -759 2065
-505 -759 2068
-497 -757 2064
-494 -761 2076
-485 -758 2069
-479 -758 2070
-477 -766 2092
-479 -780 2131
-499 -823 2250
-513 -858 2348
-560 -950 2599
-617 -1061 2904
-590 -1030 2822
-625 -1106 3032
-610 -1096 3006
-612 -1116 3061
-607 -1125 3088
-626 -1179 3236
-704 -1345 3694
-725 -1409 3871
-659 -1301 3577
0 0 0
0 0 0
0 0 0
0 0 0
0 0 0
0 0 0
0 0 0
-568 -1294 3568
-593 -1375 3793
-592 -1402 3867
-590 -1425 3934
-592 -1459 4027
-577 -1453 4012
-563 -1448 3999
-550 -1444 3990
-538 -1445 3993
-530 -1456 4025
-512 -1441 3984
-503 -1449 4008
-495 -1462 4044
-479 -1450 4012
-468 -1455 4028
-458 -1461 4044
-445 -1459 4041
-428 -1443 3998
-415 -1440 3990
-405 -1445 4005
-397 -1460 4046
-398 -1513 4193
-432 -1691 4689
-7 -40 111
-2 -20 56
-382 -1660 4603
-269 -1216 3372
-237 -1117 3099
-227 -1111 3083
-219 -1120 3108
-204 -1090 3025
-204 -1139 3161
-191 -1120 3108
-183 -1127 3129
-174 -1134 3147
-160 -1104 3063
-154 -1123 3117
-144 -1118 3103
-135 -1122 3115
-125 -1119 3108
-115 -1113 3091
-105 -1099 3053
-95 -1099 3051
-87 -1109 3080
-79 -1122 3116
-69 -1122 3117
-60 -1129 3133
-50 -1120 3108
-41 -1128 3132
-32 -1131 3139
-23 -1130 3137
-13 -1118 3104
-4 -1125 3122
5 -1125 3122
14 -1132 3142
23 -1113 3089
33 -1123 3115
42 -1106 3069
50 -1090 3024
57 -1044 2896
60 -947 2625
67 -939 2605
75 -935 2591
81 -918 2545
77 -790 2189
82 -774 2146
90 -796 2205
96 -783 2169
114 -879 2434
128 -927 2568
124 -847 2346
127 -820 2269
142 -867 2399
187 -1093 3024
200 -1117 3090
218 -1160 3207
226 -1153 3188
235 -1152 3184
246 -1156 3195
257 -1161 3208
270 -1178 3254
278 -1169 3230
289 -1175 3245
298 -1173 3236
310 -1182 3260
314 -1160 3198
330 -1182 3259
344 -1197 3300
353 -1193 3288
363 -1193 3285
374 -1195 3292
378 -1178 3243
391 -1187 3267
402 -1192 3280
406 -1175 3232
413 -1166 3206
428 -1181 3244
0 0 0
0 0 0
440 -1135 3114
458 -1158 3176
472 -1167 3201
477 -1158 3172
492 -1170 3204
499 -1164 3187
509 -1165 3188
521 -1169 3197
531 -1169 3197
542 -1174 3208
556 -1182 3228
561 -1173 3201
575 -1181 3223
583 -1177 3209
600 -1193 3250
606 -1184 3225
613 -1178 3208
622 -1178 3205
634 -1182 3213
641 -1176 3196
657 -1188 3226
643 -1145 3109
643 -1128 3060
645 -1115 3022
633 -1079 2923
611 -1026 2779
602 -997 2698
595 -972 2628
580 -935 2526
583 -927 2503
558 -876 2364
0 0 0
0 0 0
0 0 0
0 0 0
0 0 0
0 0 0
0 0 0
0 0 0
162 -223 599
90 -120 321
90 -119 319
37 -45 121
0 0 0
0 0 0
0 0 0
0 0 0
0 0 0
0 0 0
0 0 0
0 0 0
0 0 0
0 0 0
0 0 0
0 0 0
0 0 0
0 0 0
0 0 0
0 0 0
0 0 0
0 0 0
0 0 0
0 0 0
1038 -1142 2996
1070 -1166 3057
1070 -1156 3028
1052 -1126 2945
0 0 0
0 0 0
0 0 0
1042 -1077 2805
1071 -1098 2857
1080 -1098 2852
1074 -1083 2810
1091 -1090 2827
1111 -1102 2854
1120 -1101 2848
1097 -1070 2764
1125 -1089 2810
1066 -1023 2637
1057 -1007 2592
1093 -1033 2655
1101 -1033 2651
1124 -1046 2683
1095 -1011 2589
1106 -1014 2593
1088 -990 2528
1106 -998 2546
1094 -981 2498
1119 -995 2532
1123 -992 2520
1084 -950 2410
1097 -955 2419
1118 -966 2443
1082 -928 2345
1110 -946 2387
1094 -926 2332
1107 -930 2339
1122 -936 2352
1119 -927 2325
1125 -926 2319
1128 -922 2307
1124 -913 2280
1119 -903 2251
1130 -906 2254
1141 -908 2258
1120 -886 2199
1123 -882 2186
1117 -872 2157
1113 -863 2132
1113 -857 2114
1128 -864 2127
1119 -852 2093
1122 -848 2081
1121 -842 2063
1136 -849 2075
1136 -843 2058
1134 -837 2039
1150 -844 2052
1149 -838 2034
1137 -824 1997
1144 -824 1994
1138 -815 1968
1149 -818 1971
1149 -813 1956
1142 -804 1930
1145 -801 1920
-668 -440 1080
-709 -470 1156
-660 -440 1083
-621 -416 1027
-514 -347 858
-497 -338 836
-489 -334 827
-482 -331 823
-490 -339 842
-472 -328 817
-478 -334 834
-474 -334 834
-459 -325 814
-465 -331 831
-473 -339 851
-483 -348 876
-478 -347 874
-467 -340 860
-454 -334 844
-488 -361 914
-660 -491 1246
-1070 -800 2034
-1068 -804 2046
-1063 -806 2054
-1058 -807 2060
-1050 -806 2062
-1041 -805 2060
-1032 -803 2059
-1026 -804 2063
-1018 -803 2064
-1009 -801 2062
-999 -798 2058
-991 -797 2058
-984 -797 2062
-957 -781 2022
-953 -783 2031
-955 -790 2051
-948 -790 2054
-945 -793 2063
-934 -790 2058
-929 -791 2063
-897 -770 2011
-896 -775 2026
-888 -773 2024
-872 -765 2006
-875 -773 2029
-868 -773 2032
-859 -771 2028
-841 -760 2003
-835 -761 2006
-829 -762 2011
-828 -766 2025
-812 -758 2005
-800 -753 1994
-794 -753 1997
-770 -737 1955
-763 -735 1954
-768 -746 1985
-758 -743 1978
-749 -741 1974
-753 -751 2003
-750 -754 2013
-751 -762 2037
-713 -730 1953
-724 -747 2001
-733 -763 2045
-716 -752 2019
-704 -746 2004
-694 -742 1994
-699 -755 2031
-681 -742 1998
-684 -752 2027
-682 -757 2043
-662 -743 2005
-651 -737 1991
-649 -742 2007
-647 -747 2020
-644 -750 2032
-638 -751 2034
-635 -755 2047
-620 -745 2023
-620 -753 2046
-613 -751 2043
-609 -755 2054
-606 -759 2067
-600 -760 2070
-593 -759 2069
-581 -752 2052
-568 -743 2030
-571 -756 2065
-561 -751 2054
-558 -756 2067
-545 -746 2043
-543 -752 2060
-538 -755 2068
-528 -749 2054
-523 -751 2060
-520 -756 2077
-505 -744 2044
-502 -748 2057
-496 -749 2061
-491 -752 2069
-486 -753 2073
-477 -749 2063
-474 -754 2080
-487 -786 2168
-534 -873 2410
-556 -922 2546
-637 -1070 2956
-628 -1071 2961
-608 -1051 2907
-623 -1094 3027
-608 -1083 2997
-612 -1107 3065
-600 -1103 3054
-639 -1193 3306
-701 -1328 3683
-695 -1338 3712
-665 -1302 3613
0 0 0
0 0 0
0 0 0
0 0 0
0 0 0
0 0 0
0 0 0
-555 -1254 3489
-556 -1279 3560
-575 -1350 3759
-598 -1433 3992
-590 -1443 4020
-581 -1450 4042
-564 -1437 4005
-558 -1455 4057
-540 -1439 4014
-524 -1429 3989
-515 -1436 4008
-504 -1441 4023
-491 -1438 4015
-477 -1432 4000
-466 -1435 4008
-455 -1440 4025
-441 -1434 4007
-429 -1433 4006
-418 -1438 4020
-402 -1425 3985
-401 -1462 4090
-411 -1549 4334
0 -7 18
-11 -55 154
-2 -19 53
-385 -1659 4645
-256 -1152 3224
-235 -1099 3077
-224 -1088 3047
-221 -1122 3141
-209 -1107 3101
-197 -1092 3059
-190 -1105 3094
-182 -1111 3111
-172 -1107 3101
-160 -1092 3059
-152 -1103 3091
-146 -1125 3152
-135 -1113 3120
-126 -1113 3120
-116 -1108 3105
-108 -1130 3166
-97 -1105 3095
-88 -1116 3126
-79 -1113 3118
-69 -1101 3085
-59 -1101 3084
-50 -1099 3080
-41 -1114 3121
-32 -1115 3125
-22 -1108 3104
-13 -1100 3082
-4 -1111 3112
5 -1114 3120
14 -1106 3099
23 -1102 3087
33 -1103 3090
42 -1096 3069
51 -1098 3076
57 -1046 2928
63 -994 2783
71 -981 2746
79 -978 2737
86 -969 2710
92 -945 2643
97 -922 2579
104 -914 2558
117 -956 2673
125 -953 2665
137 -981 2742
149 -1013 2831
151 -969 2708
158 -958 2677
195 -1131 3159
206 -1138 3179
216 -1143 3191
229 -1159 3234
239 -1161 3240
245 -1141 3183
258 -1157 3228
267 -1154 3217
275 -1147 3197
289 -1163 3242
294 -1146 3192
306 -1155 3216
320 -1172 3263
326 -1159 3226
338 -1167 3247
350 -1173 3262
356 -1159 3223
366 -1160 3224
380 -1174 3262
391 -1177 3268
400 -1175 3262
403 -1156 3207
420 -1176 3264
434 -1188 3295
439 -1175 3258
0 0 0
444 -1137 3149
458 -1147 3175
467 -1146 3171
473 -1138 3148
488 -1152 3184
498 -1152 3185
507 -1150 3175
523 -1164 3215
528 -1154 3185
538 -1155 3187
553 -1165 3211
563 -1166 3212
568 -1157 3187
584 -1169 3218
592 -1166 3208
607 -1175 3231
620 -1183 3250
624 -1171 3216
636 -1176 3227
645 -1173 3219
654 -1173 3215
653 -1152 3158
646 -1123 3076
636 -1091 2985
638 -1078 2949
626 -1042 2849
629 -1033 2822
584 -946 2583
569 -908 2478
570 -899 2450
556 -865 2357
617 -948 2581
0 0 0
0 0 0
0 0 0
0 0 0
0 0 0
0 0 0
126 -174 471
0 0 0
89 -118 319
74 -96 260
50 -63 169
0 0 0
0 0 0
0 0 0
0 0 0
0 0 0
0 0 0
0 0 0
0 0 0
0 0 0
0 0 0
0 0 0
0 0 0
0 0 0
0 0 0
0 0 0
0 0 0
0 0 0
0 0 0
0 0 0
0 0 0
1083 -1181 3129
1085 -1173 3103
1077 -1154 3050
1060 -1126 2972
0 0 0
0 0 0
0 0 0
986 -1010 2656
1047 -1064 2794
1070 -1078 2828
1077 -1077 2820
1096 -1086 2843
1085 -1067 2788
1085 -1058 2762
1088 -1052 2744
1076 -1033 2689
1074 -1022 2659
1064 -1005 2610
1094 -1025 2661
1111 -1033 2678
1088 -1004 2598
1100 -1007 2604
1113 -1011 2611
1109 -1000 2579
1104 -988 2545
1089 -968 2489
1117 -985 2530
1083 -948 2432
1104 -960 2458
1057 -912 2332
1086 -931 2377
1089 -927 2364
1091 -922 2348
1102 -924 2351
1097 -914 2320
1130 -935 2371
1122 -922 2334
1114 -909 2299
1125 -912 2302
1120 -902 2273
1117 -894 2249
1130 -898 2257
1112 -878 2202
1107 -868 2175
1100 -857 2143
1110 -859 2146
1116 -859 2140
1118 -855 2127
1116 -848 2106
1123 -848 2103
1131 -848 2100
1101 -821 2030
1130 -837 2067
1131 -832 2051
1137 -832 2047
1146 -833 2046
1138 -823 2017
1158 -832 2037
1141 -815 1991
1137 -807 1969
1139 -804 1958
1145 -804 1952
1140 -795 1929
1134 -787 1904
-699 -457 1132
-695 -457 1134
-677 -448 1114
-660 -439 1093
-509 -340 850
-491 -330 826
-481 -326 815
-484 -329 826
-478 -328 823
-485 -334 841
-479 -332 837
-470 -328 828
-466 -327 826
-460 -325 823
-469 -333 846
-475 -340 863
-480 -345 880
-464 -335 856
-466 -339 867
-501 -367 940
-746 -550 1410
-1073 -795 2042
-1073 -801 2059
-1063 -798 2055
-1051 -795 2050
-1046 -796 2055
-1035 -793 2051
-1033 -797 2064
-1023 -794 2060
-1015 -793 2060
-1007 -792 2060
-999 -791 2061
-989 -789 2057
-980 -788 2056
-965 -781 2042
-954 -777 2034
-959 -787 2062
-950 -785 2061
-944 -785 2064
-939 -787 2071
-913 -771 2032
-895 -762 2009
-886 -759 2006
-883 -763 2017
-881 -766 2028
-878 -770 2040
-859 -758 2012
-850 -757 2010
-841 -754 2006
-838 -757 2017
-834 -760 2025
-829 -761 2030
-816 -755 2017
-811 -756 2022
-789 -742 1986
-757 -718 1923
-771 -737 1978
-767 -740 1986
-761 -739 1988
-758 -742 1998
-750 -741 1997
-754 -751 2026
-734 -738 1991
-708 -718 1941
-714 -731 1975
-721 -744 2014
-715 -745 2017
-706 -742 2011
-702 -745 2021
-697 -746 2027
-690 -745 2026
-681 -743 2021
-677 -745 2030
-668 -742 2023
-650 -730 1991
-652 -739 2016
-658 -753 2056
-648 -749 2048
-639 -746 2041
-629 -742 2032
-618 -736 2018
-617 -742 2036
-612 -744 2042
-609 -748 2055
-603 -749 2058
-600 -753 2072
-591 -750 2064
-582 -747 2057
-566 -734 2023
-568 -745 2055
-564 -749 2067
-557 -748 2065
-543 -737 2038
-541 -743 2054
-536 -746 2063
-530 -746 2066
-521 -742 2056
-515 -742 2058
-512 -748 2075
-502 -742 2060
-497 -744 2065
-493 -748 2077
-484 -744 2070
-481 -749 2085
-478 -755 2101
-487 -778 2168
-518 -840 2340
-578 -950 2649
-619 -1032 2878
-616 -1041 2904
-608 -1042 2909
-608 -1059 2958
-613 -1083 3026
-618 -1108 3097
-607 -1105 3091
-634 -1174 3284
-707 -1328 3717
-716 -1368 3831
-658 -1278 3580
0 0 0
0 0 0
0 0 0
0 0 0
0 0 0
0 0 0
-545 -1199 3367
-557 -1247 3502
-550 -1256 3530
-570 -1327 3730
-606 -1439 4046
-595 -1442 4057
-585 -1446 4070
-569 -1437 4046
-552 -1426 4015
-538 -1422 4004
-523 -1415 3986
-512 -1417 3992
-500 -1416 3991
-489 -1421 4005
-478 -1422 4009
-464 -1418 4000
-450 -1413 3985
-438 -1413 3985
-427 -1417 3998
-414 -1414 3990
-401 -1409 3978
-400 -1448 4088
-418 -1562 4411
0 -10 28
-7 -39 110
-2 -21 60
-386 -1649 4659
-254 -1131 3196
-234 -1085 3065
-226 -1089 3078
-215 -1081 3055
-210 -1101 3112
-198 -1090 3081
-188 -1085 3068
-179 -1089 3079
-172 -1098 3106
-160 -1084 3065
-152 -1094 3093
-143 -1093 3091
-136 -1112 3145
-124 -1092 3089
-116 -1101 3115
-106 -1091 3086
-97 -1097 3104
-88 -1103 3119
-78 -1097 3104
-70 -1112 3146
-59 -1095 3097
-50 -1093 3091
-41 -1096 3101
-32 -1099 3109
-22 -1100 3111
-13 -1117 3160
-4 -1108 3132
5 -1096 3100
14 -1105 3125
24 -1104 3122
32 -1088 3075
41 -1081 3056
51 -1083 3061
60 -1080 3051
65 -1012 2861
72 -999 2822
82 -1013 2861
91 -1015 2866
97 -988 2789
104 -975 2754
112 -975 2754
125 -1013 2859
128 -971 2740
140 -999 2820
156 -1046 2950
161 -1026 2893
181 -1092 3080
193 -1109 3127
209 -1147 3232
216 -1134 3195
227 -1137 3204
234 -1125 3170
247 -1144 3220
252 -1121 3156
265 -1137 3200
277 -1146 3226
281 -1122 3155
293 -1131 3181
305 -1143 3212
316 -1147 3224
325 -1145 3217
336 -1149 3226
347 -1151 3233
353 -1141 3202
369 -1162 3260
379 -1161 3255
388 -1159 3249
395 -1150 3223
404 -1147 3214
417 -1158 3242
422 -1145 3204
438 -1162 3252
0 0 0
446 -1131 3163
457 -1135 3171
469 -1141 3188
480 -1145 3196
489 -1142 3188
498 -1142 3187
510 -1146 3195
516 -1138 3170
526 -1139 3173
539 -1147 3193
555 -1159 3225
563 -1156 3215
568 -1146 3187
579 -1149 3193
596 -1165 3234
600 -1152 3198
618 -1168 3241
623 -1159 3214
625 -1144 3170
643 -1159 3210
659 -1172 3243
653 -1142 3159
646 -1114 3079
654 -1112 3071
620 -1038 2866
634 -1048 2891
605 -986 2718
577 -927 2555
573 -907 2498
603 -944 2597
547 -843 2318
0 0 0
0 0 0
0 0 0
0 0 0
0 0 0
0 0 0
0 0 0
0 0 0
116 -155 424
93 -123 335
75 -97 264
19 -21 56
1269 -1679 4573
0 0 0
0 0 0
0 0 0
0 0 0
0 0 0
0 0 0
0 0 0
0 0 0
0 0 0
0 0 0
0 0 0
0 0 0
0 0 0
0 0 0
0 0 0
0 0 0
0 0 0
0 0 0
0 0 0
1068 -1155 3088
1073 -1150 3072
1093 -1162 3099
1095 -1153 3073
1117 -1165 3103
0 0 0
0 0 0
1015 -1032 2738
1079 -1088 2885
1072 -1072 2837
1085 -1075 2844
1092 -1074 2836
1104 -1077 2841
1109 -1073 2827
1112 -1067 2809
1069 -1017 2675
1081 -1020 2679
1092 -1023 2684
1102 -1024 2683
1090 -1005 2630
1096 -1003 2622
1113 -1011 2639
1097 -989 2577
1091 -975 2539
1119 -993 2582
1058 -932 2421
1096 -959 2486
1088 -944 2445
1104 -951 2460
1121 -959 2477
1118 -950 2450
1100 -928 2389
1107 -928 2385
1108 -922 2366
1123 -928 2378
1108 -909 2326
1113 -907 2319
1125 -910 2323
1116 -897 2287
1126 -899 2289
1121 -889 2260
1124 -886 2247
1089 -853 2160
1120 -871 2202
1112 -859 2169
1111 -853 2151
1114 -850 2139
1121 -850 2135
1126 -848 2127
1125 -842 2108
1134 -843 2109
1136 -839 2096
1142 -839 2091
1133 -827 2058
1144 -830 2061
1142 -824 2043
1148 -823 2037
1142 -814 2010
1143 -809 1996
1138 -802 1973
1139 -797 1959
1136 -791 1939
1131 -783 1916
1130 -777 1899
-747 -484 1212
-735 -479 1201
-732 -480 1205
-651 -429 1080
-505 -335 845
-505 -337 850
-493 -331 836
-478 -323 818
-481 -327 829
-477 -326 829
-471 -323 824
-473 -327 834
-474 -330 842
-464 -325 831
-459 -323 828
-462 -327 840
-485 -346 890
-458 -328 846
-459 -331 855
-515 -374 966
-839 -613 1586
-1073 -789 2045
-1075 -796 2066
-1060 -789 2052
-1056 -791 2061
-1044 -788 2055
-1039 -789 2060
-1034 -791 2068
-1021 -786 2057
-1014 -786 2061
-1004 -784 2058
-999 -785 2063
-987 -781 2057
-977 -779 2053
-957 -768 2027
-954 -771 2038
-961 -782 2070
-949 -777 2060
-944 -779 2066
-937 -778 2068
-915 -766 2038
-893 -753 2006
-898 -763 2035
-884 -757 2021
-882 -760 2032
-864 -751 2009
-855 -749 2007
-850 -750 2012
-839 -746 2002
-845 -757 2036
-838 -756 2036
-821 -747 2013
-820 -752 2030
-811 -750 2025
-786 -733 1982
-766 -720 1949
-771 -731 1981
-758 -724 1964
-751 -723 1963
-755 -734 1994
-753 -738 2007
-754 -745 2029
-740 -737 2009
-727 -731 1995
-716 -727 1984
-716 -733 2003
-708 -731 1999
-710 -740 2027
-700 -736 2017
-693 -735 2016
-686 -735 2017
-687 -743 2040
-673 -734 2019
-672 -741 2039
-650 -723 1991
-653 -733 2021
-648 -735 2027
-652 -747 2062
-640 -740 2045
-628 -734 2029
-622 -734 2031
-619 -738 2045
-609 -734 2036
-608 -740 2054
-604 -744 2065
-599 -745 2069
-584 -735 2042
-574 -730 2030
-580 -745 2075
-568 -738 2057
-562 -740 2062
-552 -735 2050
-552 -743 2073
-542 -738 2060
-535 -738 2062
-530 -739 2065
-521 -736 2060
-515 -737 2062
-509 -737 2064
-501 -734 2058
-491 -729 2044
-489 -736 2065
-481 -732 2056
-481 -743 2087
-479 -750 2108
-516 -818 2299
-582 -936 2632
-596 -971 2732
-634 -1048 2951
-624 -1045 2944
-620 -1054 2971
-620 -1070 3016
-594 -1041 2937
-613 -1091 3078
-612 -1105 3119
-644 -1181 3337
-680 -1267 3581
-648 -1227 3468
0 0 0
0 0 0
0 0 0
0 0 0
0 0 0
0 0 0
0 0 0
-542 -1182 3352
-547 -1215 3447
-553 -1252 3552
-570 -1316 3736
-606 -1426 4047
-591 -1419 4030
-581 -1426 4049
-566 -1419 4033
-552 -1415 4021
-541 -1418 4031
-527 -1414 4020
-518 -1422 4045
-504 -1417 4032
-491 -1412 4019
-481 -1421 4044
-467 -1416 4031
-457 -1422 4050
-444 -1420 4044
-429 -1410 4018
-418 -1413 4027
-406 -1415 4031
-405 -1452 4140
-424 -1570 4474
-6 -35 99
-10 -51 145
0 -8 22
-357 -1516 4323
-254 -1122 3200
-236 -1082 3088
-229 -1093 3118
-217 -1082 3089
-212 -1104 3152
-199 -1087 3102
-191 -1092 3118
-182 -1095 3127
-167 -1061 3028
-162 -1084 3096
-152 -1080 3085
-143 -1087 3102
-133 -1080 3085
-125 -1087 3103
-114 -1076 3072
-105 -1081 3086
-96 -1078 3079
-86 -1070 3055
-79 -1099 3138
-68 -1070 3056
-59 -1076 3074
-50 -1083 3092
-41 -1095 3128
-31 -1081 3086
-23 -1105 3154
-13 -1078 3078
-4 -1090 3111
5 -1072 3059
14 -1090 3111
23 -1083 3090
32 -1072 3060
41 -1066 3041
51 -1071 3056
60 -1068 3046
67 -1040 2968
75 -1026 2926
82 -1008 2876
91 -1008 2875
100 -1012 2885
108 -1009 2876
119 -1028 2931
123 -988 2816
137 -1032 2941
144 -1015 2893
158 -1056 3006
170 -1073 3054
182 -1091 3105
194 -1107 3151
206 -1120 3188
215 -1114 3170
224 -1112 3163
235 -1119 3182
242 -1110 3157
251 -1105 3139
262 -1114 3166
270 -1106 3141
280 -1108 3146
287 -1099 3119
301 -1115 3164
309 -1111 3152
318 -1111 3151
326 -1103 3127
340 -1118 3170
347 -1111 3148
360 -1123 3180
375 -1140 3227
383 -1134 3208
396 -1143 3233
400 -1126 3186
413 -1137 3214
416 -1119 3163
431 -1133 3200
431 -1107 3126
426 -1070 3020
457 -1126 3177
461 -1111 3133
474 -1120 3156
487 -1129 3181
499 -1135 3195
508 -1133 3191
518 -1133 3189
531 -1141 3210
535 -1129 3172
554 -1147 3223
564 -1149 3226
566 -1134 3181
585 -1151 3229
586 -1134 3179
598 -1139 3192
616 -1153 3230
619 -1142 3196
632 -1147 3208
640 -1144 3197
659 -1160 3241
645 -1119 3123
644 -1101 3072
651 -1098 3061
631 -1049 2923
632 -1036 2885
621 -1003 2791
567 -902 2510
573 -901 2503
600 -930 2585
0 0 0
0 0 0
0 0 0
0 0 0
0 0 0
0 0 0
0 0 0
0 0 0
96 -129 355
124 -165 455
126 -166 458
60 -75 206
49 -60 164
0 0 0
0 0 0
0 0 0
0 0 0
0 0 0
0 0 0
0 0 0
0 0 0
0 0 0
0 0 0
0 0 0
0 0 0
0 0 0
0 0 0
0 0 0
0 0 0
0 0 0
0 0 0
0 0 0
0 0 0
1077 -1155 3118
1072 -1139 3071
1104 -1163 3133
1093 -1141 3071
1059 -1096 2945
0 0 0
0 0 0
0 0 0
1060 -1060 2836
1065 -1055 2821
1078 -1060 2830
1075 -1048 2796
1090 -1053 2806
1107 -1062 2825
1093 -1039 2763
1083 -1022 2713
1095 -1025 2719
1089 -1011 2678
1096 -1010 2671
1104 -1010 2667
1090 -989 2608
1068 -962 2534
1084 -968 2549
1104 -979 2572
1044 -919 2412
1060 -926 2427
1044 -905 2370
1155 -995 2601
1091 -932 2434
1116 -947 2470
1117 -941 2450
1102 -922 2398
1105 -918 2383
1120 -924 2395
1121 -919 2378
1123 -913 2361
1131 -913 2358
1113 -893 2302
1110 -885 2278
1118 -885 2274
1123 -883 2265
1115 -871 2231
1092 -848 2168
1086 -837 2138
1103 -845 2154
1103 -840 2138
1116 -844 2144
1117 -839 2130
1130 -844 2137
1136 -843 2133
1135 -837 2114
1127 -826 2082
1135 -826 2080
1133 -820 2061
1131 -813 2040
1136 -812 2033
1146 -815 2036
1137 -803 2004
1140 -801 1994
1129 -788 1960
1135 -788 1954
1141 -787 1950
1124 -771 1907
1124 -767 1892
-751 -482 1219
-754 -487 1234
-745 -484 1228
-634 -414 1052
-517 -340 865
-486 -321 820
-490 -326 832
-486 -325 832
-473 -318 816
-476 -322 827
-476 -325 835
-468 -321 826
-467 -322 831
-475 -329 851
-457 -319 825
-454 -319 826
-470 -332 863
-476 -339 881
-461 -330 860
-532 -383 1001
-925 -670 1752
-1075 -783 2051
-1069 -784 2056
-1062 -784 2059
-1051 -781 2055
-1050 -786 2069
-1039 -782 2064
-1027 -779 2057
-1020 -778 2058
-1015 -780 2066
-1004 -777 2060
-997 -777 2063
-986 -773 2056
-975 -770 2050
-946 -752 2005
-960 -769 2052
-958 -772 2065
-951 -772 2067
-944 -772 2069
-934 -769 2065
-918 -762 2046
-902 -754 2029
-894 -753 2029
-881 -748 2017
-883 -755 2038
-869 -748 2023
-858 -745 2015
-854 -747 2023
-847 -747 2025
-840 -746 2025
-832 -745 2024
-815 -736 2002
-819 -745 2029
-805 -738 2011
-785 -725 1980
-771 -718 1963
-785 -737 2017
-769 -729 1996
-749 -715 1961
-755 -727 1996
-746 -725 1991
-746 -731 2010
-739 -730 2009
-724 -722 1987
-709 -714 1967
-725 -736 2030
-711 -727 2009
-710 -734 2029
-702 -732 2026
-696 -733 2029
-692 -734 2036
-680 -729 2023
-678 -734 2037
-664 -725 2016
-652 -719 2001
-654 -728 2027
-648 -729 2031
-649 -738 2056
-640 -734 2048
-631 -731 2042
-621 -727 2031
-618 -730 2043
-613 -733 2051
-601 -726 2034
-601 -733 2054
-589 -727 2039
-583 -727 2040
-570 -718 2017
-573 -730 2053
-570 -736 2069
-562 -734 2064
-553 -730 2056
-544 -726 2046
-541 -730 2058
-533 -728 2054
-530 -733 2069
-517 -724 2046
-516 -732 2069
-508 -729 2062
-502 -730 2065
-500 -735 2082
-488 -727 2061
-482 -728 2064
-482 -738 2092
-494 -766 2174
-529 -831 2360
-610 -971 2759
-590 -954 2710
-641 -1049 2983
-619 -1029 2926
-621 -1048 2982
-615 -1052 2994
-612 -1063 3027
-608 -1072 3055
-584 -1046 2983
-609 -1108 3160
-602 -1113 3176
-600 -1127 3216
0 0 0
0 0 0
0 0 0
0 0 0
0 0 0
0 0 0
0 0 0
-559 -1208 3459
-553 -1218 3489
-547 -1228 3519
-578 -1323 3791
-608 -1420 4071
-592 -1411 4045
-581 -1414 4055
-568 -1411 4048
-558 -1417 4067
-548 -1422 4082
-530 -1410 4047
-521 -1417 4069
-506 -1411 4052
-499 -1424 4091
-484 -1416 4069
-472 -1419 4079
-465 -1433 4119
-457 -1448 4164
-456 -1485 4272
-449 -1506 4332
0 0 0
0 0 0
-103 -387 1113
-85 -331 952
0 0 0
-266 -1084 3122
-260 -1098 3162
-247 -1084 3123
-240 -1093 3147
-225 -1068 3077
-220 -1086 3129
-207 -1070 3082
-200 -1080 3112
-191 -1083 3121
-180 -1072 3090
-172 -1084 3126
-162 -1078 3108
-154 -1086 3131
-143 -1074 3095
-135 -1085 3128
-124 -1076 3102
-116 -1088 3136
-106 -1083 3121
-97 -1087 3133
-88 -1088 3137
-78 -1076 3101
-69 -1090 3143
-59 -1078 3107
-50 -1086 3130
-41 -1078 3106
-32 -1098 3164
-22 -1076 3101
-13 -1076 3102
-3 -1069 3081
5 -1081 3116
14 -1076 3102
23 -1068 3077
33 -1082 3118
42 -1080 3111
51 -1073 3091
61 -1076 3098
70 -1071 3084
78 -1060 3052
87 -1054 3035
94 -1034 2976
105 -1051 3024
112 -1035 2978
122 -1043 3002
131 -1042 2997
141 -1048 3015
149 -1041 2995
157 -1035 2977
172 -1076 3094
183 -1085 3117
193 -1089 3130
203 -1090 3132
214 -1099 3156
223 -1101 3160
233 -1102 3164
240 -1088 3121
254 -1110 3186
262 -1102 3159
270 -1096 3142
279 -1096 3143
292 -1111 3183
301 -1107 3171
311 -1110 3180
322 -1114 3191
328 -1101 3151
339 -1107 3167
346 -1098 3140
356 -1101 3148
369 -1111 3174
378 -1108 3167
390 -1117 3189
397 -1109 3165
399 -1087 3102
415 -1107 3158
413 -1077 3071
427 -1087 3100
433 -1079 3075
453 -1105 3148
460 -1100 3131
471 -1104 3142
480 -1102 3135
498 -1122 3191
505 -1116 3172
517 -1122 3187
526 -1119 3176
540 -1128 3201
547 -1123 3185
554 -1118 3170
567 -1125 3186
580 -1131 3204
590 -1131 3201
598 -1129 3193
614 -1140 3224
617 -1128 3187
636 -1145 3235
636 -1127 3180
645 -1126 3175
648 -1114 3140
649 -1100 3098
647 -1081 3042
645 -1062 2987
640 -1039 2921
617 -987 2774
597 -943 2648
612 -953 2674
0 0 0
0 0 0
0 0 0
0 0 0
0 0 0
0 0 0
0 0 0
0 0 0
0 0 0
114 -152 423
0 0 0
135 -177 491
66 -84 232
48 -58 160
0 0 0
0 0 0
0 0 0
0 0 0
0 0 0
0 0 0
0 0 0
0 0 0
1105 -1319 3638
1112 -1314 3619
0 0 0
0 0 0
0 0 0
0 0 0
0 0 0
0 0 0
0 0 0
0 0 0
0 0 0
0 0 0
0 0 0
1079 -1137 3096
1118 -1168 3177
0 0 0
0 0 0
0 0 0
0 0 0
0 0 0
1073 -1063 2872
1068 -1049 2831
1085 -1058 2851
1093 -1056 2844
1071 -1026 2760
1094 -1040 2794
1081 -1019 2736
1115 -1043 2795
1091 -1012 2710
1093 -1006 2690
1091 -996 2661
1094 -991 2644
1067 -960 2557
1093 -975 2594
1078 -955 2537
1064 -936 2483
1097 -957 2536
1057 -915 2423
1097 -943 2494
1090 -930 2455
1113 -943 2486
1107 -931 2451
1116 -932 2450
1100 -912 2394
1105 -910 2386
1117 -914 2392
1129 -917 2397
1108 -893 2332
1100 -881 2296
1120 -891 2319
1102 -870 2262
1092 -857 2224
1123 -875 2268
1123 -870 2251
1115 -858 2216
1106 -845 2179
1106 -840 2163
1111 -838 2155
1111 -833 2138
1124 -837 2146
1127 -834 2134
1134 -834 2130
1131 -827 2109
1140 -828 2108
1135 -820 2083
1131 -812 2060
1129 -805 2040
1136 -805 2036
1128 -795 2006
1134 -794 2001
1139 -793 1995
1143 -791 1987
1118 -770 1928
1129 -772 1932
1118 -761 1899
1122 -759 1891
-767 -488 1247
-752 -482 1232
-749 -483 1237
-594 -385 989
-502 -327 841
-485 -318 818
-493 -325 838
-484 -321 830
-482 -321 833
-484 -325 843
-481 -325 844
-468 -318 827
-467 -319 832
-467 -321 838
-464 -321 840
-475 -330 865
-474 -332 870
-474 -334 878
-462 -327 862
-553 -395 1041
-987 -708 1870
-1074 -776 2051
-1066 -775 2053
-1060 -776 2058
-1055 -777 2065
-1046 -776 2063
-1039 -776 2066
-1027 -771 2058
-1021 -772 2062
-1011 -770 2060
-1003 -769 2060
-994 -768 2059
-986 -766 2058
-974 -763 2051
-951 -750 2019
-954 -758 2043
-957 -765 2065
-949 -764 2066
-942 -764 2067
-930 -759 2058
-915 -753 2043
-907 -752 2042
-904 -755 2052
-886 -745 2029
-880 -746 2034
-872 -744 2031
-870 -748 2044
-855 -742 2029
-849 -741 2031
-843 -743 2036
-827 -734 2015
-833 -745 2048
-809 -729 2006
-807 -734 2021
-783 -718 1979
-762 -704 1943
-765 -713 1969
-769 -722 1996
-749 -709 1963
-753 -719 1993
-751 -723 2005
-753 -731 2029
-740 -725 2016
-722 -714 1986
-721 -719 2002
-721 -726 2022
-716 -726 2026
-702 -719 2009
-694 -717 2004
-694 -724 2026
-685 -721 2019
-678 -721 2019
-672 -721 2022
-665 -720 2020
-653 -714 2006
-660 -728 2047
-658 -734 2065
-644 -725 2042
-637 -725 2043
-627 -720 2030
-623 -723 2040
-617 -723 2042
-612 -726 2050
-604 -723 2045
-593 -718 2032
-591 -723 2048
-585 -723 2049
-571 -714 2025
-568 -718 2037
-570 -729 2071
-564 -729 2073
-552 -722 2054
-546 -722 2056
-544 -728 2074
-533 -722 2057
-530 -727 2071
-517 -718 2047
-511 -719 2051
-507 -721 2058
-501 -722 2062
-495 -722 2063
-493 -728 2084
-483 -723 2068
-480 -728 2084
-508 -781 2239
-570 -887 2544
-596 -942 2701
-630 -1008 2893
-639 -1037 2978
-626 -1032 2963
-610 -1020 2930
-603 -1024 2943
-619 -1065 3063
-595 -1040 2993
-578 -1027 2955
-568 -1025 2953
-565 -1035 2982
-553 -1031 2970
0 0 0
0 0 0
0 0 0
0 0 0
0 0 0
0 0 0
0 0 0
-543 -1164 3363
-541 -1180 3413
-550 -1224 3539
-595 -1350 3906
-605 -1400 4051
-595 -1407 4071
-580 -1400 4054
-569 -1402 4060
-554 -1395 4041
-545 -1402 4064
-532 -1402 4064
-519 -1400 4059
-508 -1403 4068
-496 -1403 4070
-482 -1398 4055
-471 -1403 4072
-459 -1405 4077
-452 -1420 4122
-453 -1464 4250
-449 -1491 4329
-471 -1612 4681
-102 -366 1063
-118 -436 1267
-152 -578 1680
0 0 0
-262 -1056 3070
-256 -1072 3118
-246 -1069 3108
-236 -1065 3096
-230 -1079 3138
-220 -1080 3143
-207 -1062 3090
-198 -1060 3085
-189 -1066 3102
-181 -1072 3120
-170 -1062 3089
-161 -1064 3097
-153 -1074 3124
-142 -1059 3081
-133 -1058 3080
-125 -1074 3126
-115 -1065 3099
-106 -1065 3101
-97 -1068 3110
-88 -1077 3136
-78 -1070 3113
-68 -1062 3092
-59 -1063 3093
-50 -1060 3084
-41 -1079 3141
-31 -1059 3082
-22 -1061 3088
-13 -1073 3122
-3 -1056 3074
5 -1051 3056
14 -1064 3095
24 -1073 3122
33 -1058 3078
42 -1064 3095
51 -1063 3092
61 -1067 3104
70 -1062 3087
79 -1069 3107
89 -1074 3121
98 -1073 3118
108 -1080 3137
118 -1079 3134
128 -1089 3163
137 -1080 3135
146 -1080 3135
156 -1083 3145
166 -1088 3157
177 -1096 3180
183 -1076 3123
193 -1081 3135
204 -1086 3150
214 -1092 3168
222 -1085 3144
236 -1103 3197
241 -1084 3140
253 -1097 3178
265 -1105 3200
275 -1108 3209
281 -1092 3159
294 -1108 3207
301 -1097 3173
315 -1113 3218
324 -1112 3213
336 -1119 3234
346 -1119 3231
351 -1105 3190
369 -1129 3261
374 -1115 3217
383 -1113 3211
396 -1123 3239
405 -1123 3236
413 -1116 3216
421 -1113 3205
407 -1051 3027
410 -1036 2982
432 -1067 3069
449 -1086 3124
466 -1105 3177
469 -1090 3131
487 -1109 3184
496 -1108 3180
503 -1102 3162
515 -1106 3172
522 -1100 3154
533 -1104 3163
550 -1121 3209
554 -1107 3169
560 -1101 3150
578 -1117 3193
588 -1118 3194
593 -1109 3166
599 -1102 3146
619 -1121 3199
627 -1118 3188
629 -1106 3150
642 -1112 3166
639 -1090 3103
634 -1065 3028
638 -1057 3005
626 -1022 2904
641 -1031 2928
596 -945 2681
580 -907 2572
0 0 0
0 0 0
0 0 0
0 0 0
0 0 0
230 -329 929
0 0 0
0 0 0
0 0 0
0 0 0
151 -201 565
133 -176 493
0 0 0
76 -96 268
27 -30 84
0 0 0
0 0 0
0 0 0
0 0 0
0 0 0
0 0 0
0 0 0
1074 -1284 3577
1065 -1261 3509
1087 -1273 3540
0 0 0
0 0 0
0 0 0
0 0 0
0 0 0
0 0 0
0 0 0
0 0 0
0 0 0
0 0 0
0 0 0
0 0 0
0 0 0
0 0 0
0 0 0
0 0 0
0 0 0
0 0 0
1044 -1025 2797
1069 -1041 2838
1077 -1040 2832
1096 -1050 2855
1062 -1009 2741
1090 -1027 2786
1082 -1012 2742
1104 -1024 2771
1108 -1019 2756
1078 -984 2657
1095 -991 2673
1101 -989 2663
1082 -965 2596
1032 -913 2453
1070 -939 2521
1100 -958 2568
1069 -925 2475
1095 -940 2512
1110 -946 2524
1100 -931 2482
1111 -933 2483
1116 -931 2475
1116 -924 2454
1116 -917 2432
1113 -908 2404
1104 -895 2366
1088 -876 2311
1091 -872 2299
1096 -870 2289
1084 -855 2246
1093 -856 2246
1099 -855 2241
1092 -844 2208
1116 -857 2238
1108 -845 2205
1112 -842 2193
1109 -835 2171
1107 -828 2150
1108 -824 2135
1117 -825 2135
1127 -827 2136
1135 -828 2135
1132 -820 2112
1140 -821 2110
1135 -812 2085
1129 -803 2057
1121 -793 2028
1126 -792 2021
1126 -787 2005
1112 -772 1964
1134 -783 1988
1119 -768 1946
1123 -766 1939
1122 -761 1922
1133 -764 1926
1139 -763 1921
-766 -483 1247
-758 -481 1243
-730 -466 1206
-562 -361 936
-507 -327 850
-493 -320 833
-488 -319 831
-488 -321 838
-473 -313 819
-475 -316 828
-474 -317 832
-476 -321 843
-475 -322 848
-450 -307 809
-453 -310 820
-484 -334 883
-472 -327 868
-476 -333 883
-493 -347 921
-579 -410 1091
-1032 -735 1959
-1073 -768 2053
-1068 -770 2059
-1059 -768 2058
-1049 -766 2056
-1043 -766 2059
-1033 -765 2057
-1026 -764 2059
-1020 -765 2063
-1010 -763 2061
-998 -758 2052
-995 -761 2063
-987 -760 2063
-971 -754 2047
-946 -739 2010
-960 -755 2057
-956 -758 2066
-948 -756 2065
-945 -760 2077
-931 -754 2063
-920 -750 2056
-898 -738 2024
-883 -730 2007
-875 -729 2006
-876 -736 2027
-866 -733 2020
-854 -728 2010
-853 -733 2026
-839 -727 2010
-836 -730 2020
-822 -723 2004
-834 -739 2051
-819 -732 2034
-805 -725 2016
-775 -704 1959
-769 -704 1963
-772 -712 1987
-758 -705 1970
-736 -691 1931
-750 -710 1988
-761 -727 2035
-745 -717 2011
-738 -716 2011
-708 -694 1949
-719 -710 1997
-717 -715 2011
-704 -708 1995
-703 -714 2012
-698 -715 2019
-697 -721 2036
-682 -712 2012
-680 -717 2027
-685 -729 2064
-661 -710 2012
-651 -705 2000
-662 -724 2055
-656 -725 2061
-644 -719 2044
-635 -716 2037
-626 -713 2030
-623 -716 2041
-615 -715 2040
-610 -716 2044
-599 -711 2031
-594 -712 2035
-590 -715 2045
-578 -709 2029
-568 -703 2015
-574 -720 2062
-569 -721 2068
-563 -721 2070
-548 -710 2039
-550 -722 2074
-537 -712 2048
-536 -720 2071
-527 -716 2062
-526 -723 2083
-512 -712 2053
-509 -718 2069
-501 -715 2064
-493 -713 2058
-492 -720 2081
-486 -721 2084
-484 -728 2106
-526 -801 2318
-599 -925 2676
-615 -963 2787
-609 -967 2801
-634 -1020 2956
-608 -992 2877
-610 -1011 2932
-615 -1034 3001
-606 -1035 3004
-601 -1042 3028
-598 -1052 3059
-596 -1066 3100
-569 -1033 3006
0 0 0
0 0 0
0 0 0
0 0 0
0 0 0
0 0 0
0 0 0
0 0 0
-536 -1139 3325
-554 -1198 3498
-553 -1219 3561
-592 -1332 3890
-615 -1411 4123
-592 -1387 4053
-582 -1391 4066
-566 -1384 4047
-557 -1391 4068
-543 -1387 4059
-532 -1389 4064
-517 -1383 4050
-507 -1388 4064
-495 -1390 4071
-482 -1386 4062
-470 -1389 4070
-459 -1391 4078
-447 -1393 4083
-441 -1412 4139
-438 -1443 4231
-426 -1447 4244
-405 -1418 4159
0 0 0
0 0 0
-259 -1002 2942
-264 -1058 3105
-255 -1058 3107
-247 -1064 3125
-234 -1049 3080
-229 -1068 3138
-218 -1060 3113
-208 -1058 3107
-200 -1064 3125
-187 -1042 3061
-178 -1045 3071
-174 -1075 3159
-162 -1059 3111
-152 -1055 3101
-143 -1057 3107
-133 -1056 3102
-125 -1066 3134
-116 -1064 3128
-105 -1052 3092
-96 -1051 3087
-88 -1069 3141
-78 -1059 3113
-68 -1056 3104
-59 -1058 3110
-50 -1053 3095
-40 -1053 3095
-31 -1058 3108
-22 -1068 3138
-13 -1062 3119
-3 -1070 3144
5 -1063 3123
14 -1055 3100
24 -1062 3119
33 -1069 3140
43 -1068 3136
52 -1058 3106
61 -1070 3141
71 -1069 3137
81 -1082 3176
89 -1057 3102
100 -1076 3156
110 -1081 3172
118 -1067 3129
128 -1074 3150
136 -1064 3121
147 -1074 3148
156 -1075 3150
165 -1072 3142
177 -1087 3185
186 -1086 3180
197 -1091 3196
204 -1079 3159
214 -1080 3163
223 -1080 3162
236 -1096 3207
243 -1082 3167
255 -1093 3197
265 -1095 3202
274 -1095 3199
284 -1094 3197
295 -1102 3218
302 -1092 3190
312 -1091 3186
325 -1103 3219
336 -1108 3233
344 -1102 3215
353 -1101 3210
362 -1098 3199
372 -1101 3209
383 -1105 3217
395 -1111 3234
400 -1097 3193
414 -1110 3230
413 -1081 3142
418 -1070 3110
0 0 0
438 -1073 3115
445 -1067 3098
459 -1077 3126
470 -1081 3136
488 -1102 3195
496 -1097 3179
500 -1086 3146
510 -1086 3145
524 -1095 3169
535 -1099 3180
542 -1094 3164
555 -1100 3177
566 -1103 3186
567 -1087 3136
565 -1064 3071
549 -1018 2936
564 -1029 2966
577 -1036 2984
579 -1024 2947
608 -1059 3047
595 -1020 2933
0 0 0
557 -928 2664
541 -888 2547
586 -947 2717
595 -948 2719
637 -1001 2869
0 0 0
0 0 0
0 0 0
0 0 0
0 0 0
0 0 0
0 0 0
0 0 0
130 -177 504
123 -165 470
78 -102 290
93 -120 342
64 -81 229
128 -165 468
65 -80 226
48 -57 161
0 0 0
0 0 0
0 0 0
0 0 0
0 0 0
0 0 0
0 0 0
1093 -1295 3644
1072 -1258 3535
1087 -1263 3546
0 0 0
0 0 0
0 0 0
0 0 0
0 0 0
0 0 0
0 0 0
0 0 0
0 0 0
0 0 0
0 0 0
0 0 0
0 0 0
0 0 0
0 0 0
0 0 0
0 0 0
0 0 0
1048 -1021 2812
1064 -1027 2826
1077 -1032 2836
1095 -1040 2856
1094 -1031 2827
1103 -1030 2822
1102 -1022 2795
1069 -983 2685
1102 -1005 2744
1070 -968 2638
1029 -923 2514
1069 -952 2590
1100 -972 2641
1036 -909 2465
1091 -950 2573
1087 -939 2542
1102 -945 2555
1095 -932 2515
1114 -941 2537
1108 -929 2501
1102 -917 2466
1107 -915 2456
1099 -902 2418
1106 -901 2412
1114 -902 2410
1128 -907 2420
1093 -872 2324
1076 -853 2270
1073 -845 2245
1087 -849 2254
1069 -830 2200
1101 -849 2247
1114 -853 2254
1117 -850 2243
1110 -839 2211
1105 -830 2182
1116 -833 2187
1122 -832 2181
1117 -823 2155
1117 -818 2137
1126 -819 2138
1132 -818 2132
1138 -818 2127
1135 -811 2104
1118 -793 2055
1124 -792 2050
1130 -792 2045
1126 -785 2023
1132 -784 2018
1122 -773 1985
1119 -766 1964
1124 -765 1957
1120 -758 1936
1140 -767 1956
1142 -763 1943
1144 -760 1933
-763 -477 1244
-755 -475 1240
-728 -461 1205
-540 -344 900
-498 -319 837
-495 -318 837
-485 -314 827
-484 -316 833
-490 -321 849
-479 -316 835
-466 -309 820
-466 -311 827
-462 -310 825
-469 -317 844
-466 -316 844
-479 -327 875
-482 -332 888
-473 -327 878
-479 -334 897
-616 -432 1161
-1061 -748 2015
-1074 -762 2056
-1067 -762 2059
-1059 -761 2060
-1054 -763 2066
-1043 -760 2061
-1039 -762 2071
-1026 -757 2061
-1021 -759 2068
-1011 -757 2065
-1004 -757 2067
-991 -752 2057
-987 -754 2065
-971 -747 2049
-951 -736 2022
-960 -748 2058
-955 -750 2066
-950 -751 2072
-942 -750 2071
-931 -747 2064
-906 -733 2028
-898 -731 2027
-890 -730 2026
-883 -729 2026
-876 -729 2027
-879 -737 2053
-857 -725 2020
-849 -723 2018
-843 -723 2021
-839 -725 2029
-839 -732 2049
-828 -727 2039
-820 -726 2038
-805 -719 2019
-778 -700 1969
-773 -701 1974
-784 -718 2023
-766 -707 1993
-737 -686 1936
-751 -705 1992
-746 -706 1996
-744 -710 2011
-730 -702 1991
-704 -684 1939
-724 -709 2014
-717 -709 2016
-714 -712 2027
-713 -717 2043
-696 -707 2014
-694 -711 2028
-687 -710 2028
-675 -705 2015
-674 -710 2031
-670 -713 2039
-645 -693 1984
-665 -721 2067
-655 -718 2059
-647 -716 2055
-634 -709 2037
-626 -706 2030
-624 -712 2049
-617 -711 2049
-607 -706 2036
-599 -704 2032
-595 -708 2042
-592 -711 2054
-579 -704 2034
-576 -707 2045
-573 -712 2060
-563 -707 2047
-565 -718 2080
-551 -708 2053
-547 -711 2062
-539 -708 2057
-529 -704 2044
-531 -716 2081
-523 -713 2074
-511 -705 2053
-508 -711 2069
-504 -714 2080
-497 -713 2078
-491 -712 2078
-487 -717 2092
-481 -717 2094
-523 -790 2309
-595 -911 2661
-590 -916 2678
-619 -974 2850
-637 -1017 2977
-635 -1027 3009
-625 -1027 3010
-607 -1011 2965
-607 -1027 3012
-591 -1016 2980
-581 -1013 2974
-588 -1042 3059
-631 -1136 3337
0 0 0
0 0 0
0 0 0
0 0 0
0 0 0
0 0 0
0 0 0
-473 -979 2884
-538 -1133 3338
-549 -1178 3474
-559 -1222 3604
-603 -1344 3965
-609 -1386 4089
-593 -1378 4066
-582 -1379 4070
-567 -1374 4057
-556 -1377 4068
-543 -1374 4060
-530 -1372 4055
-517 -1371 4053
-506 -1374 4062
-494 -1373 4061
-482 -1374 4065
-471 -1379 4079
-457 -1373 4064
-446 -1378 4078
-432 -1373 4064
-423 -1382 4092
-412 -1388 4111
-398 -1381 4090
-365 -1308 3875
-299 -1109 3287
-271 -1037 3074
-264 -1049 3109
-254 -1046 3102
-244 -1040 3084
-235 -1042 3090
-226 -1044 3095
-217 -1045 3098
-208 -1049 3111
-199 -1051 3118
-189 -1043 3095
-180 -1046 3102
-171 -1050 3116
-162 -1049 3112
-152 -1046 3105
-142 -1041 3089
-135 -1055 3132
-123 -1038 3079
-117 -1067 3166
-106 -1050 3116
-95 -1035 3072
-87 -1045 3102
-77 -1045 3102
-67 -1029 3055
-59 -1045 3102
-51 -1070 3175
-40 -1032 3062
-31 -1051 3117
-22 -1042 3091
-13 -1063 3154
-3 -1051 3119
5 -1055 3129
14 -1044 3097
24 -1047 3104
33 -1056 3132
42 -1049 3111
52 -1058 3137
61 -1054 3123
71 -1066 3160
79 -1047 3103
90 -1059 3137
100 -1067 3161
110 -1072 3175
117 -1050 3111
126 -1053 3119
136 -1056 3127
146 -1060 3137
156 -1061 3142
166 -1065 3151
173 -1052 3112
186 -1073 3175
195 -1068 3159
206 -1081 3195
214 -1072 3168
225 -1079 3188
232 -1068 3157
243 -1075 3176
251 -1069 3156
261 -1070 3160
274 -1082 3194
282 -1078 3180
292 -1079 3183
300 -1074 3167
311 -1080 3185
321 -1079 3181
332 -1084 3193
343 -1090 3211
352 -1088 3205
364 -1095 3223
376 -1101 3240
382 -1091 3209
393 -1095 3219
403 -1097 3225
412 -1094 3215
422 -1096 3217
0 0 0
0 0 0
432 -1049 3078
443 -1054 3089
453 -1055 3091
471 -1075 3150
479 -1071 3135
494 -1083 3169
503 -1082 3165
512 -1081 3159
524 -1087 3176
529 -1077 3145
537 -1073 3132
555 -1090 3180
560 -1081 3153
550 -1044 3044
333 -619 1805
241 -439 1278
241 -432 1258
260 -459 1335
266 -463 1346
282 -484 1406
288 -487 1414
277 -461 1338
293 -480 1392
336 -543 1575
384 -613 1776
428 -675 1953
0 0 0
0 0 0
0 0 0
0 0 0
0 0 0
0 0 0
0 0 0
88 -120 346
0 0 0
104 -140 402
79 -104 299
68 -87 250
84 -108 309
127 -164 471
0 0 0
63 -77 222
55 -66 188
1214 -1538 4396
0 0 0
0 0 0
0 0 0
0 0 0
0 0 0
0 0 0
1095 -1287 3655
1084 -1261 3578
1130 -1301 3689
0 0 0
0 0 0
0 0 0
0 0 0
0 0 0
0 0 0
0 0 0
0 0 0
0 0 0
0 0 0
0 0 0
0 0 0
0 0 0
0 0 0
0 0 0
0 0 0
0 0 0
0 0 0
1049 -1013 2818
1072 -1026 2852
1079 -1024 2843
1093 -1029 2852
1094 -1021 2828
1103 -1021 2825
1110 -1019 2816
1074 -979 2702
1081 -977 2692
1086 -973 2680
1087 -968 2661
1080 -953 2619
1106 -969 2658
1102 -958 2624
1085 -936 2562
1108 -948 2592
1091 -927 2531
1092 -921 2510
1095 -917 2495
1124 -935 2541
1110 -916 2487
1117 -916 2483
1100 -895 2423
1096 -885 2393
1114 -893 2412
1106 -881 2375
1023 -809 2178
1088 -855 2298
1089 -850 2281
1110 -860 2306
1103 -849 2271
1117 -854 2282
1130 -858 2289
1128 -851 2268
1121 -840 2234
1132 -843 2239
1114 -824 2184
1109 -815 2158
1112 -812 2146
1117 -811 2140
1127 -813 2141
1133 -812 2136
1129 -804 2111
1133 -802 2102
1125 -792 2072
1115 -780 2037
1119 -778 2028
1119 -773 2012
1127 -773 2010
1127 -769 1995
1114 -755 1957
1143 -771 1994
1135 -761 1964
1143 -761 1962
1144 -758 1949
1146 -755 1938
-763 -473 1246
-748 -467 1231
-728 -456 1206
-522 -329 872
-499 -316 839
-490 -313 831
-488 -313 833
-475 -307 817
-489 -318 848
-478 -312 835
-475 -312 836
-470 -311 833
-452 -301 808
-466 -312 840
-454 -306 824
-476 -323 871
-473 -323 872
-466 -319 865
-490 -338 918
-665 -462 1256
-1070 -748 2035
-1071 -754 2054
-1064 -753 2057
-1059 -755 2063
-1049 -752 2060
-1049 -757 2076
-1031 -750 2058
-1028 -752 2067
-1018 -750 2063
-1010 -749 2064
-1001 -747 2062
-989 -744 2056
-982 -743 2058
-956 -729 2019
-952 -730 2027
-961 -743 2063
-955 -743 2067
-951 -746 2077
-937 -740 2063
-929 -739 2064
-896 -718 2006
-895 -722 2022
-886 -721 2020
-874 -716 2009
-875 -722 2028
-863 -718 2019
-858 -719 2024
-843 -712 2007
-831 -707 1995
-833 -715 2019
-829 -716 2026
-820 -714 2023
-816 -717 2031
-802 -710 2013
-779 -695 1973
-762 -685 1949
-770 -698 1987
-766 -700 1995
-734 -677 1930
-745 -693 1979
-742 -696 1989
-755 -714 2041
-738 -704 2015
-702 -675 1936
-716 -695 1994
-718 -703 2018
-711 -703 2020
-710 -708 2036
-706 -711 2047
-691 -702 2021
-680 -697 2009
-682 -706 2037
-669 -699 2019
-664 -700 2024
-659 -701 2029
-659 -708 2051
-656 -712 2064
-647 -710 2058
-631 -699 2028
-632 -706 2052
-618 -698 2030
-617 -704 2048
-610 -704 2049
-602 -702 2044
-596 -702 2046
-588 -700 2043
-580 -699 2039
-574 -698 2040
-576 -709 2071
-571 -711 2081
-558 -702 2055
-552 -703 2060
-543 -699 2048
-541 -705 2068
-536 -707 2075
-524 -699 2053
-520 -702 2063
-511 -700 2057
-503 -697 2050
-504 -707 2079
-496 -705 2077
-483 -696 2049
-483 -704 2074
-481 -711 2096
-530 -794 2342
-621 -942 2780
-602 -926 2734
-625 -975 2880
-611 -966 2856
-643 -1032 3052
-614 -1000 2958
-606 -1001 2963
-614 -1029 3047
-610 -1038 3075
-597 -1032 3059
-599 -1052 3118
-618 -1103 3273
0 0 0
0 0 0
0 0 0
0 0 0
0 0 0
0 0 0
0 0 0
0 0 0
-520 -1086 3232
-557 -1185 3527
-569 -1234 3674
-607 -1341 3994
-610 -1374 4094
-592 -1362 4059
-580 -1363 4065
-568 -1363 4065
-554 -1359 4054
-540 -1356 4045
-531 -1363 4067
-520 -1365 4076
-503 -1354 4043
-493 -1360 4062
-481 -1359 4059
-469 -1361 4065
-456 -1358 4060
-443 -1357 4056
-433 -1362 4072
-421 -1365 4081
-409 -1364 4078
-396 -1363 4076
-372 -1322 3956
-299 -1097 3282
-278 -1056 3161
-266 -1045 3128
-258 -1053 3153
-245 -1036 3101
-235 -1033 3094
-226 -1033 3095
-215 -1029 3082
-208 -1037 3104
-197 -1032 3090
-189 -1035 3099
-179 -1030 3085
-168 -1019 3053
-163 -1046 3134
-151 -1030 3085
-145 -1053 3154
-133 -1036 3106
-125 -1042 3122
-114 -1035 3101
-105 -1031 3089
-96 -1040 3116
-88 -1045 3133
-78 -1038 3111
-69 -1042 3123
-59 -1036 3104
-49 -1029 3083
-40 -1039 3112
-31 -1038 3109
-22 -1035 3102
-13 -1044 3127
-3 -1028 3081
5 -1044 3128
15 -1046 3132
24 -1032 3090
33 -1037 3105
43 -1045 3128
51 -1036 3101
61 -1040 3114
70 -1041 3117
80 -1040 3111
90 -1049 3138
100 -1060 3171
109 -1051 3144
118 -1054 3153
128 -1055 3154
137 -1052 3146
147 -1054 3151
156 -1057 3159
166 -1057 3160
175 -1055 3151
184 -1054 3149
192 -1044 3117
205 -1065 3180
213 -1059 3160
225 -1070 3193
232 -1058 3156
242 -1058 3155
253 -1066 3179
263 -1069 3186
273 -1070 3187
282 -1067 3180
293 -1074 3199
301 -1066 3174
312 -1073 3193
322 -1074 3196
335 -1085 3226
341 -1072 3189
351 -1075 3197
363 -1082 3215
372 -1079 3206
379 -1073 3188
386 -1066 3163
402 -1083 3215
401 -1054 3127
415 -1067 3165
423 -1063 3151
0 0 0
435 -1045 3096
448 -1056 3127
459 -1058 3131
471 -1065 3149
476 -1056 3122
493 -1072 3167
499 -1064 3143
515 -1078 3182
516 -1059 3126
530 -1069 3154
537 -1064 3137
549 -1068 3148
564 -1079 3178
523 -983 2893
256 -470 1384
223 -403 1185
225 -400 1175
234 -410 1204
232 -399 1172
236 -399 1172
240 -400 1173
249 -410 1201
252 -408 1196
253 -405 1185
257 -405 1186
285 -444 1297
285 -437 1277
0 0 0
0 0 0
0 0 0
0 0 0
0 0 0
0 0 0
0 0 0
70 -93 271
74 -96 280
60 -76 221
66 -84 243
60 -75 218
66 -81 236
75 -93 269
48 -57 165
63 -75 216
5 -2 5
0 0 0
0 0 0
0 0 0
0 0 0
0 0 0
0 0 0
0 0 0
0 0 0
0 0 0
0 0 0
0 0 0
0 0 0
0 0 0
0 0 0
0 0 0
0 0 0
0 0 0
0 0 0
0 0 0
0 0 0
0 0 0
0 0 0
0 0 0
0 0 0
0 0 0
0 0 0
0 0 0
1035 -990 2782
1060 -1006 2823
1076 -1012 2838
1086 -1013 2836
1090 -1008 2821
1084 -995 2780
1113 -1013 2828
1069 -966 2691
1099 -984 2740
1037 -922 2563
1064 -938 2605
1116 -977 2710
1105 -959 2657
1101 -949 2625
1107 -946 2616
1106 -939 2591
1109 -934 2574
1112 -930 2559
1097 -911 2503
1110 -915 2512
1095 -896 2456
1085 -881 2412
1071 -863 2360
1079 -864 2360
1095 -870 2373
1100 -868 2364
1112 -872 2370
1105 -860 2336
1113 -860 2333
1115 -856 2318
1102 -840 2272
1127 -854 2305
1126 -848 2284
