VERSION 0.7
FIELDS x y z
SIZE 4 4 4
TYPE I I I
COUNT 1 1 1
WIDTH 3561
HEIGHT 1
VIEWPOINT 0.0 0.0 0.0 1.0 0.0 0.0 0.0
POINTS 3561
DATA ascii
-204 687 2232
-199 692 2248
-185 669 2174
-188 703 2285
-179 693 2253
-163 657 2138
-168 704 2290
-157 687 2237
-148 676 2199
-137 653 2125
-139 695 2263
-134 705 2295
-122 677 2204
-117 684 2230
-104 647 2109
-100 658 2146
-97 686 2237
-90 678 2212
-81 665 2168
-78 690 2251
-67 649 2115
-63 676 2205
-56 671 2190
-49 669 2182
-44 684 2232
-38 696 2273
-32 706 2306
-25 711 2320
-19 741 2421
-12 762 2489
-5 748 2442
1 739 2414
9 748 2445
16 769 2514
24 794 2595
32 801 2617
40 788 2575
45 754 2465
53 753 2462
60 751 2454
65 733 2394
70 709 2317
78 719 2350
88 741 2421
94 737 2407
102 742 2424
112 760 2482
119 756 2471
127 758 2477
134 759 2479
141 754 2463
149 758 2477
155 754 2464
163 755 2467
170 753 2460
177 755 2465
184 753 2460
192 754 2461
199 752 2453
206 751 2450
213 752 2454
220 750 2448
228 751 2449
234 749 2443
242 750 2445
249 749 2443
256 748 2439
264 749 2443
270 747 2434
278 747 2436
284 746 2429
291 745 2425
298 743 2420
305 742 2417
313 745 2425
320 744 2420
327 744 2422
333 741 2411
340 741 2410
346 738 2400
354 739 2403
362 740 2404
368 739 2401
375 738 2395
381 735 2387
390 739 2397
397 738 2394
403 736 2386
410 735 2383
417 736 2383
424 736 2384
431 735 2381
438 734 2377
446 736 2380
452 734 2375
449 718 2322
464 730 2359
472 732 2364
478 730 2357
486 730 2357
492 729 2351
499 729 2350
506 728 2347
513 729 2347
520 728 2343
528 729 2347
534 728 2342
539 725 2331
546 725 2331
554 727 2334
558 722 2319
566 724 2322
575 726 2329
581 724 2320
588 724 2320
594 722 2312
602 724 2316
611 726 2323
620 729 2328
625 726 2318
632 725 2314
634 720 2297
644 724 2306
652 724 2306
658 723 2300
666 724 2302
670 720 2288
677 721 2289
685 721 2289
692 721 2286
694 716 2271
705 720 2279
708 716 2267
716 717 2268
726 719 2274
730 717 2264
739 719 2267
744 717 2260
753 719 2264
762 720 2266
768 719 2260
772 717 2252
779 716 2248
785 715 2243
797 720 2255
803 719 2252
810 719 2249
817 719 2246
824 719 2245
829 717 2236
839 719 2241
842 716 2230
851 717 2231
857 716 2227
866 718 2230
874 719 2230
884 722 2236
884 715 2213
890 714 2209
893 711 2197
902 713 2199
909 713 2197
915 712 2192
922 712 2190
932 714 2193
934 711 2180
943 712 2181
948 711 2176
957 712 2177
961 710 2168
969 710 2166
978 712 2168
982 710 2159
1004 720 2189
1022 728 2211
1045 739 2242
1036 728 2205
1046 729 2206
1044 723 2185
1035 712 2149
1038 709 2136
1027 697 2097
999 673 2022
992 665 1993
806 536 1605
730 482 1440
714 469 1398
697 454 1352
712 461 1371
725 467 1385
816 522 1548
918 584 1730
938 593 1754
941 591 1747
942 588 1734
943 585 1722
959 591 1739
974 597 1752
974 593 1739
970 587 1719
975 587 1714
991 593 1730
994 591 1722
1003 593 1723
1006 591 1716
1006 588 1703
-1392 830 2314
-1388 832 2324
-1374 829 2319
-1362 826 2315
-1339 817 2294
-1331 816 2297
-1322 815 2299
-1309 812 2294
-1294 808 2285
-1281 804 2279
-1271 802 2278
-1263 802 2282
-1251 800 2278
-1239 797 2273
-1230 796 2274
-1211 788 2257
-1200 786 2254
-1197 789 2265
-1171 777 2234
-1166 778 2241
-1155 776 2239
-1142 772 2230
-1131 769 2228
-1121 767 2225
-1120 771 2240
-1107 768 2233
-1091 762 2218
-1075 756 2204
-1025 725 2117
-979 697 2040
-956 686 2008
-956 690 2025
-958 696 2045
-954 699 2055
-955 704 2073
-946 702 2072
-949 709 2095
-954 718 2125
-972 737 2183
-976 745 2211
-975 749 2226
-966 748 2225
-968 755 2250
-962 756 2255
-956 757 2260
-954 761 2275
-952 765 2290
-947 767 2299
-946 772 2316
-935 769 2311
-932 773 2324
-932 778 2344
-929 782 2358
-925 785 2371
-921 788 2381
-915 789 2388
-914 795 2407
-907 795 2413
-907 802 2435
-900 802 2438
-895 805 2449
-887 804 2450
-886 811 2472
-881 813 2482
-876 815 2491
-872 819 2506
-867 822 2516
-860 822 2520
-856 825 2533
-851 828 2545
-845 830 2551
-842 835 2568
-833 834 2570
-831 840 2589
-826 843 2600
-824 849 2622
-817 850 2629
-812 853 2639
-802 851 2635
-797 855 2649
-790 855 2654
-781 854 2653
-775 858 2666
-765 855 2660
-759 857 2669
-753 859 2678
-743 858 2674
-737 860 2684
-728 859 2684
-718 857 2680
-711 859 2686
-705 861 2696
-696 859 2692
-688 860 2697
-678 858 2693
-672 860 2700
-663 859 2699
-654 858 2698
-643 854 2687
-633 853 2684
-627 855 2695
-617 853 2688
-609 852 2687
-602 854 2696
-595 856 2702
-585 853 2695
-576 852 2694
-567 850 2691
-557 847 2680
-553 853 2702
-540 846 2680
-516 821 2602
-469 758 2405
-444 730 2315
0 0 0
0 0 0
0 0 0
0 0 0
0 0 0
0 0 0
0 0 0
-394 739 2355
-367 702 2238
-362 705 2246
-341 676 2157
-346 700 2233
-344 710 2267
-341 718 2294
-328 704 2250
-309 678 2168
-315 705 2254
-303 693 2215
-288 674 2157
-302 724 2316
-282 690 2208
-275 690 2211
-275 707 2267
-267 704 2256
-259 701 2247
-242 671 2153
-230 656 2106
-254 743 2384
-231 695 2231
-215 667 2143
-215 689 2213
-213 703 2258
-203 691 2223
-191 672 2160
-189 687 2211
-187 707 2274
-183 715 2302
-169 689 2219
-168 712 2294
-159 702 2262
-152 701 2257
-143 688 2216
-140 707 2279
-131 694 2237
-122 681 2196
-113 669 2158
-107 674 2172
-104 691 2229
-99 708 2283
-89 678 2188
-85 698 2252
-75 673 2173
-71 692 2233
-63 682 2203
-57 689 2224
-49 673 2174
-44 689 2226
-38 700 2261
-31 699 2259
-25 704 2275
-19 731 2362
-12 750 2424
-5 745 2408
1 746 2413
9 784 2537
17 809 2617
24 793 2564
31 784 2534
38 766 2477
44 742 2400
50 726 2349
57 726 2348
63 714 2310
70 718 2322
79 733 2372
88 750 2425
97 766 2478
104 765 2475
113 771 2495
119 765 2475
127 766 2476
134 764 2471
141 763 2466
148 763 2468
156 763 2467
163 762 2463
170 763 2467
178 763 2467
184 760 2455
192 762 2462
199 760 2455
206 759 2451
213 759 2451
221 759 2451
227 756 2442
236 760 2453
242 756 2441
250 758 2447
256 755 2437
263 755 2435
271 756 2437
279 757 2442
284 753 2428
292 754 2431
299 752 2423
305 750 2417
313 751 2420
320 752 2420
326 749 2412
333 749 2410
340 748 2407
348 750 2411
354 747 2402
361 746 2399
369 747 2401
375 744 2392
383 746 2395
389 744 2390
396 743 2384
403 743 2384
410 743 2383
416 742 2378
423 741 2375
431 742 2378
439 744 2383
445 741 2374
451 740 2368
447 722 2308
467 742 2371
472 738 2359
478 737 2354
486 737 2355
491 735 2345
499 736 2350
506 736 2348
513 736 2345
518 733 2336
526 733 2336
535 736 2343
542 736 2341
549 736 2341
554 733 2329
559 731 2322
566 731 2320
573 730 2318
580 731 2317
587 730 2313
593 729 2309
602 731 2315
613 735 2326
620 735 2324
627 735 2322
630 731 2307
635 728 2298
642 728 2296
648 726 2289
656 728 2292
664 728 2292
668 725 2280
675 726 2280
683 726 2280
690 726 2279
696 725 2275
704 726 2275
713 728 2280
718 726 2270
726 727 2273
732 725 2266
737 724 2260
748 727 2269
752 725 2259
761 726 2261
767 725 2257
775 726 2257
783 727 2258
787 725 2249
796 726 2250
804 727 2253
809 725 2244
818 726 2246
822 724 2237
832 726 2241
835 723 2228
843 724 2230
850 724 2228
853 720 2214
864 723 2222
876 728 2233
882 727 2228
886 724 2218
888 720 2203
894 719 2198
903 720 2199
910 720 2196
916 720 2192
925 722 2195
933 722 2193
936 719 2182
945 721 2185
950 719 2177
959 720 2179
962 717 2167
969 717 2164
975 716 2159
980 715 2154
998 723 2174
1022 735 2208
1017 726 2179
1039 737 2209
1044 735 2201
1044 730 2182
1036 720 2147
1039 717 2136
1028 705 2098
1001 682 2025
975 660 1957
788 530 1567
750 500 1478
697 462 1362
722 476 1401
714 467 1373
724 471 1382
832 538 1577
922 592 1735
941 600 1757
944 599 1750
954 601 1754
949 594 1732
957 596 1733
961 595 1727
958 589 1708
969 592 1714
981 596 1724
989 597 1724
985 592 1705
999 596 1716
1017 603 1733
1011 596 1710
-1397 841 2320
-1387 839 2320
-1382 841 2330
-1364 835 2317
-1351 832 2312
-1326 821 2286
-1327 826 2305
-1324 830 2318
-1307 823 2305
-1294 820 2301
-1269 809 2273
-1258 807 2272
-1248 805 2270
-1232 800 2259
-1237 808 2285
-1212 797 2257
-1205 797 2262
-1190 792 2250
-1178 789 2246
-1169 788 2247
-1157 784 2240
-1152 786 2247
-1138 781 2238
-1130 781 2241
-1111 773 2220
-1101 771 2220
-1087 766 2207
-1075 762 2201
-1036 740 2140
-984 708 2049
-955 691 2003
-952 694 2015
-956 702 2040
-956 706 2057
-956 711 2074
-949 711 2076
-948 715 2090
-952 724 2118
-967 740 2170
-977 753 2210
-967 751 2207
-971 759 2236
-967 762 2246
-964 765 2257
-957 765 2261
-954 768 2272
-953 773 2291
-946 774 2295
-946 780 2315
-940 780 2321
-939 786 2341
-933 787 2346
-925 787 2347
-923 791 2363
-922 796 2382
-916 798 2390
-912 801 2402
-909 805 2417
-906 809 2431
-902 812 2442
-892 809 2438
-888 813 2451
-885 817 2466
-878 818 2470
-873 820 2481
-870 824 2496
-865 827 2506
-856 826 2507
-856 833 2531
-853 838 2548
-845 838 2550
-843 844 2570
-839 848 2585
-834 851 2597
-827 852 2601
-819 852 2605
-812 853 2611
-810 859 2631
-800 858 2629
-791 857 2628
-784 858 2634
-777 859 2639
-771 861 2649
-761 859 2645
-753 859 2646
-750 865 2668
-737 859 2650
-735 866 2675
-724 863 2666
-712 858 2653
-708 863 2670
-701 864 2678
-690 861 2669
-684 864 2680
-676 863 2680
-661 854 2654
-651 852 2649
-647 857 2667
-634 851 2650
-623 847 2640
-615 847 2640
-611 852 2659
-603 852 2659
-595 853 2664
-586 851 2659
-579 853 2666
-570 850 2661
-559 847 2651
-552 849 2658
-542 845 2650
-535 847 2656
-514 826 2592
-455 743 2331
-431 715 2246
0 0 0
0 0 0
0 0 0
0 0 0
-415 747 2351
0 0 0
-411 765 2410
0 0 0
-382 738 2326
-371 729 2300
-360 722 2280
-352 720 2273
-345 718 2269
-327 695 2195
-309 672 2123
-319 707 2238
-317 718 2271
-304 703 2225
-280 661 2093
-279 674 2135
-281 696 2205
-293 742 2353
-279 724 2295
-262 696 2208
-264 721 2289
-242 678 2153
-254 730 2317
-237 702 2230
-229 696 2212
-221 693 2202
-219 708 2250
-208 693 2203
-204 700 2227
-193 685 2180
-192 708 2254
-190 724 2304
-182 719 2289
-172 706 2250
-158 675 2149
-154 689 2195
-147 685 2184
-147 715 2280
-140 716 2283
-140 749 2389
-119 674 2151
-120 719 2295
-118 745 2380
-107 717 2289
-99 713 2279
-86 668 2132
-83 696 2223
-73 659 2106
-71 705 2254
-63 689 2203
-56 684 2187
-51 699 2233
-44 702 2244
-37 698 2231
-31 710 2270
-25 714 2284
-19 750 2398
-12 776 2483
-5 795 2543
1 809 2591
9 801 2564
16 771 2467
23 761 2435
30 758 2427
37 754 2412
43 730 2338
50 726 2325
56 719 2302
62 710 2273
70 718 2297
78 733 2346
87 747 2391
96 765 2448
105 777 2487
113 781 2500
120 778 2489
127 773 2473
134 773 2473
141 771 2467
149 772 2470
157 775 2481
164 776 2481
171 772 2470
178 770 2461
185 770 2462
192 769 2459
199 766 2449
207 768 2457
214 769 2458
221 766 2449
227 764 2440
235 766 2447
242 765 2445
249 763 2436
256 764 2439
263 762 2434
271 763 2436
277 761 2427
284 760 2424
292 762 2430
298 759 2419
305 757 2414
313 759 2419
320 758 2415
327 757 2411
333 756 2408
341 757 2411
348 756 2408
355 756 2406
363 756 2407
369 755 2401
376 754 2399
383 753 2394
389 750 2385
397 753 2392
403 751 2385
411 753 2389
417 750 2380
425 750 2380
431 748 2373
438 748 2371
446 751 2378
450 745 2358
445 725 2294
465 747 2362
474 748 2367
478 744 2352
487 747 2361
493 745 2353
501 746 2355
505 741 2340
513 743 2343
520 742 2341
527 743 2341
535 744 2344
538 738 2323
549 743 2336
554 740 2328
562 742 2332
568 740 2324
574 739 2320
580 736 2311
588 738 2315
594 737 2311
604 740 2318
609 738 2311
619 741 2319
624 739 2311
631 739 2309
636 736 2299
642 735 2293
651 737 2297
656 735 2290
660 731 2278
666 730 2271
671 727 2262
682 732 2276
689 732 2274
696 731 2270
704 733 2273
712 734 2274
722 737 2283
729 736 2278
736 737 2278
741 734 2269
749 736 2271
754 734 2263
762 734 2262
769 734 2260
773 732 2250
783 734 2255
790 734 2253
794 731 2243
801 731 2240
809 732 2242
812 728 2228
825 733 2242
830 732 2235
835 730 2228
840 728 2219
849 730 2222
855 729 2217
866 732 2225
877 735 2232
882 734 2226
882 728 2206
890 729 2206
895 727 2198
902 726 2194
910 728 2196
918 729 2196
924 728 2191
932 728 2189
937 727 2183
943 726 2177
951 727 2178
958 727 2176
965 727 2172
969 725 2163
973 722 2154
979 721 2148
1006 736 2190
1027 746 2216
1017 734 2178
1039 744 2207
1042 741 2194
1040 735 2173
1039 729 2153
1038 723 2132
1021 706 2080
1003 690 2028
947 646 1897
762 517 1512
726 489 1430
699 468 1366
712 473 1379
739 488 1420
746 490 1423
857 559 1623
924 599 1738
940 606 1754
944 604 1747
956 608 1756
950 601 1732
971 610 1757
974 608 1749
975 605 1737
984 608 1740
985 604 1728
998 609 1738
998 605 1725
1001 603 1717
1006 603 1712
1011 602 1707
-1393 846 2310
-1389 849 2321
-1372 843 2311
-1373 848 2329
-1349 838 2306
-1338 836 2304
-1334 838 2315
-1309 828 2290
-1299 826 2289
-1284 822 2280
-1273 819 2278
-1267 821 2285
-1250 814 2272
-1242 814 2274
-1223 806 2257
-1217 807 2264
-1206 805 2261
-1190 799 2248
-1182 799 2250
-1178 801 2260
-1158 793 2240
-1146 789 2234
-1135 787 2230
-1122 783 2222
-1110 780 2217
-1098 776 2210
-1093 778 2218
-1082 775 2214
-1048 756 2162
-994 722 2067
-963 704 2018
-951 700 2011
-954 707 2034
-960 716 2064
-954 717 2067
-948 717 2073
-947 722 2088
-951 729 2113
-961 743 2155
-976 759 2206
-975 764 2223
-971 766 2232
-965 767 2238
-959 768 2244
-961 775 2268
-954 776 2272
-949 778 2281
-945 780 2290
-944 785 2309
-942 789 2324
-937 792 2333
-935 796 2348
-929 797 2355
-925 800 2366
-921 803 2377
-917 806 2390
-911 808 2397
-906 810 2406
-901 812 2414
-899 817 2432
-891 816 2434
-885 818 2442
-876 817 2440
-876 824 2464
-872 827 2476
-863 826 2476
-863 834 2501
-854 832 2498
-854 840 2524
-851 845 2541
-851 852 2566
-842 851 2565
-838 855 2580
-833 858 2591
-826 859 2598
-816 857 2593
-809 858 2600
-797 854 2589
-797 863 2618
-787 860 2612
-776 857 2606
-774 863 2626
-767 865 2634
-758 863 2630
-751 865 2637
-742 864 2637
-733 862 2634
-726 863 2639
-715 861 2633
-710 863 2643
-703 865 2650
-691 860 2636
-681 857 2630
-675 860 2641
-662 854 2623
-652 851 2616
-649 857 2638
-638 854 2630
-630 854 2631
-614 843 2598
-607 844 2605
-605 852 2630
-594 847 2617
-587 849 2625
-575 844 2610
-566 841 2604
-558 841 2604
-552 844 2615
-538 835 2588
-528 831 2579
-519 829 2572
-498 808 2511
-465 767 2382
-485 811 2522
-474 806 2507
0 0 0
0 0 0
0 0 0
0 0 0
0 0 0
0 0 0
0 0 0
0 0 0
-353 701 2189
-354 717 2240
-345 712 2227
-346 727 2273
-337 723 2263
-315 691 2162
-319 712 2229
-302 691 2164
-301 703 2203
-316 754 2363
-297 725 2275
-286 714 2241
-288 736 2309
-274 717 2250
-253 679 2131
-259 714 2244
-252 714 2244
-238 691 2172
-233 695 2185
-240 736 2317
-222 702 2210
-214 699 2200
-206 693 2181
-196 681 2143
-198 712 2243
-190 705 2222
-183 704 2218
-174 696 2194
-171 709 2235
-168 725 2287
-154 695 2191
-149 699 2207
-148 727 2295
-140 720 2272
-140 758 2393
-142 808 2552
-139 833 2633
-129 819 2591
-115 779 2461
-104 752 2377
-94 730 2307
-84 709 2243
-75 685 2166
-66 665 2102
-63 697 2204
-57 697 2206
-50 692 2188
-43 696 2204
-39 731 2313
-33 760 2405
-27 789 2499
-21 824 2610
-13 835 2645
-5 799 2532
2 774 2451
9 747 2365
16 747 2367
23 742 2351
29 737 2335
36 723 2289
42 713 2260
48 709 2245
55 710 2250
61 701 2221
69 712 2255
77 728 2305
86 743 2354
95 762 2415
104 775 2455
113 787 2494
120 782 2478
127 782 2477
135 784 2483
142 785 2485
151 790 2501
159 792 2508
166 792 2507
172 785 2484
178 780 2470
184 774 2451
192 777 2458
200 778 2463
206 773 2444
214 775 2453
220 772 2441
228 775 2450
235 773 2445
243 773 2445
249 771 2439
257 772 2440
264 770 2434
270 769 2430
278 771 2434
285 768 2425
292 768 2425
300 769 2427
306 768 2424
313 766 2415
321 767 2419
327 764 2409
334 763 2406
342 765 2412
348 763 2404
355 763 2402
361 760 2393
368 761 2394
376 762 2398
383 761 2393
390 760 2391
397 760 2389
403 757 2380
409 756 2375
418 759 2383
425 758 2380
431 757 2374
438 756 2372
446 757 2372
450 752 2357
448 737 2310
465 753 2358
475 757 2371
479 753 2356
486 753 2354
494 753 2355
499 750 2343
505 749 2339
514 752 2348
521 752 2346
527 750 2338
534 749 2334
542 751 2340
548 749 2333
554 748 2327
562 749 2330
567 746 2320
573 744 2311
581 746 2316
588 746 2314
598 748 2321
604 747 2316
610 746 2312
620 750 2322
623 745 2305
630 744 2301
638 745 2303
642 742 2291
649 742 2290
652 738 2275
658 736 2268
665 736 2267
675 739 2274
683 740 2275
690 740 2276
696 739 2270
704 740 2271
715 744 2283
722 744 2278
726 741 2269
734 741 2268
740 740 2263
744 737 2252
750 737 2248
759 738 2250
770 742 2261
777 742 2259
784 742 2258
789 740 2250
796 740 2247
801 738 2240
806 736 2231
815 738 2235
821 737 2230
826 735 2222
835 737 2225
841 736 2220
851 738 2225
856 736 2217
868 741 2227
875 741 2227
880 739 2219
884 736 2208
890 736 2204
896 735 2199
902 734 2194
912 736 2198
916 734 2188
924 734 2187
931 734 2185
938 734 2182
947 736 2184
954 736 2182
957 733 2171
962 731 2163
970 732 2162
975 730 2155
984 732 2158
1000 738 2173
1016 745 2190
1030 750 2203
1039 751 2204
1043 749 2194
1044 745 2178
1041 737 2154
1038 730 2130
1022 714 2079
999 694 2017
913 629 1827
754 516 1495
709 483 1395
719 486 1402
722 484 1397
727 485 1397
760 503 1447
881 580 1667
922 604 1732
936 609 1744
945 611 1748
941 604 1727
951 607 1731
955 606 1725
970 612 1740
976 612 1737
979 610 1730
987 611 1730
990 609 1721
985 603 1701
1005 612 1722
1010 611 1717
1010 608 1705
-1407 863 2331
-1388 856 2317
-1375 853 2313
-1355 846 2297
-1356 851 2316
-1339 845 2304
-1323 840 2294
-1321 843 2308
-1296 832 2282
-1294 836 2295
-1278 830 2284
-1270 830 2288
-1249 821 2268
-1241 821 2270
-1231 819 2270
-1217 815 2261
-1209 814 2263
-1194 810 2254
-1186 809 2256
-1171 804 2244
-1164 804 2249
-1150 800 2240
-1141 798 2240
-1126 793 2229
-1119 793 2233
-1104 788 2220
-1091 783 2211
-1085 784 2217
-1063 774 2190
-1000 733 2077
-963 711 2018
-954 709 2016
-953 713 2029
-958 721 2057
-953 723 2064
-952 727 2079
-949 730 2090
-954 738 2117
-961 749 2151
-971 763 2193
-974 770 2218
-966 769 2219
-960 770 2224
-960 777 2245
-954 777 2249
-957 786 2278
-950 786 2281
-949 791 2298
-947 796 2315
-943 798 2324
-940 802 2339
-931 800 2336
-927 803 2347
-925 807 2364
-920 810 2372
-908 806 2364
-910 814 2391
-906 818 2404
-899 818 2407
-895 821 2419
-883 817 2409
-882 823 2430
-881 829 2450
-874 830 2457
-871 834 2471
-866 837 2483
-861 839 2491
-859 845 2511
-854 847 2521
-851 852 2537
-847 856 2552
-838 855 2552
-831 856 2557
-824 857 2563
-817 858 2567
-809 858 2569
-802 859 2574
-798 863 2590
-788 861 2585
-783 864 2597
-776 865 2603
-766 863 2598
-758 863 2600
-753 866 2611
-746 868 2619
-737 866 2617
-733 870 2631
-718 862 2609
-715 868 2628
-704 865 2620
-693 862 2613
-678 852 2586
-674 857 2601
-670 862 2619
-662 862 2623
-656 864 2630
-644 859 2617
-640 864 2633
-628 859 2620
-614 851 2597
-604 847 2587
-600 854 2609
-596 859 2625
-583 851 2605
-576 852 2610
-568 852 2611
-562 855 2621
-553 854 2621
-541 847 2598
-530 842 2587
-520 839 2578
-501 821 2523
-455 758 2329
-446 754 2321
0 0 0
-444 775 2388
0 0 0
0 0 0
0 0 0
0 0 0
0 0 0
-380 735 2270
-368 725 2240
-379 760 2348
-354 723 2235
-358 746 2309
-349 742 2297
-319 691 2140
-317 702 2175
-309 697 2159
-302 696 2159
-313 738 2289
-304 732 2273
-286 704 2186
-276 696 2163
-270 698 2168
-263 696 2163
-256 695 2162
-252 702 2184
-254 726 2258
-249 730 2273
-237 716 2228
-231 715 2227
-225 719 2241
-219 720 2244
-207 703 2190
-204 716 2231
-203 736 2295
-198 743 2319
-189 734 2289
-174 703 2193
-165 690 2154
-161 703 2194
-157 715 2232
-157 746 2330
-155 767 2398
-152 792 2475
-153 836 2614
-147 846 2648
-140 848 2654
-126 814 2546
-115 787 2464
-109 795 2489
-100 786 2459
-88 750 2349
-79 725 2269
-73 736 2303
-65 729 2282
-57 716 2242
-54 758 2375
-49 794 2489
-43 819 2568
-36 829 2598
-28 819 2568
-20 806 2527
-12 772 2421
-4 751 2353
2 728 2282
8 733 2297
15 731 2292
22 731 2290
29 737 2310
36 734 2301
41 706 2214
47 699 2192
54 700 2196
61 701 2199
68 711 2229
77 729 2286
85 745 2336
94 761 2387
103 777 2435
111 781 2448
119 788 2471
129 800 2509
136 797 2500
144 803 2517
152 804 2520
162 815 2554
166 799 2505
173 798 2500
180 795 2491
186 788 2469
192 784 2456
200 785 2460
206 782 2448
214 783 2453
221 781 2445
229 782 2449
236 782 2449
243 781 2446
250 779 2438
257 780 2441
264 779 2437
271 778 2432
278 778 2432
285 775 2424
292 776 2426
300 778 2430
306 775 2421
313 773 2416
321 775 2421
328 775 2418
334 772 2408
342 773 2411
348 771 2404
355 771 2402
362 769 2397
368 767 2390
377 770 2398
384 770 2399
391 769 2394
397 767 2386
403 766 2381
412 768 2387
419 767 2384
425 766 2380
432 765 2377
439 765 2375
446 764 2371
451 760 2359
448 744 2308
466 761 2360
474 764 2367
479 760 2354
487 762 2358
495 761 2356
501 760 2352
508 760 2351
515 760 2348
521 758 2340
527 757 2337
534 757 2335
541 756 2332
548 756 2330
555 755 2327
560 753 2318
568 754 2321
575 753 2317
583 754 2319
588 752 2311
597 754 2316
604 755 2316
609 752 2307
617 753 2309
626 755 2313
629 750 2297
636 750 2295
642 749 2290
646 745 2275
650 741 2263
658 743 2267
669 747 2278
675 746 2273
684 748 2278
695 752 2289
702 752 2286
712 755 2294
723 760 2306
724 753 2284
731 753 2280
734 749 2268
738 746 2257
745 746 2254
755 748 2261
763 749 2261
771 750 2262
780 752 2265
788 752 2265
789 747 2248
794 745 2240
803 747 2243
811 748 2243
816 746 2235
821 744 2226
828 744 2226
835 744 2222
843 745 2223
849 743 2217
856 744 2216
865 745 2218
874 747 2221
880 746 2215
887 746 2213
892 744 2206
894 740 2192
905 744 2199
909 741 2189
919 743 2192
925 742 2187
933 743 2187
940 743 2186
944 740 2175
953 742 2177
957 740 2168
962 738 2161
958 730 2134
978 740 2160
987 741 2161
1016 757 2206
1030 762 2218
1029 756 2198
1039 759 2202
1043 756 2191
1039 748 2166
1036 741 2142
1038 737 2128
1014 715 2061
998 699 2013
877 610 1753
784 542 1554
702 482 1378
711 485 1385
713 483 1378
736 496 1413
771 516 1468
888 590 1679
925 611 1735
942 618 1753
941 614 1738
957 620 1754
960 619 1746
969 621 1750
973 619 1742
976 617 1734
981 617 1730
980 613 1716
985 612 1711
999 617 1723
1010 620 1728
1012 618 1718
1018 618 1715
-1396 864 2311
-1388 864 2315
-1385 867 2327
-1365 859 2311
-1346 852 2296
-1332 848 2289
-1324 848 2294
-1315 848 2296
-1304 845 2293
-1287 839 2281
-1280 839 2286
-1272 839 2289
-1252 831 2271
-1252 836 2288
-1233 828 2271
-1216 822 2256
-1196 814 2238
-1195 818 2254
-1182 814 2247
-1174 814 2249
-1163 811 2245
-1151 807 2239
-1144 808 2244
-1123 799 2221
-1112 795 2216
-1106 796 2222
-1093 792 2213
-1083 790 2212
-1075 790 2214
-1012 748 2100
-967 720 2023
-953 715 2011
-953 720 2029
-955 726 2048
-954 730 2064
-950 732 2072
-948 735 2085
-950 743 2108
-956 752 2138
-975 773 2199
-970 775 2208
-969 779 2223
-964 781 2232
-957 781 2235
-954 784 2247
-952 789 2263
-952 795 2284
-947 797 2292
-944 800 2304
-940 803 2316
-934 804 2321
-932 809 2338
-928 811 2348
-921 812 2352
-917 815 2363
-913 818 2374
-908 820 2385
-900 819 2384
-894 821 2393
-893 827 2413
-888 829 2421
-885 834 2438
-878 834 2442
-877 840 2462
-874 845 2477
-869 848 2489
-864 850 2498
-860 853 2511
-855 856 2522
-847 856 2525
-839 856 2527
-834 859 2538
-824 857 2532
-822 863 2554
-812 861 2551
-807 864 2562
-802 866 2571
-793 866 2572
-783 863 2566
-775 864 2569
-773 870 2591
-763 867 2585
-757 870 2596
-752 873 2605
-742 871 2602
-732 868 2596
-726 871 2607
-716 868 2600
-707 867 2597
-695 861 2583
-678 850 2551
-670 850 2554
-658 845 2541
-656 852 2563
-655 862 2594
-649 864 2602
-643 866 2611
-633 864 2606
-626 864 2609
-615 860 2598
-603 854 2583
-595 854 2583
-588 856 2591
-581 856 2594
-574 857 2598
-569 862 2613
-561 863 2618
-551 859 2608
-546 864 2624
-537 861 2618
-527 858 2609
-509 841 2559
-458 770 2344
-457 780 2374
0 0 0
0 0 0
0 0 0
-421 767 2342
-443 820 2505
0 0 0
0 0 0
0 0 0
-383 762 2330
-382 772 2364
0 0 0
-347 730 2236
-335 719 2203
-331 723 2218
-326 727 2229
-319 726 2228
-319 743 2279
-317 754 2315
-299 727 2233
-294 731 2245
-287 731 2248
-269 702 2159
-275 733 2255
-256 701 2159
-251 705 2170
-244 703 2165
-246 728 2243
-243 740 2280
-226 707 2179
-225 726 2239
-212 705 2174
-211 723 2232
-198 703 2168
-194 711 2194
-194 736 2272
-173 682 2105
-178 723 2234
-170 720 2225
-165 727 2249
-150 691 2135
-160 764 2362
-160 799 2474
-139 732 2266
-142 783 2423
-149 865 2680
-137 841 2605
-122 792 2452
-115 795 2463
-113 835 2587
-105 835 2587
-95 814 2522
-85 788 2444
-80 815 2527
-71 798 2474
-65 810 2512
-59 829 2572
-52 841 2609
-44 839 2602
-35 804 2494
-26 765 2372
-18 742 2302
-11 730 2264
-4 728 2257
2 725 2251
8 721 2238
15 733 2274
23 761 2363
31 789 2451
38 787 2443
43 751 2331
48 715 2219
54 710 2204
62 724 2248
70 735 2281
77 741 2300
86 756 2346
94 769 2386
103 783 2432
111 790 2453
120 800 2482
130 813 2524
138 820 2545
145 812 2520
151 804 2495
159 811 2518
172 835 2591
174 809 2511
181 805 2498
187 801 2485
193 792 2457
200 793 2460
207 790 2449
214 790 2448
222 791 2451
229 789 2447
236 790 2447
243 789 2445
250 787 2439
257 786 2435
263 784 2426
272 786 2435
279 786 2433
286 785 2429
293 785 2428
299 783 2422
306 782 2417
314 782 2418
320 780 2410
328 781 2415
334 778 2404
341 778 2402
349 779 2406
356 779 2404
362 775 2393
369 776 2393
376 776 2393
384 776 2393
389 773 2381
397 773 2382
404 774 2385
412 774 2384
419 775 2384
425 772 2376
431 771 2369
438 769 2365
446 772 2372
451 768 2360
449 752 2308
463 764 2345
474 770 2363
480 768 2354
486 766 2348
493 766 2346
500 766 2347
507 766 2343
515 767 2346
521 765 2338
529 766 2340
535 765 2336
542 765 2335
548 763 2328
555 762 2325
564 765 2331
569 763 2323
574 760 2313
580 758 2307
590 761 2315
598 763 2318
606 764 2320
609 758 2302
618 761 2309
625 761 2306
630 758 2297
635 756 2289
642 756 2287
647 753 2277
657 756 2285
662 754 2278
673 759 2290
680 759 2289
689 761 2293
697 762 2294
711 769 2314
715 766 2301
721 765 2297
725 761 2285
726 754 2262
729 751 2250
737 751 2250
746 754 2255
755 755 2257
763 757 2260
773 759 2265
784 763 2274
789 760 2265
795 759 2260
799 757 2251
801 752 2235
811 754 2239
816 753 2232
821 751 2226
828 751 2222
837 752 2225
843 752 2221
852 753 2223
856 751 2214
869 755 2225
878 757 2229
879 752 2211
885 751 2206
890 749 2198
895 748 2192
904 749 2194
912 750 2194
917 748 2185
924 748 2182
931 748 2180
943 752 2189
941 745 2167
951 747 2170
957 747 2166
963 746 2161
968 744 2153
980 748 2161
990 750 2165
1018 766 2209
1011 755 2174
1030 765 2199
1040 766 2200
1043 763 2190
1039 755 2162
1035 747 2137
1036 743 2122
1014 722 2060
995 704 2004
838 588 1672
733 511 1449
710 492 1393
705 486 1373
739 506 1428
710 482 1359
784 530 1491
899 604 1699
932 621 1746
933 619 1736
948 625 1750
954 624 1747
952 619 1730
964 623 1738
971 624 1737
975 623 1731
989 628 1743
976 616 1706
993 623 1724
991 618 1707
1004 623 1717
1010 622 1713
1015 622 1710
-1399 874 2313
-1387 871 2311
-1372 867 2302
-1370 870 2317
-1347 861 2294
-1334 857 2290
-1326 857 2295
-1313 854 2289
-1302 852 2287
-1290 849 2284
-1284 850 2291
-1269 845 2282
-1246 834 2257
-1240 836 2264
-1228 833 2260
-1214 828 2252
-1203 826 2249
-1194 825 2250
-1187 825 2254
-1169 818 2237
-1167 821 2251
-1150 814 2235
-1140 812 2234
-1122 805 2216
-1115 805 2219
-1106 804 2219
-1102 806 2229
-1085 799 2214
-1078 799 2216
-1027 767 2130
-980 737 2050
-953 721 2010
-951 725 2022
-955 732 2046
-955 738 2065
-955 743 2082
-951 745 2091
-948 748 2101
-955 759 2134
-968 774 2181
-971 783 2208
-967 785 2217
-963 787 2227
-960 790 2239
-953 791 2244
-950 795 2256
-947 798 2270
-942 800 2277
-939 803 2289
-936 807 2304
-937 814 2326
-930 814 2329
-927 818 2343
-919 817 2344
-916 821 2358
-906 820 2356
-905 825 2374
-901 828 2385
-895 829 2392
-894 835 2412
-892 840 2429
-888 844 2442
-879 842 2441
-875 847 2455
-877 855 2484
-869 856 2487
-863 857 2494
-853 854 2488
-849 859 2504
-842 859 2507
-838 863 2520
-832 865 2528
-824 865 2531
-813 861 2523
-810 866 2540
-798 863 2531
-794 866 2544
-788 869 2554
-777 865 2546
-772 868 2558
-764 868 2557
-757 869 2564
-748 867 2561
-740 867 2564
-733 869 2569
-724 867 2566
-714 864 2559
-709 868 2574
-698 864 2562
-680 851 2526
-664 840 2497
-662 848 2521
-657 851 2534
-655 859 2557
-650 862 2569
-647 869 2592
-638 868 2589
-629 866 2588
-619 863 2579
-610 862 2577
-604 864 2585
-589 854 2557
-582 854 2560
-573 852 2556
-571 861 2583
-563 861 2586
-558 865 2598
-552 869 2612
-543 866 2606
-539 872 2625
-526 865 2605
-510 851 2563
-468 794 2393
-452 778 2347
0 0 0
-472 838 2530
0 0 0
-458 842 2544
0 0 0
0 0 0
0 0 0
-383 755 2286
-385 771 2337
0 0 0
-372 774 2348
-361 766 2325
-334 723 2194
-329 727 2206
-342 770 2338
-333 766 2329
-316 742 2256
-302 724 2201
-300 736 2240
-292 733 2231
-290 745 2267
-271 712 2168
-277 746 2273
-265 731 2228
-271 768 2341
-240 700 2133
-240 718 2189
-233 715 2182
-226 716 2186
-224 728 2223
-222 746 2278
-209 724 2212
-215 768 2348
-199 735 2247
-192 733 2241
-183 727 2223
-176 722 2208
-169 720 2203
-159 706 2160
-158 731 2238
-154 743 2276
-143 725 2222
-132 702 2149
-127 711 2179
-138 808 2478
-133 821 2519
-117 770 2361
-114 795 2440
-113 840 2576
-105 837 2568
-97 839 2575
-91 850 2610
-83 847 2601
-75 844 2593
-67 842 2587
-59 843 2590
-50 816 2505
-41 800 2456
-32 760 2336
-24 728 2237
-17 731 2245
-11 730 2243
-4 727 2232
2 724 2225
8 729 2239
16 761 2338
24 802 2463
31 811 2494
38 800 2460
45 789 2425
50 753 2315
55 726 2230
63 746 2292
71 760 2335
79 768 2362
86 768 2360
95 785 2411
103 786 2415
112 800 2460
119 798 2452
126 796 2447
136 816 2508
137 775 2380
149 800 2459
157 807 2478
159 781 2399
176 824 2530
183 823 2529
188 810 2487
194 807 2479
201 805 2472
207 799 2454
214 798 2449
222 798 2448
229 797 2446
236 798 2449
243 797 2444
250 794 2436
257 793 2432
265 795 2437
271 793 2429
279 795 2435
286 793 2429
292 790 2420
300 791 2423
307 791 2422
314 790 2419
320 788 2411
327 787 2407
335 787 2407
343 789 2413
349 787 2405
356 787 2405
362 784 2396
369 784 2393
376 782 2387
384 783 2391
390 782 2385
396 780 2379
404 781 2380
412 782 2383
417 779 2372
424 779 2371
432 779 2370
439 779 2370
445 777 2364
452 777 2362
452 764 2323
462 769 2335
476 780 2369
480 775 2352
487 775 2351
494 775 2350
501 774 2345
509 775 2348
515 774 2343
522 774 2341
526 769 2327
534 770 2328
542 772 2332
548 770 2326
557 772 2331
563 770 2325
570 771 2324
576 769 2318
582 768 2313
589 767 2309
597 768 2311
603 767 2307
611 768 2308
617 767 2302
624 767 2303
633 769 2306
637 766 2294
643 765 2290
651 765 2288
660 767 2293
667 767 2292
675 768 2294
683 769 2294
690 769 2294
701 773 2303
709 774 2306
711 769 2288
719 769 2287
712 755 2242
718 754 2237
728 757 2244
734 756 2239
745 760 2250
756 763 2259
763 763 2256
767 760 2245
776 762 2250
785 764 2254
792 764 2250
800 764 2250
807 764 2248
811 762 2239
819 763 2239
822 759 2225
829 758 2222
835 757 2217
842 758 2217
850 758 2215
859 760 2219
867 761 2218
878 764 2226
881 761 2213
885 758 2204
892 758 2202
898 757 2197
905 757 2194
911 757 2189
916 755 2182
927 758 2188
932 756 2182
938 755 2176
947 757 2178
951 755 2169
960 756 2170
965 754 2162
972 754 2159
978 753 2154
986 754 2155
1029 782 2231
1028 775 2208
1034 774 2204
1042 775 2203
1042 770 2185
1037 761 2157
1037 756 2139
1028 744 2103
1011 726 2050
986 704 1984
807 572 1608
713 502 1408
713 499 1398
707 491 1375
709 489 1367
753 517 1442
809 552 1538
916 621 1729
934 629 1749
941 630 1748
950 631 1750
956 632 1749
951 625 1727
974 636 1754
973 631 1740
978 631 1734
986 632 1736
992 632 1732
994 629 1722
996 627 1713
1004 629 1715
1013 630 1716
1017 629 1711
-1393 878 2301
-1392 883 2317
-1380 880 2314
-1369 878 2313
-1358 876 2311
-1344 871 2304
-1327 866 2293
-1304 856 2272
-1306 862 2292
-1294 859 2288
-1281 856 2283
-1271 854 2282
-1259 851 2278
-1245 847 2270
-1230 842 2261
-1219 839 2259
-1215 841 2268
-1194 832 2246
-1191 835 2258
-1170 826 2237
-1166 828 2246
-1160 829 2252
-1136 817 2223
-1129 817 2228
-1124 819 2235
-1114 817 2235
-1104 815 2231
-1083 805 2207
-1076 805 2211
-1037 781 2149
-984 746 2054
-958 731 2017
-952 732 2022
-951 736 2036
-960 749 2073
-955 750 2079
-950 751 2086
-947 754 2097
-949 761 2120
-963 777 2168
-970 789 2203
-961 787 2202
-963 795 2227
-961 799 2240
-954 799 2244
-954 805 2262
-945 803 2262
-944 809 2280
-944 815 2299
-937 815 2304
-935 820 2320
-927 820 2321
-928 826 2343
-919 825 2343
-917 830 2359
-912 832 2368
-910 837 2386
-906 841 2398
-905 846 2417
-899 848 2424
-893 849 2431
-892 855 2451
-880 851 2442
-877 856 2456
-871 858 2465
-864 858 2469
-859 861 2479
-847 857 2471
-841 859 2478
-836 861 2488
-827 860 2485
-820 860 2490
-813 861 2495
-806 862 2500
-801 865 2511
-792 863 2507
-786 865 2517
-783 871 2535
-771 866 2521
-761 864 2519
-750 860 2511
-742 859 2509
-737 863 2523
-732 866 2534
-722 864 2529
-713 862 2526
-705 861 2527
-702 868 2547
-686 857 2517
-669 845 2484
-666 851 2504
-664 859 2529
-661 865 2548
-659 872 2570
-649 869 2565
-643 872 2574
-635 872 2577
-627 871 2575
-617 868 2568
-608 866 2565
-599 865 2562
-588 861 2552
-581 861 2555
-571 858 2548
-563 857 2546
-554 855 2542
-546 855 2544
-539 857 2549
-532 857 2551
-523 855 2547
-514 852 2541
-494 833 2484
-462 791 2362
-445 774 2310
-433 764 2283
-454 814 2433
-429 783 2340
-450 833 2494
-414 781 2339
0 0 0
-399 779 2334
-386 767 2299
-374 757 2271
-358 739 2216
-364 765 2296
-348 745 2237
-351 766 2300
-341 760 2285
-331 752 2262
-316 734 2208
-318 753 2266
-312 756 2277
-296 733 2207
-287 728 2192
-282 733 2208
-281 746 2249
-262 715 2155
-252 702 2118
-262 750 2264
-254 745 2249
-252 761 2298
-226 703 2123
-223 713 2154
-222 729 2203
-216 731 2211
-215 751 2273
-197 713 2157
-194 725 2194
-195 751 2274
-183 732 2215
-178 739 2239
-169 728 2207
-157 707 2142
-159 742 2249
-150 731 2216
-139 710 2152
-133 715 2169
-128 723 2194
-129 767 2327
-124 777 2359
-118 784 2381
-114 804 2441
-113 848 2577
-107 863 2622
-99 860 2613
-90 853 2593
-82 847 2573
-74 841 2557
-65 833 2534
-55 796 2420
-45 747 2272
-38 747 2270
-31 739 2245
-24 734 2231
-17 733 2229
-10 724 2203
-4 725 2206
2 730 2220
9 749 2278
16 771 2346
23 795 2420
31 794 2416
37 778 2366
44 772 2350
51 766 2331
56 741 2254
63 747 2274
72 772 2349
80 787 2395
88 790 2403
95 792 2411
106 822 2501
114 822 2501
119 806 2453
128 815 2480
130 782 2379
134 765 2326
141 768 2336
150 776 2361
154 760 2312
163 769 2339
172 780 2370
183 798 2427
197 827 2514
202 815 2477
209 813 2471
216 811 2465
223 810 2463
230 809 2458
238 812 2466
244 806 2449
251 806 2448
258 805 2443
264 799 2425
271 800 2426
278 798 2422
286 799 2424
293 800 2426
299 796 2414
308 800 2424
313 795 2409
321 796 2410
328 795 2407
335 796 2411
342 793 2402
348 792 2398
355 792 2395
362 791 2392
368 789 2384
377 792 2393
384 790 2388
389 786 2374
396 787 2376
403 787 2374
411 787 2376
419 789 2379
426 788 2375
433 787 2372
440 788 2374
446 785 2364
453 786 2364
454 775 2332
460 772 2322
475 786 2364
480 783 2352
486 781 2346
494 782 2347
500 779 2339
507 780 2341
513 777 2331
521 779 2333
529 781 2338
534 777 2327
542 778 2328
550 780 2332
555 776 2319
563 778 2324
569 776 2317
572 771 2301
583 775 2312
591 777 2314
598 777 2314
606 778 2316
608 771 2294
620 777 2310
627 777 2308
633 776 2302
640 775 2301
647 775 2299
654 775 2297
661 775 2296
668 775 2294
679 779 2304
687 780 2305
693 779 2301
697 776 2290
707 779 2296
700 764 2250
694 749 2205
697 746 2192
714 756 2222
724 759 2228
736 764 2242
748 770 2256
754 769 2251
759 767 2244
756 756 2210
770 763 2229
784 770 2248
793 772 2251
803 775 2258
807 772 2246
813 771 2242
818 769 2233
825 769 2231
829 766 2221
834 763 2212
843 765 2215
851 766 2215
861 769 2221
870 771 2224
873 767 2211
878 766 2205
885 765 2201
890 764 2195
897 763 2191
906 765 2193
912 764 2189
920 765 2189
924 762 2178
935 766 2186
941 764 2180
945 762 2172
954 764 2172
959 762 2166
966 762 2163
974 763 2163
979 761 2155
1018 786 2223
1028 788 2226
1039 791 2232
1035 782 2203
1040 781 2196
1044 778 2187
1039 769 2159
1036 762 2135
1032 753 2108
1008 731 2042
979 705 1967
786 562 1564
722 513 1426
727 514 1424
715 502 1389
732 510 1410
713 493 1362
829 570 1574
922 630 1738
939 638 1757
942 636 1748
956 641 1760
953 636 1741
964 639 1748
971 640 1748
966 632 1724
978 637 1733
985 637 1732
984 633 1717
999 639 1730
999 635 1717
1004 634 1712
1007 632 1705
1018 635 1710
-1378 876 2273
-1387 887 2305
-1375 885 2303
-1358 879 2292
-1347 877 2290
-1335 874 2287
-1322 871 2283
-1317 872 2291
-1302 867 2283
-1289 864 2278
-1278 861 2275
-1270 861 2279
-1248 851 2256
-1245 854 2268
-1234 852 2266
-1226 852 2269
-1214 848 2263
-1202 845 2259
-1194 845 2261
-1180 840 2253
-1169 838 2249
-1153 832 2237
-1146 831 2240
-1136 830 2238
-1120 824 2226
-1110 822 2224
-1100 819 2220
-1089 817 2218
-1075 811 2206
-1058 804 2190
-997 763 2080
-960 740 2021
-952 739 2019
-951 743 2035
-955 751 2060
-956 757 2080
-949 757 2081
-948 761 2096
-948 767 2114
-960 782 2160
-971 797 2204
-965 798 2209
-959 798 2213
-957 803 2230
-956 808 2246
-953 812 2260
-947 813 2265
-939 812 2266
-936 816 2279
-937 822 2301
-925 818 2291
-932 831 2331
-926 832 2337
-928 841 2365
-912 833 2343
-911 839 2365
-906 841 2373
-904 846 2389
-898 848 2396
-892 849 2404
-884 849 2404
-878 850 2412
-875 855 2427
-869 855 2432
-866 861 2450
-855 858 2443
-846 856 2440
-837 855 2439
-831 856 2446
-827 860 2459
-816 857 2452
-809 857 2455
-809 865 2480
-798 861 2472
-787 858 2466
-780 858 2469
-771 857 2467
-771 865 2493
-759 860 2480
-753 862 2488
-746 863 2495
-739 864 2499
-730 863 2497
-723 863 2501
-715 862 2500
-706 861 2499
-700 863 2505
-696 868 2523
-676 852 2478
-668 852 2479
-665 857 2497
-662 864 2518
-659 869 2536
-652 870 2541
-647 875 2556
-639 874 2556
-634 877 2567
-623 874 2558
-612 869 2547
-604 869 2549
-595 867 2545
-588 869 2550
-580 867 2548
-571 865 2543
-565 869 2555
-556 866 2550
-543 858 2526
-534 855 2521
-522 849 2502
-512 845 2494
-507 848 2504
-492 837 2473
-464 801 2367
-445 781 2310
-447 797 2358
-444 804 2379
-419 772 2285
-416 779 2307
-416 792 2347
-406 786 2332
-406 799 2370
-385 772 2293
-370 757 2246
-365 759 2255
-379 803 2385
-347 751 2232
-334 736 2190
-349 785 2338
-329 755 2249
-326 764 2274
-322 771 2298
-305 746 2224
-301 753 2244
-299 763 2277
-285 747 2229
-272 730 2180
-271 743 2219
-259 730 2180
-246 712 2127
-247 733 2190
-245 746 2230
-223 699 2089
-214 692 2069
-221 735 2199
-212 725 2170
-205 723 2166
-201 733 2197
-196 739 2215
-190 741 2222
-185 748 2244
-174 728 2183
-170 740 2219
-162 733 2198
-158 747 2243
-151 742 2228
-141 727 2182
-139 752 2257
-134 761 2286
-133 795 2388
-131 829 2492
-122 819 2462
-113 805 2419
-107 812 2442
-102 835 2511
-95 836 2516
-89 846 2547
-81 848 2552
-74 854 2570
-64 828 2491
-52 765 2303
-44 746 2244
-38 749 2254
-31 758 2283
-24 740 2227
-17 742 2233
-11 745 2244
-4 750 2260
2 766 2308
9 807 2432
17 834 2512
24 818 2464
30 784 2361
36 765 2306
44 771 2323
52 794 2394
59 798 2403
64 769 2316
74 797 2400
83 815 2456
87 788 2373
96 807 2433
102 796 2398
112 815 2457
119 815 2455
129 831 2504
131 799 2408
139 803 2417
142 780 2350
150 785 2364
155 775 2333
166 793 2389
181 829 2498
185 814 2451
197 831 2501
202 821 2470
212 832 2503
213 806 2426
222 812 2444
229 811 2441
235 809 2434
243 811 2440
252 815 2450
259 814 2446
265 810 2434
272 809 2430
279 809 2430
285 804 2413
293 806 2420
300 806 2421
307 805 2417
313 802 2406
321 803 2408
327 802 2404
335 803 2408
342 802 2403
349 801 2400
355 799 2393
362 798 2390
369 798 2389
376 797 2385
383 796 2382
390 796 2379
397 795 2375
404 795 2376
410 793 2369
420 797 2380
425 793 2367
432 793 2367
440 795 2372
446 793 2365
453 793 2362
458 788 2347
459 778 2316
474 792 2357
481 790 2351
486 788 2342
494 788 2344
501 788 2341
508 789 2342
516 789 2341
521 786 2333
528 786 2331
535 786 2328
543 787 2330
550 787 2329
557 786 2326
564 786 2325
569 784 2317
575 782 2310
583 784 2313
588 781 2303
596 782 2304
603 781 2302
608 779 2293
621 786 2314
629 787 2314
632 783 2300
640 783 2299
647 782 2297
653 782 2293
662 783 2296
671 786 2302
680 788 2307
692 793 2320
691 784 2293
692 777 2270
697 775 2262
695 765 2232
679 740 2155
695 750 2183
710 759 2208
726 769 2235
737 772 2242
753 781 2268
759 781 2264
754 768 2225
759 766 2216
771 772 2231
783 776 2243
788 774 2235
799 777 2243
803 775 2233
811 776 2234
818 776 2231
826 777 2233
831 774 2223
834 771 2210
844 773 2215
851 773 2214
857 773 2210
870 778 2222
873 774 2210
876 770 2196
885 772 2198
890 771 2193
893 766 2178
901 767 2179
911 770 2184
920 772 2187
928 773 2186
936 773 2185
941 772 2179
946 770 2171
954 771 2171
963 772 2172
963 767 2154
990 782 2195
978 768 2151
999 779 2179
1025 793 2216
1004 771 2154
1032 787 2196
1041 788 2196
1043 785 2182
1034 772 2145
1038 770 2137
1028 757 2098
1006 736 2037
958 696 1923
771 557 1533
721 517 1421
718 512 1405
711 503 1379
710 499 1366
750 524 1433
848 589 1607
924 638 1740
942 646 1760
937 639 1738
940 637 1729
955 643 1743
956 639 1730
964 640 1731
961 635 1714
986 648 1745
981 640 1722
999 648 1741
998 644 1727
1008 646 1730
1004 640 1710
1010 640 1708
1014 639 1701
-1387 890 2286
-1376 888 2284
-1364 885 2282
-1361 888 2293
-1337 878 2271
-1339 885 2292
-1333 886 2299
-1319 881 2292
-1301 874 2278
-1292 874 2280
-1271 864 2260
-1268 867 2272
-1260 867 2275
-1250 865 2274
-1235 860 2264
-1224 858 2262
-1215 857 2263
-1201 852 2255
-1190 850 2252
-1177 846 2246
-1167 844 2244
-1156 841 2241
-1140 835 2227
-1137 838 2239
-1124 834 2232
-1112 830 2225
-1100 827 2219
-1089 824 2215
-1076 820 2206
-1062 814 2195
-1005 776 2094
-967 752 2031
-952 746 2018
-949 748 2029
-957 759 2061
-953 762 2071
-949 764 2080
-944 766 2087
-947 773 2110
-954 785 2145
-968 801 2194
-967 807 2212
-964 810 2224
-959 812 2231
-955 815 2242
-954 820 2259
-943 816 2252
-942 821 2270
-935 822 2275
-931 824 2283
-923 824 2286
-926 833 2313
-928 841 2339
-922 843 2347
-916 844 2353
-909 845 2357
-902 845 2361
-899 849 2373
-894 851 2383
-885 850 2382
-878 851 2387
-873 853 2396
-862 850 2389
-855 850 2393
-854 856 2412
-845 855 2412
-841 859 2425
-833 858 2426
-823 855 2420
-819 859 2432
-813 861 2440
-807 863 2447
-795 857 2435
-790 860 2446
-781 859 2445
-777 862 2456
-769 863 2460
-763 865 2467
-753 861 2460
-750 867 2477
-742 866 2478
-735 867 2482
-725 865 2478
-718 865 2482
-709 863 2479
-702 864 2481
-693 862 2478
-687 865 2488
-671 854 2458
-668 859 2477
-665 865 2495
-659 868 2506
-655 872 2519
-649 875 2530
-641 874 2529
-632 873 2526
-627 876 2537
-617 873 2530
-608 871 2528
-604 876 2544
-593 871 2532
-587 874 2541
-574 867 2522
-569 871 2535
-561 870 2534
-553 870 2536
-542 865 2522
-534 864 2522
-525 862 2516
-515 858 2507
-505 854 2496
-492 845 2470
-461 804 2352
-439 778 2276
-425 764 2238
-407 744 2181
-399 741 2172
-390 737 2160
-381 733 2149
-375 733 2153
-369 735 2159
-368 745 2189
-377 777 2284
-383 804 2365
-358 766 2253
-360 784 2310
-352 784 2308
-339 768 2264
-326 754 2224
-325 768 2265
-318 768 2266
-302 746 2201
-290 733 2163
-282 729 2152
-275 727 2148
-276 748 2211
-272 755 2232
-261 741 2191
-260 759 2245
-260 777 2301
-235 722 2138
-236 747 2212
-235 764 2263
-215 719 2132
-221 763 2264
-213 758 2249
-200 736 2183
-196 743 2205
-193 759 2253
-182 743 2206
-172 726 2157
-167 735 2182
-159 729 2165
-157 749 2227
-148 736 2189
-148 772 2297
-149 813 2419
-149 851 2533
-144 865 2574
-137 869 2589
-127 856 2548
-113 811 2414
-102 782 2328
-98 808 2407
-95 849 2529
-88 850 2533
-78 823 2454
-69 805 2399
-58 764 2276
-52 764 2278
-45 765 2280
-37 755 2249
-30 739 2204
-23 732 2181
-17 735 2191
-10 745 2220
-4 759 2263
2 782 2332
9 842 2511
17 850 2535
24 824 2458
30 786 2346
36 771 2300
44 784 2339
53 826 2465
62 843 2515
69 841 2509
75 823 2456
81 810 2417
88 806 2405
95 806 2405
104 814 2428
110 808 2410
124 854 2547
134 872 2602
132 811 2420
140 815 2431
150 827 2468
158 830 2475
166 837 2497
173 830 2476
180 830 2476
189 839 2501
186 793 2363
197 809 2411
207 821 2446
211 805 2400
221 819 2439
230 822 2449
236 820 2442
243 817 2431
250 817 2431
258 817 2432
266 822 2445
273 819 2436
279 814 2423
286 814 2422
292 812 2414
299 811 2412
308 815 2421
314 811 2409
322 812 2413
327 807 2397
335 809 2402
341 807 2394
350 810 2403
351 797 2364
363 806 2390
368 802 2378
376 805 2384
384 805 2384
388 799 2367
397 802 2373
406 806 2384
412 804 2377
417 799 2363
426 803 2375
434 803 2373
440 802 2369
447 801 2364
454 801 2364
460 798 2355
459 785 2316
473 796 2347
482 800 2356
488 799 2351
494 796 2342
501 795 2339
508 795 2337
515 795 2338
521 793 2330
529 795 2333
535 793 2327
542 793 2326
547 790 2314
556 792 2320
562 791 2317
569 791 2314
578 793 2320
584 791 2312
592 793 2315
600 794 2318
599 784 2286
608 785 2289
619 791 2305
625 789 2298
633 790 2299
640 790 2297
647 790 2295
653 789 2291
662 790 2294
672 795 2305
685 801 2321
687 795 2303
679 778 2250
678 768 2221
676 759 2191
687 763 2202
691 759 2190
696 757 2183
712 768 2211
727 776 2234
740 783 2250
750 786 2258
756 785 2252
757 778 2232
759 773 2216
766 773 2215
773 773 2212
779 772 2207
786 772 2204
803 782 2232
813 784 2235
819 784 2232
824 781 2223
826 776 2207
831 775 2200
842 778 2208
851 780 2211
863 785 2222
870 785 2221
875 783 2213
878 779 2199
886 780 2199
891 778 2192
896 776 2183
902 776 2180
914 780 2188
919 778 2182
930 782 2189
936 780 2183
941 778 2175
948 779 2174
955 779 2171
961 778 2166
960 771 2144
993 792 2201
978 775 2149
994 781 2165
1033 806 2232
1028 797 2202
1036 797 2201
1046 799 2204
1043 792 2180
1036 781 2147
1039 778 2136
1023 761 2086
1001 739 2024
913 669 1829
712 519 1413
732 530 1441
716 515 1399
732 523 1419
721 512 1387
760 536 1449
876 614 1659
924 643 1737
940 650 1753
939 646 1738
953 651 1752
949 645 1731
950 641 1718
969 650 1739
974 649 1735
977 647 1726
976 643 1712
990 648 1723
998 650 1724
1006 651 1725
1009 649 1716
1016 650 1717
1013 644 1698
-1392 901 2291
-1381 899 2290
-1358 889 2269
-1355 893 2282
-1337 886 2269
-1330 886 2274
-1314 881 2264
-1314 886 2281
-1297 879 2268
-1287 877 2267
-1282 879 2277
-1268 875 2269
-1261 876 2275
-1244 869 2261
-1234 868 2262
-1220 863 2252
-1218 866 2266
-1205 863 2260
-1196 862 2261
-1174 851 2238
-1175 857 2256
-1155 848 2237
-1147 848 2239
-1137 845 2236
-1125 842 2231
-1121 844 2240
-1104 837 2224
-1086 829 2206
-1079 829 2209
-1065 824 2199
-1023 797 2129
-976 766 2050
-951 751 2014
-950 756 2028
-952 762 2049
-949 766 2061
-951 772 2081
-944 772 2084
-947 780 2107
-952 790 2139
-962 804 2180
-964 811 2202
-962 816 2217
-956 816 2222
-955 822 2240
-947 821 2240
-940 821 2243
-936 824 2254
-936 830 2275
-925 827 2269
-921 830 2279
-921 836 2300
-918 840 2313
-913 842 2321
-912 848 2340
-903 847 2340
-901 852 2356
-888 846 2344
-885 850 2356
-875 848 2354
-875 855 2376
-865 853 2371
-856 851 2369
-854 857 2388
-846 856 2389
-836 853 2382
-831 856 2392
-825 858 2400
-820 860 2408
-813 861 2414
-804 859 2411
-794 856 2406
-793 863 2427
-783 861 2423
-774 859 2421
-771 864 2438
-764 865 2441
-758 866 2446
-752 868 2454
-742 865 2450
-738 869 2462
-726 864 2451
-720 866 2457
-712 866 2459
-703 863 2454
-695 863 2456
-688 864 2459
-678 861 2452
-673 864 2463
-666 865 2468
-659 865 2471
-653 867 2478
-652 877 2507
-643 874 2501
-637 877 2511
-626 872 2500
-620 875 2510
-613 875 2513
-605 875 2513
-595 872 2506
-586 869 2501
-581 874 2515
-574 874 2517
-563 869 2505
-551 863 2488
-544 864 2493
-531 855 2468
-512 836 2415
-495 820 2369
-478 803 2323
-463 790 2285
-441 765 2214
-422 743 2151
-410 733 2125
-404 734 2127
-396 732 2122
-391 733 2127
-385 735 2133
-379 735 2136
-374 737 2143
-368 740 2152
-368 753 2191
-366 762 2219
-363 770 2242
-360 778 2268
-346 762 2222
-342 768 2241
-332 761 2220
-322 753 2199
-314 748 2186
-298 726 2120
-288 717 2094
-282 719 2102
-276 719 2102
-271 722 2114
-263 718 2100
-274 766 2244
-270 775 2270
-260 764 2238
-248 748 2192
-242 751 2202
-243 773 2269
-227 744 2183
-226 763 2238
-216 754 2213
-206 739 2170
-203 752 2208
-194 742 2182
-187 744 2186
-184 755 2219
-174 745 2190
-164 729 2144
-159 735 2163
-162 779 2294
-166 830 2445
-165 864 2546
-159 873 2574
-154 891 2626
-144 873 2574
-134 863 2545
-125 850 2506
-111 808 2384
-100 781 2302
-97 812 2394
-94 846 2495
-84 823 2430
-73 781 2305
-65 768 2265
-57 752 2218
-50 748 2209
-43 741 2188
-36 735 2171
-29 731 2159
-23 732 2160
-16 731 2160
-10 732 2161
-4 734 2169
2 747 2207
9 784 2315
16 820 2424
24 825 2437
30 789 2331
37 787 2324
45 810 2392
54 846 2500
62 851 2514
70 854 2524
