VERSION 0.7
FIELDS x y z
SIZE 4 4 4
TYPE I I I
COUNT 1 1 1
WIDTH 3577
HEIGHT 1
VIEWPOINT 0.0 0.0 0.0 1.0 0.0 0.0 0.0
POINTS 3577
DATA ascii
727 429 1389
791 463 1501
908 529 1711
925 535 1730
947 545 1758
946 541 1743
953 541 1741
952 538 1727
970 544 1746
966 539 1725
981 544 1739
989 545 1740
989 542 1727
987 537 1710
998 540 1717
1001 539 1708
-1388 764 2325
-1362 754 2300
-1361 758 2314
-1348 755 2309
-1329 748 2294
-1322 749 2300
-1303 742 2284
-1298 744 2293
-1286 741 2288
-1269 736 2275
-1257 733 2271
-1244 730 2265
-1233 727 2261
-1223 726 2262
-1210 723 2254
-1201 722 2255
-1186 717 2243
-1178 717 2247
-1153 706 2216
-1149 708 2225
-1126 698 2199
-1112 694 2188
-1116 701 2213
-1098 694 2195
-1080 687 2177
-1067 683 2167
-1021 658 2090
-974 632 2010
-960 627 1998
-957 630 2009
-963 638 2038
-964 642 2056
-954 640 2052
-956 646 2074
-952 648 2081
-957 656 2110
-964 665 2144
-971 675 2177
-981 686 2218
-979 690 2231
-977 693 2246
-973 695 2256
-965 695 2259
-963 699 2273
-959 701 2282
-955 703 2294
-954 708 2312
-953 712 2329
-942 709 2322
-943 716 2346
-935 716 2348
-933 719 2362
-927 721 2370
-925 725 2386
-924 730 2406
-917 730 2408
-915 734 2426
-915 741 2449
-911 743 2461
-908 747 2475
-896 744 2468
-893 747 2482
-888 750 2492
-887 755 2513
-882 758 2525
-881 764 2547
-876 766 2557
-868 765 2558
-864 769 2574
-862 775 2594
-858 777 2606
-849 777 2607
-843 779 2615
-837 780 2622
-837 788 2652
-832 791 2665
-824 792 2668
-816 791 2669
-813 796 2689
-804 795 2687
-801 801 2708
-792 800 2707
-790 806 2732
-778 802 2720
-776 809 2745
-764 805 2733
-760 810 2753
-754 811 2760
-746 812 2764
-741 816 2779
-730 813 2771
-716 807 2753
-704 803 2740
-696 802 2741
-689 804 2750
-679 802 2743
-670 801 2744
-659 798 2735
-651 798 2736
-641 796 2730
-633 796 2733
-622 793 2724
-615 794 2729
-606 793 2728
-598 794 2731
-589 792 2727
-578 789 2718
-571 790 2722
-561 788 2718
-552 785 2711
-539 780 2692
-511 750 2591
-443 661 2283
-402 610 2108
0 0 0
0 0 0
-402 640 2215
0 0 0
0 0 0
0 0 0
-383 652 2260
0 0 0
-368 649 2253
0 0 0
-348 637 2214
-353 658 2286
-333 634 2205
-326 632 2199
-313 621 2161
-313 633 2203
-299 618 2152
-280 590 2057
-296 639 2227
-302 667 2326
-271 613 2138
0 0 0
-270 640 2233
-263 638 2228
-260 648 2264
-255 651 2277
-241 633 2213
-243 654 2289
-234 649 2270
-225 642 2246
-226 666 2330
-210 638 2233
-200 627 2196
-198 642 2251
-186 625 2189
-178 621 2175
-170 614 2153
-171 639 2241
-165 645 2261
-160 651 2285
-155 657 2307
-146 648 2276
-134 624 2189
-129 631 2217
-121 621 2182
-114 623 2188
-111 637 2240
-104 639 2245
-101 660 2320
-90 632 2220
-88 666 2341
-75 614 2158
-71 635 2234
-62 617 2171
-56 622 2187
-49 614 2161
-43 617 2170
-38 638 2245
-33 680 2393
-26 675 2376
-19 667 2347
-12 672 2367
-5 701 2467
1 711 2505
8 713 2513
16 714 2516
23 715 2521
31 712 2508
38 711 2507
45 708 2494
52 707 2492
60 706 2487
68 712 2508
75 707 2492
82 707 2490
89 707 2491
97 708 2495
104 704 2482
111 704 2480
118 704 2479
125 703 2475
133 704 2479
140 702 2472
147 700 2466
154 701 2468
161 700 2465
169 702 2473
176 698 2457
183 699 2461
190 698 2459
198 698 2457
205 698 2457
212 696 2450
219 698 2455
226 697 2451
233 695 2445
240 695 2444
247 694 2441
255 694 2441
262 693 2438
268 690 2427
276 692 2432
282 689 2421
290 692 2433
297 691 2427
303 688 2417
311 689 2420
318 689 2418
326 691 2424
332 688 2414
339 688 2411
346 688 2413
353 687 2408
360 687 2408
366 685 2399
373 685 2400
380 684 2396
388 685 2397
394 684 2394
400 682 2386
408 683 2388
415 683 2389
422 682 2384
429 682 2384
434 678 2369
443 681 2377
450 682 2379
456 680 2371
460 675 2352
471 680 2370
475 677 2357
483 677 2358
491 678 2361
497 677 2355
504 676 2352
511 677 2353
517 675 2346
523 674 2341
531 674 2341
538 675 2341
545 675 2341
551 673 2332
559 674 2334
566 674 2335
571 672 2326
578 672 2325
584 671 2319
592 671 2319
599 672 2319
603 668 2306
610 668 2304
617 668 2301
625 669 2304
632 669 2302
639 669 2302
646 669 2300
652 668 2294
660 668 2294
665 667 2288
673 667 2287
680 667 2286
686 666 2281
694 667 2284
699 666 2276
707 667 2277
714 666 2275
722 667 2277
727 665 2267
733 665 2264
742 666 2267
749 666 2265
756 666 2263
761 664 2255
768 664 2254
777 666 2258
780 663 2245
788 663 2243
796 664 2245
802 663 2240
808 662 2236
817 664 2239
822 662 2232
830 663 2231
835 662 2226
841 661 2221
849 661 2219
856 661 2217
863 661 2214
869 660 2210
875 660 2206
886 663 2214
890 661 2205
897 661 2202
905 662 2203
912 661 2199
919 661 2197
928 663 2200
932 661 2190
940 661 2188
948 662 2189
952 660 2179
955 657 2168
964 658 2169
971 658 2167
979 659 2168
987 660 2167
1001 665 2180
1018 671 2199
1049 686 2247
1039 675 2207
1045 675 2203
1046 670 2185
1037 660 2150
1041 658 2140
1021 641 2082
993 620 2010
1007 624 2020
834 514 1660
701 429 1382
702 427 1373
714 431 1386
721 432 1387
733 437 1400
807 478 1530
916 539 1726
942 551 1760
945 550 1753
946 546 1740
954 548 1743
964 550 1746
963 546 1732
965 544 1723
988 554 1751
984 548 1730
993 550 1732
1005 553 1740
1005 550 1727
1008 548 1719
-1384 770 2316
-1367 765 2305
-1362 766 2314
-1343 760 2299
-1341 763 2313
-1318 754 2290
-1305 751 2284
-1299 752 2292
-1286 749 2286
-1278 748 2289
-1262 744 2278
-1249 740 2272
-1231 734 2256
-1228 737 2269
-1214 733 2259
-1205 732 2261
-1184 724 2239
-1177 724 2243
-1172 725 2251
-1160 722 2245
-1134 710 2211
-1134 715 2230
-1122 712 2223
-1101 703 2200
-1098 706 2210
-1081 700 2195
-1033 673 2113
-983 644 2027
-960 634 1996
-957 636 2006
-959 641 2026
-964 650 2055
-961 652 2065
-954 651 2067
-953 655 2082
-954 661 2103
-962 670 2136
-976 685 2186
-979 692 2213
-978 696 2228
-976 700 2242
-971 701 2251
-970 706 2267
-964 707 2273
-961 710 2286
-961 715 2305
-959 719 2320
-950 717 2319
-945 719 2327
-941 722 2340
-939 726 2356
-935 728 2365
-931 731 2378
-927 734 2389
-923 736 2400
-919 740 2414
-914 741 2423
-908 742 2428
-907 748 2450
-903 750 2460
-900 754 2475
-898 759 2494
-889 758 2494
-887 763 2512
-877 762 2510
-878 769 2535
-872 771 2545
-869 775 2562
-869 781 2585
-858 779 2580
-859 787 2610
-851 787 2610
-845 788 2618
-839 791 2629
-835 794 2642
-829 796 2652
-821 797 2655
-816 799 2667
-810 801 2676
-806 806 2693
-798 806 2696
-793 809 2708
-785 809 2711
-782 814 2731
-774 815 2736
-769 818 2748
-762 820 2757
-753 819 2757
-744 819 2756
-737 819 2761
-733 825 2783
-716 815 2751
-705 812 2743
-698 813 2748
-688 812 2744
-679 811 2743
-669 808 2737
-661 809 2741
-653 810 2745
-640 804 2726
-632 803 2725
-622 801 2723
-615 803 2730
-605 800 2722
-599 803 2732
-588 799 2720
-579 798 2719
-570 797 2718
-560 795 2711
-552 795 2713
-540 788 2692
-512 759 2592
-450 678 2318
-445 681 2328
0 0 0
0 0 0
-426 683 2340
0 0 0
0 0 0
-382 646 2216
-384 660 2264
0 0 0
0 0 0
-362 656 2255
-360 666 2288
-334 631 2168
-345 663 2282
-332 651 2240
0 0 0
-315 643 2213
0 0 0
0 0 0
-288 628 2166
-282 628 2167
-274 626 2161
-270 631 2177
-267 639 2205
-261 641 2214
-262 660 2281
-245 634 2191
-242 641 2218
-239 651 2250
-240 672 2325
-219 633 2189
-207 618 2139
-205 631 2185
-208 659 2283
-180 592 2051
-186 630 2184
-177 622 2154
-178 648 2247
-165 625 2167
-167 656 2276
-157 644 2236
-150 644 2236
-143 643 2231
-138 650 2257
-129 635 2206
-125 651 2263
-121 663 2303
-106 616 2140
-105 652 2267
-95 632 2197
-87 620 2157
-79 608 2114
-76 634 2204
-73 664 2309
-61 618 2149
-58 644 2242
-50 638 2221
-45 660 2297
-39 664 2310
-33 683 2378
-26 682 2375
-19 673 2343
-12 676 2354
-5 703 2448
1 718 2500
8 720 2509
16 724 2522
23 728 2537
31 727 2533
38 723 2521
46 722 2517
53 715 2492
60 717 2498
67 715 2493
75 715 2491
82 714 2487
89 713 2486
97 716 2495
105 717 2500
111 711 2478
118 711 2479
125 710 2473
133 709 2472
140 709 2472
147 708 2466
154 706 2459
161 706 2460
169 707 2462
176 706 2460
183 704 2452
191 706 2460
198 706 2459
205 706 2459
212 705 2453
219 704 2451
225 700 2437
234 704 2449
241 704 2448
248 703 2447
256 704 2449
262 702 2442
269 701 2438
276 699 2430
283 701 2435
291 700 2434
297 698 2426
305 701 2433
311 697 2420
319 699 2425
326 698 2421
332 696 2414
339 695 2412
346 695 2409
353 695 2410
360 694 2406
367 694 2405
376 696 2412
382 695 2408
388 693 2398
394 691 2390
401 691 2390
408 691 2388
413 687 2375
421 688 2379
428 688 2376
436 689 2378
443 689 2378
451 690 2383
454 683 2357
463 686 2366
472 689 2375
477 686 2363
483 684 2356
491 685 2358
496 683 2351
504 683 2350
511 684 2350
518 683 2347
524 681 2340
531 681 2339
539 683 2343
545 682 2339
551 680 2331
558 680 2330
565 680 2327
572 680 2328
577 678 2319
586 680 2325
592 678 2318
597 676 2308
606 678 2313
612 677 2310
621 679 2314
626 677 2307
632 676 2301
639 675 2298
645 674 2292
654 676 2297
660 676 2294
666 674 2288
671 673 2281
678 672 2278
688 675 2285
693 674 2280
702 675 2282
709 675 2282
715 674 2276
721 673 2270
726 671 2262
734 672 2264
740 671 2259
748 672 2259
755 672 2259
762 672 2255
770 672 2256
779 674 2260
784 673 2253
789 670 2244
799 673 2252
803 671 2242
810 671 2240
815 669 2231
822 669 2230
830 670 2230
836 669 2225
843 669 2222
847 667 2213
859 670 2223
863 668 2214
867 666 2204
879 669 2213
884 668 2207
891 668 2206
898 668 2202
906 669 2203
914 669 2202
919 668 2196
925 667 2190
932 667 2187
939 667 2186
947 668 2185
952 667 2179
957 666 2172
966 666 2172
970 665 2163
980 667 2168
987 667 2165
1009 677 2195
1021 680 2204
1021 675 2185
1040 683 2208
1043 680 2196
1043 675 2177
1037 667 2147
1041 665 2139
1018 646 2074
994 627 2009
993 622 1991
796 495 1582
708 438 1394
712 437 1392
719 439 1393
721 437 1386
711 428 1356
828 495 1569
927 551 1743
929 549 1735
938 551 1737
957 558 1759
960 557 1751
957 552 1733
976 560 1754
965 550 1720
986 558 1744
986 555 1731
996 557 1736
998 555 1727
998 552 1713
1011 556 1722
-1384 778 2314
-1364 771 2298
-1370 779 2326
-1355 774 2317
-1337 768 2304
-1325 766 2300
-1308 761 2288
-1299 760 2290
-1286 757 2285
-1272 753 2277
-1269 755 2288
-1245 745 2262
-1245 750 2279
-1226 743 2262
-1219 743 2266
-1200 736 2250
-1195 737 2256
-1184 735 2254
-1166 728 2236
-1151 724 2225
-1142 723 2225
-1132 721 2223
-1126 722 2229
-1109 715 2213
-1107 719 2227
-1089 712 2208
-1061 698 2168
-988 655 2037
-965 644 2006
-956 642 2002
-957 647 2022
-963 655 2051
-958 657 2058
-955 659 2067
-953 662 2080
-951 665 2093
-955 672 2119
-972 689 2175
-977 698 2205
-977 703 2224
-976 707 2241
-969 707 2243
-968 712 2262
-967 716 2277
-962 718 2287
-956 719 2293
-950 719 2297
-948 724 2314
-941 724 2317
-942 730 2339
-936 731 2347
-934 735 2361
-931 738 2375
-926 740 2384
-921 743 2395
-918 746 2407
-912 748 2415
-912 753 2437
-904 753 2440
-902 758 2456
-902 764 2480
-894 764 2481
-889 766 2493
-885 769 2504
-882 773 2520
-878 777 2534
-875 781 2551
-873 786 2569
-865 786 2573
-858 787 2577
-855 791 2595
-852 796 2614
-844 796 2616
-837 797 2620
-833 800 2634
-829 804 2649
-822 806 2657
-816 808 2666
-808 808 2667
-802 810 2677
-798 814 2692
-792 816 2702
-785 818 2710
-782 823 2729
-775 824 2736
-764 822 2731
-761 828 2751
-752 827 2752
-744 827 2753
-743 835 2782
-732 832 2776
-720 828 2764
-707 823 2749
-697 821 2743
-690 822 2749
-679 819 2740
-670 818 2739
-660 815 2732
-649 812 2723
-642 814 2731
-633 813 2729
-625 813 2732
-616 813 2732
-606 810 2725
-596 807 2718
-589 809 2725
-579 806 2716
-571 807 2721
-563 806 2721
-552 803 2711
-540 797 2691
-514 771 2605
-443 675 2283
-432 669 2262
-448 704 2383
-433 692 2342
0 0 0
0 0 0
-364 612 2073
0 0 0
-383 666 2260
-366 648 2199
-370 666 2262
-344 631 2142
-344 643 2185
-351 669 2274
-328 638 2169
-330 654 2225
0 0 0
-325 672 2288
0 0 0
-291 627 2139
0 0 0
-299 673 2297
-273 629 2147
-279 659 2250
-278 673 2298
-269 667 2278
-267 679 2321
-229 599 2048
-251 672 2299
-233 644 2202
-229 648 2219
-215 628 2149
-219 658 2253
-209 649 2222
-204 653 2237
-194 642 2199
-186 637 2184
-186 662 2270
-175 644 2210
-172 657 2255
-163 650 2230
-151 627 2152
-148 639 2195
-141 638 2192
-139 659 2265
-130 649 2231
-120 634 2178
-113 631 2168
-107 632 2173
-103 645 2217
-95 639 2196
-90 647 2225
-83 641 2205
-76 640 2203
-69 639 2197
-64 649 2232
-57 650 2238
-49 628 2163
-44 651 2241
-38 656 2260
-33 681 2347
-26 690 2376
-19 683 2352
-12 694 2390
-5 715 2463
1 730 2515
8 728 2508
16 735 2535
23 732 2524
31 735 2533
38 732 2524
46 728 2509
53 725 2499
60 723 2491
67 723 2491
75 724 2495
82 722 2490
89 720 2484
97 721 2487
104 723 2492
111 721 2484
119 721 2484
126 720 2481
133 718 2474
140 718 2475
148 718 2474
155 716 2468
162 716 2465
170 717 2471
176 713 2457
184 717 2471
191 713 2457
198 715 2461
205 712 2453
212 713 2455
219 711 2449
227 712 2451
233 710 2445
240 709 2438
248 711 2447
255 709 2439
262 708 2435
269 707 2432
276 707 2431
283 707 2431
290 706 2426
297 707 2428
304 706 2425
312 706 2424
319 706 2423
324 702 2410
333 704 2417
339 703 2410
346 702 2406
353 702 2408
360 700 2401
367 701 2401
374 701 2402
382 701 2401
388 699 2394
395 700 2397
402 699 2390
407 696 2380
415 697 2383
423 698 2386
429 697 2380
437 698 2383
443 696 2377
451 697 2379
453 689 2351
462 692 2360
472 696 2371
478 694 2364
483 691 2353
491 692 2357
498 692 2354
505 693 2355
511 690 2347
518 690 2345
523 688 2337
531 688 2337
539 690 2341
545 688 2334
551 687 2328
558 687 2329
567 689 2333
573 688 2329
577 684 2315
586 687 2321
592 686 2317
599 686 2315
606 685 2312
614 686 2315
622 687 2317
632 690 2324
635 686 2311
643 687 2311
650 687 2310
654 684 2297
661 684 2296
669 685 2298
674 682 2288
683 684 2292
690 684 2290
696 683 2284
703 683 2283
705 678 2266
710 676 2258
717 677 2257
721 674 2246
732 677 2255
738 676 2250
743 674 2242
753 677 2250
759 676 2245
767 677 2248
773 676 2240
780 676 2240
787 676 2237
798 679 2247
802 677 2236
809 677 2234
818 679 2239
827 680 2242
831 677 2229
838 678 2229
842 675 2219
848 675 2214
857 676 2216
864 676 2214
871 676 2212
874 673 2201
884 675 2206
895 678 2213
898 675 2201
903 674 2193
912 675 2196
924 678 2204
925 674 2187
934 676 2190
940 675 2185
946 675 2182
954 675 2179
959 673 2173
966 674 2171
971 672 2164
981 674 2167
988 674 2165
1010 685 2196
1021 687 2200
1029 688 2201
1039 690 2204
1048 691 2205
1038 679 2164
1037 674 2145
1038 670 2131
1010 648 2057
996 634 2011
975 617 1952
781 491 1549
714 446 1404
719 446 1403
728 448 1409
724 443 1390
745 453 1420
845 511 1599
930 559 1748
933 557 1739
942 559 1743
952 562 1748
954 559 1739
968 564 1751
978 567 1756
972 560 1731
976 558 1725
983 559 1724
988 559 1721
1004 565 1736
1002 560 1718
1007 560 1715
-1393 790 2326
-1369 782 2304
-1364 783 2312
-1350 780 2307
-1336 776 2300
-1334 779 2314
-1304 766 2279
-1297 766 2284
-1289 766 2288
-1268 758 2267
-1262 759 2273
-1259 762 2286
-1236 752 2262
-1231 754 2269
-1209 745 2247
-1206 747 2258
-1202 749 2268
-1185 744 2254
-1172 740 2247
-1159 736 2238
-1150 735 2240
-1132 728 2221
-1124 728 2223
-1116 727 2225
-1103 724 2218
-1088 719 2205
-1078 717 2202
-1008 674 2076
-969 653 2013
-955 648 2000
-957 654 2020
-962 661 2047
-959 664 2057
-959 668 2074
-952 668 2076
-951 672 2091
-960 683 2129
-968 694 2166
-977 705 2203
-978 711 2224
-977 715 2241
-974 718 2253
-967 718 2256
-963 721 2268
-962 725 2284
-958 727 2294
-953 729 2303
-946 729 2306
-943 733 2320
-941 736 2334
-937 739 2345
-931 740 2352
-934 748 2380
-926 748 2383
-921 750 2391
-919 755 2410
-914 757 2419
-914 763 2441
-904 761 2438
-907 769 2467
-898 769 2467
-890 769 2470
-897 781 2511
-884 776 2499
-882 781 2519
-878 785 2532
-876 790 2552
-867 789 2551
-862 791 2561
-861 797 2584
-852 797 2585
-851 804 2609
-845 805 2615
-839 807 2625
-830 806 2622
-825 809 2636
-821 813 2650
-815 815 2660
-806 814 2660
-800 816 2668
-797 822 2689
-794 827 2707
-783 824 2702
-777 826 2711
-772 829 2723
-772 839 2756
-759 834 2743
-754 837 2754
-747 839 2763
-735 835 2753
-729 838 2763
-719 835 2756
-712 837 2765
-700 833 2753
-694 836 2764
-683 832 2754
-673 830 2751
-661 825 2735
-653 826 2740
-646 827 2745
-635 824 2736
-625 822 2731
-617 821 2732
-606 817 2720
-598 818 2725
-587 814 2712
-578 814 2713
-570 814 2715
-561 813 2712
-552 811 2710
-541 806 2694
-515 780 2608
-447 688 2301
-448 700 2341
-467 741 2480
0 0 0
-424 695 2329
0 0 0
0 0 0
-416 717 2406
-389 683 2294
-370 661 2220
-378 688 2312
-332 616 2070
-358 676 2272
-355 684 2301
-350 688 2314
-333 666 2243
0 0 0
-332 692 2333
-308 656 2211
-292 637 2146
-300 668 2253
0 0 0
-280 651 2199
-288 687 2322
-266 650 2196
-252 631 2131
0 0 0
-241 637 2152
-245 664 2246
-239 666 2253
-225 645 2182
-217 642 2173
-219 666 2255
-220 689 2335
-211 684 2318
-198 662 2246
-189 653 2215
-185 664 2254
-168 624 2118
-166 644 2185
-160 645 2190
-155 652 2213
-150 659 2238
-143 653 2218
-134 646 2194
-127 640 2176
-118 630 2140
-116 652 2217
-111 661 2249
-100 632 2150
-92 623 2118
-89 648 2205
-83 651 2214
-78 660 2246
-68 637 2168
-62 641 2181
-55 627 2135
-50 646 2199
-44 657 2236
-37 648 2207
-32 674 2297
-25 680 2316
-19 689 2348
-12 705 2403
-5 734 2500
1 736 2509
8 735 2505
16 731 2494
23 732 2497
31 729 2487
38 735 2505
46 734 2505
53 737 2513
61 738 2515
68 734 2504
75 728 2482
81 722 2461
88 718 2450
95 718 2449
104 730 2488
112 728 2484
119 728 2483
126 728 2483
133 724 2469
140 724 2467
148 726 2476
155 725 2472
162 725 2469
170 724 2468
177 725 2470
183 720 2452
191 721 2455
198 722 2459
205 720 2454
212 719 2449
219 717 2442
226 718 2445
234 720 2450
241 718 2442
248 717 2440
255 715 2434
263 719 2444
269 716 2434
277 717 2438
284 716 2433
290 714 2428
298 716 2432
304 713 2422
311 712 2417
320 715 2427
325 711 2414
331 709 2406
340 713 2418
347 711 2412
353 709 2404
360 709 2404
366 706 2394
376 711 2410
381 708 2397
388 708 2396
394 704 2383
402 707 2392
409 706 2388
415 704 2380
421 702 2374
431 706 2385
436 703 2374
443 703 2375
453 708 2389
449 690 2328
463 701 2364
470 701 2363
478 702 2365
483 699 2353
491 700 2357
498 699 2352
504 698 2350
511 698 2348
518 698 2344
526 698 2346
533 698 2345
539 697 2341
545 695 2331
553 697 2336
558 694 2326
567 697 2334
574 696 2329
580 695 2325
586 694 2321
593 694 2318
599 693 2314
608 695 2319
618 698 2328
625 698 2327
635 701 2335
639 697 2321
645 696 2316
654 698 2320
657 694 2305
665 695 2308
673 695 2307
678 693 2300
685 693 2297
693 694 2298
696 690 2282
696 683 2258
695 675 2231
697 671 2215
705 671 2215
714 673 2220
718 671 2212
727 673 2214
734 673 2213
742 674 2215
749 674 2214
758 676 2217
765 676 2217
772 676 2216
787 683 2237
800 688 2251
803 684 2236
813 687 2243
823 690 2251
827 687 2239
834 687 2235
842 687 2236
849 688 2235
853 685 2224
861 686 2225
867 686 2221
873 684 2215
882 686 2219
886 684 2208
894 684 2207
900 683 2202
909 685 2205
914 683 2197
922 684 2197
928 683 2192
935 683 2190
942 684 2189
950 684 2188
952 681 2174
958 680 2168
967 681 2170
972 680 2164
981 681 2165
989 682 2166
1014 694 2201
1043 709 2247
1031 696 2203
1044 700 2212
1046 696 2198
1045 691 2177
1036 680 2141
1036 676 2125
1008 653 2050
998 642 2012
936 598 1872
770 489 1525
724 457 1424
688 431 1340
716 446 1384
714 442 1370
749 461 1427
868 530 1641
928 563 1742
936 565 1744
941 564 1739
951 567 1746
966 572 1759
956 563 1727
965 564 1729
972 565 1729
982 568 1734
989 568 1734
999 571 1737
986 560 1703
1007 568 1725
1011 567 1719
-1395 800 2329
-1368 789 2300
-1368 793 2317
-1358 792 2318
-1339 785 2302
-1334 787 2311
-1311 778 2288
-1302 777 2291
-1292 775 2290
-1271 767 2270
-1265 768 2276
-1260 770 2286
-1244 765 2274
-1235 764 2275
-1214 755 2254
-1211 758 2265
-1201 756 2263
-1190 754 2262
-1172 747 2244
-1157 743 2234
-1152 744 2242
-1140 741 2235
-1124 735 2222
-1118 736 2228
-1104 731 2217
-1096 731 2219
-1076 722 2196
-1027 694 2113
-981 668 2035
-954 654 1995
-955 659 2014
-958 665 2036
-961 671 2059
-955 672 2065
-954 676 2078
-950 678 2088
-959 689 2125
-969 702 2166
-974 710 2195
-980 719 2227
-978 723 2241
-967 720 2235
-969 727 2260
-964 729 2268
-958 729 2273
-955 732 2285
-952 736 2299
-946 737 2305
-944 741 2320
-943 746 2339
-936 746 2342
-933 749 2356
-934 756 2380
-928 757 2386
-920 757 2388
-923 766 2418
-915 765 2418
-910 767 2427
-909 772 2448
-903 774 2455
-900 778 2470
-891 777 2469
-890 783 2490
-886 786 2503
-880 787 2510
-879 793 2532
-879 800 2557
-866 796 2546
-863 800 2563
-856 801 2568
-851 804 2578
-847 808 2594
-840 808 2597
-833 810 2605
-829 813 2618
-823 815 2626
-817 817 2637
-812 820 2647
-807 823 2660
-803 827 2676
-796 829 2683
-794 835 2706
-783 832 2699
-780 838 2720
-773 839 2726
-763 838 2723
-756 839 2730
-752 843 2746
-743 843 2747
-731 838 2733
-727 844 2754
-718 842 2751
-710 843 2754
-699 840 2748
-692 842 2755
-683 841 2755
-675 841 2755
-664 838 2747
-655 837 2746
-648 838 2753
-637 835 2743
-629 835 2746
-616 829 2728
-609 831 2736
-601 831 2737
-589 826 2722
-579 823 2715
-571 823 2716
-564 825 2723
-552 820 2708
-539 812 2685
-520 795 2628
-460 715 2367
-416 657 2173
0 0 0
0 0 0
0 0 0
-405 683 2263
-404 691 2294
0 0 0
0 0 0
-389 702 2333
-386 710 2359
-367 688 2287
-349 666 2216
-334 650 2164
-324 643 2141
-339 685 2281
-332 686 2286
0 0 0
-296 637 2125
-300 659 2198
-292 656 2189
-279 641 2141
-272 641 2139
0 0 0
-268 662 2214
0 0 0
-250 650 2175
0 0 0
-249 681 2279
-245 689 2309
0 0 0
-215 642 2150
-209 642 2151
-211 668 2238
-200 655 2197
-198 670 2246
-188 659 2211
-189 683 2293
-178 668 2244
-169 662 2224
-164 665 2234
-159 672 2257
-150 665 2234
-141 652 2190
-136 659 2216
-128 652 2193
-122 653 2197
-111 632 2126
-109 654 2199
-101 644 2166
-97 661 2223
-87 642 2161
-80 633 2130
-76 651 2192
-68 637 2145
-63 653 2198
-56 650 2191
-50 659 2219
-44 656 2211
-37 659 2221
-31 670 2259
-25 671 2262
-18 689 2322
-12 705 2378
-5 720 2429
1 738 2487
9 739 2493
16 736 2483
23 732 2468
31 734 2477
38 737 2487
45 735 2481
53 745 2514
61 748 2522
69 752 2536
77 760 2564
85 759 2562
89 731 2467
92 698 2353
103 731 2464
111 735 2478
119 736 2484
126 734 2475
133 732 2470
141 734 2475
148 734 2475
155 734 2474
162 730 2460
169 729 2458
176 730 2460
184 731 2463
191 729 2456
198 730 2458
205 729 2455
212 726 2447
220 728 2452
227 728 2452
235 728 2452
242 727 2448
249 726 2445
255 723 2432
263 726 2444
269 722 2429
277 724 2434
283 722 2429
291 723 2430
297 721 2424
305 722 2426
311 719 2416
319 719 2417
326 721 2421
332 718 2411
340 719 2413
347 718 2408
353 716 2402
360 716 2401
368 716 2401
374 714 2394
382 716 2399
389 716 2397
394 713 2386
403 715 2395
410 715 2395
416 713 2385
423 712 2380
430 712 2381
436 710 2372
444 712 2379
450 710 2372
448 695 2318
463 708 2362
470 708 2361
478 708 2361
484 707 2355
492 707 2356
499 708 2358
506 707 2354
512 706 2349
519 706 2348
525 704 2339
532 704 2339
539 704 2337
544 701 2326
553 703 2332
559 702 2326
565 701 2324
576 705 2336
579 701 2321
586 700 2317
593 701 2317
599 699 2309
609 702 2319
620 707 2333
628 708 2336
634 707 2330
638 703 2315
647 705 2320
655 706 2323
657 701 2305
666 703 2308
674 704 2310
678 700 2298
686 702 2301
690 698 2286
692 693 2269
687 681 2229
692 680 2221
695 676 2207
700 673 2197
707 674 2196
714 674 2196
720 673 2190
727 674 2191
736 675 2196
741 674 2188
748 674 2188
756 675 2188
769 680 2203
784 687 2225
799 694 2245
807 695 2245
812 693 2238
821 695 2241
829 696 2242
836 695 2239
840 694 2231
846 692 2224
855 694 2227
863 695 2229
876 699 2240
878 695 2225
883 693 2217
887 691 2208
895 692 2209
899 690 2199
906 690 2197
914 690 2195
921 690 2193
928 690 2190
935 690 2188
940 689 2182
948 689 2180
956 690 2181
962 690 2176
968 688 2170
972 687 2162
980 687 2160
991 690 2167
1011 699 2193
1029 707 2214
1034 705 2205
1043 707 2208
1045 703 2193
1037 693 2159
1033 685 2133
1036 683 2122
1010 661 2053
992 645 1998
896 578 1789
733 470 1450
708 451 1391
710 449 1382
710 446 1371
747 467 1433
756 470 1439
881 544 1665
933 572 1749
932 568 1735
942 571 1740
954 574 1749
955 571 1736
965 574 1741
970 573 1737
968 568 1720
989 577 1744
986 573 1727
988 570 1717
1001 574 1726
998 569 1708
1012 574 1719
-1393 807 2322
-1375 801 2310
-1373 804 2324
-1359 800 2317
-1343 795 2307
-1335 795 2311
-1314 787 2292
-1293 779 2273
-1288 781 2282
-1286 784 2295
-1275 782 2292
-1254 774 2272
-1252 777 2286
-1226 766 2256
-1219 766 2262
-1210 765 2262
-1194 759 2249
-1179 754 2237
-1175 757 2248
-1166 756 2249
-1152 751 2238
-1139 747 2231
-1129 746 2230
-1115 741 2219
-1107 741 2221
-1097 739 2219
-1086 736 2214
-1050 717 2158
-986 677 2043
-955 661 1996
-954 665 2010
-959 673 2037
-961 678 2057
-958 681 2068
-952 681 2072
-954 688 2094
-955 693 2115
-969 708 2163
-980 721 2206
-977 725 2220
-979 731 2242
-967 728 2235
-968 733 2255
-965 737 2268
-960 738 2276
-951 737 2274
-952 743 2297
-951 748 2314
-945 749 2320
-942 752 2334
-935 752 2337
-932 756 2351
-932 762 2373
-930 766 2389
-925 769 2398
-921 771 2409
-915 773 2417
-908 773 2422
-907 779 2441
-905 783 2458
-897 783 2461
-894 788 2477
-890 790 2488
-888 796 2508
-880 796 2510
-874 797 2516
-873 803 2538
-866 804 2543
-863 808 2560
-856 809 2567
-849 810 2572
-845 814 2586
-841 818 2601
-830 814 2591
-826 818 2607
-822 822 2622
-817 826 2635
-812 829 2647
-805 829 2651
-802 835 2673
-793 834 2670
-784 833 2671
-785 842 2703
-779 845 2714
-772 847 2722
-762 845 2717
-758 849 2733
-749 849 2734
-739 846 2728
-730 845 2727
-725 850 2744
-716 849 2742
-705 846 2734
-697 846 2738
-688 845 2737
-681 847 2744
-673 847 2746
-664 845 2743
-655 845 2743
-645 844 2740
-636 841 2736
-626 840 2732
-617 838 2729
-613 844 2750
-602 840 2738
-594 841 2741
-584 839 2737
-574 836 2729
-567 838 2737
-552 828 2705
-544 828 2707
-516 797 2608
-464 729 2385
-458 730 2390
0 0 0
0 0 0
-448 750 2460
0 0 0
-413 714 2343
-396 696 2287
0 0 0
-355 648 2129
-364 676 2223
-361 683 2246
-345 666 2191
-355 698 2299
-340 680 2240
-328 670 2207
-322 671 2211
-327 695 2293
0 0 0
0 0 0
-306 695 2297
0 0 0
-287 682 2253
-275 670 2216
-266 664 2196
-272 696 2303
-258 678 2243
-255 686 2270
-240 665 2201
-237 672 2227
-220 643 2129
-230 692 2293
-220 681 2259
-207 662 2195
-207 683 2266
-206 704 2338
-193 683 2268
-179 655 2174
-176 671 2227
-175 692 2299
-164 672 2232
-156 668 2219
-153 682 2269
-141 660 2194
-134 657 2183
-127 654 2176
-120 653 2172
-112 644 2142
-110 667 2221
-104 670 2230
-99 685 2281
-90 667 2221
-82 660 2197
-73 634 2113
-68 645 2147
-63 660 2199
-56 656 2186
-52 684 2280
-43 657 2191
-38 680 2267
-32 688 2293
-25 691 2304
-19 705 2351
-12 714 2381
-5 717 2393
1 731 2440
9 741 2474
16 744 2483
23 736 2455
30 731 2440
38 738 2464
46 761 2542
55 776 2590
64 788 2630
71 780 2605
78 778 2597
84 763 2548
88 732 2443
91 695 2318
101 722 2410
112 745 2488
119 744 2483
126 742 2477
134 742 2477
141 743 2478
148 739 2467
155 738 2461
162 740 2467
170 739 2465
177 739 2466
183 734 2448
191 737 2457
198 737 2456
206 736 2454
213 735 2451
220 736 2454
227 734 2446
234 733 2441
241 733 2443
248 733 2441
256 734 2444
263 732 2436
270 732 2436
277 731 2433
284 730 2430
291 730 2427
298 729 2424
305 729 2425
313 730 2428
319 728 2418
326 727 2414
333 726 2412
340 726 2411
348 727 2413
355 726 2411
361 725 2405
367 723 2398
375 723 2398
381 722 2392
389 724 2399
395 720 2386
403 721 2389
411 723 2394
417 722 2388
424 721 2385
430 719 2378
437 718 2375
445 720 2380
451 718 2371
447 701 2315
464 716 2364
472 717 2366
478 715 2358
484 714 2353
491 713 2351
496 710 2339
505 714 2351
513 714 2349
519 713 2346
527 714 2349
532 711 2336
540 712 2340
546 711 2333
553 711 2333
560 710 2329
566 709 2325
573 709 2321
580 709 2322
586 708 2317
594 709 2318
601 708 2315
610 711 2321
618 712 2323
628 715 2333
635 715 2331
638 710 2313
645 711 2314
652 710 2310
658 709 2304
667 711 2311
672 708 2300
680 709 2301
685 707 2294
687 702 2276
690 698 2260
692 693 2243
694 688 2224
700 687 2220
705 686 2214
712 685 2211
718 685 2206
728 687 2213
732 685 2203
742 687 2210
746 685 2201
752 684 2197
765 690 2212
775 692 2218
785 695 2225
797 699 2238
806 701 2241
811 700 2235
822 703 2242
828 702 2237
838 705 2245
843 703 2237
850 702 2232
856 702 2228
865 703 2231
879 709 2246
880 704 2228
885 702 2221
887 698 2205
894 698 2204
904 700 2208
908 698 2199
915 698 2197
922 698 2194
928 698 2190
937 698 2190
944 699 2189
949 697 2181
956 697 2178
962 697 2175
970 697 2173
971 693 2158
981 695 2161
994 699 2173
1001 699 2170
1017 705 2186
1032 711 2200
1041 712 2201
1045 710 2192
1040 702 2163
1037 695 2139
1035 689 2118
999 660 2026
996 654 2006
860 561 1717
725 469 1432
696 448 1365
723 462 1406
711 452 1372
709 448 1358
779 489 1481
898 560 1695
931 577 1745
939 578 1746
949 581 1752
955 581 1749
952 576 1730
972 584 1753
969 578 1733
974 578 1729
992 585 1749
986 578 1724
994 579 1725
1000 579 1722
1003 578 1715
1013 580 1719
-1394 815 2321
-1372 807 2303
-1362 805 2302
-1354 805 2307
-1341 802 2301
-1330 800 2300
-1319 798 2298
-1305 795 2292
-1294 792 2289
-1275 785 2273
-1268 786 2278
-1262 786 2285
-1254 786 2287
-1222 771 2247
-1219 773 2258
-1208 771 2256
-1199 770 2256
-1191 770 2259
-1174 764 2244
-1153 755 2222
-1151 758 2236
-1136 753 2223
-1127 752 2224
-1116 749 2220
-1110 750 2225
-1094 744 2211
-1090 746 2220
-1060 731 2177
-998 693 2067
-962 672 2008
-954 671 2008
-959 679 2034
-958 683 2050
-958 688 2066
-953 689 2073
-949 690 2081
-954 700 2111
-960 709 2141
-971 722 2184
-976 731 2214
-974 735 2229
-971 737 2240
-970 742 2257
-961 741 2257
-961 746 2276
-956 748 2283
-951 749 2291
-949 754 2308
-943 755 2315
-937 756 2319
-938 763 2343
-932 764 2349
-932 770 2371
-924 769 2373
-922 774 2389
-913 772 2387
-913 779 2410
-909 781 2421
-906 786 2437
-901 787 2445
-901 795 2470
-896 796 2478
-889 797 2483
-890 805 2510
-881 804 2511
-873 804 2513
-870 808 2528
-865 810 2538
-859 813 2546
-857 819 2568
-846 815 2561
-840 817 2568
-836 820 2581
-827 820 2582
-826 827 2606
-819 828 2612
-817 834 2633
-810 835 2639
-804 837 2648
-800 841 2663
-798 847 2685
-789 847 2687
-785 851 2702
-775 849 2698
-768 851 2706
-757 848 2699
-755 854 2721
-745 852 2717
-735 851 2715
-729 853 2722
-721 853 2725
-712 852 2724
-702 851 2721
-696 853 2731
-687 852 2729
-678 851 2730
-669 851 2729
-660 849 2726
-650 847 2721
-643 848 2726
-631 844 2715
-620 840 2705
-614 842 2713
-606 843 2717
-598 843 2718
-590 843 2721
-583 845 2730
-577 849 2742
-567 846 2734
-558 844 2730
-544 835 2703
-516 805 2606
-455 721 2336
-441 710 2300
0 0 0
0 0 0
0 0 0
-404 695 2255
-420 734 2384
0 0 0
-393 711 2310
0 0 0
-382 715 2328
-377 720 2345
-345 672 2187
-347 689 2244
-329 667 2173
-336 692 2258
-319 671 2188
-330 710 2316
-317 697 2275
0 0 0
-298 682 2230
-304 713 2330
-268 644 2106
-273 672 2198
-280 706 2309
-266 686 2245
-244 647 2118
-249 677 2219
0 0 0
-236 676 2217
-236 696 2281
-222 675 2214
-214 669 2196
-209 677 2221
-209 696 2286
-192 664 2181
-190 678 2226
-179 664 2182
-177 679 2230
-176 701 2305
-158 655 2153
-154 667 2194
-150 678 2230
-143 674 2217
-136 675 2220
-128 665 2189
-120 659 2169
-114 662 2178
-107 660 2172
-101 658 2166
-93 653 2150
-92 692 2280
-79 641 2113
-73 642 2117
-67 649 2138
-60 635 2094
-55 647 2131
-49 654 2157
-44 684 2254
-37 674 2224
-32 699 2305
-26 715 2361
-19 736 2431
-12 750 2476
-5 744 2457
1 739 2439
9 740 2445
16 751 2478
23 755 2494
31 764 2522
39 777 2565
48 792 2617
55 787 2599
62 781 2579
67 748 2471
71 713 2356
80 730 2410
85 713 2353
92 711 2349
101 726 2398
111 748 2469
119 752 2483
126 750 2476
133 748 2468
141 747 2467
148 749 2473
156 749 2472
162 746 2462
170 747 2465
177 748 2468
185 747 2464
191 743 2452
199 745 2458
206 744 2455
213 743 2451
220 743 2451
227 740 2440
234 741 2442
242 743 2448
248 740 2439
256 740 2438
263 741 2441
269 738 2430
277 738 2431
285 740 2436
292 739 2432
299 738 2428
305 737 2425
313 737 2423
319 735 2418
326 733 2411
333 733 2409
339 731 2403
347 732 2405
353 731 2399
362 733 2407
369 733 2405
374 729 2393
382 731 2399
389 730 2394
397 731 2396
403 729 2388
410 729 2388
417 729 2386
424 727 2381
430 726 2375
438 727 2377
445 727 2379
452 728 2378
447 708 2313
465 725 2368
472 725 2367
476 720 2349
485 722 2356
492 723 2356
497 720 2345
508 724 2359
513 722 2349
520 721 2346
527 721 2346
533 719 2339
541 720 2340
546 718 2333
553 717 2328
561 719 2332
566 716 2321
573 716 2319
579 715 2316
586 715 2314
593 715 2313
601 716 2314
610 718 2322
622 724 2337
627 721 2329
633 720 2323
638 717 2311
641 713 2298
654 719 2315
660 718 2310
666 717 2305
674 718 2306
677 714 2291
685 714 2291
690 712 2283
690 705 2257
694 702 2246
706 707 2261
711 705 2254
716 703 2246
721 701 2236
731 704 2244
738 703 2241
742 701 2233
747 699 2225
758 703 2236
764 702 2229
770 701 2223
776 700 2221
790 707 2239
802 711 2249
804 707 2235
811 706 2232
825 713 2250
832 712 2246
837 711 2239
844 710 2236
850 709 2231
855 708 2224
868 713 2237
874 711 2230
882 712 2231
885 709 2219
888 706 2206
895 706 2205
903 707 2204
911 708 2205
916 706 2196
921 705 2190
929 705 2188
936 705 2187
941 704 2180
950 705 2182
954 703 2173
961 703 2169
969 703 2168
975 702 2163
982 703 2162
981 697 2140
1018 718 2204
1027 719 2205
1037 721 2207
1045 722 2208
1049 720 2197
1040 708 2160
1039 703 2140
1032 694 2109
1005 671 2037
992 658 1995
829 546 1651
737 483 1457
720 468 1410
732 473 1424
712 457 1373
742 473 1420
791 501 1502
902 568 1701
933 584 1747
945 588 1755
941 582 1735
949 583 1736
958 585 1738
965 586 1738
974 587 1741
978 586 1735
977 582 1721
987 584 1723
989 582 1715
1008 590 1734
1004 584 1715
1007 582 1706
-1391 821 2314
-1371 814 2299
-1370 818 2313
-1353 813 2303
-1336 807 2291
-1332 809 2301
-1319 806 2295
-1309 804 2296
-1298 802 2294
-1285 799 2289
-1272 796 2284
-1257 791 2274
-1244 787 2267
-1239 789 2275
-1228 787 2272
-1210 780 2256
-1203 780 2261
-1188 776 2251
-1175 772 2244
-1163 769 2238
-1154 767 2239
-1140 763 2230
-1134 764 2236
-1126 763 2237
-1113 760 2230
-1103 758 2227
-1086 751 2210
-1073 747 2201
-1011 708 2091
-969 684 2021
-955 678 2008
-958 685 2031
-958 690 2049
-957 694 2063
-951 694 2066
-952 700 2086
-952 705 2105
-954 711 2126
-970 728 2179
-978 739 2216
-979 746 2239
-972 745 2241
-967 747 2248
-961 748 2255
-959 752 2271
-955 755 2280
-950 756 2288
-948 761 2304
-946 764 2318
-940 766 2326
-942 773 2351
-934 773 2352
-930 776 2364
-926 778 2374
-923 782 2388
-916 783 2394
-911 784 2401
-913 793 2430
-906 794 2435
-904 798 2453
-895 797 2450
-893 802 2468
-887 803 2476
-884 808 2493
-877 808 2497
-872 811 2507
-867 813 2516
-864 818 2533
-859 820 2544
-855 824 2558
-842 820 2547
-842 827 2571
-838 831 2587
-831 831 2591
-825 834 2601
-819 836 2609
-811 836 2613
-811 844 2639
-805 847 2650
-801 851 2665
-793 850 2667
-788 854 2681
-778 852 2675
-771 853 2682
-764 855 2689
-759 858 2702
-751 858 2705
-742 857 2703
-730 853 2693
-723 855 2700
-716 856 2705
-712 861 2723
-700 857 2713
-693 859 2720
-685 858 2721
-676 857 2719
-667 857 2720
-658 855 2716
-650 855 2719
-638 850 2703
-628 848 2700
-622 852 2712
-613 850 2708
-605 850 2711
-596 849 2708
-589 851 2717
-582 852 2721
-573 850 2719
-562 846 2707
-551 843 2699
-542 841 2692
-516 814 2607
-465 744 2384
-474 770 2469
0 0 0
0 0 0
0 0 0
0 0 0
0 0 0
-404 724 2330
-379 693 2230
-401 746 2400
-376 713 2295
-340 656 2114
-341 670 2159
-360 720 2322
-344 702 2264
-337 703 2269
-303 646 2084
-303 658 2123
-323 717 2316
-299 678 2191
-298 691 2236
-276 654 2115
-282 685 2216
-266 660 2137
-268 682 2207
-253 661 2142
-255 682 2211
-255 700 2270
-253 713 2314
-229 665 2157
-233 695 2254
-225 691 2242
-217 688 2235
-209 681 2213
-213 719 2335
-193 672 2183
-187 673 2188
-183 683 2219
-176 681 2215
-164 662 2153
-159 666 2168
-156 681 2216
-146 665 2164
-141 673 2192
-139 695 2265
-130 682 2221
-118 653 2126
-117 683 2225
-107 662 2156
-105 692 2255
-94 664 2164
-90 685 2232
-82 668 2177
-76 675 2202
-68 660 2154
-64 683 2227
-53 638 2080
-48 657 2143
-45 695 2269
-37 678 2213
-32 706 2305
-25 710 2319
-19 742 2424
-13 768 2509
-5 749 2446
1 736 2404
9 742 2424
16 783 2557
24 783 2557
32 804 2627
39 784 2563
45 757 2473
53 754 2464
59 747 2442
65 731 2389
70 712 2325
78 722 2359
87 738 2411
94 733 2395
102 740 2418
111 755 2468
119 758 2477
126 758 2476
134 757 2472
141 758 2477
149 757 2474
155 755 2467
162 752 2455
169 752 2455
178 756 2468
184 751 2453
192 753 2458
198 751 2451
206 751 2451
213 751 2451
221 752 2454
228 752 2453
235 750 2446
242 749 2443
248 747 2435
256 748 2438
263 746 2432
270 746 2431
277 746 2431
285 748 2438
292 747 2433
299 746 2428
305 744 2421
313 745 2424
319 741 2412
327 743 2419
333 742 2412
341 743 2416
347 740 2404
354 740 2403
361 739 2400
368 739 2399
376 739 2399
382 738 2394
389 737 2390
396 737 2392
403 736 2387
410 736 2385
416 734 2378
422 733 2373
431 735 2379
437 733 2372
446 735 2380
453 736 2381
450 719 2324
464 730 2358
473 733 2368
478 730 2356
485 729 2352
494 732 2360
500 730 2354
505 728 2345
514 730 2352
519 728 2343
528 730 2348
533 727 2339
540 727 2338
546 725 2329
555 727 2336
558 722 2319
567 725 2325
575 726 2328
582 725 2325
588 724 2318
594 723 2313
602 724 2317
612 728 2326
621 729 2330
627 729 2327
631 725 2313
636 722 2303
642 721 2299
651 723 2303
658 723 2301
665 722 2298
671 722 2295
680 723 2297
684 721 2287
690 719 2281
696 718 2277
705 720 2282
712 720 2280
718 718 2272
725 719 2272
731 717 2265
736 716 2258
745 718 2263
753 718 2262
759 718 2259
766 718 2257
772 716 2250
779 716 2249
786 717 2248
793 716 2244
805 721 2256
809 718 2246
815 717 2242
824 718 2243
832 720 2245
839 719 2242
846 719 2240
848 715 2224
856 715 2223
867 719 2232
873 718 2227
887 723 2241
883 715 2212
892 716 2214
895 713 2202
900 711 2195
908 712 2195
913 710 2186
920 710 2184
931 713 2191
937 713 2188
943 712 2182
950 712 2180
956 711 2175
959 708 2162
969 710 2166
978 712 2169
983 710 2161
990 711 2159
1028 732 2223
997 705 2137
1037 729 2207
1048 731 2210
1046 725 2189
1037 713 2152
1035 707 2130
1028 698 2098
1001 675 2027
988 662 1985
798 531 1588
720 476 1421
708 465 1386
714 466 1387
719 466 1386
705 454 1346
811 519 1539
924 587 1741
932 589 1743
946 594 1754
942 588 1735
953 591 1741
963 594 1747
965 591 1736
967 589 1727
973 589 1724
979 589 1721
986 590 1721
994 591 1722
999 591 1718
1011 594 1725
1009 590 1709
-1404 837 2334
-1380 827 2311
-1365 823 2303
-1349 818 2293
-1349 822 2310
-1339 821 2311
-1319 814 2295
-1304 809 2286
-1310 818 2313
-1280 803 2277
-1270 802 2277
-1256 798 2269
-1246 796 2269
-1238 796 2271
-1226 793 2267
-1210 788 2255
-1197 784 2249
-1193 786 2258
-1177 781 2246
-1168 780 2247
-1153 775 2236
-1146 775 2240
-1136 773 2237
-1124 769 2230
-1114 768 2230
-1105 766 2229
-1094 764 2225
-1074 755 2201
-1022 723 2112
-978 697 2039
-955 685 2005
-959 692 2031
-958 697 2046
-953 698 2052
-952 702 2068
-947 703 2074
-949 709 2095
-956 720 2130
-970 736 2179
-973 743 2205
-975 750 2227
-970 751 2234
-970 756 2253
-964 757 2259
-959 759 2267
-951 759 2269
-955 767 2297
-949 769 2304
-946 772 2318
-936 769 2312
-936 776 2335
-935 781 2353
-926 780 2353
-925 785 2371
-920 787 2381
-917 791 2394
-915 796 2412
-914 801 2431
-904 799 2426
-901 803 2442
-894 804 2446
-890 807 2460
-890 814 2484
-882 814 2484
-877 816 2495
-871 818 2503
-864 818 2507
-860 822 2520
-856 826 2534
-853 831 2552
-841 827 2541
-838 831 2557
-838 839 2584
-831 840 2591
-819 835 2578
-820 844 2609
-817 850 2628
-812 853 2641
-803 852 2640
-794 852 2640
-793 859 2666
-782 856 2659
-777 859 2671
-768 858 2670
-760 859 2674
-753 859 2677
-743 858 2675
-736 859 2681
-728 859 2684
-718 858 2680
-716 865 2704
-704 859 2690
-695 858 2688
-687 859 2694
-680 860 2698
-671 860 2699
-663 860 2702
-654 858 2698
-643 855 2689
-635 854 2689
-629 858 2704
-622 859 2706
-612 857 2702
-602 855 2697
-595 856 2704
-589 858 2712
-580 858 2713
-568 852 2696
-558 850 2690
-552 852 2698
-541 848 2688
-514 818 2592
-471 761 2413
-442 726 2303
0 0 0
0 0 0
0 0 0
0 0 0
-425 757 2408
0 0 0
-375 692 2201
0 0 0
-377 721 2297
-368 716 2283
-367 728 2323
-360 728 2322
-349 720 2299
-330 695 2218
-335 720 2300
-321 704 2250
-315 705 2254
0 0 0
-298 698 2232
-295 707 2263
-283 693 2218
-278 696 2230
-267 687 2200
-276 727 2332
-258 697 2235
-253 702 2254
-248 707 2269
-246 722 2316
-238 718 2305
-211 656 2105
-214 684 2196
-201 664 2135
-204 695 2235
-199 701 2254
-194 707 2275
-188 710 2284
-171 671 2159
-173 704 2266
-162 688 2215
-155 683 2198
-148 683 2201
-145 697 2246
-137 695 2239
-132 699 2253
-115 643 2073
-119 702 2264
-115 720 2323
-100 670 2162
-96 681 2197
-89 681 2197
-80 663 2138
-76 681 2197
-72 704 2272
-64 692 2236
-57 687 2219
-49 676 2183
-43 673 2173
-37 678 2190
-31 701 2263
-25 707 2286
-19 729 2356
-12 749 2421
-5 748 2419
1 744 2405
9 788 2547
17 806 2606
24 795 2573
32 784 2536
38 768 2482
44 736 2381
50 726 2349
57 725 2343
64 721 2331
70 717 2318
79 730 2361
88 751 2428
97 763 2469
104 766 2476
112 769 2488
120 768 2485
127 765 2474
134 766 2476
141 765 2472
148 763 2467
156 763 2467
163 761 2460
170 764 2469
177 761 2460
184 760 2457
192 761 2458
199 760 2456
206 759 2450
213 759 2453
221 759 2450
228 758 2449
235 757 2443
242 758 2448
250 759 2449
257 757 2442
263 755 2436
270 754 2433
277 754 2430
284 752 2425
292 754 2430
299 753 2428
305 751 2420
313 752 2422
321 754 2429
326 749 2411
334 751 2416
341 750 2412
348 748 2407
355 748 2405
361 746 2399
369 747 2400
375 745 2393
383 746 2398
390 747 2398
397 745 2391
403 744 2388
411 745 2389
417 743 2383
424 742 2379
432 743 2381
439 743 2381
446 743 2378
451 739 2366
445 719 2299
466 740 2365
472 738 2359
477 736 2351
485 737 2352
492 737 2352
499 736 2347
506 736 2347
515 738 2352
519 733 2337
527 735 2340
534 735 2339
541 734 2337
548 734 2335
554 733 2328
560 732 2326
566 730 2319
571 728 2310
581 731 2318
586 729 2310
594 730 2312
603 732 2317
613 736 2327
621 737 2330
628 736 2325
629 729 2301
636 730 2302
644 730 2303
651 730 2301
659 731 2302
665 730 2297
670 727 2288
675 725 2280
683 726 2280
689 725 2276
698 727 2279
707 729 2284
715 730 2286
719 726 2273
725 726 2270
732 725 2266
739 725 2265
745 725 2261
755 727 2267
759 724 2256
767 725 2257
775 726 2258
782 726 2256
789 726 2254
797 727 2254
803 726 2249
809 725 2243
819 728 2251
822 724 2236
830 725 2236
837 725 2235
844 724 2232
852 725 2232
852 720 2212
864 724 2223
875 727 2231
883 727 2229
886 724 2216
890 721 2207
896 721 2202
904 721 2202
908 719 2193
916 720 2192
923 720 2190
930 720 2187
941 723 2194
948 723 2192
950 719 2178
957 719 2175
961 716 2165
967 715 2159
977 718 2165
982 716 2156
1007 729 2193
1022 735 2209
1038 741 2224
1039 737 2207
1044 736 2201
1044 730 2182
1033 718 2143
1039 717 2136
1023 701 2087
995 678 2013
974 659 1954
784 526 1558
710 474 1399
715 474 1398
711 468 1379
714 467 1373
736 479 1406
835 540 1584
926 595 1743
927 591 1731
943 598 1747
947 597 1741
958 600 1749
958 596 1734
965 597 1735
967 594 1724
976 597 1728
986 599 1732
991 598 1727
1008 605 1744
1002 598 1720
1005 597 1713
1014 598 1716
-1396 840 2318
-1392 842 2328
-1372 835 2312
-1351 827 2295
-1353 833 2314
-1334 826 2301
-1332 830 2314
-1313 823 2299
-1303 821 2298
-1282 813 2280
-1271 811 2277
-1270 815 2292
-1255 810 2283
-1238 804 2269
-1233 805 2277
-1217 800 2266
-1199 793 2250
-1191 793 2253
-1181 791 2251
-1168 787 2244
-1154 782 2235
-1149 784 2243
-1140 783 2242
-1122 776 2226
-1111 773 2221
-1104 773 2225
-1089 767 2212
-1073 761 2198
-1038 741 2143
-985 709 2051
-955 692 2005
-954 696 2019
-958 703 2043
-956 706 2057
-956 712 2074
-951 713 2081
-950 717 2097
-954 725 2121
-968 741 2173
-978 754 2213
-972 755 2219
-969 758 2230
-966 761 2243
-961 762 2250
-959 766 2265
-954 768 2274
-951 772 2287
-943 771 2288
-943 777 2309
-942 782 2325
-939 786 2340
-930 785 2339
-926 787 2349
-924 792 2366
-919 794 2375
-915 797 2386
-909 798 2394
-906 802 2408
-904 807 2424
-903 813 2446
-894 812 2445
-887 812 2449
-884 817 2465
-877 817 2470
-874 821 2484
-870 824 2496
-861 823 2495
-860 830 2518
-853 831 2523
-849 835 2538
-847 840 2557
-838 840 2557
-835 844 2573
-834 852 2599
-828 853 2606
-821 854 2611
-810 851 2605
-804 853 2613
-803 860 2637
-796 861 2643
-784 858 2634
-779 860 2644
-769 859 2641
-761 859 2643
-755 861 2653
-747 861 2655
-739 861 2658
-733 864 2668
-727 866 2676
-714 860 2661
-707 861 2666
-700 864 2675
-690 860 2667
-682 860 2669
-670 856 2659
-661 855 2657
-654 856 2660
-646 856 2663
-632 849 2643
-624 848 2643
-616 848 2644
-609 850 2651
-601 850 2653
-594 852 2659
-587 853 2664
-579 852 2665
-570 851 2663
-559 847 2651
-551 847 2653
-543 847 2654
-534 845 2651
-511 820 2574
-456 744 2336
-464 769 2415
0 0 0
0 0 0
0 0 0
0 0 0
0 0 0
-428 783 2468
0 0 0
-377 715 2255
-359 694 2189
-346 681 2150
-389 780 2462
-367 750 2369
-350 728 2301
-323 686 2169
-316 685 2165
-320 708 2238
-323 730 2311
-305 705 2233
-289 683 2164
-292 704 2232
-263 651 2063
-273 693 2196
-279 724 2298
-257 684 2170
-270 736 2335
-242 679 2156
-234 673 2136
-249 735 2336
-223 679 2158
-214 671 2131
-221 714 2272
-212 706 2246
-212 729 2320
-193 687 2188
-193 710 2259
-188 718 2287
-176 695 2214
-173 712 2267
-160 686 2185
-160 714 2276
-147 685 2184
-144 702 2239
-139 710 2264
-135 725 2314
-125 706 2253
-121 723 2308
-119 754 2408
-107 717 2291
-97 698 2228
-89 688 2197
-83 692 2210
-79 712 2276
-69 687 2196
-64 696 2225
-58 703 2248
-49 673 2150
-43 690 2206
-37 696 2226
-31 714 2283
-25 714 2283
-19 745 2383
-12 782 2501
-5 796 2548
1 812 2598
9 805 2577
16 773 2473
23 755 2415
30 761 2436
37 750 2399
44 736 2356
49 717 2294
56 717 2295
62 708 2265
70 718 2297
78 733 2346
87 749 2396
96 765 2447
105 780 2496
113 778 2489
120 775 2480
127 772 2471
134 773 2475
141 772 2472
149 773 2472
156 775 2478
164 774 2475
170 770 2461
177 769 2458
185 772 2468
192 770 2461
199 767 2452
206 767 2452
214 767 2452
221 767 2452
228 767 2452
235 765 2444
243 767 2451
250 766 2445
257 766 2448
264 764 2440
270 762 2431
278 762 2433
284 759 2422
292 761 2429
299 760 2424
306 758 2418
313 760 2422
319 756 2410
327 757 2412
333 755 2405
341 756 2409
349 757 2411
356 757 2408
362 756 2405
370 756 2405
377 756 2405
382 751 2388
388 750 2384
397 752 2389
403 750 2383
410 750 2382
416 748 2372
424 749 2377
430 748 2372
439 751 2380
445 748 2370
451 746 2364
447 728 2306
467 749 2371
473 747 2363
478 744 2353
486 746 2357
493 745 2355
500 744 2351
506 743 2345
513 743 2345
521 745 2347
529 745 2347
534 743 2339
540 741 2332
548 742 2334
555 742 2333
560 739 2323
567 739 2322
574 738 2317
579 736 2309
588 738 2316
595 738 2313
605 741 2322
611 740 2318
618 740 2315
625 740 2315
632 740 2312
637 737 2302
644 737 2299
649 735 2291
657 736 2295
660 732 2279
667 732 2277
672 729 2267
682 732 2276
688 730 2269
695 731 2270
705 734 2275
713 735 2278
720 735 2276
728 735 2275
730 730 2258
738 731 2260
747 734 2264
754 733 2261
759 731 2253
768 734 2258
774 732 2251
782 733 2254
792 735 2259
796 733 2248
803 733 2247
811 733 2246
816 732 2240
821 730 2232
830 732 2234
836 731 2230
842 730 2225
851 731 2227
857 731 2223
866 733 2226
873 732 2223
881 733 2222
883 729 2207
888 727 2201
895 727 2198
904 728 2199
911 728 2198
917 727 2192
923 727 2188
929 726 2184
938 727 2185
944 727 2180
952 727 2179
959 727 2177
968 729 2180
968 723 2159
976 724 2159
978 721 2147
997 729 2170
1031 749 2226
1022 737 2187
1037 743 2202
1043 742 2197
1043 737 2179
1034 725 2141
1037 722 2130
1021 707 2080
994 683 2008
945 645 1894
767 520 1523
710 478 1397
717 480 1401
713 474 1381
716 473 1376
752 494 1435
854 557 1618
921 597 1733
937 604 1749
942 603 1744
958 609 1759
951 601 1733
967 608 1750
971 606 1742
969 602 1727
973 601 1721
987 605 1731
984 600 1713
993 602 1717
1001 603 1717
1006 603 1712
1011 602 1708
-1404 853 2329
-1381 844 2309
-1380 848 2324
-1368 845 2321
-1346 836 2301
-1345 841 2317
-1325 833 2300
-1313 830 2296
-1306 831 2301
-1287 823 2285
-1276 821 2284
-1261 817 2274
-1251 815 2273
-1236 810 2263
-1238 816 2284
-1214 806 2259
-1200 801 2250
-1196 803 2260
-1179 797 2246
-1168 794 2241
-1153 789 2231
-1151 793 2244
-1139 789 2238
-1124 784 2227
-1118 785 2233
-1108 783 2231
-1091 776 2214
-1081 774 2211
-1052 758 2170
-989 718 2057
-958 700 2009
-955 703 2018
-953 706 2032
-959 716 2062
-952 715 2064
-951 719 2078
-948 722 2089
-952 730 2115
-964 745 2162
-972 756 2197
-975 764 2223
