VERSION 0.7
FIELDS x y z
SIZE 4 4 4
TYPE I I I
COUNT 1 1 1
WIDTH 3819
HEIGHT 1
VIEWPOINT 0.0 0.0 0.0 1.0 0.0 0.0 0.0
POINTS 3819
DATA ascii
514 -22 1509
500 -21 1452
480 -20 1380
493 -20 1404
514 -21 1451
538 -22 1506
562 -23 1558
555 -22 1526
561 -23 1526
581 -23 1567
621 -25 1661
766 -31 2033
829 -33 2181
837 -33 2182
842 -33 2178
853 -34 2186
858 -34 2180
866 -34 2181
872 -34 2177
877 -34 2171
883 -34 2166
888 -34 2161
898 -34 2166
904 -34 2164
911 -34 2160
917 -34 2158
928 -34 2165
934 -34 2160
936 -34 2149
942 -34 2144
933 -34 2107
935 -34 2093
950 -34 2109
969 -34 2135
972 -34 2124
986 -35 2139
1018 -36 2190
1034 -36 2207
1039 -36 2200
1018 -35 2138
1019 -35 2124
1025 -35 2120
1001 -34 2055
912 -30 1857
892 -30 1801
891 -29 1786
892 -29 1774
900 -29 1775
907 -29 1776
908 -29 1764
917 -30 1768
921 -30 1763
923 -29 1753
925 -29 1743
938 -30 1756
949 -30 1762
947 -30 1747
955 -30 1748
965 -30 1753
968 -30 1746
971 -30 1737
-1299 -15 2266
-1281 -14 2251
-1275 -14 2258
-1258 -14 2243
-1244 -14 2234
-1252 -15 2266
-1230 -14 2242
-1215 -14 2232
-1202 -14 2224
-1200 -14 2236
-1197 -15 2248
-1170 -14 2214
-1159 -14 2209
-1154 -14 2216
-1133 -14 2193
-1135 -14 2214
-1121 -14 2202
-1114 -14 2206
-1103 -14 2201
-1090 -14 2191
-1086 -14 2201
-1066 -14 2177
-1059 -14 2178
-1055 -14 2187
-1049 -15 2192
-1027 -14 2163
-1023 -14 2171
-1018 -15 2179
-1012 -15 2182
-997 -14 2167
-987 -14 2162
-973 -14 2149
-975 -15 2171
-987 -15 2214
-997 -15 2255
-995 -15 2271
-988 -15 2273
-986 -16 2286
-979 -16 2290
-979 -16 2309
-975 -16 2318
-974 -16 2334
-962 -16 2325
-961 -16 2344
-957 -16 2354
-954 -16 2366
-951 -17 2378
-944 -17 2382
-945 -17 2406
-941 -17 2415
-934 -17 2418
-930 -17 2430
-926 -17 2440
-918 -17 2443
-913 -17 2452
-910 -18 2465
-906 -18 2477
-900 -18 2481
-894 -18 2487
-898 -18 2522
-891 -18 2528
-884 -18 2530
-877 -18 2535
-872 -18 2545
-869 -19 2559
-860 -19 2557
-862 -19 2588
-853 -19 2587
-849 -19 2601
-848 -19 2622
-837 -19 2615
-836 -19 2639
-827 -20 2637
-823 -20 2650
-819 -20 2664
-814 -20 2677
-807 -20 2680
-802 -20 2694
-798 -20 2709
-786 -20 2697
-724 -19 2511
-654 -17 2293
-681 -18 2414
-711 -19 2548
-710 -19 2574
-706 -20 2588
-707 -20 2622
-722 -21 2711
-718 -21 2727
-708 -21 2719
-696 -21 2707
-691 -21 2718
-680 -21 2710
-673 -21 2715
-663 -21 2706
-656 -21 2711
-645 -21 2703
-636 -21 2698
-629 -21 2705
-618 -21 2692
-580 -20 2561
-492 -17 2201
-470 -16 2132
-533 -19 2452
-574 -21 2675
-567 -21 2682
-558 -21 2675
-550 -21 2676
-542 -21 2676
-532 -21 2667
-525 -21 2673
-515 -21 2659
-509 -21 2668
-500 -21 2663
-491 -21 2661
-483 -21 2657
-475 -22 2659
-467 -22 2655
-460 -22 2661
-451 -22 2658
-443 -22 2657
-434 -22 2651
-424 -22 2635
-418 -22 2644
-409 -22 2640
-400 -22 2633
-393 -22 2632
-388 -22 2651
-383 -22 2672
-377 -22 2685
-370 -22 2691
-360 -22 2679
-352 -22 2678
-343 -22 2667
-336 -22 2673
-326 -22 2654
-312 -22 2605
-305 -22 2609
-297 -22 2602
-289 -22 2596
-280 -22 2589
-272 -22 2586
-265 -22 2587
-257 -22 2583
-249 -22 2575
-241 -22 2575
-234 -22 2574
-226 -22 2570
-205 -21 2411
-170 -18 2077
-148 -16 1878
-140 -16 1849
-135 -15 1844
-127 -15 1817
-121 -15 1800
-115 -15 1793
-110 -15 1784
-105 -15 1788
-97 -15 1753
-91 -15 1728
-87 -15 1739
-80 -15 1712
-75 -15 1712
-71 -15 1736
-69 -16 1804
-67 -16 1883
-58 -15 1791
-55 -16 1833
-49 -16 1841
-44 -16 1832
-38 -16 1819
-34 -16 1866
-28 -16 1800
-24 -17 1897
-18 -17 1907
-13 -17 1872
-7 -17 1861
-2 -17 1909
3 -17 1902
8 -18 2017
14 -17 1940
19 -18 1961
25 -18 1979
31 -18 1996
38 -19 2046
45 -20 2127
53 -20 2190
59 -20 2196
62 -19 2061
63 -17 1903
67 -17 1858
71 -17 1842
77 -17 1837
81 -17 1823
86 -17 1819
91 -17 1816
98 -17 1847
102 -17 1822
107 -17 1815
112 -17 1811
126 -18 1951
151 -21 2244
169 -23 2410
182 -24 2495
185 -24 2434
191 -23 2415
200 -24 2441
203 -23 2402
211 -24 2404
219 -24 2419
223 -23 2385
230 -23 2385
225 -22 2264
224 -21 2188
229 -21 2178
236 -21 2180
242 -22 2182
249 -22 2183
254 -22 2178
259 -22 2166
266 -22 2170
272 -22 2164
278 -22 2165
284 -22 2162
289 -22 2149
296 -22 2159
303 -22 2162
307 -22 2145
300 -21 2053
284 -19 1903
293 -19 1923
297 -19 1917
292 -19 1846
302 -19 1873
304 -19 1852
324 -20 1939
335 -20 1970
348 -21 2013
364 -21 2071
374 -22 2093
388 -22 2138
399 -23 2163
409 -23 2182
411 -23 2155
417 -23 2153
435 -23 2215
453 -24 2271
454 -24 2244
450 -23 2188
457 -23 2191
469 -24 2218
481 -24 2242
492 -24 2259
494 -24 2239
491 -24 2197
485 -23 2139
473 -22 2059
455 -21 1954
450 -21 1906
456 -21 1905
458 -20 1889
461 -20 1880
454 -20 1825
476 -21 1893
482 -21 1892
484 -21 1879
484 -20 1855
493 -21 1868
494 -20 1849
495 -20 1833
495 -20 1810
498 -20 1801
509 -20 1821
532 -21 1883
523 -20 1830
530 -21 1835
546 -21 1868
554 -21 1876
564 -21 1890
575 -22 1905
578 -22 1897
592 -22 1924
602 -22 1935
607 -22 1932
618 -22 1945
599 -22 1868
564 -20 1739
521 -18 1590
512 -18 1547
514 -18 1537
503 -17 1491
512 -17 1502
497 -17 1444
484 -16 1392
489 -16 1392
508 -17 1435
530 -17 1484
560 -18 1552
556 -18 1528
572 -18 1558
593 -19 1600
630 -20 1686
771 -25 2047
832 -27 2188
837 -27 2182
844 -27 2181
855 -27 2192
855 -27 2172
865 -27 2179
872 -27 2176
878 -27 2173
883 -27 2168
890 -27 2165
898 -27 2167
902 -27 2158
912 -27 2164
920 -28 2163
927 -28 2163
928 -27 2148
938 -28 2152
941 -28 2142
912 -26 2058
913 -26 2044
950 -27 2110
969 -28 2136
976 -28 2134
989 -28 2145
1020 -29 2195
1032 -29 2203
1044 -29 2211
1020 -28 2144
1020 -28 2127
1025 -28 2120
1001 -27 2053
912 -25 1855
899 -24 1814
889 -24 1781
890 -24 1768
899 -24 1774
901 -24 1763
911 -24 1770
921 -24 1777
919 -24 1759
926 -24 1760
929 -24 1751
936 -24 1752
941 -24 1748
947 -24 1746
956 -24 1750
958 -24 1741
960 -24 1731
973 -24 1742
-1295 -7 2259
-1287 -7 2262
-1273 -7 2253
-1250 -7 2229
-1255 -7 2255
-1235 -7 2234
-1211 -7 2208
-1208 -7 2218
-1200 -7 2220
-1202 -7 2240
-1187 -7 2229
-1161 -7 2197
-1161 -7 2214
-1159 -7 2225
-1136 -7 2198
-1128 -7 2200
-1112 -7 2185
-1112 -7 2201
-1092 -7 2179
-1083 -7 2177
-1079 -8 2187
-1062 -7 2169
-1059 -8 2179
-1050 -8 2177
-1042 -8 2178
-1032 -8 2174
-1024 -8 2173
-1009 -8 2158
-1002 -8 2161
-989 -8 2151
-988 -8 2165
-975 -8 2153
-972 -8 2165
-984 -8 2209
-996 -8 2254
-990 -8 2260
-991 -8 2279
-987 -9 2290
-981 -9 2294
-973 -9 2295
-973 -9 2314
-965 -9 2314
-968 -9 2340
-960 -9 2342
-955 -9 2350
-957 -9 2374
-950 -9 2378
-945 -9 2384
-941 -9 2396
-939 -10 2411
-937 -10 2426
-929 -10 2429
-925 -10 2439
-917 -10 2440
-912 -10 2449
-907 -10 2456
-903 -10 2469
-903 -10 2491
-899 -10 2501
-892 -10 2507
-887 -11 2516
-886 -11 2536
-881 -11 2546
-871 -11 2541
-869 -11 2559
-864 -11 2569
-857 -11 2573
-853 -11 2588
-851 -11 2606
-844 -11 2612
-842 -12 2630
-836 -12 2638
-829 -12 2644
-825 -12 2658
-820 -12 2670
-816 -12 2683
-809 -12 2687
-805 -12 2703
-796 -12 2703
-776 -12 2662
-700 -11 2428
-664 -10 2328
-700 -11 2482
-712 -12 2552
-709 -12 2572
-706 -12 2589
-708 -12 2627
-728 -13 2732
-718 -13 2726
-710 -13 2728
-700 -13 2722
-693 -13 2727
-682 -13 2719
-672 -13 2711
-665 -13 2715
-656 -13 2714
-647 -13 2708
-637 -13 2703
-631 -13 2710
-618 -13 2691
-588 -13 2594
-489 -10 2188
-470 -10 2135
-525 -12 2415
-553 -13 2579
-541 -13 2559
-555 -13 2664
-553 -14 2689
-542 -13 2676
-532 -13 2669
-526 -14 2675
-515 -14 2663
-508 -14 2667
-501 -14 2671
-492 -14 2665
-484 -14 2665
-475 -14 2660
-465 -14 2647
-458 -14 2654
-451 -14 2656
-444 -14 2660
-433 -14 2646
-425 -14 2643
-418 -14 2647
-411 -14 2650
-400 -14 2629
-394 -14 2641
-388 -14 2652
-381 -14 2661
-376 -15 2680
-368 -15 2681
-360 -15 2680
-353 -15 2685
-344 -15 2674
-336 -15 2669
-327 -15 2659
-315 -15 2627
-305 -14 2609
-299 -15 2618
-291 -15 2619
-282 -15 2607
-274 -15 2602
-266 -15 2598
-258 -15 2595
-249 -15 2577
-242 -15 2586
-235 -15 2584
-214 -14 2438
-179 -12 2113
-154 -10 1890
-145 -10 1845
-139 -10 1838
-133 -10 1827
-127 -10 1808
-120 -10 1788
-114 -10 1768
-107 -10 1750
-105 -10 1795
-95 -9 1703
-91 -10 1735
-87 -10 1750
-85 -10 1812
-78 -10 1769
-69 -9 1683
-70 -10 1828
-64 -10 1809
-58 -10 1770
-52 -10 1745
-49 -11 1833
-45 -11 1875
-40 -11 1876
-32 -10 1767
-28 -11 1844
-23 -11 1821
-18 -11 1866
-13 -11 1890
-7 -12 1918
-2 -11 1876
3 -12 1903
8 -12 1976
14 -12 1937
19 -12 1954
25 -12 1935
31 -12 1954
37 -12 1971
43 -12 1986
48 -12 1952
52 -12 1908
55 -11 1829
59 -11 1779
64 -11 1770
69 -11 1775
73 -11 1739
80 -11 1792
87 -12 1824
92 -12 1818
95 -11 1783
99 -11 1755
103 -11 1735
114 -12 1839
122 -12 1891
141 -14 2086
166 -16 2360
178 -17 2440
185 -17 2431
192 -17 2428
198 -17 2424
205 -17 2421
212 -17 2420
219 -17 2416
225 -17 2405
229 -17 2375
224 -16 2252
223 -15 2186
228 -15 2168
236 -15 2182
243 -15 2185
249 -15 2190
254 -15 2171
260 -15 2169
263 -15 2144
272 -15 2169
279 -15 2168
283 -15 2151
290 -15 2159
295 -15 2148
296 -15 2113
290 -14 2025
280 -14 1912
280 -13 1876
278 -13 1826
290 -13 1869
300 -14 1900
304 -14 1886
306 -13 1864
314 -14 1882
326 -14 1920
330 -14 1909
339 -14 1927
355 -15 1986
368 -15 2025
377 -15 2040
384 -15 2048
391 -15 2049
398 -16 2056
414 -16 2107
429 -16 2149
426 -16 2101
427 -16 2074
431 -16 2067
438 -16 2067
444 -16 2067
449 -16 2061
450 -16 2037
453 -16 2023
450 -15 1984
448 -15 1949
446 -15 1914
448 -15 1895
453 -15 1894
441 -14 1818
444 -14 1810
455 -14 1831
475 -15 1890
468 -15 1839
485 -15 1881
495 -15 1899
489 -15 1851
496 -15 1859
497 -15 1841
499 -15 1825
501 -15 1814
514 -15 1839
508 -15 1795
532 -15 1862
512 -15 1772
538 -15 1842
545 -15 1845
557 -16 1867
568 -16 1884
576 -16 1891
590 -16 1915
596 -16 1916
602 -16 1916
610 -16 1919
598 -16 1864
562 -15 1732
527 -14 1608
526 -13 1588
514 -13 1538
519 -13 1537
521 -13 1528
502 -12 1457
482 -12 1387
492 -12 1401
511 -12 1444
528 -13 1478
560 -13 1552
572 -14 1572
567 -13 1543
599 -14 1617
624 -15 1670
772 -19 2048
829 -20 2183
838 -20 2185
844 -20 2181
853 -20 2185
861 -20 2186
865 -20 2178
870 -20 2171
877 -20 2171
884 -21 2168
894 -21 2176
898 -21 2167
904 -21 2162
913 -21 2165
916 -21 2154
930 -21 2169
932 -21 2157
936 -21 2148
937 -21 2133
911 -20 2056
901 -20 2018
941 -21 2089
965 -21 2125
976 -21 2133
991 -21 2148
1020 -22 2194
1032 -22 2202
1041 -22 2204
1023 -22 2150
1022 -22 2131
1028 -22 2125
998 -21 2047
903 -19 1837
889 -18 1796
886 -18 1776
896 -18 1781
901 -18 1778
911 -18 1783
908 -18 1765
914 -18 1762
921 -18 1763
932 -18 1770
932 -18 1757
943 -19 1764
944 -18 1754
950 -18 1751
956 -19 1749
960 -19 1744
964 -19 1738
977 -19 1748
-1296 0 2262
-1294 0 2274
-1271 0 2251
-1264 0 2254
-1258 0 2259
-1243 0 2249
-1226 0 2236
-1226 0 2252
-1204 0 2228
-1190 0 2218
-1185 0 2226
-1171 0 2216
-1157 0 2206
-1142 0 2193
-1139 0 2205
-1135 0 2214
-1127 0 2215
-1110 -1 2198
-1085 -1 2165
-1086 -1 2183
-1075 -1 2177
-1066 -1 2176
-1057 -1 2175
-1057 -1 2192
-1044 -1 2181
-1029 -1 2168
-1018 -1 2162
-1011 -1 2164
-1005 -1 2168
-1004 -1 2184
-986 -1 2160
-976 -1 2157
-974 -1 2168
-983 -1 2207
-996 -1 2253
-991 -1 2261
-986 -1 2269
-987 -2 2289
-982 -2 2296
-976 -2 2301
-974 -2 2316
-967 -2 2318
-962 -2 2325
-963 -2 2349
-955 -2 2348
-950 -2 2357
-950 -2 2378
-944 -2 2383
-941 -2 2394
-937 -2 2406
-936 -2 2424
-927 -2 2422
-924 -2 2435
-917 -2 2440
-914 -3 2454
-909 -3 2463
-902 -3 2465
-900 -3 2482
-895 -3 2493
-896 -3 2517
-885 -3 2510
-886 -3 2538
-881 -3 2548
-874 -3 2551
-865 -3 2547
-862 -3 2565
-859 -3 2579
-854 -3 2590
-848 -3 2597
-846 -4 2616
-837 -4 2617
-833 -4 2630
-830 -4 2647
-826 -4 2662
-818 -4 2662
-814 -4 2678
-809 -4 2689
-804 -4 2702
-795 -4 2700
-763 -4 2620
-717 -4 2489
-706 -4 2476
-710 -4 2519
-710 -4 2546
-712 -4 2581
-707 -4 2594
-711 -4 2637
-728 -5 2734
-720 -5 2735
-710 -5 2728
-704 -5 2737
-693 -5 2728
-681 -5 2714
-675 -5 2721
-662 -5 2704
-656 -5 2713
-648 -5 2715
-640 -5 2714
-629 -5 2705
-605 -5 2636
-570 -5 2518
-497 -4 2224
-480 -4 2177
-510 -5 2347
-503 -5 2348
-530 -5 2506
-557 -6 2670
-552 -6 2685
-542 -6 2677
-534 -6 2675
-525 -6 2669
-519 -6 2679
-508 -6 2666
-501 -6 2669
-490 -6 2654
-482 -6 2652
-475 -6 2660
-465 -6 2646
-458 -6 2654
-449 -6 2646
-441 -6 2647
-434 -6 2647
-426 -6 2646
-419 -6 2651
-409 -6 2641
-402 -6 2645
-394 -6 2642
-386 -7 2641
-381 -7 2656
-376 -7 2679
-368 -7 2679
-360 -7 2679
-353 -7 2685
-344 -7 2671
-336 -7 2674
-327 -7 2662
-312 -7 2603
-283 -6 2420
-276 -6 2426
-273 -6 2460
-270 -7 2497
-267 -7 2541
-265 -7 2585
-258 -7 2598
-251 -7 2598
-242 -7 2586
-223 -7 2457
-187 -6 2132
-160 -5 1891
-150 -5 1831
-144 -5 1831
-139 -5 1839
-133 -5 1817
-124 -5 1767
-117 -5 1750
-109 -4 1703
-106 -5 1734
-103 -5 1762
-97 -5 1751
-89 -4 1688
-86 -5 1730
-78 -4 1671
-73 -5 1669
-71 -5 1732
-68 -5 1764
-61 -5 1727
-61 -5 1880
-55 -5 1850
-49 -5 1822
-44 -5 1854
-39 -6 1873
-35 -6 1923
-28 -6 1859
-23 -6 1855
-18 -6 1883
-13 -6 1895
-7 -6 1877
-2 -6 1924
3 -6 1882
8 -6 1853
14 -6 1895
19 -6 1893
25 -6 1918
30 -6 1925
36 -6 1926
40 -6 1874
45 -6 1848
49 -6 1809
55 -6 1812
58 -6 1739
63 -6 1743
67 -6 1726
74 -6 1759
81 -6 1823
85 -6 1796
88 -6 1739
97 -6 1821
100 -6 1787
102 -6 1727
116 -7 1881
121 -7 1864
134 -7 1985
159 -9 2267
177 -9 2419
185 -10 2431
191 -10 2420
199 -10 2433
205 -10 2424
213 -10 2426
219 -10 2420
227 -10 2425
228 -10 2367
223 -9 2242
224 -9 2186
229 -9 2179
235 -9 2175
242 -9 2176
248 -9 2174
254 -9 2173
262 -9 2185
272 -9 2218
267 -9 2128
276 -9 2149
283 -9 2156
286 -9 2128
283 -9 2062
279 -8 1988
265 -8 1849
271 -8 1848
274 -8 1833
282 -8 1851
291 -8 1873
289 -8 1828
298 -8 1848
308 -8 1876
309 -8 1852
318 -8 1869
313 -8 1811
330 -8 1874
340 -8 1900
356 -9 1955
366 -9 1982
370 -9 1972
379 -9 1985
385 -9 1987
394 -9 2005
406 -10 2033
414 -10 2043
415 -10 2015
418 -9 2002
419 -9 1976
420 -9 1956
425 -9 1950
427 -9 1934
432 -9 1928
435 -9 1917
441 -9 1916
444 -9 1904
451 -9 1908
450 -9 1879
457 -9 1886
451 -9 1837
456 -9 1835
477 -10 1898
475 -9 1864
482 -9 1871
490 -10 1880
474 -9 1794
493 -9 1848
489 -9 1808
503 -9 1839
506 -9 1831
515 -10 1844
519 -10 1834
528 -10 1846
514 -9 1777
526 -9 1802
536 -10 1816
562 -10 1881
546 -10 1809
568 -10 1862
581 -10 1885
592 -10 1903
598 -10 1900
609 -11 1919
594 -10 1853
559 -9 1725
513 -8 1566
521 -9 1575
519 -8 1551
524 -8 1552
528 -8 1550
498 -8 1447
486 -8 1397
493 -8 1406
519 -8 1464
548 -9 1534
568 -9 1574
575 -9 1579
573 -9 1559
587 -9 1584
639 -10 1710
787 -13 2089
831 -14 2186
840 -14 2190
843 -14 2180
854 -14 2189
861 -14 2188
865 -14 2178
872 -14 2177
878 -14 2173
885 -14 2172
889 -14 2163
897 -14 2164
905 -14 2164
914 -14 2168
919 -14 2161
920 -14 2146
928 -14 2147
928 -14 2129
917 -14 2087
884 -13 1994
902 -13 2018
938 -14 2083
967 -14 2131
979 -15 2139
992 -15 2150
1018 -15 2190
1036 -15 2211
1042 -15 2207
1021 -15 2145
1023 -15 2133
1025 -15 2120
993 -14 2038
899 -13 1830
888 -12 1793
888 -12 1780
892 -12 1774
895 -12 1766
906 -13 1774
906 -13 1760
915 -13 1765
921 -13 1763
924 -13 1754
935 -13 1764
941 -13 1760
941 -13 1748
952 -13 1755
956 -13 1749
964 -13 1751
962 -13 1734
976 -13 1747
-1300 7 2268
-1286 6 2261
-1285 6 2274
-1267 6 2259
-1255 6 2255
-1254 6 2269
-1233 6 2249
-1229 6 2257
-1216 6 2250
-1208 6 2252
-1191 6 2237
-1186 6 2243
-1176 6 2241
-1155 6 2219
-1155 6 2236
-1145 6 2233
-1128 6 2217
-1125 6 2228
-1108 5 2211
-1091 5 2193
-1087 5 2202
-1080 5 2204
-1062 5 2185
-1059 5 2196
-1050 5 2195
-1038 5 2187
-1024 5 2174
-1020 5 2182
-1009 5 2176
-1009 5 2193
-989 5 2168
-974 5 2151
-973 5 2166
-978 5 2197
-993 5 2248
-991 5 2262
-987 5 2270
-982 5 2277
-980 5 2291
-974 4 2297
-972 4 2311
-966 4 2317
-961 4 2324
-956 4 2333
-956 4 2352
-951 4 2359
-947 4 2370
-943 4 2380
-942 4 2397
-936 4 2403
-934 4 2420
-930 4 2430
-921 4 2428
-917 4 2439
-908 4 2437
-907 4 2457
-905 4 2475
-899 4 2480
-896 4 2494
-891 4 2505
-889 4 2522
-887 4 2540
-879 4 2539
-871 4 2541
-866 3 2552
-863 3 2568
-858 3 2579
-853 3 2588
-851 3 2607
-845 3 2613
-841 3 2627
-834 3 2631
-829 3 2645
-826 3 2661
-820 3 2669
-812 3 2672
-808 3 2687
-803 3 2696
-792 3 2690
-765 3 2624
-727 3 2522
-712 3 2497
-710 2 2517
-707 2 2537
-707 2 2564
-704 2 2583
-711 2 2637
-732 2 2746
-719 2 2731
-710 2 2728
-701 2 2725
-694 2 2730
-686 2 2734
-675 2 2722
-665 2 2717
-654 2 2706
-648 2 2716
-641 2 2718
-616 2 2648
-568 2 2476
-523 2 2308
-498 1 2231
-479 1 2175
-486 1 2236
-496 1 2313
-529 1 2500
-557 1 2671
-552 1 2686
-543 1 2681
-533 1 2670
-525 1 2671
-517 1 2670
-507 1 2664
-499 1 2660
-491 1 2662
-484 1 2663
-475 1 2657
-466 1 2652
-457 1 2647
-450 1 2652
-441 1 2645
-432 0 2639
-426 0 2649
-416 0 2636
-408 0 2636
-401 0 2636
-393 0 2639
-386 0 2641
-379 0 2648
-375 0 2673
-367 0 2670
-360 0 2680
-352 0 2676
-342 0 2663
-335 0 2668
-324 0 2642
-281 0 2347
-232 0 1987
-219 0 1924
-216 0 1953
-216 0 2006
-218 0 2080
-225 0 2205
-235 0 2365
-240 0 2485
-229 0 2446
-195 0 2157
-167 0 1906
-156 0 1847
-150 0 1840
-144 0 1829
-138 0 1821
-128 0 1751
-121 0 1727
-114 0 1698
-109 0 1698
-104 0 1693
-98 0 1683
-93 0 1676
-87 0 1656
-86 0 1728
-79 0 1682
-76 0 1728
-70 0 1694
-67 0 1744
-60 0 1705
-57 0 1742
-55 0 1861
-51 0 1892
-45 0 1865
-39 0 1869
-34 0 1851
-28 0 1817
-23 0 1857
-18 0 1853
-13 0 1896
-7 0 1848
-2 0 1803
3 -1 1921
8 0 1840
13 -1 1873
19 -1 1870
24 -1 1872
30 -1 1878
35 -1 1871
39 -1 1815
44 -1 1811
50 -1 1816
54 -1 1787
58 -1 1761
64 -1 1767
69 -1 1765
76 -1 1817
82 -1 1827
85 -1 1791
91 -1 1814
95 -1 1778
101 -1 1798
106 -1 1799
109 -1 1757
121 -1 1865
131 -1 1933
152 -2 2152
168 -2 2294
176 -2 2310
183 -2 2319
190 -2 2322
198 -2 2329
206 -3 2349
212 -3 2342
219 -3 2344
224 -3 2324
223 -3 2245
224 -2 2191
229 -2 2178
235 -3 2174
241 -3 2169
245 -3 2154
252 -3 2160
259 -3 2161
265 -3 2163
271 -3 2153
275 -3 2139
275 -3 2092
263 -2 1954
260 -2 1887
263 -2 1871
269 -2 1878
272 -2 1856
269 -2 1799
277 -2 1819
286 -2 1842
292 -2 1843
301 -3 1869
300 -3 1828
313 -3 1871
315 -3 1854
323 -3 1869
317 -3 1802
329 -3 1836
346 -3 1902
355 -3 1920
366 -3 1947
371 -3 1942
377 -3 1944
389 -3 1975
396 -3 1984
400 -3 1974
405 -3 1970
405 -3 1941
404 -3 1908
402 -3 1870
407 -3 1867
412 -3 1866
421 -3 1878
426 -3 1877
435 -4 1891
441 -4 1892
451 -4 1908
458 -4 1915
461 -4 1902
463 -4 1888
458 -4 1844
466 -4 1853
485 -4 1904
474 -4 1838
474 -4 1815
485 -4 1837
500 -4 1870
498 -4 1843
496 -4 1816
505 -4 1825
496 -4 1774
514 -4 1819
524 -4 1832
519 -4 1794
529 -4 1810
547 -4 1851
540 -4 1810
567 -5 1878
552 -4 1810
570 -5 1852
583 -5 1872
598 -5 1903
610 -5 1921
596 -5 1857
549 -4 1692
526 -4 1604
522 -4 1576
529 -4 1583
519 -4 1536
527 -4 1546
501 -4 1455
489 -3 1405
496 -3 1413
513 -4 1447
548 -4 1532
565 -4 1565
574 -4 1577
575 -4 1565
577 -4 1557
629 -5 1682
779 -6 2068
830 -7 2183
838 -7 2185
846 -7 2187
855 -7 2190
859 -7 2181
868 -7 2186
872 -7 2178
877 -7 2171
887 -7 2176
892 -7 2171
900 -7 2170
906 -7 2166
912 -7 2164
919 -8 2161
916 -7 2136
919 -7 2126
915 -7 2100
911 -7 2072
866 -7 1955
875 -7 1957
931 -7 2067
969 -8 2134
981 -8 2145
990 -8 2147
1022 -8 2200
1035 -8 2210
1047 -9 2217
1026 -8 2155
1019 -8 2124
1028 -8 2126
975 -8 2000
895 -7 1820
887 -7 1790
885 -7 1774
891 -7 1771
902 -7 1780
906 -7 1774
909 -7 1766
912 -7 1759
923 -7 1767
922 -7 1751
932 -7 1757
937 -7 1754
940 -7 1746
949 -7 1750
950 -7 1739
962 -7 1747
962 -7 1735
969 -7 1735
-1322 14 2307
-1293 14 2273
-1287 14 2278
-1278 14 2279
-1256 14 2257
-1249 14 2261
-1246 14 2272
-1229 13 2257
-1212 13 2242
-1204 13 2245
-1197 13 2248
-1185 13 2243
-1175 13 2240
-1159 13 2226
-1156 13 2237
-1141 13 2226
-1136 13 2232
-1122 13 2221
-1114 12 2222
-1097 12 2206
-1093 12 2214
-1083 12 2211
-1071 12 2203
-1067 12 2213
-1053 12 2200
-1042 12 2195
-1034 12 2196
-1023 12 2189
-1010 12 2178
-1004 12 2184
-989 11 2168
-976 11 2157
-973 11 2168
-978 11 2196
-991 12 2244
-991 12 2261
-982 12 2260
-985 12 2285
-979 12 2290
-976 12 2301
-969 12 2305
-968 12 2322
-963 11 2329
-958 11 2336
-953 11 2344
-953 11 2364
-951 11 2380
-941 11 2375
-944 11 2402
-935 11 2401
-932 11 2413
-929 11 2428
-924 11 2436
-914 11 2431
-915 11 2456
-910 11 2466
-904 11 2471
-902 11 2488
-899 11 2503
-890 11 2501
-887 11 2516
-880 11 2521
-880 11 2544
-869 11 2536
-865 11 2548
-860 11 2557
-858 11 2577
-853 11 2587
-846 11 2593
-846 11 2619
-839 11 2622
-836 11 2640
-829 11 2644
-826 11 2663
-821 11 2673
-815 11 2681
-808 11 2685
-804 11 2700
-795 11 2698
-763 10 2620
-723 10 2509
-710 10 2492
-706 10 2503
-707 10 2537
-712 10 2583
-706 10 2592
-718 10 2665
-733 10 2753
-721 10 2739
-711 10 2734
-704 10 2737
-694 10 2732
-683 10 2724
-677 10 2730
-666 10 2719
-657 10 2718
-649 10 2717
-636 10 2699
-604 9 2599
-536 8 2335
-490 8 2163
-475 8 2126
-471 8 2140
-468 8 2152
-481 8 2246
-495 8 2344
-521 9 2499
-532 9 2589
-531 9 2622
-519 9 2601
-509 9 2591
-503 9 2602
-499 9 2620
-491 9 2618
-486 9 2632
-476 8 2623
-470 8 2634
-462 8 2632
-456 8 2641
-447 8 2634
-440 8 2637
-434 8 2649
-424 8 2636
-416 8 2635
-409 8 2638
-400 8 2634
-391 8 2622
-378 8 2585
-365 8 2551
-359 8 2562
-358 8 2609
-350 8 2604
-345 8 2623
-339 7 2634
-333 7 2654
-311 7 2539
-250 6 2095
-215 5 1850
-197 5 1739
-193 5 1744
-192 5 1786
-190 5 1818
-187 5 1839
-188 5 1901
-193 6 2010
-190 6 2041
-172 5 1901
-160 5 1827
-153 5 1807
-146 5 1790
-139 5 1768
-132 5 1742
-122 4 1673
-121 5 1726
-110 4 1650
-106 4 1653
-103 4 1678
-96 4 1644
-95 4 1711
-86 4 1639
-83 4 1667
-78 4 1668
-73 4 1672
-66 4 1621
-62 4 1623
-58 4 1653
-53 4 1639
-54 4 1807
-51 4 1909
-44 4 1857
-39 4 1847
-33 4 1836
-28 4 1846
-23 4 1834
-18 4 1874
-12 4 1860
-7 4 1838
-2 4 1878
3 4 1899
8 4 1865
13 4 1865
19 4 1859
24 4 1847
29 4 1845
34 4 1820
39 4 1799
44 4 1790
49 3 1786
54 3 1772
57 3 1730
63 3 1733
69 3 1763
75 3 1788
82 3 1841
87 3 1821
90 3 1782
95 3 1771
97 3 1727
106 3 1801
114 3 1841
121 3 1873
130 3 1914
147 3 2089
161 3 2192
168 3 2200
174 3 2201
181 3 2203
187 3 2203
194 3 2206
200 3 2209
207 3 2208
212 3 2201
217 3 2182
223 3 2180
227 3 2160
234 3 2163
240 3 2163
246 3 2159
252 3 2154
259 3 2159
264 3 2149
264 2 2102
259 2 2012
263 2 1998
256 2 1904
252 2 1833
264 2 1879
265 2 1845
273 2 1862
271 2 1812
279 2 1831
289 2 1862
291 2 1841
305 2 1892
306 2 1865
311 2 1861
318 2 1868
335 2 1935
318 2 1808
329 2 1836
344 2 1893
348 2 1881
358 2 1904
365 1 1910
373 1 1927
382 1 1941
385 1 1926
389 1 1916
392 1 1904
390 1 1865
376 1 1774
388 1 1802
414 1 1901
405 1 1832
407 1 1817
421 1 1853
422 1 1835
432 1 1852
439 1 1858
450 1 1882
458 1 1890
463 1 1889
469 1 1889
474 1 1886
476 1 1870
476 1 1846
481 1 1842
485 1 1835
497 1 1859
493 0 1825
500 0 1828
506 0 1829
519 0 1857
520 0 1837
535 0 1873
534 0 1847
530 0 1813
526 0 1782
542 0 1816
554 0 1836
562 0 1844
573 0 1859
575 0 1847
584 0 1858
599 0 1886
589 0 1836
551 0 1699
522 0 1593
524 0 1584
519 0 1552
514 0 1522
510 0 1497
506 0 1470
487 0 1402
491 0 1399
521 0 1471
548 0 1533
568 0 1574
578 0 1589
571 0 1554
584 0 1575
647 0 1729
782 0 2075
833 0 2193
843 0 2200
844 0 2180
853 0 2186
864 0 2193
867 0 2183
873 -1 2179
882 -1 2182
884 -1 2170
892 -1 2169
901 -1 2173
902 -1 2158
912 -1 2164
918 -1 2159
914 -1 2131
908 -1 2099
897 -1 2058
901 -1 2050
865 -1 1952
876 -1 1960
914 -1 2030
957 -1 2108
970 -1 2121
983 -1 2131
1021 -1 2197
1036 -2 2212
1038 -2 2197
1029 -2 2163
1025 -2 2135
1030 -2 2131
962 -1 1973
889 -1 1808
888 -1 1793
882 -1 1768
896 -1 1781
901 -1 1778
901 -1 1764
909 -1 1765
916 -1 1766
920 -1 1761
921 -1 1750
927 -1 1748
936 -2 1751
942 -2 1750
949 -2 1749
955 -2 1748
958 -2 1741
968 -2 1745
970 -2 1737
-1314 21 2293
-1299 21 2283
-1291 21 2285
-1279 21 2281
-1268 21 2278
-1254 21 2270
-1248 21 2275
-1231 21 2261
-1220 21 2258
-1207 20 2249
-1195 20 2246
-1188 20 2248
-1177 20 2245
-1169 20 2246
-1154 20 2234
-1142 20 2228
-1135 20 2230
-1125 20 2228
-1117 20 2229
-1106 19 2224
-1093 19 2215
-1079 19 2204
-1075 19 2212
-1064 19 2207
-1049 19 2193
-1043 19 2196
-1029 19 2184
-1026 19 2195
-1009 18 2177
-1003 18 2181
-993 18 2177
-975 18 2154
-971 18 2163
-981 18 2203
-991 19 2243
-987 19 2253
-984 19 2264
-981 19 2275
-980 19 2291
-972 19 2293
-965 19 2295
-962 19 2306
-970 19 2345
-960 19 2341
-956 19 2353
-954 19 2366
-944 19 2363
-943 19 2380
-937 19 2387
-937 19 2406
-929 19 2407
-928 19 2427
-914 19 2410
-914 19 2433
-916 19 2460
-913 19 2473
-905 19 2475
-900 19 2482
-898 19 2500
-888 19 2496
-885 19 2512
-884 19 2532
-875 19 2530
-869 19 2537
-866 19 2553
-860 19 2559
-857 19 2574
-853 19 2588
-846 19 2592
-844 19 2612
-835 19 2610
-834 19 2634
-829 19 2643
-828 19 2667
-821 19 2673
-814 19 2679
-808 19 2685
-802 19 2694
-789 19 2679
-753 18 2586
-723 17 2507
-710 17 2493
-703 17 2493
-701 17 2516
-703 18 2552
-713 18 2616
-727 18 2697
-735 19 2761
-720 18 2733
-712 18 2737
-701 18 2726
-693 18 2729
-685 18 2730
-675 18 2724
-666 18 2721
-658 18 2721
-646 18 2705
-636 18 2700
-601 17 2582
-527 15 2298
-486 14 2147
-472 14 2116
-469 14 2128
-464 14 2135
-463 14 2162
-466 14 2205
-516 16 2475
-520 16 2530
-507 16 2505
-494 16 2477
-491 16 2499
-488 16 2521
-479 16 2517
-475 16 2533
-466 16 2524
-459 16 2532
-453 16 2536
-444 15 2527
-434 15 2517
-428 15 2526
-418 15 2510
-409 15 2498
-400 15 2489
-390 15 2469
-378 15 2439
-365 14 2406
-352 14 2361
-336 14 2300
-322 13 2252
-314 13 2244
-311 13 2271
-308 13 2297
-305 13 2319
-299 14 2332
-301 14 2398
-277 13 2261
-228 11 1913
-220 11 1892
-205 11 1809
-199 10 1801
-193 10 1795
-185 10 1767
-179 10 1761
-174 10 1761
-172 10 1787
-167 10 1796
-161 10 1779
-154 10 1761
-148 10 1753
-142 10 1737
-136 10 1730
-130 10 1719
-130 10 1784
-118 9 1696
-110 9 1640
-107 9 1666
-102 9 1668
-99 9 1703
-90 9 1619
-86 9 1644
-85 9 1706
-78 9 1665
-73 9 1660
-68 9 1660
-62 9 1640
-57 9 1620
-55 9 1686
-52 9 1752
-49 10 1845
-44 10 1857
-38 9 1812
-33 9 1839
-27 9 1801
-23 9 1835
-17 9 1798
-12 9 1846
-7 9 1836
-2 9 1887
3 9 1882
8 9 1866
13 9 1848
19 9 1850
24 9 1835
29 9 1804
35 9 1860
38 9 1739
44 9 1814
50 9 1818
52 8 1702
60 9 1805
62 8 1712
68 8 1748
75 8 1794
79 8 1758
85 8 1790
93 9 1838
93 8 1737
98 8 1736
103 8 1733
120 9 1930
122 9 1873
131 9 1933
146 9 2076
156 9 2121
166 10 2180
174 10 2199
180 10 2194
182 9 2147
189 9 2157
195 9 2150
206 9 2196
210 9 2176
220 9 2211
222 9 2166
223 9 2118
233 9 2155
237 9 2132
242 9 2124
245 9 2098
256 9 2135
254 8 2067
255 8 2027
250 8 1940
238 7 1809
253 8 1878
260 8 1889
265 8 1883
260 7 1812
278 8 1897
275 7 1842
279 7 1828
284 7 1830
294 7 1858
295 7 1829
303 7 1846
308 7 1842
306 7 1796
322 7 1858
330 7 1872
331 7 1849
335 7 1843
346 7 1872
352 7 1871
360 7 1884
366 7 1887
376 7 1908
378 7 1891
382 7 1881
379 7 1840
373 6 1782
372 6 1752
383 6 1779
407 7 1865
411 7 1857
405 6 1807
424 7 1867
406 6 1761
427 6 1832
429 6 1817
442 6 1845
444 6 1832
451 6 1837
461 6 1853
473 6 1880
479 6 1882
486 6 1885
488 6 1871
491 6 1859
487 6 1821
493 6 1826
500 6 1827
513 6 1856
516 6 1845
512 6 1810
530 6 1854
526 6 1818
530 6 1813
545 6 1845
535 6 1793
543 5 1800
546 5 1792
543 5 1763
563 5 1809
576 5 1832
586 5 1843
580 5 1807
560 5 1725
536 5 1635
518 5 1565
522 5 1560
520 5 1538
525 4 1541
507 4 1471
492 4 1414
492 4 1403
514 4 1450
544 4 1523
568 4 1575
558 4 1531
572 4 1555
588 4 1587
629 4 1681
789 5 2094
833 5 2193
844 5 2201
852 5 2201
861 5 2207
868 5 2204
872 5 2194
875 5 2184
880 5 2176
889 5 2180
891 5 2168
901 5 2174
906 5 2168
912 5 2163
919 5 2162
913 5 2129
906 5 2096
905 5 2077
905 4 2058
873 4 1969
849 4 1900
903 4 2005
928 4 2044
938 4 2049
974 4 2112
1019 4 2193
1033 4 2206
1041 4 2204
1027 4 2158
1025 4 2136
1027 4 2123
947 4 1942
885 4 1800
885 3 1786
889 3 1780
885 3 1759
898 3 1772
903 3 1768
906 3 1761
916 3 1766
922 3 1764
927 3 1761
929 3 1752
937 3 1753
944 3 1752
947 3 1745
956 3 1750
958 3 1740
965 3 1740
971 3 1737
-1306 29 2278
-1299 29 2283
-1296 29 2295
-1276 28 2275
-1270 28 2282
-1259 28 2278
-1241 28 2262
-1235 28 2269
-1220 28 2258
-1213 28 2262
-1193 27 2241
-1185 27 2242
-1179 27 2248
-1172 27 2251
-1157 27 2239
-1144 27 2232
-1131 27 2223
-1123 27 2224
-1112 26 2218
-1104 26 2221
-1093 26 2215
-1085 26 2216
-1074 26 2211
-1064 26 2208
-1050 26 2195
-1043 26 2197
-1033 26 2194
-1025 25 2193
-1013 25 2184
-1002 25 2179
-995 25 2181
-980 25 2166
-968 25 2156
-974 25 2187
-990 25 2242
-986 25 2249
-981 25 2258
-984 26 2283
-979 26 2290
-960 25 2263
-914 24 2175
-900 24 2159
-900 24 2178
-893 24 2178
-885 24 2177
-868 24 2154
-848 23 2122
-838 23 2115
-835 23 2127
-847 24 2175
-849 24 2199
-841 24 2200
-837 24 2209
-854 24 2272
-891 26 2394
-902 26 2445
-900 26 2460
-898 26 2477
-894 26 2489
-890 26 2503
-885 26 2510
-881 26 2524
-876 26 2533
-870 26 2540
-864 26 2546
-857 26 2549
-855 26 2569
-850 27 2579
-848 27 2599
-842 27 2606
-836 27 2614
-834 27 2633
-831 27 2652
-824 27 2655
-818 27 2664
-812 27 2672
-809 27 2689
-799 27 2685
-788 27 2675
-749 26 2571
-720 25 2500
-710 25 2491
-704 25 2496
-698 25 2503
-691 25 2507
-702 25 2577
-732 26 2717
-735 27 2759
-721 27 2739
-710 26 2728
-705 26 2743
-693 26 2728
-685 26 2731
-678 26 2737
-666 26 2720
-659 26 2725
-650 26 2723
-638 26 2709
-610 25 2624
-536 22 2336
-487 20 2150
-473 20 2120
-469 20 2128
-468 20 2154
-460 20 2145
-486 22 2302
-497 22 2386
-476 22 2321
-463 21 2287
-454 21 2279
-454 21 2312
-460 22 2382
-459 22 2410
-452 22 2414
-443 22 2402
-433 22 2389
-424 22 2375
-412 21 2347
-399 21 2313
-385 21 2272
-374 20 2247
-365 20 2229
-358 20 2230
-351 20 2227
-343 20 2216
-332 20 2190
-321 19 2159
-310 19 2128
-302 19 2117
-297 19 2123
-293 19 2138
-287 19 2143
-283 19 2159
-278 19 2168
-273 19 2177
-244 17 1990
-214 16 1796
-218 16 1876
-200 15 1765
-203 16 1831
-193 16 1792
-182 15 1740
-187 16 1833
-173 15 1754
-170 15 1775
-165 15 1769
-158 15 1753
-153 15 1751
-147 15 1740
-143 15 1757
-137 15 1749
-132 15 1747
-122 14 1684
-119 14 1697
-110 14 1650
-109 14 1699
-101 14 1656
-96 14 1647
-93 14 1679
-93 15 1769
-82 14 1661
-78 14 1669
-72 14 1648
-68 14 1666
-62 13 1624
-58 14 1649
-55 14 1697
-52 14 1771
-48 15 1797
-44 15 1848
-38 15 1801
-32 14 1777
-27 14 1763
-22 14 1770
-18 15 1866
-12 15 1862
-7 15 1849
-1 14 1818
3 15 1867
8 15 1854
13 14 1832
19 14 1831
24 14 1805
29 14 1824
33 14 1748
39 14 1816
43 14 1761
49 14 1800
54 14 1788
60 14 1794
65 14 1789
69 14 1782
73 13 1738
81 14 1811
82 13 1723
91 14 1806
97 14 1821
99 13 1753
107 14 1815
113 14 1829
122 14 1881
133 15 1961
148 15 2099
160 16 2183
160 15 2103
173 16 2187
175 15 2129
181 15 2135
193 16 2192
195 15 2154
205 16 2184
207 15 2144
218 16 2194
222 15 2168
223 15 2120
238 16 2200
236 15 2125
244 15 2136
254 15 2172
251 15 2091
240 14 1956
237 13 1882
245 13 1899
252 13 1909
244 13 1813
256 13 1861
262 13 1865
267 13 1862
269 13 1837
266 12 1780
279 13 1833
292 13 1878
294 13 1857
301 13 1864
299 12 1822
306 12 1828
315 13 1853
320 12 1846
326 12 1854
332 12 1853
333 12 1830
343 12 1853
354 13 1883
373 13 1955
365 12 1882
372 12 1887
372 12 1859
387 13 1909
375 12 1821
372 12 1778
393 12 1853
374 11 1740
389 12 1783
405 12 1833
414 12 1845
395 11 1737
413 12 1795
418 11 1791
432 12 1829
423 11 1766
433 11 1786
432 11 1760
461 12 1853
459 11 1825
470 12 1843
481 12 1866
492 12 1886
495 12 1875
498 12 1865
502 11 1857
478 11 1748
514 11 1858
512 11 1831
526 11 1859
529 11 1851
520 11 1800
531 11 1817
528 11 1786
522 11 1748
542 11 1797
555 11 1820
558 11 1812
555 11 1781
559 11 1778
577 11 1815
576 11 1794
551 10 1697
519 9 1583
522 9 1576
513 9 1534
522 9 1545
526 9 1544
511 9 1482
494 8 1419
492 8 1400
513 9 1447
543 9 1520
571 9 1582
575 9 1580
579 9 1575
588 9 1587
622 9 1663
776 11 2058
837 12 2203
848 12 2210
847 12 2189
852 12 2183
863 12 2190
871 12 2194
881 12 2200
882 12 2182
890 12 2182
899 12 2186
903 12 2179
908 12 2171
914 12 2168
921 11 2167
915 11 2134
907 11 2098
912 11 2092
901 11 2050
870 10 1963
886 10 1984
896 10 1989
917 11 2019
931 11 2034
961 11 2082
1017 11 2187
1032 11 2202
1040 11 2202
1024 11 2152
1023 11 2133
1027 11 2124
948 10 1943
884 9 1797
885 9 1787
884 9 1770
895 9 1779
896 9 1768
902 9 1767
909 9 1767
913 9 1761
924 9 1767
928 9 1763
930 9 1754
938 9 1754
941 9 1748
948 9 1747
956 9 1749
956 8 1736
969 9 1748
969 8 1734
-1309 36 2284
-1296 36 2278
-1280 36 2267
-1275 36 2274
-1264 36 2272
-1252 35 2266
-1238 35 2258
-1223 35 2247
-1213 35 2245
-1210 35 2255
-1204 35 2262
-1188 35 2249
-1175 34 2241
-1164 34 2236
-1155 34 2236
-1143 34 2230
-1132 34 2224
-1128 34 2234
-1118 34 2230
-1106 33 2224
-1097 33 2223
-1084 33 2213
-1078 33 2218
-1062 33 2202
-1050 33 2195
-1042 32 2195
-1034 32 2195
-1023 32 2189
-1014 32 2186
-1004 32 2183
-995 32 2181
-975 31 2154
-971 31 2163
-977 32 2193
-985 32 2230
-985 32 2247
-983 32 2261
-982 33 2279
-972 32 2274
-954 32 2249
-897 30 2133
-840 29 2016
-814 28 1969
-799 28 1949
-780 27 1919
-796 28 1975
-771 27 1929
-758 27 1913
-754 27 1920
-755 27 1941
-747 27 1936
-750 27 1961
-745 27 1966
-775 29 2063
-846 31 2271
-866 32 2347
-886 33 2422
-901 34 2487
-895 34 2492
-889 34 2499
-885 34 2510
-877 34 2512
-873 34 2524
-869 34 2536
-863 34 2542
-862 34 2566
-855 34 2568
-849 34 2575
-845 34 2589
-842 34 2607
-837 34 2616
-834 35 2632
-830 35 2648
-822 35 2649
-822 35 2677
-814 35 2678
-809 35 2690
-799 35 2684
-784 34 2661
-742 33 2549
-718 32 2493
-710 32 2492
-707 32 2509
-697 32 2500
-691 32 2506
-697 33 2557
-725 34 2693
-734 35 2756
-722 35 2742
-712 35 2737
-704 34 2738
-693 34 2730
-683 34 2721
-675 34 2724
-668 34 2728
-657 34 2718
-645 34 2704
-628 33 2668
-576 31 2479
-503 27 2195
-482 27 2131
-476 26 2130
-466 26 2118
-468 27 2152
-472 27 2202
-471 27 2230
-458 27 2200
-443 26 2157
-433 26 2144
-427 26 2144
-424 26 2162
-422 27 2183
-420 27 2206
-413 27 2203
-406 27 2204
-400 27 2207
-393 27 2204
-384 26 2189
-374 26 2168
-364 26 2147
-357 26 2146
-348 25 2131
-345 26 2150
-340 26 2156
-334 26 2157
-326 25 2150
-319 25 2142
-310 25 2128
-301 25 2105
-295 25 2107
-290 25 2118
-287 25 2141
-283 25 2161
-275 25 2147
-259 24 2070
-229 22 1873
-214 21 1796
-208 21 1784
-204 21 1802
-196 21 1772
-191 21 1777
-191 21 1823
-178 20 1751
-175 20 1767
-175 21 1824
-164 20 1766
-160 20 1775
-155 20 1778
-150 20 1775
-145 20 1774
-138 20 1757
-130 20 1717
-129 20 1778
-122 20 1739
-116 20 1727
-108 19 1694
-102 19 1663
-98 19 1678
-93 19 1676
-86 18 1642
-84 19 1685
-75 18 1618
-71 18 1629
-69 19 1675
-62 18 1621
-57 18 1629
-53 18 1633
-48 18 1647
-47 20 1781
-42 19 1761
-37 20 1786
-32 19 1754
-27 20 1811
-21 19 1713
-17 19 1793
-12 20 1804
-7 20 1808
-1 20 1827
3 20 1823
8 20 1820
13 19 1809
18 19 1809
24 19 1819
29 19 1796
33 19 1757
40 20 1858
43 19 1744
49 19 1777
55 19 1811
60 19 1802
64 19 1759
69 19 1758
74 18 1756
80 19 1782
83 18 1734
86 18 1696
96 19 1797
102 19 1819
107 19 1812
112 19 1810
121 19 1859
135 21 1995
150 22 2128
160 22 2182
170 23 2230
175 22 2211
178 22 2175
187 22 2201
187 22 2133
196 22 2162
201 22 2150
208 22 2158
220 22 2213
219 21 2134
227 22 2159
232 21 2146
240 22 2158
239 21 2096
249 21 2126
242 20 2018
240 19 1952
230 18 1829
236 18 1829
241 18 1827
251 18 1861
249 18 1810
268 19 1904
264 18 1836
272 18 1858
276 18 1850
283 18 1859
283 18 1821
285 18 1802
302 18 1871
300 18 1824
313 18 1870
308 18 1813
319 18 1845
334 18 1898
334 18 1866
344 18 1888
336 17 1813
357 18 1900
354 18 1854
362 18 1868
365 18 1854
362 17 1812
364 17 1794
381 18 1849
377 17 1804
382 17 1799
378 17 1755
377 16 1727
413 18 1868
402 17 1795
411 17 1808
407 17 1768
420 17 1800
425 17 1800
419 16 1749
443 17 1825
446 17 1816
450 17 1811
461 17 1831
447 16 1753
470 17 1824
482 17 1848
493 17 1865
500 17 1870
504 17 1866
509 17 1862
514 17 1859
519 17 1854
529 17 1870
512 16 1791
519 16 1796
525 16 1797
535 16 1811
540 16 1809
557 17 1846
538 16 1764
553 16 1793
558 16 1791
562 16 1786
570 16 1793
573 16 1784
553 15 1705
517 14 1575
520 14 1569
515 14 1541
519 14 1536
520 14 1526
509 13 1479
493 13 1418
495 13 1410
523 13 1477
551 14 1542
551 14 1527
557 14 1530
583 14 1586
578 14 1557
623 15 1666
783 18 2076
830 19 2183
840 19 2190
831 18 2148
835 18 2139
857 19 2177
868 19 2186
867 18 2163
864 18 2138
882 18 2164
898 18 2183
905 18 2183
905 18 2164
913 18 2165
922 18 2168
922 18 2150
922 18 2132
922 18 2115
910 17 2069
883 17 1992
892 17 1995
913 17 2027
929 17 2047
941 17 2056
963 17 2088
1016 18 2185
1035 18 2208
1024 18 2168
1006 17 2112
1020 17 2126
1025 17 2119
934 16 1916
884 15 1799
889 15 1794
887 15 1777
893 15 1774
901 15 1777
898 14 1758
912 15 1773
912 14 1759
921 14 1762
924 14 1755
932 14 1756
936 14 1752
940 14 1745
952 14 1754
953 14 1743
964 14 1751
965 14 1739
972 14 1739
-1311 44 2288
-1294 43 2274
-1288 43 2281
-1274 43 2272
-1269 43 2280
-1256 43 2274
-1241 43 2262
-1231 42 2262
-1216 42 2251
-1209 42 2255
-1192 42 2239
-1183 42 2238
-1175 41 2241
-1166 41 2239
-1152 41 2229
-1142 41 2227
-1137 41 2235
-1122 41 2223
-1110 40 2216
-1104 40 2220
-1093 40 2214
-1084 40 2213
-1072 40 2206
-1064 40 2207
-1050 39 2195
-1038 39 2186
-1030 39 2188
-1023 39 2189
-1010 39 2179
-1001 39 2177
-994 39 2178
-980 38 2165
-972 38 2165
-974 38 2187
-991 39 2244
-987 39 2252
-983 39 2262
-979 40 2271
-977 40 2284
-955 39 2253
-881 36 2095
-837 35 2008
-799 33 1934
-778 33 1899
-780 33 1919
-786 34 1951
-774 33 1937
-751 32 1896
-741 32 1888
-748 33 1923
-735 32 1906
-748 33 1957
-733 33 1933
-750 34 1996
-853 38 2290
-849 38 2301
-886 40 2423
-899 41 2482
-894 41 2491
-887 41 2492
-880 41 2496
-878 41 2515
-871 41 2519
-869 42 2535
-863 42 2543
-859 42 2557
-852 42 2559
-849 42 2576
-848 42 2599
-843 42 2608
-839 42 2622
-833 42 2630
-827 42 2639
-825 43 2660
-821 43 2675
-814 43 2677
-807 43 2684
-802 43 2696
-786 42 2668
-741 40 2543
-712 39 2471
-715 40 2510
-710 40 2521
-705 40 2529
-698 40 2534
-713 41 2618
-741 43 2751
-734 43 2754
-723 43 2745
-711 43 2734
-704 43 2739
-693 42 2727
-685 42 2729
-676 42 2726
-668 42 2728
-658 42 2724
-642 41 2690
-581 38 2468
-512 34 2205
-488 33 2130
-477 32 2108
-471 32 2110
-467 33 2121
-464 33 2135
-473 34 2206
-462 33 2188
-450 33 2160
-439 32 2139
-430 32 2126
-424 32 2129
-419 32 2137
-412 32 2133
-407 32 2141
-402 32 2146
-394 32 2141
-388 32 2138
-379 32 2125
-372 32 2122
-366 32 2122
-359 32 2119
-353 31 2119
-348 32 2127
-342 32 2129
-338 32 2146
-334 32 2160
-329 32 2172
-321 32 2159
-311 31 2130
-298 31 2083
-287 30 2055
-280 30 2048
-278 30 2072
-275 31 2095
-271 31 2115
-252 29 2013
-223 27 1828
-215 26 1804
-214 27 1840
-201 26 1768
-202 26 1828
-197 26 1826
-192 26 1833
-182 26 1786
-177 26 1788
-172 26 1795
-167 26 1796
-160 25 1774
-158 26 1807
-149 25 1762
-141 25 1732
-134 24 1704
-127 24 1676
-124 24 1701
-120 24 1712
-113 24 1685
-108 24 1682
-105 24 1723
-102 25 1744
-89 23 1611
-89 24 1691
-79 23 1597
-77 23 1652
-72 23 1650
-68 23 1652
-62 23 1643
-56 22 1587
-52 23 1618
-47 23 1618
-44 23 1651
-42 25 1774
-36 24 1709
-31 24 1737
-26 24 1719
-21 23 1700
-15 23 1629
-11 24 1731
-6 23 1636
-1 24 1762
3 24 1742
8 24 1742
13 24 1783
18 24 1776
23 24 1768
28 24 1738
33 24 1747
39 24 1804
43 23 1731
50 24 1812
54 24 1784
60 24 1790
65 24 1789
71 25 1829
74 24 1757
78 23 1747
85 24 1792
91 24 1801
95 24 1770
103 24 1824
110 25 1857
113 24 1819
122 25 1881
134 26 1981
149 28 2117
161 29 2194
167 29 2195
171 28 2155
178 28 2173
180 28 2123
188 28 2134
198 28 2184
204 28 2175
210 28 2171
217 28 2177
220 28 2143
232 28 2199
228 27 2105
238 28 2140
249 28 2180
241 26 2060
237 25 1971
228 24 1856
241 25 1913
240 24 1859
242 24 1835
253 24 1878
260 24 1886
262 24 1865
267 24 1860
277 24 1892
274 23 1836
274 23 1798
292 24 1878
291 23 1836
294 23 1820
305 23 1854
301 23 1800
312 23 1836
307 22 1775
318 23 1804
335 23 1868
339 23 1859
345 23 1864
348 23 1850
354 23 1855
362 23 1867
364 23 1846
348 22 1738
360 22 1771
374 23 1813
374 22 1786
391 23 1844
395 23 1836
384 22 1758
395 22 1784
404 22 1801
412 22 1814
421 22 1827
404 21 1729
415 22 1754
448 23 1871
453 23 1869
438 22 1783
452 22 1819
485 23 1927
462 22 1814
471 22 1825
475 22 1820
485 22 1837
489 22 1830
502 23 1858
512 23 1873
516 23 1865
520 22 1860
524 22 1854
526 22 1838
527 22 1823
542 22 1855
542 22 1836
528 21 1766
541 22 1793
552 22 1809
560 22 1817
583 22 1872
570 22 1812
571 21 1795
575 21 1791
550 20 1696
523 19 1594
517 19 1560
504 18 1505
517 18 1531
524 18 1538
516 18 1498
497 17 1429
496 17 1412
516 17 1457
550 18 1537
564 19 1564
563 18 1547
571 18 1554
595 19 1605
633 20 1693
784 24 2079
814 25 2140
796 24 2076
783 24 2023
807 24 2068
841 25 2134
858 25 2158
838 24 2091
840 24 2077
868 25 2128
890 25 2163
900 25 2169
898 25 2148
905 25 2145
914 25 2149
919 25 2144
931 25 2153
935 25 2145
937 24 2132
875 23 1973
880 23 1968
932 24 2070
959 24 2112
968 24 2114
977 24 2117
1019 25 2191
1037 25 2213
975 23 2064
960 23 2016
1011 24 2107
1013 24 2095
926 22 1899
885 21 1801
880 20 1777
883 20 1769
898 20 1784
901 20 1777
898 20 1757
911 20 1770
917 20 1767
917 20 1754
927 20 1761
930 20 1753
936 20 1751
943 20 1750
951 20 1752
954 20 1745
955 20 1733
962 20 1734
969 20 1734
-1310 51 2286
-1293 51 2273
-1290 51 2283
-1274 50 2273
-1252 50 2249
-1246 50 2255
-1240 50 2262
-1224 49 2249
-1217 49 2252
-1202 49 2241
-1192 49 2240
-1185 49 2242
-1173 49 2236
-1158 48 2224
-1148 48 2223
-1138 48 2220
-1131 48 2223
-1121 48 2220
-1113 48 2221
-1097 47 2206
-1086 47 2200
-1077 47 2199
-1066 47 2195
-1057 46 2191
-1050 46 2194
-1041 46 2193
-1033 46 2194
-1021 46 2185
-1007 45 2173
-1000 45 2174
-991 45 2173
-974 45 2153
-971 45 2162
-976 45 2191
-982 46 2224
-977 46 2230
-974 46 2242
-967 46 2245
-951 46 2225
-933 45 2201
-815 40 1940
-800 39 1920
-772 38 1867
-780 39 1903
-786 39 1934
-767 39 1905
-766 39 1918
-747 38 1887
-754 39 1922
-745 38 1913
-740 38 1919
-741 39 1937
-734 39 1937
-766 41 2038
-833 44 2236
-857 46 2322
-888 48 2428
-899 49 2481
-893 49 2486
-885 49 2489
-888 49 2520
-881 49 2523
-872 49 2520
-870 49 2540
-870 50 2565
-858 49 2554
-853 49 2564
-848 50 2573
-846 50 2593
-841 50 2603
-837 50 2615
-832 50 2628
-829 50 2645
-823 50 2651
-817 51 2660
-812 51 2671
-811 51 2696
-800 51 2689
-782 50 2658
-734 48 2522
-716 47 2485
-710 47 2492
-712 47 2528
-703 47 2521
-711 48 2581
-735 50 2697
-743 51 2760
-736 51 2765
-723 51 2748
-714 51 2745
-704 51 2739
-695 50 2735
-686 50 2736
-676 50 2729
-668 50 2729
-659 50 2728
-635 49 2660
-534 42 2269
-503 40 2164
-483 39 2108
-477 39 2109
-470 39 2107
-465 39 2112
-467 39 2151
-465 40 2173
-457 39 2163
-446 39 2145
-436 39 2126
-428 38 2118
-422 38 2120
-414 38 2111
-406 38 2101
-399 38 2096
-392 38 2096
-386 38 2098
-382 38 2108
-374 38 2098
-368 38 2100
-362 37 2098
-353 37 2087
-349 37 2095
-342 37 2090
-339 37 2109
-332 37 2107
-328 37 2119
-320 37 2112
-311 37 2094
-297 36 2036
-287 35 2012
-280 35 2000
-276 35 2013
-269 35 2008
-263 35 2008
-258 35 2013
-244 34 1951
-221 32 1812
-207 30 1736
-204 31 1754
-203 31 1791
-198 31 1796
-199 32 1847
-182 30 1741
-184 31 1807
-177 31 1789
-176 32 1836
-165 31 1778
-163 31 1803
-154 30 1766
-146 30 1736
-140 30 1723
-135 29 1714
-126 29 1665
-118 28 1625
-115 28 1652
-111 28 1662
-110 29 1718
-104 29 1697
-94 28 1623
-92 28 1657
-88 28 1674
-83 28 1666
-78 28 1662
-72 28 1642
-68 28 1652
-62 27 1622
-56 27 1587
-52 27 1615
-48 28 1637
-43 27 1632
-39 28 1660
-35 29 1707
-30 28 1657
-26 29 1714
-21 28 1695
-16 28 1698
-10 27 1617
-6 28 1671
-1 28 1672
3 28 1659
8 27 1626
12 27 1610
17 27 1640
23 28 1723
27 28 1708
32 28 1695
38 29 1767
43 29 1758
49 29 1771
53 28 1737
59 29 1764
65 29 1793
69 29 1763
73 29 1748
79 29 1751
83 28 1742
90 29 1771
97 29 1809
104 30 1844
110 30 1860
114 30 1829
123 30 1889
130 31 1922
144 33 2043
159 35 2163
165 35 2163
175 35 2211
179 35 2181
191 36 2252
191 35 2172
194 34 2138
204 35 2176
210 34 2175
217 34 2176
222 34 2166
234 35 2217
231 34 2137
244 35 2192
239 33 2098
232 31 1983
235 31 1955
231 30 1874
238 30 1889
237 29 1840
250 30 1897
249 29 1848
253 29 1834
261 29 1856
266 29 1854
271 29 1847
278 29 1857
280 29 1838
291 29 1871
291 29 1837
303 29 1878
298 28 1812
302 28 1807
307 28 1803
318 29 1839
324 29 1841
325 28 1816
343 29 1883
340 28 1835
346 28 1840
352 28 1841
356 28 1834
362 28 1836
364 28 1820
364 28 1792
359 27 1740
369 27 1766
383 28 1806
381 27 1771
390 27 1789
392 27 1774
401 27 1789
409 27 1799
419 28 1818
429 28 1838
434 28 1835
433 27 1806
439 28 1810
446 28 1815
451 28 1814
460 28 1826
465 28 1824
472 28 1830
476 28 1823
478 27 1808
488 28 1826
492 27 1818
504 28 1841
515 28 1862
521 28 1863
526 28 1858
529 28 1849
531 28 1834
549 28 1879
562 28 1902
535 27 1789
539 27 1785
548 27 1796
552 27 1789
557 27 1788
555 26 1765
578 27 1819
574 27 1786
547 25 1685
523 24 1596
505 23 1525
525 24 1571
512 23 1516
520 23 1525
511 22 1484
495 21 1424
497 21 1414
511 22 1443
536 22 1497
558 23 1545
564 23 1548
571 23 1552
603 24 1626
642 25 1717
745 29 1976
730 28 1918
702 27 1829
695 26 1794
732 28 1873
782 29 1985
809 30 2036
806 29 2009
821 30 2030
863 31 2115
881 31 2142
890 31 2147
868 30 2075
883 30 2092
908 31 2134
920 31 2144
931 31 2153
941 31 2159
940 31 2139
888 29 2003
904 29 2022
941 30 2089
966 31 2128
977 31 2135
989 31 2144
1023 32 2200
1025 32 2188
924 28 1955
930 28 1952
1005 30 2095
1015 30 2097
906 27 1857
877 26 1783
885 26 1785
888 26 1777
894 26 1777
898 26 1771
903 26 1767
906 26 1759
916 26 1766
922 26 1763
925 26 1757
932 26 1756
937 26 1753
941 25 1746
948 25 1747
957 25 1750
961 25 1745
966 25 1741
976 25 1746
-1295 58 2259
-1278 57 2247
-1272 57 2252
-1271 58 2268
-1245 57 2236
-1238 57 2242
-1233 57 2248
-1215 56 2231
-1204 56 2228
-1196 56 2230
-1187 56 2230
-1177 56 2228
-1163 55 2217
-1155 55 2219
-1156 55 2238
-1143 55 2230
-1122 54 2205
-1116 54 2211
-1113 55 2222
-1098 54 2209
-1084 54 2197
-1070 53 2185
-1063 53 2187
-1058 53 2195
-1052 53 2199
-1041 53 2194
-1032 53 2192
-1027 53 2197
-1006 52 2169
-1000 52 2175
-991 52 2171
-976 52 2157
-968 51 2156
-971 52 2180
-977 52 2212
-963 52 2197
-907 49 2087
-863 47 2003
-849 47 1986
-821 46 1937
-815 46 1939
-783 44 1878
-794 45 1920
-775 44 1890
-763 44 1878
-768 44 1907
-773 45 1936
-756 44 1908
-748 44 1904
-743 44 1909
-747 45 1937
-739 45 1933
-735 45 1940
-748 46 1990
-754 46 2027
-789 49 2138
-825 51 2256
-821 51 2267
-818 52 2279
-821 52 2308
-865 55 2454
-878 57 2515
-874 57 2528
-870 57 2538
-865 57 2548
-860 57 2559
-854 57 2567
-850 57 2578
-845 58 2588
-842 58 2607
-838 58 2620
-830 58 2622
-828 58 2643
-818 58 2638
-820 59 2669
-813 59 2676
-808 59 2688
-801 59 2692
-777 58 2639
-733 55 2516
-715 54 2481
-713 54 2501
-714 55 2533
-705 55 2530
-715 56 2596
-744 59 2729
-745 60 2764
-739 60 2775
-724 59 2750
-712 59 2738
-703 59 2734
-694 59 2735
-686 58 2734
-676 58 2727
-668 58 2731
-659 58 2726
-614 55 2573
-519 47 2204
-494 45 2126
-483 45 2106
-479 45 2117
-471 45 2108
-464 45 2109
-464 45 2135
-453 45 2116
-438 44 2075
-432 44 2075
-424 44 2066
-416 43 2056
-411 43 2063
-407 44 2075
-401 43 2076
-394 43 2071
-382 43 2043
-375 43 2036
-376 43 2072
-369 43 2072
-367 43 2093
-360 43 2088
-352 43 2081
-346 43 2077
-338 43 2067
-332 43 2068
-325 43 2063
-322 43 2083
-312 42 2056
-298 41 2003
-289 41 1982
-283 41 1980
-270 40 1932
-272 41 1985
-257 39 1919
-259 40 1977
-256 41 1998
-239 39 1909
-212 36 1738
-214 37 1797
-202 35 1739
-205 37 1811
-202 37 1827
-195 37 1810
-187 36 1790
-183 36 1798
-178 36 1797
-170 36 1773
-162 35 1743
-161 36 1792
-158 36 1815
-145 35 1726
-144 36 1774
-132 34 1679
-124 33 1638
-125 35 1726
-113 33 1623
-112 34 1678
-110 34 1711
-97 32 1598
-101 35 1736
-92 33 1672
-88 33 1673
-82 33 1658
-75 32 1608
-71 32 1622
-67 33 1642
-60 31 1585
-57 32 1630
-53 33 1645
-49 33 1658
-43 32 1623
-39 32 1638
-34 32 1647
-30 33 1703
-24 32 1617
-20 33 1668
-15 33 1679
-11 33 1704
-6 32 1646
-1 31 1603
3 32 1634
8 32 1645
12 32 1656
18 33 1711
21 31 1582
26 31 1605
31 32 1639
35 31 1611
41 32 1638
48 34 1736
54 34 1781
59 34 1758
64 34 1771
67 33 1713
74 34 1773
81 35 1818
85 34 1780
88 33 1737
99 35 1845
102 35 1808
108 35 1819
115 35 1850
122 36 1876
130 36 1922
139 37 1970
148 38 2017
165 41 2167
173 41 2178
177 41 2153
178 39 2092
190 41 2157
197 41 2164
206 41 2202
215 42 2227
216 41 2165
218 40 2127
225 40 2133
240 41 2216
239 40 2145
231 38 2025
234 37 1998
232 36 1935
232 35 1887
244 36 1935
235 34 1819
243 34 1840
249 34 1849
258 35 1870
257 34 1828
262 34 1826
272 34 1853
277 34 1852
280 34 1834
281 33 1806
294 34 1859
308 35 1912
303 34 1842
314 35 1880
316 34 1857
314 33 1812
