VERSION 0.7
FIELDS x y z
SIZE 4 4 4
TYPE I I I
COUNT 1 1 1
WIDTH 3853
HEIGHT 1
VIEWPOINT 0.0 0.0 0.0 1.0 0.0 0.0 0.0
POINTS 3853
DATA ascii
-307 14 2336
-302 14 2354
-304 14 2420
-280 13 2284
-229 11 1919
-217 11 1868
-209 11 1840
-194 10 1754
-189 10 1753
-186 10 1778
-187 10 1832
-177 10 1787
-173 10 1797
-168 10 1801
-161 10 1779
-154 10 1768
-148 10 1748
-141 10 1736
-136 10 1726
-130 10 1719
-126 10 1733
-117 9 1675
-112 9 1674
-103 9 1614
-102 9 1675
-99 9 1701
-91 9 1638
-91 9 1724
-86 9 1730
-79 9 1693
-70 9 1606
-67 9 1626
-60 9 1588
-57 9 1615
-54 9 1663
-52 9 1754
-50 10 1868
-44 10 1862
-38 9 1815
-33 9 1847
-28 9 1840
-22 9 1804
-18 10 1877
-13 10 1895
-7 10 1900
-2 9 1899
3 9 1883
8 9 1867
13 9 1849
19 9 1840
24 9 1835
29 9 1810
34 9 1788
39 9 1811
44 9 1791
49 9 1767
55 9 1825
59 9 1772
65 9 1792
69 8 1776
74 8 1763
81 9 1806
85 8 1775
88 8 1741
95 8 1788
102 8 1810
108 8 1832
116 9 1871
121 9 1872
131 9 1940
147 9 2081
155 9 2106
166 10 2174
174 10 2195
177 9 2153
183 9 2154
190 9 2162
193 9 2127
202 9 2159
211 9 2188
219 9 2206
222 9 2172
227 9 2161
238 9 2198
232 9 2088
245 9 2146
249 9 2130
256 9 2139
255 9 2073
253 8 2013
250 8 1938
246 8 1866
252 8 1873
255 8 1854
263 8 1872
263 7 1834
263 7 1798
272 7 1820
287 7 1881
281 7 1812
289 7 1824
297 7 1840
300 7 1829
305 7 1826
308 7 1812
321 7 1853
319 7 1813
319 7 1782
333 7 1830
346 7 1869
354 7 1886
361 7 1891
364 7 1877
374 7 1899
380 7 1900
382 7 1883
386 7 1875
375 7 1795
387 7 1823
383 6 1780
398 6 1827
398 6 1798
413 6 1841
417 6 1837
403 6 1750
410 6 1758
429 6 1813
428 6 1788
449 6 1852
452 6 1842
462 6 1858
471 6 1871
480 6 1885
482 6 1868
488 6 1872
488 6 1850
486 6 1818
482 6 1784
511 6 1868
484 6 1750
508 6 1816
514 6 1817
519 6 1816
520 6 1800
531 6 1818
534 6 1807
531 5 1779
551 6 1827
563 6 1847
561 5 1819
558 5 1792
557 5 1772
583 5 1835
584 5 1820
556 5 1713
532 5 1622
534 5 1613
513 5 1534
517 4 1531
524 4 1538
508 4 1475
492 4 1414
488 4 1389
514 4 1452
552 4 1543
561 4 1555
567 4 1556
584 4 1588
600 4 1620
645 5 1726
791 5 2098
837 5 2202
845 5 2204
849 5 2195
858 5 2198
866 5 2200
871 5 2192
875 5 2184
881 5 2179
887 5 2177
892 5 2169
901 5 2173
906 5 2167
914 5 2168
920 5 2165
912 5 2127
903 5 2089
906 5 2079
898 4 2043
852 4 1921
885 4 1981
898 4 1995
930 4 2048
942 4 2058
977 4 2118
1021 4 2196
1034 4 2207
1037 4 2196
1029 4 2161
1022 4 2130
1029 4 2127
940 4 1929
884 4 1799
881 3 1778
886 3 1774
887 3 1763
898 3 1771
904 3 1771
910 3 1768
921 3 1776
922 3 1765
926 3 1758
931 3 1756
935 3 1750
944 3 1753
945 3 1742
953 3 1744
958 3 1739
967 3 1744
972 3 1739
-1308 29 2283
-1298 29 2281
-1292 29 2288
-1282 29 2286
-1273 28 2287
-1255 28 2271
-1246 28 2273
-1235 28 2268
-1219 28 2257
-1207 28 2251
-1191 27 2238
-1184 27 2241
-1180 27 2250
-1164 27 2236
-1152 27 2230
-1143 27 2229
-1132 27 2225
-1118 26 2213
-1114 27 2224
-1101 26 2213
-1091 26 2210
-1085 26 2215
-1068 26 2199
-1060 26 2198
-1053 26 2200
-1046 26 2204
-1035 26 2199
-1021 25 2185
-1017 25 2194
-1005 25 2186
-994 25 2179
-977 25 2158
-974 25 2169
-979 25 2198
-990 25 2242
-984 25 2246
-983 26 2262
-981 26 2275
-977 26 2285
-961 25 2267
-927 25 2204
-901 24 2160
-906 24 2192
-898 24 2190
-883 24 2173
-874 24 2169
-857 24 2145
-846 23 2135
-857 24 2183
-855 24 2196
-852 24 2209
-849 24 2219
-835 24 2203
-860 25 2290
-893 26 2397
-897 26 2430
-906 26 2476
-899 26 2481
-896 26 2494
-888 26 2497
-885 26 2510
-883 26 2530
-870 26 2516
-868 26 2533
-864 26 2545
-858 26 2554
-855 26 2569
-852 27 2584
-845 27 2590
-841 27 2603
-837 27 2615
-835 27 2636
-830 27 2646
-824 27 2654
-817 27 2661
-813 27 2675
-806 27 2679
-797 27 2676
-784 27 2663
-750 26 2574
-718 25 2493
-709 25 2488
-702 25 2490
-695 25 2495
-693 25 2514
-705 25 2589
-731 26 2715
-731 27 2744
-723 27 2745
-711 26 2731
-703 26 2733
-692 26 2726
-685 26 2732
-678 26 2735
-665 26 2716
-659 26 2726
-651 26 2726
-639 26 2710
-610 25 2625
-535 22 2331
-486 20 2148
-476 20 2131
-467 20 2122
-467 20 2148
-462 20 2156
-490 22 2321
-498 22 2390
-481 22 2343
-465 21 2300
-457 21 2293
-458 21 2331
-465 22 2403
-464 22 2437
-457 22 2440
-446 22 2418
-438 22 2414
-427 22 2392
-417 22 2379
-403 21 2336
-388 21 2290
-376 20 2259
-368 20 2252
-360 20 2244
-353 20 2241
-342 20 2208
-334 20 2199
-321 19 2159
-313 19 2143
-305 19 2131
-297 19 2123
-292 19 2131
-289 19 2153
-283 19 2156
-279 19 2176
-273 19 2175
-244 17 1997
-221 16 1854
-208 16 1783
-202 16 1779
-205 16 1852
-193 16 1797
-188 16 1798
-181 15 1778
-172 15 1738
-170 15 1773
-165 15 1770
-158 15 1754
-152 15 1741
-147 15 1744
-143 15 1751
-138 15 1757
-133 15 1752
-128 15 1763
-118 14 1687
-113 14 1691
-109 14 1706
-106 14 1726
-95 14 1637
-96 14 1730
-88 14 1667
-81 14 1631
-76 13 1620
-71 13 1628
-67 13 1629
-62 14 1641
-56 13 1601
-55 14 1704
-49 14 1677
-49 15 1819
-44 15 1850
-38 14 1794
-32 14 1783
-28 15 1824
-22 15 1815
-17 15 1843
-12 15 1869
-7 15 1907
-1 14 1816
3 15 1866
8 15 1848
13 14 1832
19 14 1824
24 14 1806
28 14 1786
33 14 1779
39 14 1802
44 14 1812
49 14 1804
55 14 1800
60 14 1819
65 14 1796
70 14 1795
73 13 1744
78 13 1742
84 13 1761
90 14 1790
95 13 1782
98 13 1745
106 13 1795
114 14 1845
122 14 1881
133 15 1961
148 15 2099
160 16 2180
164 16 2152
171 16 2163
177 16 2154
184 16 2171
185 15 2102
195 15 2146
204 16 2183
206 15 2138
215 15 2165
217 15 2115
229 15 2175
235 15 2176
238 15 2139
240 15 2102
250 15 2141
250 15 2086
247 14 2009
229 13 1818
237 13 1837
248 13 1882
254 13 1885
256 13 1859
261 13 1854
267 13 1863
272 13 1855
277 13 1850
283 13 1857
290 13 1870
280 12 1766
289 12 1793
304 13 1849
308 13 1845
314 12 1843
319 12 1842
327 13 1856
331 12 1848
332 12 1826
354 13 1912
344 12 1830
356 12 1866
365 12 1882
371 12 1885
373 12 1863
367 12 1808
369 12 1793
375 12 1795
391 12 1842
384 12 1783
401 12 1838
405 12 1832
403 12 1799
402 11 1769
420 12 1824
413 11 1770
423 11 1787
421 11 1760
440 12 1813
445 11 1813
454 12 1827
461 12 1830
470 12 1844
481 12 1867
490 12 1878
497 12 1883
498 12 1863
502 11 1857
514 12 1881
510 11 1844
523 11 1871
506 11 1789
521 11 1821
527 11 1822
541 11 1851
517 11 1751
555 11 1858
546 11 1808
554 11 1817
549 11 1783
553 11 1776
571 11 1814
576 11 1812
579 11 1805
550 10 1696
520 9 1586
518 9 1565
516 9 1544
522 9 1547
524 9 1536
512 9 1486
492 8 1415
494 8 1407
515 9 1453
543 9 1520
564 9 1564
564 9 1550
572 9 1557
594 9 1601
629 10 1682
781 12 2073
834 12 2194
847 12 2209
846 12 2185
852 12 2182
862 12 2190
869 12 2188
879 12 2194
882 12 2183
888 12 2178
896 12 2180
901 12 2172
905 12 2165
912 12 2163
919 11 2161
914 11 2133
907 11 2097
916 11 2100
897 11 2041
867 10 1956
881 10 1971
898 10 1993
919 11 2025
927 11 2026
958 11 2076
1022 11 2199
1032 11 2203
1036 11 2195
1022 11 2147
1026 11 2139
1026 11 2121
942 10 1932
885 9 1800
880 9 1776
880 9 1763
891 9 1771
902 9 1780
903 9 1768
908 9 1765
916 9 1766
926 9 1771
929 9 1765
933 9 1759
936 9 1752
938 9 1742
948 9 1747
953 9 1744
958 9 1740
961 8 1733
972 8 1739
-1310 36 2286
-1298 36 2281
-1288 36 2280
-1286 36 2293
-1265 36 2273
-1256 36 2274
-1239 35 2260
-1232 35 2263
-1224 35 2266
-1206 35 2248
-1196 35 2246
-1182 34 2237
-1168 34 2227
-1165 34 2238
-1156 34 2237
-1145 34 2234
-1138 34 2237
-1124 34 2226
-1116 34 2226
-1101 33 2213
-1092 33 2212
-1084 33 2215
-1074 33 2209
-1062 33 2204
-1053 33 2201
-1046 33 2203
-1032 32 2191
-1023 32 2190
-1013 32 2184
-1007 32 2189
-993 32 2176
-979 32 2162
-969 31 2158
-975 32 2189
-983 32 2225
-986 32 2250
-985 33 2265
-979 33 2271
-977 33 2284
-961 32 2267
-907 31 2157
-827 28 1984
-825 28 1995
-818 28 1995
-814 28 2002
-788 28 1956
-770 27 1927
-762 27 1923
-753 27 1918
-763 27 1962
-765 28 1982
-755 27 1974
-755 28 1992
-778 29 2072
-863 32 2317
-857 32 2322
-893 33 2441
-903 34 2491
-893 34 2487
-885 34 2488
-886 34 2513
-876 34 2509
-872 34 2521
-870 34 2539
-864 34 2547
-860 34 2560
-852 34 2561
-849 34 2575
-846 34 2591
-842 34 2607
-840 35 2626
-834 35 2634
-833 35 2657
-824 35 2657
-817 35 2660
-813 35 2674
-809 35 2689
-801 35 2690
-787 35 2674
-740 33 2539
-718 32 2493
-709 32 2487
-706 32 2505
-697 32 2501
-691 32 2506
-698 33 2561
-727 34 2698
-738 35 2771
-722 35 2744
-711 34 2734
-700 34 2725
-693 34 2727
-683 34 2722
-676 34 2727
-667 34 2724
-658 34 2724
-649 34 2718
-632 33 2682
-585 31 2517
-505 27 2202
-484 27 2137
-475 26 2128
-469 26 2130
-464 26 2138
-473 27 2208
-476 28 2252
-460 27 2208
-443 26 2160
-436 26 2155
-428 26 2147
-426 26 2172
-426 27 2206
-421 27 2213
-414 27 2210
-409 27 2219
-403 27 2223
-394 27 2207
-384 26 2190
-375 26 2177
-365 26 2156
-356 26 2138
-349 25 2137
-346 26 2154
-340 26 2158
-335 26 2164
-326 25 2150
-318 25 2140
-309 25 2121
-300 25 2098
-294 25 2102
-290 25 2118
-287 25 2143
-285 25 2169
-275 25 2145
-259 24 2068
-228 22 1867
-209 20 1753
-209 21 1800
-204 21 1798
-197 21 1786
-196 21 1822
-194 21 1850
-180 20 1764
-174 20 1763
-166 20 1733
-165 20 1775
-160 20 1773
-155 20 1777
-150 20 1772
-145 20 1774
-137 20 1749
-130 20 1724
-125 19 1713
-121 20 1726
-116 20 1730
-106 19 1656
-103 19 1684
-98 19 1674
-92 19 1658
-86 18 1637
-84 19 1686
-75 18 1612
-69 18 1588
-67 18 1637
-62 18 1621
-56 18 1609
-53 18 1636
-51 19 1716
-45 19 1684
-42 19 1773
-37 20 1788
-32 19 1754
-27 19 1771
-21 19 1751
-17 20 1814
-12 19 1795
-7 20 1814
-1 20 1832
3 20 1838
8 20 1820
13 20 1816
19 20 1824
24 20 1875
28 19 1730
33 19 1775
38 19 1766
44 19 1788
50 19 1828
56 19 1836
57 18 1720
63 19 1755
70 19 1793
74 19 1777
82 19 1834
86 19 1795
90 19 1779
93 18 1744
103 19 1836
107 19 1807
112 19 1806
121 19 1869
135 21 1994
150 22 2132
160 22 2176
169 22 2210
171 22 2157
179 22 2185
183 22 2153
189 22 2145
194 22 2142
203 22 2167
209 22 2166
218 22 2191
224 22 2187
227 22 2152
234 22 2164
244 22 2192
245 21 2149
248 21 2123
233 19 1942
233 19 1894
235 19 1865
238 18 1847
247 19 1872
252 18 1868
260 19 1886
265 19 1887
260 18 1811
261 18 1779
273 18 1826
281 18 1843
294 19 1895
292 18 1842
293 18 1816
306 18 1861
305 18 1821
316 18 1855
316 18 1825
331 18 1879
326 18 1817
333 18 1826
334 17 1804
349 18 1856
357 18 1870
361 18 1859
367 18 1861
363 17 1814
358 17 1762
385 18 1870
391 18 1872
390 17 1838
396 17 1840
391 17 1792
412 18 1863
404 17 1801
403 17 1773
403 16 1751
418 17 1791
422 17 1787
424 17 1772
434 17 1788
439 17 1789
438 16 1759
465 17 1848
469 17 1840
470 17 1824
482 17 1847
493 17 1868
501 17 1876
507 17 1875
512 17 1874
512 17 1851
512 17 1829
530 17 1873
517 16 1807
532 17 1839
529 16 1810
537 16 1817
535 16 1790
529 16 1753
546 16 1791
561 16 1821
577 17 1853
574 16 1826
571 16 1797
572 16 1782
554 15 1709
530 14 1618
514 14 1552
521 14 1557
509 14 1507
529 14 1551
505 13 1467
494 13 1421
489 12 1394
513 13 1447
549 14 1535
564 14 1563
565 14 1551
576 14 1569
588 14 1586
624 15 1668
789 18 2094
832 19 2188
844 19 2201
832 18 2149
838 18 2147
857 19 2175
871 19 2192
868 18 2167
864 18 2138
884 18 2168
896 18 2178
906 18 2184
906 18 2166
913 18 2165
917 18 2157
922 18 2150
919 18 2124
919 18 2107
908 17 2066
882 17 1990
892 17 1995
914 17 2028
929 17 2045
941 17 2056
966 17 2095
1018 18 2190
1032 18 2203
1025 18 2170
1004 17 2109
1016 17 2116
1021 17 2111
937 16 1921
883 15 1795
885 15 1786
888 15 1778
890 15 1769
902 15 1780
903 15 1768
913 15 1773
913 14 1759
920 14 1760
922 14 1750
933 14 1759
942 14 1761
943 14 1752
948 14 1748
952 14 1742
958 14 1739
967 14 1742
977 14 1748
-1307 44 2280
-1289 43 2265
-1288 43 2281
-1270 43 2266
-1258 43 2260
-1250 43 2262
-1241 43 2263
-1230 42 2259
-1220 42 2257
-1205 42 2246
-1198 42 2250
-1190 42 2251
-1173 41 2236
-1167 41 2242
-1155 41 2235
-1139 41 2222
-1132 41 2224
-1120 41 2218
-1112 40 2218
-1098 40 2208
-1091 40 2210
-1081 40 2207
-1070 40 2201
-1064 40 2207
-1055 40 2204
-1046 39 2203
-1029 39 2184
-1024 39 2192
-1012 39 2183
-1000 39 2175
-990 38 2171
-974 38 2152
-973 38 2167
-975 39 2189
-991 39 2243
-992 40 2263
-986 40 2268
-979 40 2270
-973 40 2277
-951 39 2243
-887 37 2111
-821 34 1969
-808 34 1954
-812 34 1982
-788 33 1938
-785 33 1948
-765 33 1915
-754 33 1905
-743 32 1891
-746 33 1916
-740 33 1918
-735 33 1921
-732 33 1932
-750 34 1997
-855 38 2295
-855 39 2316
-885 40 2419
-896 41 2472
-893 41 2487
-888 41 2495
-883 41 2505
-877 41 2513
-874 42 2528
-869 42 2537
-862 42 2541
-860 42 2559
-855 42 2567
-849 42 2576
-847 42 2595
-839 42 2596
-839 42 2621
-835 43 2638
-830 43 2647
-826 43 2662
-816 43 2656
-812 43 2670
-805 43 2677
-803 43 2699
-783 42 2659
-737 40 2532
-717 40 2490
-711 40 2497
-709 40 2516
-703 40 2524
-701 40 2542
-714 41 2620
-738 43 2740
-736 43 2762
-724 43 2752
-714 43 2746
-703 43 2736
-697 43 2743
-685 42 2732
-678 42 2735
-667 42 2726
-658 42 2723
-642 41 2690
-581 38 2466
-517 34 2223
-488 33 2127
-476 32 2104
-470 32 2105
-466 32 2117
-470 33 2163
-471 34 2197
-466 34 2206
-450 33 2164
-439 32 2137
-430 32 2126
-424 32 2130
-420 32 2140
-414 32 2144
-407 32 2140
-402 32 2147
-395 32 2143
-390 32 2151
-379 32 2125
-372 32 2122
-365 32 2116
-358 31 2114
-351 31 2110
-347 32 2124
-341 31 2126
-338 32 2148
-334 32 2161
-329 32 2168
-320 32 2154
-310 31 2126
-298 31 2089
-288 30 2059
-281 30 2049
-279 30 2084
-276 31 2105
-270 31 2107
-252 29 2008
-226 27 1851
-210 26 1764
-216 27 1856
-210 27 1849
-198 26 1792
-187 25 1740
-186 26 1776
-185 26 1820
-178 26 1796
-170 25 1767
-171 26 1841
-162 26 1793
-158 26 1815
-148 25 1760
-141 25 1736
-135 25 1716
-126 24 1668
-123 24 1698
-119 24 1701
-110 23 1644
-106 23 1650
-103 24 1677
-97 23 1659
-93 24 1673
-88 24 1673
-80 23 1617
-79 24 1685
-70 23 1606
-66 23 1626
-60 22 1588
-57 23 1637
-52 23 1623
-48 23 1631
-44 23 1666
-39 23 1646
-37 25 1770
-31 24 1743
-24 23 1630
-22 25 1786
-16 23 1691
-11 23 1701
-6 23 1682
-1 23 1685
3 24 1758
8 24 1749
13 24 1776
18 24 1770
23 24 1789
29 24 1799
33 23 1719
39 24 1810
44 24 1783
48 24 1744
54 24 1771
59 24 1783
64 24 1775
70 24 1807
74 24 1766
82 25 1832
83 23 1741
92 24 1812
94 23 1754
102 24 1809
105 24 1780
113 24 1819
123 25 1891
135 26 1995
150 28 2128
161 29 2196
166 28 2179
172 28 2167
176 28 2148
188 29 2215
193 28 2192
193 28 2127
200 28 2133
206 28 2132
217 28 2184
220 28 2148
226 28 2149
233 28 2154
242 28 2174
244 27 2138
240 26 2053
229 25 1911
231 24 1874
233 24 1851
241 24 1866
240 23 1819
250 24 1856
262 24 1901
268 24 1909
260 23 1813
266 23 1816
265 23 1775
288 24 1887
290 24 1865
293 23 1853
295 23 1831
308 24 1875
299 23 1790
314 23 1848
323 23 1863
316 23 1795
327 23 1827
332 23 1820
346 23 1871
349 23 1855
356 23 1861
360 23 1858
362 23 1838
358 22 1789
366 22 1802
378 23 1837
376 22 1799
389 23 1835
383 22 1781
384 22 1761
388 22 1753
399 22 1781
405 22 1783
416 22 1806
424 22 1819
429 22 1814
443 23 1851
438 22 1807
462 23 1881
457 22 1839
454 22 1802
464 22 1820
469 22 1819
475 22 1819
484 22 1831
494 22 1847
502 23 1859
511 23 1869
518 23 1874
518 22 1853
524 22 1851
524 22 1833
546 23 1887
523 22 1790
548 22 1856
542 22 1814
528 21 1750
549 22 1799
560 22 1816
565 22 1814
554 21 1760
574 22 1806
572 21 1782
553 20 1703
524 19 1597
512 19 1545
508 18 1519
517 18 1531
520 18 1523
512 18 1487
493 17 1417
494 17 1407
518 17 1460
551 18 1542
565 19 1564
564 18 1547
570 18 1551
585 19 1577
643 20 1719
781 24 2073
821 25 2158
801 24 2088
786 24 2031
809 24 2072
845 25 2145
860 25 2166
837 24 2088
840 24 2078
867 25 2127
884 25 2151
902 25 2175
898 25 2148
903 25 2141
915 25 2151
914 24 2132
930 25 2150
937 25 2150
932 24 2120
891 23 2010
911 23 2039
933 24 2072
960 24 2114
963 24 2104
978 24 2121
1019 25 2191
1032 25 2201
970 23 2053
966 23 2029
1011 24 2107
1018 24 2104
922 22 1889
882 20 1794
884 20 1784
888 20 1778
895 20 1778
898 20 1771
902 20 1765
911 20 1770
909 20 1753
923 20 1766
926 20 1759
932 20 1757
936 20 1751
940 20 1744
947 20 1746
949 20 1736
957 20 1737
961 20 1731
968 20 1731
-1302 51 2272
-1297 51 2280
-1290 51 2284
-1271 50 2268
-1262 50 2267
-1249 50 2260
-1241 50 2262
-1221 49 2243
-1215 49 2249
-1206 49 2248
-1194 49 2244
-1184 49 2241
-1174 49 2238
-1162 48 2232
-1150 48 2227
-1138 48 2220
-1129 48 2220
-1125 48 2227
-1107 47 2210
-1097 47 2206
-1090 47 2209
-1079 47 2203
-1074 47 2211
-1061 47 2202
-1047 46 2188
-1040 46 2190
-1031 46 2188
-1026 46 2196
-1010 46 2178
-999 45 2173
-988 45 2165
-974 45 2151
-974 45 2169
-975 45 2189
-984 46 2229
-982 46 2241
-971 46 2234
-978 47 2270
-969 46 2266
-922 44 2174
-828 40 1969
-794 39 1904
-789 39 1908
-779 39 1900
-786 39 1934
-762 38 1890
-769 39 1926
-758 39 1915
-749 38 1907
-759 39 1950
-755 39 1956
-734 38 1920
-753 40 1987
-771 41 2053
-834 44 2241
-852 46 2310
-896 48 2449
-903 49 2491
-897 49 2499
-883 49 2483
-886 49 2514
-876 49 2510
-872 49 2522
-870 49 2539
-863 49 2542
-856 49 2548
-854 50 2566
-851 50 2583
-847 50 2595
-844 50 2612
-842 50 2632
-831 50 2625
-830 51 2648
-824 51 2655
-823 51 2680
-814 51 2680
-806 51 2679
-801 51 2692
-781 50 2654
-733 47 2515
-718 47 2493
-711 47 2496
-712 47 2525
-708 48 2539
-706 48 2563
-735 50 2699
-743 51 2758
-736 51 2763
-723 51 2745
-712 51 2738
-705 51 2743
-695 51 2736
-685 50 2730
-676 50 2728
-668 50 2729
-657 50 2718
-634 49 2655
-543 42 2307
-498 39 2145
-486 39 2118
-477 39 2107
-471 39 2109
-465 39 2112
-466 39 2145
-470 40 2195
-460 40 2177
-448 39 2150
-438 39 2136
-428 38 2119
-421 38 2116
-415 38 2114
-407 38 2108
-398 38 2093
-391 38 2087
-387 38 2100
-382 38 2109
-375 38 2102
-367 37 2093
-361 37 2097
-354 37 2090
-349 37 2098
-343 37 2099
-339 37 2112
-332 37 2106
-327 37 2112
-321 37 2119
-311 37 2093
-298 36 2043
-288 36 2017
-279 35 1997
-275 35 2009
-270 35 2014
-263 35 2009
-258 35 2016
-243 34 1938
-223 32 1825
-210 31 1758
-206 31 1771
-201 31 1769
-201 32 1815
-192 31 1785
-186 31 1780
-181 31 1778
-174 30 1759
-173 31 1807
-167 31 1790
-158 30 1758
-153 30 1751
-147 30 1747
-144 30 1769
-136 30 1738
-125 28 1658
-122 29 1682
-119 29 1703
-112 29 1671
-106 28 1661
-106 30 1737
-102 30 1750
-93 28 1673
-86 28 1636
-82 28 1660
-72 26 1553
-71 27 1620
-66 27 1617
-62 28 1639
-56 27 1609
-53 28 1655
-47 27 1610
-44 28 1678
-38 27 1596
-34 28 1650
-31 29 1717
-26 29 1720
-21 29 1751
-15 28 1653
-11 29 1719
-6 28 1686
-1 27 1629
3 28 1660
8 29 1750
12 28 1674
17 28 1677
22 28 1696
28 28 1722
33 29 1761
37 28 1709
43 29 1737
49 29 1787
54 29 1789
60 29 1802
66 30 1825
70 29 1785
73 28 1734
81 29 1804
86 29 1802
87 28 1723
97 29 1817
107 31 1900
106 29 1786
114 30 1838
122 30 1883
131 31 1933
145 33 2055
159 35 2163
167 35 2183
173 35 2189
179 35 2185
183 34 2156
195 35 2220
198 35 2176
210 35 2237
208 34 2153
213 34 2135
220 34 2144
225 34 2136
235 34 2175
242 34 2181
239 33 2090
234 32 2000
229 30 1907
233 30 1892
234 29 1856
241 29 1868
244 29 1851
248 29 1843
256 29 1859
263 29 1868
263 29 1833
275 29 1879
291 30 1948
279 29 1828
283 28 1822
283 28 1789
296 29 1834
301 29 1833
303 28 1813
307 28 1806
317 28 1832
316 28 1794
327 28 1825
334 28 1833
339 28 1829
347 28 1845
351 28 1838
357 28 1840
361 28 1831
369 28 1847
370 28 1820
371 28 1801
384 28 1835
374 27 1763
385 27 1788
382 27 1749
391 27 1768
401 27 1789
423 28 1862
425 28 1844
433 28 1857
412 27 1744
449 28 1874
440 28 1814
445 28 1810
454 28 1825
456 27 1811
466 28 1827
470 28 1824
474 27 1817
481 28 1821
485 27 1816
495 28 1829
504 28 1842
514 28 1860
523 28 1871
525 28 1856
527 28 1842
530 27 1831
520 27 1777
546 28 1846
546 27 1829
545 27 1806
554 27 1817
553 27 1795
557 27 1787
564 27 1792
569 27 1791
578 27 1800
547 25 1687
531 24 1620
514 23 1552
521 23 1557
510 23 1510
524 23 1535
516 22 1498
493 21 1417
500 21 1423
513 22 1446
545 23 1525
563 23 1560
566 23 1553
576 23 1567
600 24 1618
636 25 1699
755 29 2004
735 28 1932
702 27 1829
699 27 1804
735 28 1882
788 29 1999
816 30 2053
807 29 2012
826 30 2043
858 31 2104
881 31 2143
889 31 2143
868 30 2075
884 31 2096
906 31 2130
913 31 2130
933 31 2157
942 31 2161
941 31 2142
877 29 1979
891 29 1992
945 30 2097
965 31 2124
983 31 2148
990 31 2145
1022 32 2198
1025 32 2187
926 28 1959
935 29 1963
1003 30 2090
1015 30 2098
908 27 1860
876 26 1781
889 26 1794
891 26 1785
891 26 1770
897 26 1769
904 26 1770
908 26 1764
915 26 1764
922 26 1764
924 26 1754
931 26 1754
941 26 1760
944 25 1752
943 25 1738
957 25 1750
958 25 1740
961 25 1731
973 25 1740
-1290 58 2250
-1278 57 2247
-1274 57 2256
-1256 57 2240
-1262 57 2267
-1246 57 2256
-1241 57 2262
-1237 57 2272
-1216 57 2251
-1206 56 2249
-1196 56 2246
-1173 55 2220
-1170 56 2231
-1158 55 2225
-1133 54 2194
-1128 54 2200
-1135 55 2231
-1115 54 2207
-1102 54 2199
-1099 54 2211
-1092 54 2212
-1070 53 2184
-1070 54 2202
-1058 53 2194
-1055 53 2206
-1037 53 2184
-1033 53 2193
-1019 53 2182
-1007 52 2172
-1000 52 2175
-985 52 2159
-974 51 2153
-967 51 2154
-970 52 2177
-979 53 2216
-968 52 2210
-928 51 2136
-889 49 2062
-854 47 1998
-813 45 1917
-809 45 1925
-791 45 1897
-793 45 1919
-780 45 1903
-775 45 1907
-768 44 1905
-756 44 1894
-754 44 1903
-752 44 1915
-750 45 1926
-750 45 1945
-737 44 1926
-726 44 1916
-753 46 2004
-790 49 2122
-792 49 2148
-841 52 2300
-831 52 2294
-823 52 2293
-829 53 2332
-870 56 2469
-879 57 2518
-872 57 2522
-872 57 2544
-862 57 2540
-859 57 2556
-853 57 2564
-852 58 2586
-846 58 2594
-843 58 2609
-837 58 2616
-835 58 2637
-826 58 2634
-820 58 2644
-818 59 2662
-807 58 2654
-805 59 2676
-801 59 2690
-778 58 2641
-728 55 2498
-715 54 2481
-713 55 2503
-711 55 2524
-706 55 2533
-715 56 2595
-746 59 2738
-745 60 2767
-735 59 2761
-722 59 2744
-712 59 2739
-704 59 2738
-694 59 2734
-684 58 2725
-676 58 2726
-666 58 2720
-657 58 2717
-613 55 2571
-519 47 2206
-495 45 2132
-485 45 2116
-478 45 2113
-471 45 2109
-465 45 2111
-464 45 2139
-455 45 2126
-441 44 2088
-432 44 2075
-425 44 2071
-418 44 2070
-410 43 2061
-407 44 2076
-397 43 2055
-391 43 2058
-392 44 2094
-388 44 2109
-372 43 2055
-382 45 2144
-367 44 2095
-360 43 2087
-353 43 2082
-344 43 2067
-337 43 2064
-330 43 2059
-326 43 2067
-320 43 2072
-312 42 2056
-299 41 2011
-290 41 1990
-282 41 1975
-281 41 2012
-264 40 1929
-263 40 1961
-263 41 2004
-258 41 2012
-238 39 1899
-222 37 1818
-209 36 1758
-211 37 1817
-205 37 1806
-200 37 1811
-190 36 1763
-193 37 1839
-183 36 1798
-182 37 1841
-172 36 1796
-165 36 1779
-161 36 1782
-152 35 1746
-145 35 1718
-140 35 1723
-138 35 1757
-131 35 1734
-123 34 1694
-117 34 1684
-113 34 1687
-109 34 1700
-104 34 1703
-95 32 1627
-88 32 1597
-84 32 1598
-81 32 1632
-76 32 1629
-72 33 1641
-66 32 1623
-62 32 1639
-58 33 1647
-53 33 1646
-46 31 1587
-43 32 1641
-38 32 1609
-34 32 1638
-29 33 1655
-24 32 1628
-20 33 1683
-16 33 1711
-10 32 1652
-6 34 1720
-1 32 1661
3 33 1694
8 33 1718
12 32 1626
17 32 1648
22 33 1698
26 31 1620
31 32 1653
36 31 1622
42 33 1718
48 34 1747
51 32 1669
59 34 1786
65 34 1787
67 33 1701
78 36 1858
78 34 1747
83 33 1741
92 35 1813
96 34 1799
101 34 1797
108 35 1815
115 35 1854
122 36 1883
128 36 1883
137 37 1944
150 39 2045
166 41 2170
173 41 2179
177 41 2161
186 41 2192
185 40 2102
197 41 2174
207 41 2205
208 40 2157
215 40 2157
223 41 2177
223 40 2117
234 40 2165
238 40 2142
232 38 2030
222 35 1892
228 36 1900
232 35 1884
247 36 1958
235 34 1824
241 34 1825
250 35 1856
264 36 1916
266 35 1891
267 34 1857
268 34 1829
274 34 1835
274 33 1796
286 34 1838
288 34 1819
297 34 1841
298 33 1811
318 35 1900
323 35 1898
306 33 1765
330 35 1875
341 35 1907
350 35 1921
339 34 1832
345 34 1835
347 33 1818
359 34 1848
345 32 1748
361 33 1806
361 33 1779
350 31 1697
375 33 1795
390 34 1840
387 33 1796
382 32 1749
410 34 1852
393 32 1750
406 33 1788
412 33 1790
420 33 1797
423 33 1789
438 33 1830
437 33 1802
452 33 1839
466 34 1874
440 32 1748
460 33 1805
466 33 1806
471 33 1803
479 33 1814
483 33 1807
491 33 1815
501 33 1831
509 33 1842
517 33 1849
527 34 1862
529 33 1850
534 33 1847
540 33 1846
550 33 1861
560 34 1875
545 32 1805
566 33 1856
556 32 1802
562 32 1804
561 32 1781
592 33 1861
571 32 1778
557 31 1715
521 29 1590
508 28 1533
509 27 1520
508 27 1502
511 27 1498
496 26 1439
488 25 1402
497 25 1414
518 26 1463
535 27 1494
555 28 1538
558 27 1532
577 28 1570
590 28 1590
644 31 1722
675 32 1789
658 31 1727
655 30 1705
672 31 1734
679 31 1737
696 31 1765
726 32 1826
769 34 1918
805 35 1990
837 36 2051
868 37 2109
871 37 2101
867 37 2072
889 37 2108
905 38 2127
909 37 2120
929 38 2147
945 38 2168
909 36 2068
877 35 1977
891 35 1994
944 37 2094
969 38 2134
979 38 2139
988 38 2141
1022 39 2198
1001 38 2135
900 34 1904
913 34 1916
1004 37 2092
1013 37 2093
903 33 1850
880 32 1790
886 32 1788
886 31 1774
897 32 1781
897 31 1770
900 31 1761
909 31 1764
910 31 1755
920 31 1760
926 31 1758
931 31 1754
935 31 1748
943 31 1750
940 31 1733
952 31 1742
957 31 1738
967 31 1743
971 31 1737
-1297 65 2262
-1275 65 2241
-1262 64 2235
-1258 64 2244
-1258 65 2261
-1240 64 2244
-1230 64 2242
-1210 63 2222
-1201 63 2222
-1199 63 2236
-1190 63 2235
-1180 63 2233
-1169 63 2228
-1153 62 2215
-1138 62 2202
-1141 62 2225
-1121 61 2202
-1115 61 2209
-1104 61 2204
-1085 60 2181
-1075 60 2179
-1071 60 2187
-1056 60 2174
-1058 60 2194
-1042 60 2178
-1037 60 2184
-1027 59 2181
-1005 59 2151
-1008 59 2174
-990 58 2153
-985 58 2159
-972 58 2148
-968 58 2156
-972 59 2183
-977 59 2211
-947 58 2162
-856 53 1970
-807 50 1872
-807 50 1888
-798 50 1883
-791 50 1881
-784 50 1880
-776 50 1878
-770 50 1879
-768 50 1889
-757 50 1878
-753 50 1884
-748 50 1889
-739 49 1882
-739 50 1898
-726 49 1882
-723 49 1890
-728 50 1920
-744 51 1981
-720 50 1933
-740 52 2005
-756 53 2068
-754 54 2082
-759 54 2114
-782 56 2200
-854 62 2424
-879 64 2517
-873 64 2523
-868 64 2532
-863 65 2543
-859 65 2556
-856 65 2571
-848 65 2574
-846 65 2591
-843 66 2610
-835 66 2611
-832 66 2627
-828 66 2640
-824 66 2656
-819 67 2667
-810 66 2664
-807 67 2684
-801 67 2693
-776 65 2635
-726 62 2492
-714 61 2478
-712 62 2498
-711 62 2525
-707 63 2539
-719 64 2608
-744 67 2730
-743 68 2759
-742 68 2785
-725 67 2753
-711 67 2736
-702 67 2732
-693 66 2728
-686 67 2735
-678 67 2738
-669 66 2734
-655 66 2710
-592 60 2481
-509 53 2164
-494 52 2125
-484 51 2111
-477 51 2109
-470 51 2108
-464 51 2107
-456 51 2102
-442 50 2065
-438 50 2075
-433 50 2079
-427 50 2083
-419 50 2071
-412 50 2070
-405 49 2065
-404 50 2092
-398 50 2093
-391 50 2092
-380 49 2062
-384 50 2122
-370 49 2076
-364 49 2079
-358 49 2080
-349 49 2064
-342 49 2059
-337 49 2060
-332 49 2068
-323 48 2050
-314 48 2029
-302 47 1992
-291 46 1961
-282 45 1934
-280 46 1958
-273 46 1954
-264 45 1932
-267 47 1995
-263 47 2007
-250 45 1949
-235 44 1881
-213 41 1746
-208 41 1744
-208 42 1788
-204 42 1801
-206 43 1868
-192 41 1788
-188 42 1799
-187 43 1841
-180 42 1821
-177 43 1849
-163 41 1755
-157 40 1748
-157 41 1798
-145 40 1723
-145 41 1777
-136 40 1738
-133 40 1762
-127 40 1754
-120 39 1717
-115 39 1721
-110 39 1723
-101 38 1652
-100 39 1710
-94 39 1697
-84 37 1605
-84 39 1692
-75 37 1605
-71 37 1617
-67 37 1646
-61 37 1615
-57 37 1635
-53 37 1636
-48 37 1623
-43 37 1617
-38 36 1601
-33 36 1593
-30 37 1660
-25 38 1688
-19 36 1619
-15 37 1637
-10 37 1631
-5 36 1611
-1 37 1643
3 36 1590
8 37 1676
12 36 1610
17 37 1677
22 37 1655
27 37 1645
32 38 1697
36 37 1656
41 36 1637
44 36 1603
52 38 1704
55 36 1632
59 36 1633
66 38 1696
74 39 1752
79 39 1762
84 39 1757
91 40 1801
96 39 1788
102 40 1806
108 40 1819
115 41 1851
122 41 1875
125 40 1846
131 41 1855
147 44 1996
160 46 2092
172 47 2176
179 47 2176
185 47 2179
192 47 2185
198 47 2183
204 47 2176
211 47 2181
221 48 2217
225 47 2198
227 46 2149
235 47 2166
236 46 2117
226 43 1979
231 42 1967
227 41 1889
232 41 1882
239 41 1900
240 40 1864
242 39 1831
259 41 1921
253 40 1838
257 39 1828
266 40 1848
271 40 1846
280 40 1872
281 40 1845
284 39 1827
289 39 1825
302 40 1870
299 39 1822
308 39 1840
308 39 1810
312 38 1801
322 39 1829
327 39 1824
332 39 1822
341 39 1839
343 39 1821
348 39 1821
354 39 1823
356 38 1804
361 38 1801
363 38 1786
363 37 1762
357 36 1705
379 38 1786
385 38 1787
396 38 1815
390 37 1763
402 38 1794
400 37 1757
406 37 1761
407 37 1743
410 37 1732
429 38 1791
432 38 1781
428 37 1741
439 37 1764
444 37 1763
460 38 1804
453 37 1753
467 38 1789
468 37 1769
456 36 1705
476 37 1760
478 37 1748
494 38 1785
504 38 1802
517 38 1827
523 38 1826
534 39 1845
541 39 1849
541 38 1829
547 38 1829
563 39 1864
560 38 1834
538 37 1745
568 38 1822
564 38 1793
567 37 1783
573 37 1785
559 36 1722
519 33 1582
508 32 1534
518 33 1549
508 32 1502
510 31 1495
501 31 1454
491 30 1410
494 30 1406
519 31 1464
543 32 1517
556 32 1540
565 33 1551
581 33 1579
585 33 1577
626 35 1673
643 36 1703
662 36 1737
653 35 1699
646 35 1666
675 36 1725
663 35 1680
681 36 1710
704 37 1754
734 38 1814
763 39 1870
812 41 1974
862 43 2077
878 43 2098
893 44 2117
917 45 2156
915 44 2132
931 45 2153
945 45 2168
940 44 2139
887 42 2001
909 42 2035
946 44 2099
971 44 2138
976 44 2132
991 45 2148
1022 46 2197
1006 45 2146
848 37 1793
871 38 1828
997 43 2077
1017 44 2103
892 38 1827
872 37 1773
883 37 1782
889 37 1780
893 37 1774
896 37 1766
901 37 1763
912 37 1770
911 37 1755
922 37 1763
921 37 1749
933 37 1757
935 37 1749
937 36 1740
948 37 1746
953 37 1743
959 37 1740
964 36 1737
969 36 1734
-1297 73 2263
-1273 72 2238
-1258 71 2228
-1271 72 2267
-1245 71 2236
-1231 71 2228
-1230 71 2243
-1218 71 2237
-1203 70 2227
-1189 70 2217
-1167 69 2192
-1160 69 2196
-1164 69 2219
-1145 69 2199
-1130 68 2186
-1127 68 2198
-1119 68 2199
-1106 68 2190
-1091 67 2177
-1093 68 2198
-1076 67 2180
-1067 67 2179
-1060 67 2181
-1047 66 2171
-1032 66 2156
-1029 66 2168
-1016 66 2157
-1014 66 2169
-1003 65 2163
-992 65 2158
-983 65 2154
-971 65 2145
-963 64 2146
-968 65 2173
-974 66 2206
-910 62 2078
-828 57 1905
-809 56 1878
-803 56 1879
-799 56 1884
-785 56 1869
-788 56 1889
-779 56 1885
-776 56 1893
-765 56 1882
-762 56 1892
-748 55 1873
-746 55 1883
-734 55 1871
-734 55 1887
-730 55 1893
-725 55 1897
-732 56 1932
-720 56 1917
-715 56 1921
-736 58 1995
-745 59 2037
-739 59 2041
-745 60 2076
-780 63 2194
-857 70 2433
-878 72 2516
-869 72 2512
-868 72 2535
-860 72 2534
-858 72 2553
-853 73 2563
-852 73 2585
-843 73 2583
-842 73 2605
-832 73 2602
-831 74 2624
-826 74 2635
-822 74 2648
-817 74 2660
-812 75 2671
-807 75 2683
-797 75 2679
-767 72 2605
-725 69 2490
-710 68 2466
-713 69 2501
-714 70 2535
-707 70 2536
-719 72 2611
-748 76 2744
-742 76 2756
-739 76 2775
-725 76 2755
-714 75 2746
-701 75 2729
-695 75 2738
-686 75 2734
-676 74 2728
-667 74 2726
-652 73 2697
-571 65 2395
-516 60 2191
-493 58 2122
-485 57 2115
-477 57 2108
-469 57 2102
-460 57 2088
-446 56 2056
-441 56 2060
-440 56 2085
-443 57 2130
-436 57 2127
-428 57 2120
-423 57 2125
-414 57 2109
-408 57 2112
-399 56 2097
-392 56 2096
-386 56 2094
-380 56 2097
-373 56 2095
-367 56 2093
-358 55 2081
-351 55 2075
-349 56 2098
-345 56 2112
-330 54 2054
-314 53 1996
-305 52 1975
-298 52 1966
-288 51 1940
-283 51 1943
-281 52 1968
-272 51 1948
-263 51 1925
-264 52 1975
-257 51 1963
-254 52 1981
-234 49 1872
-222 48 1821
-218 48 1830
-202 46 1738
-201 46 1771
-202 48 1825
-192 47 1784
-182 45 1742
-187 48 1842
-173 46 1755
-168 46 1750
-171 48 1842
-157 45 1741
-155 46 1777
-148 45 1752
-139 44 1703
-136 45 1738
-136 47 1805
-132 47 1811
-124 46 1771
-114 44 1707
-106 43 1661
-102 43 1665
-97 43 1673
-92 43 1673
-82 40 1561
-78 41 1582
-77 42 1643
-70 41 1607
-66 41 1609
-61 41 1608
-57 41 1623
-52 41 1617
-49 42 1661
-43 41 1627
-39 42 1646
-34 42 1643
-30 43 1683
-24 41 1610
-20 42 1666
-16 43 1694
-11 43 1679
-6 42 1672
-1 42 1647
3 43 1718
8 41 1607
12 41 1627
17 41 1623
22 41 1625
27 42 1668
31 40 1604
36 41 1642
42 42 1676
45 41 1613
49 40 1612
55 41 1631
60 42 1658
68 44 1742
71 42 1690
77 43 1708
81 42 1683
89 44 1752
95 44 1778
101 44 1785
106 44 1785
114 46 1838
121 46 1862
130 47 1913
132 46 1866
137 46 1859
150 48 1962
164 51 2063
173 52 2101
184 53 2162
193 54 2190
198 54 2179
205 54 2185
211 54 2181
217 54 2183
224 53 2182
230 53 2178
235 53 2166
236 52 2118
228 49 1994
223 47 1903
226 46 1882
238 47 1932
238 46 1890
242 46 1877
249 46 1887
252 46 1868
259 46 1882
266 46 1892
265 45 1846
273 45 1859
286 47 1912
287 46 1883
286 45 1837
288 44 1817
307 46 1903
293 43 1784
283 41 1688
314 45 1846
314 44 1813
323 44 1832
320 43 1786
334 44 1834
339 44 1828
339 44 1804
351 44 1836
357 45 1841
364 45 1846
342 41 1707
367 44 1807
345 40 1671
376 43 1796
371 42 1749
369 41 1713
387 43 1775
398 43 1799
408 44 1820
394 42 1731
417 44 1810
417 43 1784
414 42 1750
413 41 1721
416 41 1713
431 42 1753
427 41 1715
436 42 1729
450 42 1763
447 42 1733
453 42 1733
458 42 1731
477 43 1783
467 41 1724
468 41 1711
479 42 1732
483 41 1724
494 42 1744
489 41 1708
518 43 1791
531 43 1815
545 44 1843
548 44 1834
551 44 1823
552 43 1810
553 43 1793
559 43 1793
575 44 1827
548 41 1722
575 43 1789
547 40 1685
523 38 1594
513 37 1547
509 37 1520
496 35 1468
514 36 1506
512 36 1487
494 34 1420
502 34 1429
525 36 1480
548 37 1531
557 37 1542
559 37 1533
574 37 1561
589 38 1587
631 40 1686
632 40 1675
643 40 1689
643 40 1673
648 40 1670
654 40 1672
645 39 1634
668 40 1677
673 40 1675
692 41 1709
712 42 1744
741 43 1799
798 46 1922
850 48 2031
887 50 2102
923 52 2169
917 51 2138
924 51 2136
942 51 2160
950 51 2161
906 49 2043
925 49 2068
947 50 2102
980 51 2158
976 51 2132
993 51 2152
1025 53 2204
982 50 2094
826 42 1745
851 43 1784
985 49 2050
1013 50 2093
893 44 1829
876 43 1781
885 43 1785
882 42 1766
895 43 1777
898 43 1770
900 42 1762
909 43 1766
913 42 1760
924 43 1767
924 42 1753
930 42 1752
936 42 1751
943 42 1749
948 42 1746
954 42 1744
959 42 1740
969 42 1746
974 42 1742
-1307 81 2281
-1285 80 2258
-1275 79 2257
-1265 79 2256
-1258 79 2260
-1237 78 2238
-1234 78 2250
-1228 79 2256
-1203 77 2226
-1197 77 2231
-1177 77 2211
-1170 76 2214
-1175 77 2241
-1158 76 2225
-1139 76 2205
-1129 75 2201
-1117 75 2194
-1116 75 2209
-1101 75 2197
-1089 74 2190
-1075 74 2179
-1077 74 2198
-1061 74 2183
-1049 73 2176
-1038 73 2171
-1029 73 2169
-1022 73 2169
-1009 72 2160
-1005 72 2168
-993 72 2158
-994 72 2178
-966 71 2134
-963 71 2145
-971 72 2180
-971 73 2198
-889 67 2030
-827 63 1902
-806 62 1871
-807 62 1888
-803 62 1893
-794 62 1889
-789 62 1894
-780 62 1888
-774 62 1888
-766 61 1884
-763 62 1893
-754 61 1887
-750 61 1893
-747 62 1902
-736 61 1892
-729 61 1891
-724 61 1893
-722 61 1906
-708 61 1886
-714 61 1917
-722 63 1956
-739 64 2021
-744 65 2054
-748 66 2084
-789 70 2218
-862 77 2445
-875 79 2507
-871 79 2519
-864 79 2523
-866 80 2553
-858 80 2554
-854 80 2565
-848 80 2574
-846 81 2593
-841 81 2604
-832 81 2601
-830 81 2620
-825 82 2631
-820 82 2642
-815 82 2655
-808 82 2660
-803 82 2670
-794 82 2667
-759 79 2579
-723 76 2482
-709 76 2461
-713 77 2501
-709 77 2516
-706 78 2534
-724 80 2626
-745 83 2733
-742 84 2753
-734 84 2755
-720 83 2736
-707 82 2718
-698 82 2716
-694 83 2734
-682 82 2719
-679 83 2741
-660 81 2695
-644 80 2666
-558 71 2340
-511 66 2173
-493 64 2123
-488 64 2130
-476 63 2104
-464 62 2079
-453 62 2058
-445 61 2050
-442 62 2066
-444 63 2103
-435 62 2090
-424 62 2068
-415 61 2054
-411 62 2066
-408 62 2082
-405 62 2100
-401 63 2110
-399 63 2130
-391 63 2124
-384 63 2121
-380 63 2129
-374 63 2133
-362 62 2103
-354 62 2090
-347 61 2085
-333 60 2039
-322 59 2006
-312 58 1984
-306 58 1984
-302 58 1993
-301 59 2028
-280 56 1925
-282 58 1978
-271 57 1941
-256 55 1869
-261 57 1951
-255 57 1950
-251 57 1963
-225 52 1800
-224 53 1835
-218 53 1825
-212 53 1822
-195 50 1724
-198 52 1792
-190 51 1768
-182 51 1743
-175 50 1725
-174 51 1764
-175 53 1828
-164 51 1768
-153 49 1701
-152 50 1748
-146 50 1738
-143 51 1760
-135 50 1722
-139 53 1834
-131 52 1807
-124 51 1782
-116 50 1730
-107 48 1675
-101 47 1657
-95 47 1642
-96 50 1736
-89 48 1691
-78 45 1584
-74 45 1583
-69 45 1579
-66 46 1623
-63 47 1665
-57 46 1631
-53 47 1652
-49 47 1665
-44 48 1681
-39 47 1641
-34 47 1655
-29 47 1656
-25 47 1656
-21 48 1704
-15 46 1640
-11 47 1679
-6 49 1731
-1 45 1588
3 47 1651
8 47 1663
13 47 1656
17 47 1656
22 46 1620
27 47 1673
31 46 1629
37 48 1704
41 46 1631
46 46 1657
50 46 1626
53 45 1593
59 45 1625
68 48 1728
70 46 1658
77 48 1715
81 47 1694
86 47 1700
91 47 1702
95 47 1684
100 47 1683
107 48 1713
116 49 1784
125 51 1838
134 52 1885
137 51 1859
144 52 1883
153 53 1929
164 55 1996
175 57 2056
189 59 2152
198 60 2178
204 60 2174
211 60 2181
217 60 2179
223 60 2177
230 60 2180
236 60 2180
238 59 2141
234 56 2047
233 54 1987
226 51 1877
234 52 1902
237 52 1882
247 52 1915
248 51 1878
256 52 1894
259 51 1876
262 51 1858
268 51 1864
268 50 1828
279 51 1865
277 50 1814
288 50 1852
287 49 1811
300 51 1861
306 51 1860
305 50 1821
301 48 1767
307 48 1768
317 49 1800
312 47 1738
333 50 1829
336 49 1816
337 49 1792
353 50 1844
364 51 1873
344 47 1746
355 48 1775
351 47 1724
366 48 1775
384 50 1836
376 48 1769
383 48 1780
391 48 1791
388 47 1753
388 47 1730
414 49 1819
402 47 1745
414 48 1771
402 46 1700
420 47 1752
430 48 1772
440 48 1788
438 48 1760
442 47 1753
437 46 1712
451 47 1748
454 47 1739
464 47 1756
463 47 1729
467 47 1724
481 47 1757
489 48 1765
467 45 1666
478 45 1686
498 47 1739
509 47 1759
527 49 1803
523 48 1769
537 48 1798
554 49 1836
558 49 1828
559 49 1813
536 46 1720
565 48 1793
553 47 1739
561 47 1745
548 46 1689
513 42 1564
511 42 1542
505 41 1508
500 40 1478
508 40 1489
508 40 1473
493 38 1416
504 39 1435
515 39 1453
533 40 1490
565 42 1565
565 42 1551
561 41 1526
601 44 1621
628 45 1677
630 45 1667
654 46 1717
626 44 1628
629 44 1621
643 44 1643
663 45 1679
673 46 1689
683 46 1700
680 45 1678
696 46 1703
710 47 1723
741 48 1783
781 50 1865
836 53 1980
885 56 2079
901 57 2100
913 57 2111
944 58 2165
949 58 2157
881 54 1986
894 54 2000
950 57 2108
975 58 2147
964 57 2106
979 57 2121
1001 58 2151
920 53 1962
813 47 1717
832 47 1744
976 55 2031
1002 56 2069
905 50 1854
876 48 1781
880 48 1775
889 48 1780
889 48 1766
898 48 1771
903 48 1767
909 48 1764
915 48 1763
916 48 1751
923 48 1753
931 48 1755
938 48 1753
941 48 1746
945 48 1740
954 48 1743
959 48 1740
964 48 1737
973 48 1740
-1312 88 2289
-1295 88 2276
-1291 88 2285
-1274 87 2272
-1254 86 2253
-1250 86 2262
-1236 86 2253
-1232 86 2262
-1222 86 2262
-1202 85 2242
-1201 85 2256
-1180 84 2232
-1172 84 2234
-1163 84 2235
-1147 83 2220
-1134 83 2211
-1128 83 2216
-1113 82 2204
-1107 82 2210
-1093 82 2198
-1087 82 2202
-1084 82 2213
-1066 81 2193
-1063 81 2205
-1050 81 2194
-1041 80 2193
-1026 80 2178
-1023 80 2189
-1008 79 2175
-1003 80 2182
-980 78 2147
-968 78 2139
-962 78 2142
-975 79 2189
-963 79 2181
-887 73 2024
-822 68 1891
-812 68 1883
-807 68 1887
-800 68 1887
-796 68 1894
-788 68 1891
-785 68 1899
-773 67 1886
-770 67 1894
-764 67 1897
-758 67 1897
-751 67 1896
-743 67 1892
-734 67 1887
-728 67 1887
-722 67 1888
-716 66 1888
-712 67 1895
-706 67 1897
-714 68 1936
-735 70 2011
-746 72 2060
-756 73 2105
-789 77 2219
-862 85 2445
-874 86 2503
-870 87 2515
-864 87 2522
-866 88 2553
-856 88 2548
-852 88 2559
-848 88 2574
-846 89 2592
-838 89 2594
-834 89 2606
-832 89 2627
-827 90 2639
-823 90 2651
-814 90 2649
-814 91 2678
-804 90 2673
-792 90 2662
-756 87 2568
-723 84 2483
-709 83 2462
-712 84 2499
-709 85 2517
-708 85 2539
-726 88 2635
-754 93 2767
-741 92 2749
-730 92 2742
-711 90 2702
-701 90 2694
-695 90 2704
-684 89 2694
-669 89 2667
-661 88 2667
-642 87 2622
-612 84 2535
-548 76 2300
-511 72 2170
-491 70 2113
-484 70 2111
-475 69 2100
-463 68 2074
-451 68 2049
-447 68 2061
-445 68 2081
-441 69 2087
-422 67 2028
-413 66 2015
-405 66 2007
-398 65 1998
-394 66 2012
-390 66 2020
-388 67 2042
-388 68 2075
-384 68 2088
-381 68 2103
-377 69 2114
-366 68 2090
-355 67 2063
-347 66 2048
-331 65 1993
-323 64 1977
-317 64 1979
-313 64 1985
-295 62 1910
-292 62 1930
-290 63 1955
-281 62 1933
-279 63 1955
-266 61 1901
-276 65 2013
-258 62 1925
-255 62 1946
-242 60 1887
-225 58 1796
-210 55 1718
-209 56 1756
-196 54 1684
-198 56 1747
-191 55 1729
-194 57 1800
-181 55 1736
-175 55 1718
-175 56 1776
-166 55 1737
-167 57 1792
-157 55 1741
-154 56 1764
-150 56 1779
-143 56 1756
-144 58 1836
-140 59 1853
-131 57 1806
-124 56 1775
-117 55 1744
-108 54 1697
-102 53 1665
-99 53 1696
-90 52 1639
-82 49 1569
-78 50 1587
-75 50 1604
-70 50 1602
-67 52 1651
-63 52 1667
-59 53 1686
-54 52 1674
-48 52 1651
-44 52 1657
-38 51 1639
-33 50 1604
-29 52 1650
-24 50 1593
-21 55 1768
-15 52 1665
-11 53 1690
-5 51 1632
-1 53 1700
3 54 1742
8 51 1638
13 52 1685
18 53 1702
22 52 1682
25 48 1552
32 52 1671
37 52 1666
41 51 1635
46 51 1653
51 51 1663
55 51 1642
59 50 1631
64 50 1628
69 50 1634
73 50 1625
81 52 1689
85 52 1680
87 50 1622
95 52 1684
98 50 1643
102 50 1643
111 52 1702
119 54 1749
134 58 1890
136 56 1848
141 56 1835
147 56 1850
159 59 1934
169 60 1986
181 63 2056
192 64 2111
201 65 2144
210 66 2169
216 66 2171
222 66 2163
225 65 2129
236 66 2176
240 65 2160
241 64 2105
248 64 2116
233 59 1937
229 56 1857
232 56 1839
243 57 1880
251 58 1903
254 57 1881
258 57 1870
263 56 1865
269 57 1873
274 56 1870
277 56 1848
283 56 1857
284 55 1827
296 56 1868
298 56 1846
302 55 1836
295 53 1762
316 56 1857
309 54 1784
325 55 1841
318 53 1774
330 54 1810
337 55 1818
334 53 1774
333 52 1738
344 53 1770
341 52 1728
368 55 1836
374 55 1840
372 54 1803
370 53 1766
370 52 1742
383 53 1780
387 53 1774
376 51 1696
388 52 1728
390 51 1712
412 54 1789
408 52 1744
433 55 1830
429 54 1789
433 53 1785
433 53 1759
441 53 1772
441 52 1750
444 52 1741
458 53 1774
461 53 1766
455 52 1720
459 51 1717
458 51 1693
467 51 1706
482 52 1742
475 51 1696
497 53 1756
497 52 1734
511 53 1764
510 52 1744
522 53 1765
516 52 1727
550 54 1821
558 55 1829
538 52 1744
533 51 1711
545 52 1730
556 52 1748
547 51 1703
545 50 1678
531 49 1620
514 47 1550
501 45 1497
510 45 1507
510 45 1493
493 43 1429
495 43 1421
506 43 1441
516 44 1455
535 45 1495
547 46 1514
558 46 1530
571 47 1552
583 47 1571
629 50 1680
612 49 1619
635 50 1666
641 50 1667
672 52 1732
655 50 1673
655 50 1660
665 50 1671
663 50 1650
674 50 1664
688 51 1684
700 51 1700
716 52 1723
745 53 1779
781 56 1850
844 60 1983
896 63 2087
921 64 2128
941 65 2158
943 64 2143
888 60 2002
897 60 2005
942 63 2090
976 65 2148
975 64 2129
980 64 2122
930 60 1999
876 56 1865
810 52 1712
833 53 1746
969 61 2018
995 62 2055
890 55 1822
875 54 1778
876 54 1768
886 54 1774
890 54 1767
896 54 1766
900 54 1759
908 54 1763
908 53 1750
917 53 1754
924 54 1753
928 53 1748
938 54 1754
939 53 1743
948 53 1747
951 53 1739
961 53 1743
964 53 1737
970 53 1735
-1305 95 2277
-1303 96 2290
-1292 95 2288
-1282 95 2285
-1265 94 2272
-1247 93 2257
-1246 94 2272
-1233 93 2264
-1223 93 2263
-1207 92 2250
-1202 93 2258
-1184 92 2240
-1172 91 2234
-1163 91 2235
-1160 91 2246
-1144 91 2232
-1138 91 2237
-1125 90 2227
-1116 90 2227
-1103 89 2218
-1093 89 2215
-1086 89 2217
-1075 89 2212
-1059 88 2196
-1054 88 2203
-1045 88 2200
-1031 87 2189
-1022 87 2187
-1013 87 2186
-1005 86 2186
-989 86 2167
-973 85 2150
-965 85 2149
-976 86 2192
-972 86 2201
-909 81 2076
-837 75 1926
-820 74 1902
-815 74 1907
-811 75 1913
-798 74 1897
-790 74 1895
-785 74 1899
-777 73 1896
-772 73 1898
-766 73 1901
-763 74 1909
-754 73 1904
-747 73 1902
-739 73 1898
-736 73 1908
-728 73 1904
-723 73 1908
-717 73 1909
-714 73 1918
-713 74 1933
-736 76 2013
-765 80 2111
-777 82 2164
-817 87 2298
-864 92 2452
-874 94 2503
-872 95 2520
-866 95 2528
-862 95 2541
-858 95 2554
-853 96 2564
-850 96 2581
-845 96 2589
-843 97 2609
-832 97 2601
-831 97 2623
-827 98 2638
-817 97 2635
-814 98 2652
-806 98 2652
-801 98 2664
-792 98 2662
-748 93 2543
-719 91 2471
-711 90 2467
-711 91 2497
-708 92 2513
-709 93 2545
-728 96 2640
-753 101 2762
-731 99 2714
-714 97 2683
-696 96 2645
-683 95 2628
-676 95 2629
-671 96 2643
-657 95 2619
-627 91 2532
-588 87 2405
-567 85 2346
-530 80 2224
-509 78 2162
-493 76 2122
-483 76 2107
-471 75 2081
-460 74 2059
-458 75 2081
-457 76 2107
-457 76 2136
-441 75 2089
-422 73 2029
-410 71 1998
-402 71 1990
-398 71 2000
-391 71 1993
-386 71 2000
-380 71 2002
-380 72 2033
-378 73 2051
-374 73 2062
-365 73 2049
-356 72 2034
-345 71 2006
-333 70 1968
-325 69 1955
-321 69 1965
-312 69 1948
-306 69 1946
-299 68 1939
-287 67 1898
-285 67 1919
-282 68 1938
-268 66 1882
-266 67 1904
-271 69 1982
-255 67 1909
-253 68 1932
-247 67 1930
-229 64 1833
-214 61 1751
-213 62 1784
-212 64 1824
-207 64 1824
-190 60 1726
-187 61 1743
-183 61 1747
-185 63 1823
-166 59 1687
-170 62 1778
-167 62 1799
-160 62 1778
-153 61 1756
-153 63 1814
-142 60 1742
-142 63 1811
-138 63 1826
-131 62 1798
-124 61 1773
-116 60 1738
-108 58 1696
-100 57 1646
-95 56 1634
-88 55 1605
-85 56 1623
-79 55 1598
-76 56 1628
-70 55 1610
-66 55 1616
-62 56 1634
-58 57 1669
-53 57 1661
-49 57 1681
-45 58 1710
-40 58 1706
-35 57 1675
-30 58 1705
-25 57 1663
-19 55 1612
-15 56 1651
-10 54 1584
-6 57 1676
-1 54 1596
3 54 1589
8 56 1639
12 55 1621
17 57 1667
22 55 1636
26 55 1629
30 54 1583
36 55 1633
41 56 1656
46 56 1655
51 56 1665
55 56 1646
59 55 1615
64 55 1617
69 55 1641
74 55 1633
78 55 1618
84 55 1645
90 56 1674
92 55 1623
98 55 1650
101 55 1623
109 56 1666
115 57 1688
119 56 1672
135 61 1828
145 63 1892
149 62 1870
156 63 1888
165 64 1930
172 65 1946
180 66 1977
191 68 2035
205 70 2115
215 72 2154
223 72 2170
222 70 2099
234 72 2162
235 70 2113
239 69 2090
239 68 2039
235 65 1958
235 63 1910
236 62 1869
242 62 1872
244 61 1851
255 63 1889
259 62 1879
263 62 1866
265 61 1846
267 60 1820
276 61 1845
286 62 1873
280 59 1797
283 59 1782
297 61 1838
294 59 1789
297 59 1775
304 59 1783
314 60 1810
326 61 1850
327 60 1825
340 62 1866
333 59 1799
344 60 1825
331 57 1728
350 59 1799
350 59 1774
368 61 1840
348 57 1712
361 58 1751
370 58 1768
370 57 1741
373 57 1732
385 58 1760
399 59 1802
398 58 1774
403 58 1769
409 58 1775
415 59 1776
416 58 1757
423 58 1764
438 59 1805
439 59 1785
439 58 1763
447 58 1772
448 58 1756
445 57 1723
461 58 1765
466 58 1763
467 57 1744
470 57 1736
476 57 1739
468 56 1689
481 57 1717
489 57 1725
493 57 1722
486 55 1680
499 56 1704
486 54 1640
497 55 1662
514 56 1701
526 57 1721
530 57 1717
513 54 1645
528 55 1677
550 57 1727
543 56 1687
543 55 1672
515 52 1569
505 50 1522
501 49 1495
496 49 1467
506 49 1481
495 47 1435
489 47 1404
500 47 1423
509 48 1435
544 50 1521
554 51 1535
557 51 1529
569 51 1545
578 52 1558
621 55 1658
637 56 1686
636 55 1668
635 55 1650
648 55 1670
641 54 1638
656 55 1662
663 55 1663
671 55 1670
678 55 1674
687 56 1682
701 56 1700
712 57 1714
729 58 1739
760 60 1799
806 63 1892
837 65 1950
871 67 2011
923 70 2115
934 70 2124
899 67 2027
910 68 2034
935 69 2073
971 71 2138
947 69 2067
957 69 2073
845 60 1814
882 63 1880
808 57 1706
824 58 1727
961 67 1999
989 68 2043
884 61 1811
861 59 1749
884 60 1783
885 59 1770
889 59 1764
897 59 1768
903 59 1767
910 59 1767
914 59 1760
914 59 1748
928 59 1762
930 59 1751
935 59 1747
945 59 1752
949 59 1747
950 59 1737
955 59 1733
963 59 1734
969 59 1732
-1318 104 2299
-1303 103 2290
-1294 103 2290
-1280 102 2283
-1268 102 2278
-1261 102 2282
-1247 101 2274
-1235 101 2269
-1217 100 2251
-1214 100 2264
-1194 99 2243
-1186 99 2244
-1179 99 2247
-1170 99 2248
-1156 98 2237
-1145 98 2232
-1138 98 2236
-1120 97 2218
-1117 97 2229
-1101 96 2214
-1095 96 2218
-1086 96 2218
-1072 95 2205
-1067 95 2213
-1051 95 2197
-1042 94 2195
-1033 94 2193
-1024 94 2191
-1012 93 2182
-1004 93 2183
-989 92 2168
-972 91 2147
-964 91 2148
-975 93 2190
-975 93 2207
-950 92 2168
-909 88 2092
-899 88 2085
-892 88 2086
-872 86 2057
-819 82 1949
-801 81 1922
-793 80 1918
-784 80 1914
-782 80 1925
-771 80 1914
-769 80 1925
-762 80 1923
-751 79 1913
-748 80 1921
-746 80 1935
-742 80 1941
-743 81 1961
-740 81 1970
-742 82 1992
-752 84 2039
-821 92 2246
-840 95 2317
-852 97 2373
-866 99 2434
-884 102 2509
-877 102 2511
-869 102 2513
-866 102 2529
-863 103 2543
-862 103 2564
-853 103 2563
-851 104 2583
-848 104 2598
-838 104 2595
-835 105 2611
-826 104 2608
-820 105 2615
-811 104 2613
-805 105 2620
-800 105 2633
-797 105 2649
-781 104 2626
-745 101 2532
-716 98 2459
-712 98 2472
-710 99 2492
-707 99 2510
-699 99 2510
-715 102 2596
-718 104 2636
-679 99 2519
-650 96 2441
-636 95 2416
-617 93 2374
-598 91 2329
-596 92 2347
-585 91 2331
-552 87 2230
-529 85 2165
-521 84 2157
-501 82 2102
-489 81 2079
-482 81 2073
-479 81 2089
-464 80 2052
-451 79 2020
-449 79 2039
-449 80 2068
-451 82 2105
-442 81 2092
-431 80 2070
-418 79 2037
-410 78 2030
-407 79 2044
-406 80 2069
-396 79 2051
-391 79 2059
