VERSION 0.7
FIELDS x y z
SIZE 4 4 4
TYPE I I I
COUNT 1 1 1
WIDTH 3186
HEIGHT 1
VIEWPOINT 0.0 0.0 0.0 1.0 0.0 0.0 0.0
POINTS 3186
DATA ascii
-1698 -1294 3190
-1695 -1300 3211
-1688 -1302 3222
-1676 -1302 3225
-1657 -1295 3214
-1627 -1281 3182
-1588 -1258 3130
-1521 -1213 3023
-1488 -1195 2981
-1477 -1194 2983
-1471 -1197 2996
-1463 -1198 3003
-1456 -1201 3013
-1447 -1202 3019
-1438 -1203 3026
-1424 -1199 3021
-1417 -1202 3031
-1391 -1188 3001
-1377 -1184 2996
-1375 -1191 3017
-1357 -1185 3005
-1332 -1171 2974
-1326 -1175 2986
-1311 -1170 2978
-1298 -1167 2974
-1284 -1163 2967
-1273 -1162 2967
-1266 -1164 2977
-1251 -1160 2968
-1246 -1164 2984
-1240 -1168 2996
-1228 -1165 2992
-1213 -1160 2983
-1207 -1164 2996
-1189 -1156 2979
-1105 -1082 2792
-994 -982 2535
-884 -881 2278
-992 -996 2578
-1111 -1126 2916
-1136 -1160 3009
-1127 -1162 3015
-1117 -1161 3015
-1103 -1156 3007
-1092 -1154 3005
-1080 -1152 3001
-1070 -1151 3003
-1056 -1147 2993
-1042 -1142 2983
-1029 -1138 2976
-1019 -1138 2979
-1004 -1131 2963
-997 -1134 2974
-985 -1131 2968
-975 -1131 2971
-961 -1125 2958
-952 -1126 2962
-939 -1121 2952
-927 -1118 2947
-918 -1118 2949
-906 -1115 2944
-892 -1109 2929
-880 -1105 2921
-869 -1103 2917
-855 -1098 2906
-846 -1097 2905
-836 -1096 2905
-827 -1096 2906
-813 -1090 2894
-803 -1089 2892
-794 -1088 2893
-783 -1085 2886
-774 -1085 2888
-762 -1081 2880
-754 -1082 2884
-743 -1079 2878
-735 -1081 2883
-725 -1079 2881
-714 -1076 2875
-704 -1075 2874
-694 -1073 2870
-680 -1065 2850
-673 -1068 2860
-661 -1063 2849
-653 -1065 2855
-642 -1061 2847
-633 -1060 2846
-623 -1059 2843
-616 -1061 2850
-601 -1050 2823
-593 -1052 2830
-585 -1052 2831
-575 -1050 2827
-565 -1049 2824
-555 -1046 2819
-546 -1045 2816
-539 -1048 2826
-526 -1039 2803
-517 -1039 2804
-508 -1037 2800
-499 -1037 2800
-488 -1031 2786
-480 -1033 2792
-470 -1029 2782
-462 -1030 2786
-452 -1029 2783
-443 -1026 2777
-434 -1025 2774
-425 -1025 2776
-415 -1021 2767
-409 -1027 2784
-397 -1017 2758
-390 -1021 2768
-382 -1023 2775
-371 -1017 2758
-364 -1018 2764
-353 -1013 2749
-345 -1011 2746
-335 -1009 2741
-327 -1010 2743
-318 -1006 2734
-309 -1004 2730
-301 -1006 2735
-293 -1006 2734
-283 -1002 2724
-276 -1005 2735
-266 -1000 2720
-258 -1000 2720
-249 -997 2714
-241 -998 2716
-233 -999 2720
-224 -995 2709
-215 -992 2702
-207 -994 2706
-199 -992 2701
-191 -992 2701
-182 -989 2695
-174 -989 2695
-166 -990 2696
-157 -986 2688
-149 -987 2689
-141 -985 2685
-132 -981 2673
-124 -980 2670
-116 -984 2681
-108 -980 2671
-99 -977 2662
-91 -976 2660
-83 -977 2663
-75 -978 2666
-67 -971 2647
-59 -973 2653
-51 -971 2646
-43 -969 2642
-34 -965 2631
-27 -971 2647
-19 -967 2636
-11 -969 2642
-3 -967 2636
4 -963 2625
12 -964 2625
20 -968 2638
28 -961 2619
36 -962 2619
44 -959 2613
52 -959 2613
59 -956 2604
67 -958 2609
75 -955 2599
83 -957 2606
91 -956 2602
98 -954 2594
106 -955 2598
113 -950 2584
122 -954 2594
129 -948 2579
137 -951 2586
144 -949 2579
153 -954 2592
160 -950 2580
167 -946 2570
176 -949 2576
183 -945 2566
190 -945 2565
198 -943 2560
206 -944 2560
213 -944 2561
220 -941 2552
229 -943 2557
236 -941 2549
244 -941 2549
250 -938 2541
258 -938 2539
265 -936 2534
273 -935 2530
280 -936 2531
288 -935 2527
295 -934 2524
302 -931 2515
311 -937 2529
317 -931 2514
325 -932 2514
332 -930 2509
340 -930 2508
347 -930 2506
354 -928 2501
362 -928 2500
370 -930 2503
376 -927 2494
385 -929 2499
392 -929 2497
398 -924 2483
406 -926 2486
413 -924 2481
422 -926 2485
429 -925 2480
435 -922 2471
444 -925 2477
450 -922 2468
459 -926 2477
463 -918 2456
470 -918 2453
479 -920 2456
488 -923 2464
494 -920 2455
500 -917 2446
510 -922 2458
515 -917 2442
524 -921 2451
529 -916 2438
536 -916 2434
545 -917 2436
552 -917 2434
560 -917 2434
566 -915 2426
576 -919 2435
581 -915 2423
587 -912 2414
595 -914 2416
603 -915 2417
610 -914 2413
618 -915 2413
624 -913 2408
632 -914 2408
638 -911 2397
647 -914 2402
655 -915 2403
659 -910 2390
669 -913 2395
675 -912 2389
684 -913 2392
688 -909 2378
696 -910 2379
704 -910 2377
713 -912 2381
720 -912 2378
726 -910 2371
734 -911 2372
741 -911 2369
748 -910 2364
753 -907 2355
760 -907 2351
769 -909 2354
776 -908 2349
783 -907 2346
791 -908 2346
799 -909 2347
806 -909 2343
813 -908 2339
821 -909 2339
827 -907 2332
835 -908 2330
841 -907 2326
853 -911 2334
857 -908 2322
865 -909 2323
869 -905 2311
879 -908 2315
883 -904 2302
894 -908 2309
900 -907 2305
910 -910 2309
919 -911 2310
923 -907 2297
930 -907 2295
939 -909 2295
946 -909 2293
949 -905 2280
962 -910 2289
964 -905 2274
973 -906 2275
983 -908 2277
988 -906 2269
992 -904 2260
999 -903 2254
1007 -904 2254
1008 -899 2237
1025 -907 2254
1026 -901 2238
1043 -909 2254
1042 -903 2234
1055 -907 2242
1061 -906 2237
1070 -908 2237
1073 -904 2225
1040 -870 2138
961 -798 1958
899 -741 1816
898 -736 1800
907 -738 1803
906 -733 1787
910 -731 1779
918 -733 1781
921 -730 1773
929 -732 1774
939 -735 1779
943 -734 1772
946 -731 1763
950 -730 1757
964 -736 1769
963 -731 1753
970 -732 1753
972 -729 1742
980 -730 1743
985 -729 1737
994 -732 1740
999 -731 1735
1005 -731 1733
1004 -727 1718
1013 -728 1719
1021 -730 1720
1019 -725 1704
-2111 -1415 3406
-2078 -1401 3379
-2053 -1392 3364
-2030 -1384 3350
-2019 -1385 3358
-1986 -1370 3327
-1951 -1353 3294
-1937 -1352 3296
-1904 -1336 3264
-1882 -1329 3252
-1868 -1327 3251
-1857 -1327 3257
-1836 -1320 3245
-1813 -1312 3230
-1795 -1307 3223
-1790 -1311 3238
-1771 -1305 3230
-1746 -1295 3209
-1733 -1293 3209
-1717 -1289 3205
-1707 -1290 3212
-1692 -1287 3209
-1675 -1282 3202
-1667 -1285 3213
-1650 -1279 3204
-1632 -1273 3194
-1588 -1247 3133
-1531 -1211 3047
-1495 -1190 2998
-1479 -1185 2990
-1471 -1187 3000
-1459 -1186 2999
-1454 -1189 3013
-1447 -1192 3024
-1438 -1192 3029
-1424 -1190 3026
-1416 -1192 3035
-1392 -1179 3007
-1380 -1177 3006
-1366 -1174 3002
-1359 -1177 3012
-1338 -1167 2990
-1324 -1163 2985
-1318 -1167 2997
-1302 -1161 2986
-1293 -1162 2991
-1285 -1163 2999
-1269 -1157 2988
-1256 -1155 2984
-1244 -1152 2981
-1233 -1151 2982
-1222 -1150 2983
-1217 -1154 2997
-1201 -1149 2985
-1190 -1147 2983
-1154 -1121 2920
-1044 -1023 2667
-919 -908 2371
-899 -896 2340
-1065 -1070 2799
-1130 -1145 2997
-1122 -1146 3004
-1112 -1146 3005
-1101 -1144 3004
-1086 -1139 2993
-1080 -1142 3005
-1069 -1141 3004
-1053 -1135 2990
-1037 -1127 2972
-1030 -1130 2984
-1017 -1126 2974
-1008 -1126 2978
-993 -1121 2966
-983 -1120 2967
-970 -1116 2959
-958 -1112 2952
-948 -1111 2951
-935 -1107 2943
-924 -1106 2941
-915 -1106 2944
-903 -1101 2935
-888 -1095 2920
-875 -1090 2909
-868 -1093 2918
-857 -1091 2915
-843 -1085 2901
-834 -1084 2900
-824 -1083 2900
-815 -1083 2902
-805 -1081 2900
-797 -1084 2908
-783 -1077 2892
-774 -1077 2892
-763 -1074 2889
-754 -1074 2889
-743 -1071 2882
-731 -1066 2871
-724 -1068 2880
-713 -1067 2876
-702 -1063 2867
-690 -1059 2859
-680 -1057 2856
-670 -1054 2849
-662 -1055 2854
-650 -1051 2844
-643 -1053 2851
-632 -1050 2844
-621 -1047 2837
-614 -1049 2844
-603 -1046 2838
-594 -1045 2837
-583 -1041 2825
-573 -1038 2820
-563 -1035 2814
-555 -1038 2821
-545 -1034 2814
-535 -1032 2808
-526 -1032 2808
-515 -1026 2794
-507 -1027 2797
-497 -1025 2795
-489 -1026 2797
-480 -1025 2797
-472 -1026 2799
-462 -1022 2789
-453 -1021 2789
-443 -1019 2784
-435 -1018 2782
-425 -1016 2776
-416 -1015 2777
-406 -1012 2768
-398 -1011 2767
-390 -1012 2770
-380 -1010 2764
-372 -1009 2763
-362 -1006 2757
-353 -1004 2750
-345 -1005 2753
-335 -1000 2742
-327 -1000 2742
-319 -1001 2745
-309 -998 2737
-300 -993 2725
-292 -994 2728
-284 -994 2729
-275 -993 2726
-266 -991 2720
-257 -989 2717
-248 -986 2709
-241 -988 2715
-233 -991 2723
-224 -986 2710
-215 -984 2705
-206 -982 2698
-198 -981 2698
-190 -983 2703
-181 -978 2688
-174 -981 2698
-165 -975 2681
-157 -978 2688
-148 -975 2680
-140 -976 2684
-132 -973 2677
-124 -971 2672
-115 -968 2662
-107 -970 2670
-99 -970 2668
-91 -970 2667
-83 -968 2664
-75 -965 2654
-67 -965 2654
-59 -966 2659
-51 -965 2654
-43 -962 2647
-35 -960 2642
-26 -958 2634
-19 -961 2644
-11 -958 2636
-3 -958 2635
4 -952 2619
12 -953 2621
20 -957 2630
28 -955 2627
36 -949 2609
44 -953 2620
52 -951 2614
59 -947 2601
67 -950 2609
75 -948 2603
83 -950 2610
91 -947 2602
98 -946 2599
106 -945 2596
114 -945 2595
121 -940 2581
129 -942 2585
137 -943 2586
144 -939 2577
153 -943 2587
160 -939 2574
168 -939 2575
176 -941 2579
183 -941 2579
190 -933 2556
198 -938 2567
205 -932 2552
213 -936 2562
221 -934 2556
228 -933 2551
235 -930 2543
243 -930 2541
250 -930 2542
259 -932 2546
266 -930 2539
272 -927 2530
280 -927 2530
287 -925 2525
296 -928 2530
303 -927 2527
310 -924 2517
317 -922 2512
326 -926 2522
333 -925 2517
340 -924 2515
348 -923 2510
355 -922 2506
362 -922 2506
370 -922 2504
377 -920 2499
383 -917 2489
392 -920 2497
400 -921 2497
406 -918 2488
414 -918 2487
421 -918 2484
428 -917 2481
434 -914 2471
443 -917 2478
451 -917 2478
456 -911 2461
463 -911 2458
472 -914 2464
479 -913 2462
488 -914 2464
495 -915 2464
500 -909 2447
507 -909 2443
516 -911 2450
523 -910 2444
529 -908 2437
537 -909 2438
545 -910 2439
551 -907 2431
558 -907 2428
566 -907 2427
573 -907 2426
579 -904 2417
589 -908 2424
596 -908 2422
603 -907 2417
610 -906 2414
616 -905 2409
623 -904 2406
631 -904 2403
639 -905 2405
646 -905 2402
652 -902 2393
659 -902 2390
668 -904 2395
674 -902 2387
683 -905 2392
687 -900 2376
697 -903 2383
703 -901 2376
709 -900 2370
716 -900 2368
724 -900 2367
731 -899 2362
740 -901 2365
747 -901 2362
755 -902 2362
758 -897 2347
768 -900 2354
775 -900 2351
785 -902 2355
791 -901 2349
799 -901 2347
806 -901 2344
812 -900 2339
820 -900 2337
825 -897 2328
832 -898 2326
841 -899 2326
852 -903 2334
853 -896 2314
860 -895 2310
868 -897 2312
877 -899 2313
885 -899 2311
892 -899 2308
901 -900 2309
908 -900 2306
912 -896 2294
922 -899 2298
930 -900 2296
934 -897 2287
944 -900 2290
950 -898 2285
958 -898 2282
965 -899 2279
974 -899 2278
982 -900 2278
985 -896 2264
999 -902 2277
1000 -897 2261
1006 -895 2253
1017 -899 2259
1015 -891 2235
1026 -894 2239
1039 -898 2249
1051 -903 2256
1056 -901 2248
1061 -899 2240
1069 -899 2238
1073 -896 2227
1047 -869 2155
980 -807 2000
907 -742 1834
900 -731 1805
900 -726 1790
916 -734 1807
913 -727 1787
917 -726 1781
918 -722 1768
925 -723 1769
934 -725 1771
943 -728 1774
946 -726 1766
960 -732 1778
956 -724 1755
967 -728 1763
968 -724 1751
984 -731 1765
986 -729 1755
981 -721 1733
988 -721 1732
997 -724 1734
1003 -724 1732
1007 -723 1726
1014 -723 1724
1014 -719 1711
1017 -717 1703
-2093 -1391 3382
-2065 -1380 3362
-2054 -1381 3369
-2031 -1373 3356
-2012 -1368 3350
-1986 -1358 3331
-1954 -1345 3304
-1924 -1331 3277
-1901 -1323 3262
-1891 -1324 3270
-1867 -1315 3254
-1854 -1314 3257
-1828 -1304 3236
-1825 -1309 3255
-1797 -1297 3229
-1785 -1296 3233
-1761 -1287 3215
-1753 -1289 3225
-1724 -1276 3197
-1718 -1279 3211
-1696 -1271 3194
-1689 -1274 3207
-1676 -1272 3207
-1661 -1269 3203
-1651 -1269 3210
-1630 -1262 3196
-1602 -1248 3166
-1553 -1218 3093
-1502 -1186 3016
-1477 -1174 2990
-1470 -1176 3001
-1465 -1180 3015
-1457 -1182 3023
-1446 -1181 3024
-1439 -1184 3036
-1425 -1181 3032
-1407 -1174 3018
-1391 -1169 3009
-1371 -1161 2992
-1362 -1161 2996
-1351 -1160 2998
-1340 -1159 2999
-1336 -1164 3015
-1322 -1161 3010
-1313 -1161 3016
-1298 -1157 3007
-1286 -1155 3006
-1273 -1152 3002
-1266 -1154 3011
-1255 -1153 3012
-1241 -1149 3005
-1230 -1147 3004
-1216 -1144 2998
-1207 -1145 3004
-1195 -1143 3001
-1179 -1136 2988
-1105 -1073 2825
-1000 -980 2581
-891 -880 2321
-983 -979 2586
-1096 -1102 2911
-1120 -1134 3001
-1112 -1137 3009
-1097 -1131 2998
-1090 -1133 3007
-1081 -1135 3013
-1062 -1125 2989
-1050 -1121 2983
-1041 -1122 2989
-1026 -1116 2975
-1017 -1116 2978
-1006 -1115 2975
-994 -1112 2972
-980 -1107 2960
-969 -1105 2957
-960 -1105 2961
-951 -1105 2963
-936 -1099 2949
-924 -1095 2941
-915 -1096 2945
-904 -1094 2943
-889 -1087 2925
-882 -1090 2936
-867 -1082 2917
-858 -1082 2920
-845 -1077 2908
-836 -1078 2912
-826 -1076 2910
-816 -1075 2909
-804 -1071 2899
-794 -1070 2898
-783 -1068 2895
-772 -1065 2889
-764 -1066 2894
-752 -1061 2882
-739 -1056 2869
-732 -1058 2878
-723 -1060 2883
-711 -1055 2871
-701 -1053 2869
-692 -1052 2868
-680 -1047 2855
-671 -1047 2856
-662 -1047 2857
-651 -1044 2850
-643 -1044 2853
-632 -1041 2847
-622 -1040 2844
-613 -1039 2845
-602 -1035 2834
-593 -1034 2833
-582 -1030 2823
-574 -1032 2829
-564 -1028 2821
-554 -1026 2817
-542 -1020 2801
-536 -1026 2818
-525 -1021 2807
-517 -1023 2811
-507 -1019 2802
-499 -1020 2807
-490 -1019 2806
-480 -1017 2799
-471 -1016 2799
-461 -1013 2791
-452 -1010 2785
-442 -1009 2781
-434 -1009 2782
-424 -1006 2774
-416 -1007 2779
-407 -1005 2775
-396 -999 2759
-388 -999 2761
-379 -998 2757
-371 -999 2761
-362 -997 2756
-352 -993 2746
-342 -988 2733
-334 -990 2739
-325 -988 2733
-317 -987 2733
-310 -990 2741
-300 -987 2733
-292 -986 2731
-283 -984 2727
-274 -983 2722
-267 -986 2731
-258 -982 2722
-249 -980 2716
-240 -979 2713
-232 -979 2713
-224 -979 2716
-215 -976 2707
-206 -974 2701
-198 -972 2698
-190 -971 2695
-181 -969 2689
-173 -969 2689
-164 -967 2682
-156 -966 2682
-148 -965 2678
-140 -966 2683
-132 -966 2683
-123 -960 2665
-115 -962 2671
-107 -961 2668
-99 -958 2661
-91 -958 2660
-83 -958 2659
-75 -956 2654
-66 -955 2650
-59 -957 2658
-50 -951 2640
-43 -954 2648
-35 -953 2647
-27 -953 2645
-19 -951 2640
-11 -948 2633
-3 -948 2631
4 -949 2634
12 -944 2620
20 -943 2617
28 -945 2622
36 -944 2621
44 -942 2613
52 -943 2616
59 -943 2616
67 -939 2604
75 -940 2606
83 -938 2601
91 -939 2603
98 -938 2599
106 -939 2601
113 -934 2588
121 -936 2592
129 -932 2582
137 -934 2586
145 -933 2584
152 -930 2574
160 -932 2578
168 -932 2578
175 -930 2573
183 -929 2569
190 -928 2565
198 -927 2562
205 -926 2559
213 -925 2554
220 -924 2552
228 -924 2551
235 -922 2544
243 -924 2549
249 -918 2533
258 -922 2543
265 -919 2534
273 -920 2535
280 -919 2530
288 -920 2533
295 -916 2522
302 -915 2519
310 -916 2520
317 -914 2513
324 -913 2509
332 -913 2509
340 -914 2511
348 -915 2513
355 -914 2509
361 -911 2498
368 -910 2494
377 -912 2499
384 -911 2495
391 -910 2492
398 -908 2485
406 -909 2488
413 -908 2482
421 -910 2486
427 -906 2475
434 -906 2472
442 -906 2472
449 -905 2469
454 -901 2455
465 -907 2472
472 -906 2466
478 -903 2457
484 -900 2449
493 -903 2454
501 -903 2453
508 -902 2449
515 -902 2448
522 -901 2444
529 -901 2442
536 -899 2435
543 -899 2434
551 -900 2433
558 -899 2430
565 -898 2426
574 -901 2431
581 -900 2427
589 -900 2427
593 -896 2412
602 -898 2417
610 -899 2417
615 -895 2405
623 -897 2408
631 -896 2405
639 -898 2407
647 -898 2407
651 -894 2394
659 -895 2394
665 -893 2387
674 -895 2391
681 -894 2386
688 -894 2383
696 -894 2382
702 -892 2375
709 -893 2373
716 -892 2369
723 -892 2367
730 -890 2361
737 -891 2360
744 -890 2355
751 -889 2351
759 -890 2352
766 -891 2351
774 -891 2350
782 -891 2348
790 -893 2349
799 -894 2351
803 -890 2338
811 -891 2337
819 -892 2337
825 -890 2330
833 -891 2329
838 -889 2322
848 -891 2326
851 -887 2312
864 -893 2324
870 -892 2319
875 -889 2309
886 -893 2317
890 -889 2304
899 -891 2307
905 -890 2301
914 -891 2301
921 -890 2297
928 -890 2293
933 -888 2285
946 -893 2297
948 -889 2282
958 -891 2284
968 -893 2287
969 -888 2270
979 -890 2274
982 -886 2260
993 -889 2266
1000 -889 2262
1005 -887 2254
1012 -887 2251
1015 -883 2236
1015 -877 2218
1037 -889 2246
1049 -894 2255
1053 -890 2243
1058 -889 2235
1063 -887 2228
1070 -887 2223
1052 -866 2168
978 -799 1998
912 -740 1848
896 -722 1800
908 -727 1810
902 -718 1783
911 -720 1786
924 -725 1797
927 -723 1787
926 -717 1771
940 -724 1785
931 -712 1752
940 -715 1757
951 -719 1763
964 -724 1773
960 -717 1752
971 -720 1757
977 -720 1754
981 -719 1749
990 -721 1750
992 -718 1741
997 -717 1736
999 -715 1727
1006 -716 1725
1012 -716 1723
1018 -716 1719
1019 -712 1708
-2085 -1374 3373
-2069 -1371 3372
-2051 -1367 3369
-2023 -1356 3348
-2008 -1354 3349
-1974 -1339 3316
-1942 -1325 3287
-1926 -1322 3285
-1901 -1312 3268
-1897 -1317 3286
-1865 -1303 3255
-1838 -1292 3233
-1828 -1292 3239
-1817 -1292 3244
-1795 -1284 3230
-1780 -1281 3228
-1766 -1280 3229
-1746 -1273 3217
-1723 -1264 3200
-1713 -1264 3205
-1698 -1261 3202
-1687 -1261 3206
-1677 -1262 3213
-1665 -1261 3216
-1650 -1258 3212
-1632 -1252 3203
-1606 -1241 3177
-1569 -1220 3129
-1529 -1197 3074
-1491 -1176 3023
-1474 -1170 3012
-1461 -1167 3010
-1460 -1175 3033
-1454 -1178 3046
-1446 -1179 3054
-1429 -1174 3043
-1408 -1164 3023
-1394 -1162 3019
-1380 -1158 3013
-1374 -1161 3026
-1359 -1157 3018
-1354 -1161 3034
-1339 -1157 3026
-1328 -1156 3028
-1325 -1162 3045
-1301 -1149 3017
-1296 -1154 3032
-1283 -1151 3028
-1267 -1145 3017
-1262 -1150 3033
-1251 -1149 3033
-1235 -1143 3021
-1221 -1139 3013
-1215 -1142 3025
-1205 -1142 3028
-1192 -1139 3024
-1160 -1118 2970
-1078 -1048 2786
-962 -942 2509
-907 -896 2388
-1047 -1043 2782
-1108 -1114 2974
-1109 -1124 3004
-1099 -1123 3006
-1086 -1120 3000
-1074 -1117 2995
-1064 -1117 2997
-1052 -1114 2992
-1040 -1112 2989
-1028 -1110 2985
-1017 -1108 2983
-1001 -1100 2966
-990 -1098 2961
-979 -1097 2961
-969 -1095 2960
-957 -1093 2956
-946 -1090 2951
-935 -1089 2949
-922 -1084 2938
-914 -1085 2944
-898 -1078 2926
-891 -1081 2936
-876 -1073 2919
-866 -1072 2917
-859 -1075 2928
-844 -1067 2908
-836 -1069 2914
-825 -1066 2910
-815 -1065 2909
-805 -1064 2907
-794 -1061 2902
-783 -1058 2896
-775 -1060 2903
-766 -1060 2904
-753 -1055 2893
-742 -1051 2883
-731 -1049 2880
-722 -1048 2879
-711 -1046 2873
-701 -1044 2869
-689 -1039 2858
-680 -1039 2861
-674 -1043 2872
-658 -1031 2842
-648 -1031 2842
-640 -1031 2845
-630 -1029 2841
-620 -1028 2838
-609 -1024 2830
-600 -1022 2825
-591 -1023 2829
-583 -1023 2831
-573 -1020 2824
-563 -1019 2822
-552 -1015 2811
-545 -1018 2820
-534 -1013 2809
-525 -1012 2807
-517 -1012 2810
-505 -1007 2797
-499 -1012 2810
-490 -1010 2806
-478 -1004 2791
-470 -1004 2792
-460 -1002 2788
-450 -999 2779
-442 -1000 2784
-432 -995 2769
-423 -995 2771
-415 -995 2771
-406 -994 2771
-397 -992 2766
-388 -991 2762
-379 -990 2760
-370 -989 2759
-361 -987 2754
-353 -986 2753
-344 -985 2750
-335 -983 2745
-326 -981 2740
-316 -977 2730
-309 -979 2737
-300 -978 2733
-291 -974 2723
-282 -974 2724
-274 -975 2726
-266 -974 2724
-256 -970 2713
-250 -975 2728
-240 -970 2713
-231 -967 2708
-223 -967 2706
-215 -965 2703
-206 -966 2704
-198 -963 2696
-189 -962 2694
-181 -961 2691
-173 -961 2692
-164 -958 2685
-156 -959 2685
-148 -960 2689
-140 -957 2681
-132 -955 2677
-124 -955 2677
-115 -953 2671
-107 -950 2663
-99 -951 2665
-91 -948 2658
-83 -950 2662
-75 -950 2661
-67 -949 2660
-58 -945 2649
-50 -944 2644
-42 -941 2638
-34 -946 2650
-26 -940 2635
-18 -941 2638
-10 -938 2629
-3 -939 2632
4 -938 2629
12 -938 2628
20 -937 2625
28 -934 2616
36 -936 2622
44 -934 2616
52 -936 2621
59 -931 2605
67 -930 2604
75 -930 2602
83 -929 2599
91 -931 2605
98 -927 2593
106 -928 2594
113 -925 2587
121 -924 2584
129 -924 2583
136 -923 2579
144 -920 2571
152 -925 2585
159 -919 2568
167 -921 2571
175 -924 2580
183 -922 2572
190 -918 2563
198 -919 2565
205 -916 2556
213 -920 2566
220 -915 2551
229 -919 2562
235 -916 2551
243 -914 2546
249 -911 2536
257 -912 2539
264 -909 2530
272 -908 2526
280 -911 2533
288 -910 2530
295 -909 2525
302 -907 2520
309 -906 2515
316 -903 2506
324 -906 2513
332 -906 2514
340 -908 2518
347 -906 2511
355 -906 2510
361 -903 2501
368 -903 2498
376 -902 2496
383 -901 2492
389 -899 2483
398 -901 2489
404 -898 2480
413 -900 2485
419 -898 2476
427 -898 2477
435 -900 2479
442 -897 2472
448 -895 2464
455 -895 2462
464 -897 2465
470 -894 2457
477 -893 2454
485 -895 2457
493 -895 2455
500 -894 2451
506 -892 2443
513 -891 2440
521 -893 2443
527 -889 2432
537 -893 2441
543 -892 2436
550 -890 2429
558 -892 2433
564 -890 2426
570 -887 2418
578 -888 2416
587 -890 2420
594 -889 2417
599 -885 2405
608 -888 2411
615 -887 2406
621 -886 2400
629 -887 2402
638 -889 2406
645 -888 2402
652 -888 2398
658 -885 2390
665 -885 2388
674 -887 2391
679 -885 2382
687 -885 2380
694 -884 2378
701 -884 2374
706 -882 2366
716 -884 2370
723 -884 2368
730 -883 2364
739 -886 2368
744 -882 2357
753 -884 2361
762 -886 2364
764 -881 2347
773 -883 2349
781 -883 2348
791 -886 2354
796 -883 2343
802 -882 2338
813 -885 2345
814 -879 2326
824 -881 2329
831 -881 2327
838 -881 2323
846 -882 2323
853 -881 2318
861 -882 2317
868 -881 2314
873 -879 2306
886 -885 2319
892 -883 2312
898 -882 2306
904 -881 2300
912 -881 2299
922 -884 2302
928 -883 2297
935 -883 2293
937 -878 2278
952 -885 2294
956 -882 2282
965 -884 2284
972 -882 2278
979 -883 2276
983 -879 2264
993 -882 2268
999 -881 2261
1007 -882 2261
1014 -881 2257
1003 -865 2213
1020 -874 2231
1037 -882 2250
1043 -881 2243
1056 -886 2254
1055 -879 2232
1068 -884 2241
1072 -880 2229
1060 -865 2188
998 -808 2041
915 -736 1855
898 -717 1806
896 -711 1788
905 -713 1790
909 -713 1785
921 -717 1793
922 -713 1780
928 -713 1779
925 -707 1759
943 -716 1778
946 -713 1770
950 -712 1762
961 -715 1769
960 -711 1754
969 -713 1757
969 -708 1742
970 -705 1732
987 -713 1748
989 -710 1737
992 -708 1729
994 -706 1720
1010 -713 1735
1017 -713 1733
1016 -709 1718
1011 -701 1696
-2094 -1368 3392
-2065 -1357 3371
-2050 -1355 3371
-2023 -1345 3352
-2000 -1337 3338
-1976 -1329 3324
-1929 -1305 3269
-1923 -1308 3284
-1898 -1299 3265
-1885 -1298 3269
-1860 -1288 3251
-1840 -1282 3239
-1820 -1276 3229
-1817 -1281 3248
-1791 -1271 3227
-1778 -1269 3228
-1760 -1264 3220
-1739 -1257 3208
-1725 -1255 3207
-1711 -1252 3206
-1698 -1251 3206
-1687 -1251 3212
-1675 -1250 3214
-1661 -1247 3212
-1645 -1243 3206
-1627 -1238 3196
-1612 -1235 3193
-1580 -1218 3155
-1555 -1207 3130
-1512 -1182 3069
-1489 -1172 3047
-1471 -1165 3034
-1459 -1164 3035
-1456 -1169 3053
-1445 -1169 3056
-1434 -1168 3059
-1418 -1163 3050
-1395 -1152 3025
-1387 -1154 3034
-1378 -1155 3039
-1376 -1161 3059
-1355 -1152 3040
-1350 -1157 3055
-1336 -1153 3050
-1328 -1154 3056
-1312 -1150 3047
-1299 -1146 3042
-1286 -1144 3040
-1279 -1146 3048
-1261 -1139 3033
-1251 -1138 3035
-1235 -1134 3025
-1224 -1132 3023
-1213 -1131 3025
-1198 -1126 3015
-1187 -1125 3014
-1174 -1122 3009
-1124 -1083 2908
-1036 -1006 2705
-909 -891 2397
-941 -930 2505
-1074 -1070 2886
-1102 -1108 2989
-1097 -1112 3003
-1086 -1110 3002
-1078 -1112 3010
-1061 -1105 2992
-1048 -1101 2985
-1038 -1101 2987
-1030 -1101 2992
-1016 -1097 2983
-1004 -1094 2978
-991 -1091 2970
-979 -1088 2965
-963 -1080 2946
-957 -1084 2959
-944 -1079 2948
-933 -1078 2947
-924 -1078 2951
-911 -1073 2939
-900 -1071 2935
-890 -1070 2934
-879 -1068 2931
-865 -1062 2917
-858 -1065 2928
-847 -1062 2923
-836 -1060 2918
-825 -1057 2913
-814 -1055 2909
-800 -1049 2894
-792 -1049 2897
-781 -1047 2892
-773 -1048 2898
-764 -1048 2898
-750 -1041 2881
-738 -1037 2871
-729 -1037 2874
-719 -1035 2870
-714 -1042 2890
-698 -1031 2861
-687 -1028 2855
-679 -1029 2860
-669 -1028 2857
-660 -1026 2855
-647 -1019 2837
-640 -1023 2850
-629 -1019 2840
-621 -1021 2845
-609 -1015 2830
-601 -1015 2833
-592 -1015 2834
-583 -1015 2834
-573 -1013 2829
-564 -1011 2827
-552 -1006 2813
-545 -1008 2821
-533 -1002 2806
-525 -1003 2808
-515 -1001 2805
-505 -999 2799
-497 -1000 2802
-487 -995 2792
-480 -999 2802
-470 -996 2795
-461 -996 2797
-452 -994 2792
-441 -988 2775
-433 -990 2783
-425 -991 2787
-414 -984 2767
-407 -987 2777
-397 -984 2768
-388 -983 2767
-378 -979 2756
-370 -980 2760
-360 -976 2749
-352 -977 2752
-343 -973 2743
-335 -974 2747
-326 -973 2744
-317 -970 2735
-308 -968 2730
-300 -971 2740
-291 -966 2727
-283 -967 2729
-274 -965 2723
-266 -966 2726
-256 -959 2708
-249 -963 2720
-239 -957 2702
-230 -955 2699
-222 -956 2702
-215 -958 2707
-206 -955 2698
-198 -954 2698
-190 -957 2706
-181 -951 2690
-173 -951 2689
-164 -949 2683
-156 -947 2679
-148 -951 2691
-140 -949 2685
-131 -945 2674
-123 -945 2674
-115 -940 2659
-107 -942 2664
-99 -943 2667
-91 -941 2662
-82 -939 2657
-74 -940 2658
-66 -934 2642
-58 -938 2652
-50 -933 2639
-42 -935 2644
-34 -934 2641
-26 -930 2629
-18 -935 2644
-10 -930 2632
-2 -930 2630
4 -929 2628
12 -930 2629
20 -928 2625
28 -927 2620
36 -925 2616
44 -925 2615
52 -927 2621
59 -924 2611
67 -921 2601
75 -922 2603
83 -922 2606
90 -920 2599
98 -918 2592
106 -918 2591
114 -919 2595
121 -918 2591
129 -916 2585
137 -916 2584
144 -914 2578
152 -914 2578
160 -914 2577
167 -914 2577
174 -909 2562
183 -913 2572
189 -907 2555
197 -909 2561
205 -910 2561
212 -908 2556
219 -905 2547
228 -907 2552
234 -903 2539
242 -905 2544
251 -907 2549
257 -904 2540
265 -903 2537
272 -902 2531
280 -902 2532
287 -902 2530
294 -900 2524
302 -899 2521
309 -899 2519
317 -898 2516
323 -895 2507
331 -896 2507
340 -898 2514
346 -896 2507
353 -894 2499
363 -901 2517
368 -893 2495
376 -894 2497
382 -891 2486
391 -894 2493
396 -889 2480
404 -890 2479
412 -890 2480
420 -891 2482
426 -889 2474
435 -892 2480
442 -891 2476
449 -889 2470
456 -889 2469
464 -889 2467
471 -888 2464
477 -887 2458
484 -885 2453
490 -883 2445
499 -885 2449
508 -888 2456
514 -886 2449
519 -882 2436
527 -882 2435
535 -882 2434
542 -881 2430
549 -882 2429
557 -883 2431
564 -881 2424
570 -879 2418
578 -880 2417
585 -879 2415
594 -881 2419
600 -880 2413
608 -881 2414
615 -880 2411
622 -880 2408
630 -880 2406
637 -879 2402
641 -876 2391
650 -878 2395
659 -880 2399
666 -879 2393
671 -876 2383
677 -874 2377
686 -876 2381
694 -878 2382
700 -875 2373
710 -878 2380
714 -874 2366
723 -877 2371
732 -879 2374
737 -875 2363
746 -877 2367
752 -876 2360
759 -876 2358
766 -875 2355
774 -876 2354
779 -874 2345
786 -872 2340
796 -876 2347
800 -872 2335
808 -872 2332
814 -872 2328
825 -875 2335
832 -875 2332
840 -875 2330
844 -872 2320
853 -874 2321
861 -875 2322
868 -874 2316
874 -873 2312
883 -875 2313
888 -872 2303
896 -873 2304
902 -872 2298
912 -874 2301
913 -868 2283
927 -874 2296
935 -875 2295
941 -874 2290
946 -872 2282
956 -874 2283
962 -873 2277
970 -874 2277
977 -873 2273
983 -872 2268
993 -875 2270
994 -869 2254
1003 -870 2253
1011 -872 2254
1016 -869 2243
1033 -877 2262
1032 -870 2241
1042 -873 2244
1049 -872 2239
1058 -874 2240
1062 -871 2229
1070 -872 2229
1059 -857 2187
1004 -806 2055
921 -735 1870
895 -709 1802
901 -709 1800
905 -707 1792
910 -707 1789
914 -706 1782
927 -711 1792
923 -703 1771
934 -707 1777
938 -706 1771
943 -705 1766
953 -708 1771
951 -702 1752
962 -706 1759
966 -704 1753
978 -709 1762
982 -707 1754
988 -708 1752
998 -711 1756
997 -706 1740
1006 -708 1742
1009 -706 1734
1011 -703 1725
1020 -705 1726
1015 -698 1706
-2078 -1346 3371
-2059 -1341 3365
-2040 -1337 3360
-2016 -1328 3344
-1994 -1321 3333
-1965 -1310 3309
-1927 -1292 3271
-1918 -1294 3280
-1891 -1283 3259
-1882 -1284 3267
-1851 -1271 3239
-1848 -1276 3258
-1815 -1261 3225
-1812 -1267 3244
-1790 -1259 3229
-1774 -1255 3225
-1756 -1250 3217
-1736 -1244 3206
-1723 -1243 3207
-1709 -1241 3206
-1694 -1238 3204
-1689 -1242 3219
-1673 -1238 3214
-1659 -1235 3212
-1644 -1232 3209
-1624 -1225 3195
-1611 -1224 3195
-1591 -1216 3180
-1570 -1209 3165
-1544 -1196 3136
-1514 -1181 3102
-1489 -1169 3075
-1475 -1167 3072
-1477 -1176 3101
-1465 -1175 3101
-1440 -1162 3073
-1424 -1158 3066
-1413 -1158 3068
-1395 -1151 3053
-1384 -1150 3055
-1372 -1148 3054
-1364 -1150 3064
-1351 -1147 3060
-1334 -1142 3048
-1322 -1139 3046
-1316 -1143 3058
-1307 -1144 3066
-1291 -1138 3054
-1278 -1136 3050
-1265 -1133 3046
-1249 -1128 3035
-1234 -1123 3025
-1223 -1122 3026
-1215 -1123 3033
-1201 -1120 3026
-1188 -1116 3021
-1174 -1112 3013
-1151 -1099 2980
-1091 -1050 2851
-994 -966 2624
-889 -871 2370
-1009 -997 2714
-1084 -1081 2945
-1097 -1103 3007
-1084 -1099 3001
-1072 -1097 2997
-1059 -1093 2989
-1046 -1089 2982
-1035 -1088 2982
-1024 -1086 2979
-1011 -1083 2972
-999 -1080 2967
-987 -1077 2961
-976 -1075 2959
-969 -1077 2966
-956 -1074 2960
-943 -1069 2949
-932 -1068 2948
-924 -1069 2953
-911 -1064 2941
-897 -1059 2930
-888 -1058 2931
-874 -1053 2920
-868 -1056 2930
-856 -1053 2923
-847 -1053 2925
-836 -1051 2922
-826 -1050 2920
-813 -1045 2908
-802 -1042 2902
-791 -1040 2899
-780 -1037 2893
-769 -1034 2887
-763 -1038 2898
-750 -1032 2884
-740 -1031 2884
-728 -1027 2874
-720 -1027 2876
-709 -1025 2872
-698 -1021 2862
-690 -1023 2868
-680 -1021 2866
-671 -1022 2868
-657 -1013 2846
-651 -1017 2857
-639 -1012 2846
-627 -1008 2835
-621 -1011 2846
-609 -1007 2836
-603 -1010 2846
-592 -1006 2837
-581 -1003 2829
-571 -1001 2823
-559 -994 2807
-552 -998 2817
-542 -995 2811
-532 -993 2805
-523 -992 2805
-515 -993 2808
-504 -988 2796
-496 -988 2797
-489 -991 2807
-479 -988 2799
-467 -983 2784
-457 -979 2775
-449 -980 2780
-441 -979 2778
-433 -982 2785
-423 -977 2772
-414 -977 2775
-405 -975 2768
-396 -973 2765
-388 -974 2768
-378 -971 2760
-368 -967 2749
-360 -967 2751
-352 -968 2753
-343 -965 2747
-333 -962 2737
-324 -960 2731
-316 -960 2733
-307 -958 2729
-299 -960 2734
-291 -958 2730
-281 -955 2721
-274 -956 2725
-265 -955 2723
-256 -952 2713
-246 -946 2698
-240 -952 2714
-230 -946 2700
-223 -951 2712
-214 -948 2704
-206 -949 2709
-198 -946 2700
-189 -944 2695
-180 -942 2688
-173 -944 2696
-164 -939 2680
-155 -938 2678
-147 -937 2676
-139 -938 2677
-131 -935 2670
-123 -935 2670
-115 -935 2670
-107 -933 2666
-98 -932 2663
-90 -928 2651
-83 -933 2666
-74 -928 2651
-66 -927 2646
-58 -928 2651
-50 -924 2640
-42 -925 2643
-34 -925 2641
-26 -923 2635
-18 -924 2638
-10 -923 2634
-2 -925 2642
4 -922 2631
12 -919 2623
20 -919 2624
28 -920 2625
36 -916 2615
44 -916 2614
51 -913 2606
59 -915 2611
67 -914 2606
75 -913 2604
82 -910 2595
90 -908 2588
98 -910 2594
106 -909 2590
113 -908 2589
121 -907 2585
129 -907 2583
136 -905 2578
144 -906 2581
152 -907 2583
159 -902 2568
167 -906 2577
174 -901 2564
182 -903 2569
189 -899 2557
196 -897 2549
205 -901 2560
212 -899 2553
220 -899 2554
227 -897 2546
234 -896 2543
242 -897 2545
249 -892 2531
257 -896 2541
265 -896 2540
271 -891 2525
279 -893 2530
286 -890 2521
294 -892 2527
302 -892 2524
309 -891 2520
316 -889 2515
324 -889 2514
331 -888 2508
338 -887 2504
346 -888 2507
354 -888 2507
361 -888 2504
368 -885 2497
376 -886 2498
383 -886 2496
390 -885 2493
398 -885 2491
405 -884 2486
412 -883 2484
418 -879 2471
426 -880 2473
434 -882 2477
443 -884 2481
448 -880 2469
455 -880 2466
461 -877 2457
469 -878 2458
478 -880 2464
484 -877 2454
492 -877 2453
499 -878 2452
506 -877 2449
515 -879 2453
523 -880 2453
526 -873 2434
534 -874 2435
541 -872 2428
550 -876 2437
558 -876 2436
566 -877 2436
569 -871 2418
579 -874 2425
584 -870 2413
594 -874 2421
601 -873 2418
606 -870 2407
613 -870 2406
621 -871 2405
629 -871 2405
635 -870 2398
642 -869 2396
648 -867 2389
656 -868 2388
665 -870 2393
671 -868 2384
678 -868 2383
686 -868 2382
693 -868 2379
700 -868 2376
705 -865 2366
713 -866 2367
723 -869 2372
727 -864 2358
735 -866 2360
744 -867 2362
750 -866 2357
758 -867 2357
764 -865 2350
772 -866 2349
779 -865 2345
788 -868 2349
794 -866 2342
803 -868 2345
809 -867 2340
814 -864 2329
821 -864 2327
828 -864 2324
838 -866 2327
842 -863 2317
851 -864 2318
860 -866 2321
865 -864 2312
873 -864 2310
880 -864 2307
887 -864 2303
894 -863 2299
903 -865 2302
909 -864 2297
916 -864 2294
925 -865 2295
936 -868 2300
941 -866 2292
948 -866 2288
953 -864 2280
960 -864 2277
969 -866 2278
978 -867 2278
989 -870 2283
992 -867 2272
996 -863 2260
1001 -862 2252
1011 -863 2254
1031 -875 2281
1056 -890 2316
1034 -865 2248
1044 -867 2252
1049 -865 2242
1058 -867 2244
1063 -864 2235
1068 -863 2227
1063 -853 2198
1007 -802 2063
935 -740 1900
898 -706 1810
898 -701 1795
902 -699 1788
909 -700 1787
907 -694 1770
919 -699 1779
922 -697 1770
930 -698 1771
938 -700 1773
939 -696 1761
945 -696 1758
963 -705 1777
957 -697 1753
959 -694 1742
967 -695 1744
978 -699 1750
986 -700 1750
988 -698 1741
997 -700 1742
1004 -701 1741
1005 -697 1729
1010 -697 1726
1020 -699 1728
1017 -694 1712
-2079 -1335 3377
-2062 -1332 3375
-2031 -1319 3349
-2015 -1316 3347
-1987 -1305 3325
-1960 -1295 3305
-1938 -1288 3293
-1917 -1282 3282
-1895 -1275 3269
-1879 -1271 3266
-1862 -1267 3262
-1846 -1264 3258
-1830 -1261 3255
-1801 -1249 3229
-1793 -1251 3239
-1768 -1240 3218
-1755 -1239 3220
-1738 -1235 3214
-1717 -1227 3199
-1708 -1229 3208
-1700 -1231 3218
-1679 -1224 3204
-1667 -1223 3206
-1653 -1220 3204
-1641 -1219 3206
-1628 -1218 3207
-1609 -1212 3195
-1594 -1208 3191
-1579 -1205 3187
-1553 -1193 3159
-1527 -1181 3131
-1513 -1178 3129
-1492 -1170 3111
-1488 -1175 3127
-1469 -1168 3114
-1447 -1158 3092
-1431 -1153 3083
-1417 -1151 3080
-1399 -1144 3067
-1391 -1145 3074
-1379 -1144 3074
-1367 -1143 3073
-1356 -1142 3076
-1341 -1137 3066
-1322 -1130 3050
-1311 -1128 3050
-1304 -1131 3061
-1290 -1128 3055
-1277 -1125 3050
-1261 -1119 3040
-1250 -1118 3040
-1236 -1115 3034
-1226 -1114 3036
-1209 -1108 3021
-1198 -1107 3022
-1186 -1105 3019
-1172 -1100 3010
-1161 -1099 3010
-1125 -1074 2944
-1047 -1008 2767
-920 -894 2454
-905 -887 2439
-1036 -1023 2816
-1083 -1079 2972
-1082 -1088 2999
-1068 -1083 2988
-1054 -1079 2980
-1047 -1081 2989
-1034 -1078 2982
-1021 -1073 2972
-1010 -1072 2972
-1002 -1073 2977
-985 -1065 2957
-975 -1064 2957
-967 -1066 2964
-953 -1060 2951
-940 -1056 2942
-933 -1059 2951
-922 -1057 2950
-906 -1049 2930
-898 -1051 2937
-886 -1047 2929
-874 -1043 2920
-866 -1045 2927
-855 -1043 2923
-842 -1038 2912
-832 -1037 2911
-821 -1035 2906
-811 -1033 2904
-800 -1030 2897
-790 -1029 2897
-778 -1025 2887
-768 -1025 2887
-760 -1025 2891
-749 -1022 2883
-740 -1022 2885
-725 -1014 2865
-715 -1012 2859
-705 -1011 2858
-700 -1016 2875
-687 -1011 2861
-677 -1009 2858
-668 -1008 2857
-657 -1005 2850
-648 -1004 2849
-639 -1004 2849
-628 -1000 2841
-620 -1002 2847
-608 -997 2833
-600 -997 2835
-588 -992 2823
-580 -993 2826
-570 -991 2822
-561 -990 2820
-551 -987 2814
-544 -990 2824
-533 -986 2812
-524 -986 2813
-515 -984 2810
-504 -980 2800
-496 -980 2801
-487 -979 2798
-475 -972 2780
-467 -974 2787
-458 -971 2780
-449 -972 2781
-440 -969 2775
-431 -968 2772
-424 -971 2783
-413 -965 2765
-403 -962 2759
-395 -963 2761
-386 -961 2758
-378 -961 2759
-369 -959 2754
-360 -959 2754
-352 -960 2757
-341 -951 2732
-333 -954 2742
-326 -956 2748
-317 -954 2741
-307 -950 2731
-298 -947 2724
-290 -948 2728
-281 -946 2721
-273 -946 2723
-265 -947 2724
-256 -945 2719
-247 -942 2713
-239 -942 2712
-231 -944 2718
-222 -940 2706
-213 -936 2695
-205 -937 2698
-196 -932 2686
-189 -936 2697
-180 -933 2688
-172 -933 2688
-163 -930 2679
-155 -927 2673
-147 -927 2671
-140 -932 2687
-131 -928 2674
-123 -929 2679
-115 -928 2675
-107 -925 2668
-98 -923 2660
-90 -920 2653
-82 -922 2657
-74 -922 2659
-66 -919 2650
-58 -919 2649
-50 -916 2641
-42 -914 2635
-34 -917 2644
-26 -914 2634
-18 -913 2631
-10 -913 2631
-2 -910 2623
5 -910 2624
12 -911 2626
20 -905 2608
28 -907 2612
36 -909 2620
44 -907 2612
52 -910 2620
59 -903 2601
67 -907 2612
75 -908 2614
82 -902 2595
90 -904 2602
98 -901 2593
106 -901 2594
113 -899 2585
121 -898 2582
128 -896 2575
136 -898 2582
144 -899 2583
151 -896 2574
160 -899 2582
167 -896 2574
175 -895 2572
182 -891 2560
190 -894 2566
197 -890 2554
205 -892 2558
212 -889 2551
219 -889 2549
227 -891 2553
235 -890 2552
241 -885 2536
249 -885 2536
257 -886 2536
265 -888 2542
272 -885 2531
280 -886 2534
286 -883 2524
294 -884 2526
302 -884 2525
309 -881 2517
315 -877 2504
325 -884 2522
330 -878 2504
338 -880 2508
346 -879 2507
352 -876 2497
360 -878 2501
368 -878 2500
375 -877 2495
382 -875 2489
389 -875 2488
397 -875 2488
404 -875 2485
411 -873 2477
420 -877 2487
425 -872 2474
435 -877 2485
440 -871 2467
447 -870 2464
455 -872 2467
463 -873 2470
469 -870 2459
476 -868 2453
484 -869 2454
492 -870 2456
498 -869 2451
506 -868 2448
512 -867 2443
520 -867 2441
528 -869 2446
530 -860 2419
543 -868 2439
548 -865 2429
558 -869 2437
563 -865 2427
570 -864 2423
576 -863 2417
584 -864 2417
592 -864 2417
599 -863 2411
606 -863 2410
615 -865 2413
620 -862 2403
628 -862 2403
637 -864 2407
641 -860 2393
650 -862 2396
654 -858 2383
663 -860 2388
670 -860 2385
679 -862 2389
683 -857 2373
691 -858 2375
699 -859 2375
706 -858 2370
713 -858 2368
722 -860 2370
726 -857 2360
736 -859 2364
741 -857 2356
749 -857 2354
759 -861 2362
763 -857 2350
770 -856 2345
779 -858 2347
785 -857 2342
793 -857 2340
799 -856 2335
807 -856 2334
813 -855 2328
823 -858 2334
829 -857 2328
838 -858 2329
844 -857 2324
847 -853 2310
858 -856 2316
864 -855 2311
871 -855 2308
883 -860 2318
887 -857 2307
897 -859 2310
904 -859 2308
909 -856 2298
917 -857 2297
924 -857 2295
929 -854 2284
938 -857 2288
949 -859 2292
952 -855 2279
961 -858 2282
968 -857 2277
974 -855 2270
981 -856 2268
987 -855 2263
992 -853 2253
1004 -857 2262
1007 -853 2248
1031 -867 2283
1013 -845 2222
1029 -853 2239
1040 -856 2244
1050 -859 2248
1055 -856 2238
1063 -857 2238
1070 -857 2234
1070 -851 2214
1026 -811 2107
941 -738 1914
895 -697 1806
893 -691 1786
907 -697 1800
907 -693 1786
913 -693 1783
916 -690 1775
928 -695 1784
933 -695 1780
937 -693 1773
937 -688 1758
952 -695 1772
959 -696 1772
962 -694 1764
967 -693 1759
970 -691 1750
974 -690 1744
971 -684 1726
993 -695 1750
986 -686 1725
999 -691 1735
1002 -689 1727
1003 -686 1715
1020 -694 1731
1023 -691 1722
-2067 -1316 3361
-2057 -1317 3370
-2036 -1311 3361
-2018 -1307 3357
-1981 -1290 3320
-1958 -1283 3306
-1926 -1269 3277
-1909 -1265 3272
-1886 -1257 3258
-1879 -1260 3271
-1853 -1250 3250
-1837 -1247 3247
-1822 -1244 3245
-1796 -1234 3223
-1777 -1228 3213
-1766 -1228 3218
-1754 -1228 3222
-1730 -1218 3202
-1724 -1222 3217
-1695 -1209 3188
-1690 -1213 3203
-1675 -1210 3200
-1663 -1209 3202
-1653 -1209 3207
-1643 -1210 3214
-1619 -1201 3194
-1605 -1198 3190
-1590 -1195 3187
-1574 -1190 3179
-1555 -1184 3167
-1539 -1180 3161
-1523 -1175 3153
-1509 -1172 3149
-1486 -1163 3127
-1468 -1157 3115
-1447 -1148 3095
-1424 -1138 3073
-1422 -1144 3093
-1410 -1143 3093
-1400 -1143 3097
-1378 -1133 3075
-1369 -1134 3081
-1352 -1129 3070
-1340 -1127 3069
-1325 -1122 3060
-1314 -1122 3062
-1298 -1116 3051
-1288 -1116 3054
-1273 -1112 3046
-1257 -1106 3034
-1247 -1106 3036
-1238 -1107 3041
-1224 -1103 3035
-1209 -1098 3025
-1194 -1094 3015
-1187 -1096 3024
-1171 -1091 3013
-1165 -1094 3024
-1145 -1083 2999
-1093 -1044 2892
-1010 -973 2698
-880 -854 2371
-934 -915 2543
-1047 -1034 2876
-1081 -1077 2998
-1069 -1075 2996
-1057 -1072 2990
-1043 -1067 2979
-1032 -1066 2977
-1023 -1066 2982
-1007 -1060 2967
-997 -1059 2966
-988 -1059 2968
-974 -1054 2958
-964 -1053 2957
-950 -1048 2946
-942 -1049 2952
-933 -1050 2956
-917 -1043 2937
-911 -1046 2949
-899 -1042 2942
-887 -1039 2935
-875 -1035 2926
-863 -1033 2921
-853 -1032 2921
-843 -1030 2917
-832 -1028 2914
-821 -1025 2907
-810 -1023 2903
-796 -1017 2887
-792 -1024 2909
-778 -1017 2891
-768 -1015 2888
-758 -1014 2886
-748 -1012 2884
-739 -1012 2883
-727 -1008 2876
-718 -1008 2878
-706 -1004 2866
-697 -1002 2864
-683 -996 2848
-676 -998 2855
-667 -998 2856
-657 -996 2851
-647 -994 2849
-637 -991 2841
-627 -990 2839
-617 -987 2833
-607 -985 2828
-598 -985 2828
-590 -986 2832
-578 -981 2819
-568 -979 2814
-560 -980 2820
-551 -979 2819
-541 -976 2810
-532 -976 2812
-523 -975 2809
-514 -974 2807
-504 -972 2803
-494 -969 2795
-486 -970 2799
-476 -965 2787
-466 -963 2780
-457 -963 2782
-448 -961 2779
-439 -959 2772
-430 -959 2773
-423 -961 2780
-412 -956 2767
-404 -957 2770
-394 -953 2760
-386 -952 2758
-377 -951 2756
-368 -951 2756
-359 -948 2749
-351 -949 2751
-342 -947 2747
-333 -946 2744
-325 -945 2741
-315 -941 2732
-308 -945 2742
-298 -940 2729
-289 -938 2723
-282 -940 2730
-273 -938 2725
-264 -934 2713
-256 -936 2720
-247 -931 2707
-239 -932 2708
-230 -932 2710
-222 -930 2704
-214 -929 2702
-204 -924 2686
-197 -927 2697
-189 -929 2701
-180 -923 2686
-171 -921 2679
-164 -923 2687
-155 -919 2674
-148 -923 2687
-139 -921 2680
-131 -919 2674
-122 -916 2667
-114 -915 2664
-106 -916 2666
-98 -913 2657
-90 -913 2658
-82 -916 2667
-74 -911 2652
-66 -913 2658
-58 -909 2645
-50 -910 2648
-42 -909 2645
-34 -909 2646
-26 -907 2639
-18 -906 2637
-10 -903 2628
-2 -902 2626
5 -902 2625
12 -903 2627
20 -900 2620
28 -899 2615
36 -900 2619
44 -901 2620
51 -898 2610
59 -896 2604
67 -897 2607
75 -895 2600
83 -895 2602
90 -894 2598
98 -894 2596
106 -892 2590
113 -892 2590
121 -892 2589
128 -888 2579
136 -887 2573
144 -890 2582
151 -887 2574
159 -885 2568
167 -887 2573
174 -885 2567
183 -888 2575
189 -884 2562
196 -881 2551
204 -882 2554
212 -884 2559
220 -883 2556
227 -881 2551
234 -878 2540
242 -878 2540
249 -877 2537
256 -875 2530
264 -878 2538
271 -876 2530
279 -875 2526
286 -873 2521
293 -873 2520
300 -871 2514
307 -870 2510
316 -872 2514
323 -873 2514
330 -871 2509
337 -869 2501
346 -873 2512
352 -868 2498
360 -871 2503
368 -870 2501
375 -869 2498
382 -869 2494
389 -868 2491
396 -866 2483
404 -866 2485
411 -867 2484
418 -865 2477
424 -862 2469
432 -862 2467
440 -864 2471
447 -864 2469
454 -862 2464
461 -861 2458
469 -863 2463
476 -861 2456
484 -862 2456
490 -860 2451
499 -862 2453
504 -857 2440
512 -860 2445
520 -860 2446
527 -859 2439
534 -858 2436
540 -857 2431
547 -855 2426
555 -856 2425
562 -856 2424
570 -857 2424
577 -857 2423
584 -855 2417
590 -853 2410
598 -855 2413
606 -856 2414
613 -854 2407
620 -854 2404
629 -856 2409
635 -854 2402
642 -854 2400
648 -853 2393
656 -853 2393
662 -852 2387
671 -853 2390
676 -851 2381
684 -851 2379
691 -851 2377
698 -850 2373
706 -851 2374
712 -850 2368
721 -852 2371
726 -849 2361
733 -848 2356
742 -850 2360
750 -851 2361
756 -850 2355
766 -852 2359
772 -851 2352
777 -848 2344
784 -848 2340
792 -849 2340
797 -847 2333
807 -850 2339
813 -848 2332
820 -848 2329
829 -850 2331
836 -849 2326
841 -847 2319
847 -846 2313
857 -848 2317
863 -846 2309
871 -848 2311
881 -850 2314
884 -846 2299
893 -847 2302
901 -849 2303
907 -847 2296
917 -849 2299
923 -848 2293
929 -847 2288
939 -850 2292
944 -848 2284
955 -851 2289
957 -846 2274
966 -847 2274
973 -848 2271
979 -846 2265
987 -847 2263
992 -845 2256
1001 -847 2256
1007 -846 2251
1014 -846 2248
1024 -847 2249
1022 -840 2226
1040 -848 2246
1047 -849 2244
1052 -847 2236
1060 -847 2232
1067 -847 2228
1068 -842 2213
1039 -814 2136
947 -736 1928
896 -692 1810
897 -688 1796
903 -688 1795
908 -687 1789
913 -687 1785
919 -686 1782
927 -688 1783
930 -686 1775
934 -685 1768
939 -684 1764
951 -688 1773
959 -690 1774
954 -682 1751
961 -683 1750
963 -681 1740
972 -683 1743
987 -689 1755
984 -683 1737
991 -683 1735
995 -683 1730
1002 -683 1728
1003 -680 1718
1020 -687 1733
1012 -678 1707
-2065 -1303 3363
-2042 -1296 3350
-2032 -1297 3359
-2009 -1289 3345
-1974 -1274 3312
-1945 -1263 3288
-1923 -1256 3275
-1901 -1249 3263
-1881 -1243 3253
-1868 -1242 3256
-1852 -1239 3253
-1831 -1232 3241
-1813 -1227 3232
-1807 -1231 3247
-1778 -1219 3220
-1771 -1221 3231
-1744 -1210 3208
-1736 -1212 3218
-1710 -1201 3195
-1707 -1207 3213
-1691 -1203 3208
-1679 -1202 3212
-1662 -1198 3203
-1646 -1194 3199
-1632 -1191 3196
-1618 -1189 3194
-1603 -1186 3190
-1585 -1180 3179
-1569 -1176 3173
-1554 -1173 3168
-1537 -1168 3160
-1519 -1162 3149
-1501 -1156 3136
-1483 -1150 3125
-1464 -1144 3110
-1447 -1138 3100
-1434 -1136 3097
-1425 -1137 3105
-1409 -1132 3095
-1394 -1128 3088
-1378 -1123 3079
-1366 -1122 3079
-1356 -1122 3081
-1335 -1112 3059
-1326 -1114 3067
-1311 -1109 3058
-1299 -1107 3056
-1287 -1106 3055
-1272 -1101 3047
-1261 -1100 3047
-1247 -1096 3039
-1233 -1093 3034
-1220 -1090 3028
-1210 -1090 3031
-1195 -1085 3021
-1186 -1085 3025
-1175 -1084 3026
-1160 -1079 3014
-1147 -1076 3008
-1124 -1063 2975
-1054 -1005 2816
-962 -926 2595
-876 -850 2386
-1000 -979 2750
-1064 -1051 2954
-1065 -1061 2986
-1056 -1061 2990
-1047 -1062 2995
-1031 -1056 2979
-1020 -1054 2978
-1007 -1050 2968
-995 -1047 2962
-984 -1045 2960
-970 -1041 2950
-963 -1042 2957
-950 -1039 2950
-936 -1034 2937
-931 -1038 2952
-915 -1031 2934
-903 -1027 2925
-894 -1028 2930
-880 -1021 2913
-872 -1024 2921
-861 -1022 2918
-851 -1020 2915
-841 -1019 2915
-832 -1019 2916
-820 -1015 2908
-811 -1016 2911
-798 -1010 2896
-789 -1010 2898
-780 -1011 2902
-768 -1006 2891
-757 -1003 2884
-746 -1001 2881
-735 -998 2873
-726 -998 2875
-714 -993 2861
-706 -995 2869
-695 -992 2862
-685 -990 2857
-679 -993 2868
-665 -986 2851
-656 -986 2850
-647 -985 2849
-636 -981 2840
-625 -978 2833
-616 -977 2831
-609 -980 2842
-598 -976 2831
-588 -975 2828
-580 -975 2830
-568 -970 2816
-559 -969 2815
-551 -971 2822
-542 -969 2816
-532 -968 2815
-522 -964 2806
-513 -964 2805
-505 -964 2807
-495 -961 2800
-486 -960 2798
-476 -957 2791
-466 -954 2781
-457 -954 2784
-449 -955 2788
-439 -952 2779
-430 -950 2774
-420 -947 2766
-413 -948 2771
-403 -946 2765
-394 -943 2757
-386 -944 2761
-377 -943 2760
-367 -940 2749
-359 -939 2749
-349 -936 2739
-341 -937 2744
-333 -936 2740
-324 -936 2741
-316 -936 2742
-307 -935 2739
-297 -929 2723
-289 -930 2726
-281 -930 2727
-272 -925 2713
-265 -929 2725
-255 -926 2717
-248 -927 2720
-239 -926 2718
-230 -922 2707
-222 -921 2704
-214 -922 2706
-204 -916 2689
-196 -916 2691
-189 -919 2700
-180 -916 2689
-172 -916 2691
-163 -914 2685
-155 -912 2681
-147 -913 2682
-139 -911 2677
-130 -909 2671
-122 -906 2661
-114 -903 2654
-106 -909 2670
-98 -907 2666
-90 -905 2659
-82 -906 2662
-74 -904 2658
-66 -904 2658
-58 -897 2637
-50 -903 2653
-42 -900 2645
-34 -899 2641
-26 -898 2640
-18 -897 2635
-10 -894 2627
-2 -895 2631
5 -893 2622
12 -893 2622
20 -890 2613
28 -892 2620
36 -890 2613
44 -892 2619
52 -890 2612
59 -890 2611
67 -887 2602
75 -885 2597
83 -887 2602
90 -886 2599
98 -884 2593
106 -885 2594
113 -883 2590
121 -885 2593
128 -881 2582
136 -878 2573
143 -877 2571
151 -880 2576
159 -880 2576
166 -877 2567
174 -876 2564
182 -876 2564
189 -873 2554
196 -873 2554
204 -875 2558
213 -878 2566
219 -872 2550
226 -871 2545
234 -870 2541
241 -869 2537
249 -869 2537
257 -870 2540
263 -867 2529
271 -867 2528
278 -865 2522
286 -868 2530
294 -867 2527
300 -864 2516
307 -863 2511
315 -863 2511
323 -863 2510
331 -864 2513
338 -862 2506
346 -864 2510
352 -861 2500
359 -858 2492
367 -861 2500
375 -861 2497
383 -863 2502
390 -860 2494
395 -856 2478
403 -857 2480
410 -857 2479
418 -857 2480
425 -855 2473
432 -855 2470
439 -853 2464
445 -852 2459
454 -855 2466
461 -854 2463
468 -852 2455
476 -854 2461
483 -852 2453
490 -852 2451
495 -848 2439
504 -850 2443
510 -849 2437
518 -849 2437
526 -849 2436
534 -851 2440
541 -851 2438
547 -848 2427
553 -847 2422
561 -847 2423
570 -850 2429
575 -846 2415
584 -848 2420
591 -847 2415
599 -848 2417
606 -848 2415
613 -848 2411
619 -845 2402
627 -847 2405
634 -845 2400
641 -845 2397
647 -844 2392
654 -843 2388
662 -844 2387
669 -843 2383
677 -844 2383
683 -843 2379
690 -842 2376
698 -843 2376
704 -841 2369
711 -841 2366
718 -840 2361
725 -840 2359
732 -840 2358
741 -841 2359
749 -842 2359
757 -843 2359
764 -843 2357
769 -841 2348
776 -840 2343
783 -840 2340
793 -842 2345
800 -843 2344
806 -840 2335
812 -840 2331
819 -839 2328
827 -840 2327
837 -843 2333
841 -839 2319
849 -840 2319
855 -839 2315
865 -841 2318
872 -841 2316
878 -840 2310
884 -839 2303
894 -841 2306
898 -838 2297
904 -837 2291
917 -842 2302
918 -836 2283
931 -842 2295
937 -841 2289
942 -838 2279
953 -841 2286
961 -842 2286
963 -838 2271
974 -841 2275
980 -840 2269
983 -837 2258
996 -841 2266
1002 -840 2261
1006 -837 2250
1022 -845 2267
1031 -846 2269
1023 -833 2230
1037 -839 2243
1046 -840 2243
1054 -841 2242
1060 -840 2235
1066 -839 2230
1071 -838 2223
1047 -813 2153
976 -753 1991
907 -694 1833
893 -679 1791
896 -677 1783
905 -679 1786
907 -676 1775
927 -687 1800
935 -688 1802
921 -674 1761
938 -682 1778
945 -683 1778
948 -681 1770
951 -678 1760
953 -676 1751
972 -685 1772
968 -678 1752
984 -685 1765
980 -678 1746
988 -680 1747
990 -677 1736
991 -674 1725
1003 -678 1732
1003 -674 1719
1013 -677 1722
1021 -678 1724
-2046 -1279 3335
-2047 -1287 3362
-2018 -1276 3339
-2004 -1275 3341
-1978 -1266 3323
-1941 -1249 3285
-1913 -1238 3262
-1906 -1241 3275
-1886 -1236 3266
-1866 -1229 3255
-1849 -1226 3251
-1828 -1219 3239
-1809 -1214 3230
-1793 -1210 3225
-1772 -1203 3212
-1755 -1199 3206
-1747 -1201 3216
-1728 -1196 3206
-1715 -1194 3208
-1701 -1192 3206
-1692 -1193 3215
-1674 -1188 3206
-1661 -1187 3206
-1648 -1185 3206
-1635 -1183 3206
-1624 -1183 3209
-1596 -1171 3181
-1583 -1168 3180
-1564 -1162 3166
-1550 -1159 3164
-1540 -1160 3169
-1515 -1149 3144
-1498 -1143 3133
-1490 -1146 3143
-1461 -1131 3108
-1446 -1127 3101
-1431 -1124 3095
-1418 -1121 3093
