VERSION 0.7
FIELDS x y z
SIZE 4 4 4
TYPE I I I
COUNT 1 1 1
WIDTH 3593
HEIGHT 1
VIEWPOINT 0.0 0.0 0.0 1.0 0.0 0.0 0.0
POINTS 3593
DATA ascii
241 -236 1105
229 -220 1032
223 -212 992
257 -241 1127
228 -211 985
192 -174 815
137 -121 568
148 -130 607
166 -145 676
109 -93 434
124 -105 490
112 -93 434
147 -122 567
0 0 0
0 0 0
95 -74 348
48 -35 168
30 -20 97
18 -10 52
31 -20 98
0 0 0
0 0 0
0 0 0
0 0 0
0 0 0
0 0 0
0 0 0
0 0 0
0 0 0
0 0 0
0 0 0
0 0 0
0 0 0
0 0 0
0 0 0
0 0 0
0 0 0
0 0 0
0 0 0
0 0 0
0 0 0
1021 -648 2933
0 0 0
0 0 0
0 0 0
0 0 0
0 0 0
1052 -635 2856
1066 -638 2867
1068 -634 2846
1081 -636 2853
1089 -636 2849
1089 -631 2824
1091 -627 2802
1100 -628 2801
1102 -624 2780
1091 -613 2729
1096 -611 2717
1094 -605 2688
1094 -601 2665
1075 -586 2595
1094 -592 2619
1090 -585 2587
1061 -565 2495
1090 -577 2543
1045 -549 2417
1116 -582 2559
1097 -568 2495
1080 -555 2436
1102 -563 2465
1087 -551 2411
1096 -552 2411
1110 -555 2422
1113 -553 2410
1112 -549 2387
1126 -552 2397
1116 -543 2358
1111 -537 2329
1122 -539 2332
1121 -535 2311
1119 -531 2289
1117 -526 2267
1130 -529 2275
1122 -522 2241
1109 -513 2198
1112 -511 2186
1113 -508 2172
1111 -504 2151
1121 -505 2154
1127 -505 2148
1126 -501 2129
1121 -496 2104
1127 -496 2100
1128 -493 2086
1126 -489 2066
1113 -481 2027
1127 -484 2036
1128 -482 2024
1126 -478 2005
1119 -472 1977
1120 -470 1963
-491 -191 834
-489 -191 836
-487 -191 839
-479 -189 833
-479 -191 839
-474 -190 836
-472 -190 839
-465 -188 832
-463 -188 834
-465 -190 845
-469 -193 858
-467 -193 861
-481 -201 893
-454 -191 850
-547 -231 1031
-984 -419 1871
-1083 -464 2073
-1076 -464 2076
-1072 -465 2084
-1059 -462 2076
-1057 -464 2088
-1046 -462 2081
-1039 -462 2084
-1030 -461 2082
-1023 -461 2084
-1012 -459 2078
-1001 -458 2073
-997 -459 2081
-985 -456 2073
-982 -458 2082
-961 -451 2055
-959 -453 2067
-959 -456 2083
-952 -456 2084
-945 -456 2088
-933 -453 2077
-903 -442 2028
-896 -442 2027
-897 -445 2047
-886 -444 2040
-889 -448 2063
-878 -446 2055
-871 -445 2056
-860 -443 2047
-838 -435 2012
-847 -443 2051
-840 -443 2053
-834 -443 2055
-820 -439 2039
-810 -437 2030
-796 -433 2013
-791 -434 2020
-780 -431 2009
-773 -430 2008
-758 -426 1989
-751 -426 1989
-767 -438 2049
-748 -431 2016
-749 -435 2038
-747 -437 2051
-734 -434 2035
-736 -439 2060
-733 -441 2072
-708 -429 2019
-713 -436 2053
-707 -436 2055
-707 -440 2076
-700 -440 2074
-687 -436 2057
-683 -437 2066
-675 -436 2061
-662 -432 2043
-667 -439 2078
-661 -440 2083
-645 -433 2052
-637 -432 2050
-631 -432 2052
-634 -438 2083
-625 -436 2075
-616 -434 2067
-607 -433 2059
-597 -430 2048
-592 -431 2053
-583 -428 2044
-586 -436 2079
-577 -433 2069
-569 -432 2065
-568 -436 2085
-563 -438 2093
-558 -438 2098
-549 -436 2090
-540 -434 2080
-534 -434 2080
-532 -438 2098
-521 -434 2083
-515 -434 2084
-512 -436 2096
-505 -436 2097
-498 -436 2096
-490 -434 2087
-493 -442 2127
-524 -476 2290
-651 -599 2884
-680 -634 3052
-665 -629 3028
-663 -635 3062
-661 -642 3096
-652 -642 3097
-644 -644 3108
-647 -656 3166
-626 -644 3108
-620 -648 3127
-617 -654 3161
-612 -659 3186
-603 -660 3189
-600 -667 3227
-588 -664 3210
-575 -660 3192
-568 -663 3208
-558 -663 3209
-556 -671 3250
-545 -669 3243
-534 -668 3235
-526 -670 3246
-514 -666 3230
-502 -664 3218
-493 -664 3222
-484 -665 3228
-476 -667 3235
-466 -667 3237
-456 -666 3231
-449 -670 3253
-436 -665 3229
-428 -666 3236
-419 -667 3240
-409 -667 3242
-399 -666 3238
-392 -670 3255
-380 -666 3239
-371 -668 3246
-363 -669 3255
-354 -671 3262
-343 -668 3249
-333 -667 3245
-324 -667 3246
-312 -663 3227
-304 -667 3244
-294 -666 3241
-285 -666 3241
-276 -666 3243
-265 -663 3225
-258 -669 3258
-249 -672 3273
0 0 0
0 0 0
0 0 0
0 0 0
0 0 0
0 0 0
-36 -141 688
-30 -126 618
-21 -97 474
0 0 0
0 0 0
0 0 0
0 0 0
-41 -251 1223
-38 -252 1227
-36 -268 1305
-35 -282 1375
-29 -273 1329
-24 -259 1262
-21 -261 1272
-17 -268 1305
-14 -278 1354
-9 -253 1231
-6 -268 1306
-2 -276 1343
1 -272 1326
5 -273 1331
8 -272 1324
12 -252 1228
17 -284 1381
20 -273 1331
22 -253 1232
27 -264 1287
31 -265 1291
36 -272 1326
38 -264 1287
43 -272 1325
47 -268 1305
54 -289 1404
56 -278 1353
60 -277 1348
62 -269 1306
63 -259 1256
70 -270 1314
72 -262 1275
79 -274 1331
83 -275 1337
87 -275 1337
90 -273 1324
91 -265 1286
103 -288 1396
104 -281 1362
105 -272 1317
109 -273 1324
114 -276 1339
0 0 0
0 0 0
0 0 0
383 -827 3991
0 0 0
0 0 0
369 -730 3522
0 0 0
0 0 0
354 -646 3113
369 -655 3157
372 -645 3105
382 -646 3111
391 -647 3114
404 -653 3141
387 -611 2941
0 0 0
396 -598 2876
407 -603 2897
403 -584 2804
393 -558 2681
394 -549 2634
384 -524 2512
380 -508 2436
376 -494 2366
375 -484 2318
376 -476 2279
402 -500 2393
427 -522 2498
443 -533 2549
439 -520 2484
434 -505 2412
413 -473 2259
396 -446 2130
382 -423 2017
386 -421 2006
385 -414 1972
394 -417 1984
377 -393 1870
378 -388 1845
365 -369 1756
347 -346 1646
292 -286 1360
262 -253 1203
221 -210 996
237 -222 1056
213 -196 933
156 -141 668
121 -107 508
108 -94 446
0 0 0
160 -138 652
0 0 0
171 -143 679
0 0 0
147 -120 567
83 -65 310
142 -113 535
56 -42 201
56 -42 199
21 -13 63
29 -19 92
21 -12 61
0 0 0
0 0 0
0 0 0
0 0 0
0 0 0
0 0 0
0 0 0
0 0 0
0 0 0
0 0 0
0 0 0
0 0 0
0 0 0
0 0 0
0 0 0
0 0 0
0 0 0
0 0 0
0 0 0
0 0 0
0 0 0
0 0 0
0 0 0
0 0 0
0 0 0
0 0 0
0 0 0
1035 -616 2810
1059 -625 2849
1072 -628 2857
1079 -627 2850
1089 -627 2851
1095 -626 2840
1094 -621 2813
1093 -615 2783
1082 -604 2732
1071 -593 2680
1093 -600 2710
1059 -578 2603
1002 -542 2440
1011 -543 2441
1077 -574 2579
1092 -578 2592
1076 -565 2533
1064 -555 2483
1104 -572 2555
1114 -573 2556
1099 -561 2501
1088 -552 2456
1093 -550 2446
1104 -552 2450
1115 -554 2454
1106 -546 2416
1115 -546 2415
1097 -534 2357
1119 -541 2384
1126 -540 2379
1126 -537 2361
1114 -528 2317
1120 -527 2310
1119 -523 2290
1130 -525 2295
1127 -520 2271
1118 -513 2235
1102 -502 2185
1108 -502 2180
1106 -498 2160
1112 -497 2153
1119 -497 2150
1127 -498 2149
1117 -491 2115
1123 -490 2109
1128 -490 2103
1127 -486 2085
1126 -483 2067
1126 -480 2051
1094 -463 1978
1109 -467 1990
1115 -467 1986
1129 -470 1997
1112 -460 1950
-492 -188 836
-491 -189 841
-489 -189 843
-487 -190 847
-481 -189 843
-480 -189 847
-472 -187 839
-476 -190 853
-462 -185 834
-461 -186 838
-469 -190 859
-470 -192 868
-481 -198 895
-485 -201 909
-563 -234 1062
-1010 -424 1921
-1084 -457 2076
-1081 -459 2087
-1069 -457 2080
-1059 -456 2077
-1051 -455 2078
-1043 -454 2077
-1039 -456 2086
-1025 -453 2074
-1020 -454 2081
-1014 -454 2084
-1004 -452 2080
-994 -451 2075
-988 -451 2079
-969 -446 2057
-962 -445 2058
-962 -448 2075
-961 -451 2090
-953 -450 2089
-947 -451 2093
-928 -444 2066
-919 -443 2064
-906 -440 2052
-891 -436 2034
-883 -436 2035
-890 -442 2068
-881 -441 2063
-860 -434 2032
-855 -434 2038
-843 -432 2026
-843 -435 2044
-844 -438 2062
-833 -436 2054
-818 -432 2035
-802 -426 2012
-787 -422 1993
-803 -434 2051
-787 -429 2029
-773 -424 2010
-755 -418 1983
-755 -421 1999
-766 -431 2048
-745 -423 2009
-754 -432 2053
-737 -425 2024
-715 -417 1985
-735 -432 2059
-723 -428 2044
-712 -425 2032
-712 -429 2053
-713 -434 2075
-706 -433 2073
-690 -427 2046
-690 -431 2066
-681 -429 2060
-674 -429 2060
-661 -425 2043
-660 -428 2059
-654 -429 2062
-650 -430 2069
-639 -427 2056
-631 -425 2051
-628 -428 2065
-623 -429 2069
-622 -432 2089
-607 -426 2060
-596 -423 2047
-593 -425 2057
-585 -424 2053
-583 -427 2071
-579 -428 2077
-575 -431 2088
-572 -433 2103
-560 -429 2082
-554 -429 2084
-547 -429 2084
-541 -428 2084
-535 -428 2085
-532 -431 2100
-525 -430 2097
-517 -430 2094
-510 -429 2090
-505 -430 2096
-501 -432 2109
-492 -429 2096
-494 -437 2136
-539 -483 2359
-673 -611 2983
-688 -632 3090
-679 -633 3094
-674 -637 3115
-666 -638 3121
-657 -638 3125
-649 -639 3131
-647 -647 3170
-637 -647 3169
-627 -646 3164
-618 -646 3168
-614 -652 3196
-602 -649 3184
-597 -654 3210
-587 -654 3209
-576 -652 3204
-567 -653 3207
-559 -655 3217
-552 -657 3229
-541 -656 3224
-532 -656 3228
-523 -656 3229
-514 -658 3237
-501 -653 3216
-492 -654 3217
-484 -655 3226
-473 -654 3220
-464 -654 3219
-456 -656 3231
-447 -657 3238
-435 -654 3223
-426 -655 3228
-416 -653 3219
-409 -657 3239
-399 -656 3235
-388 -654 3228
-380 -657 3242
-370 -655 3234
-361 -656 3238
-349 -653 3222
-342 -656 3238
-332 -656 3238
-323 -656 3239
-313 -657 3241
-303 -654 3231
-294 -655 3235
-284 -655 3233
-275 -655 3236
-266 -656 3242
-257 -658 3252
-252 -670 3308
0 0 0
0 0 0
0 0 0
0 0 0
0 0 0
-41 -149 741
-27 -108 537
-24 -103 512
0 0 0
0 0 0
0 0 0
0 0 0
0 0 0
-45 -272 1344
-39 -256 1270
-36 -258 1277
-32 -260 1289
-27 -253 1252
-23 -250 1235
-21 -266 1315
-17 -256 1265
-14 -267 1322
-10 -270 1334
-6 -259 1280
-2 -263 1303
1 -253 1251
5 -267 1320
8 -262 1294
12 -265 1311
16 -274 1352
19 -259 1280
25 -280 1385
28 -275 1358
31 -258 1276
35 -266 1313
41 -279 1379
40 -249 1230
46 -264 1304
50 -265 1306
52 -255 1259
58 -264 1301
60 -257 1269
65 -261 1287
70 -267 1318
77 -280 1379
79 -273 1347
79 -259 1275
86 -268 1320
89 -266 1308
94 -271 1334
99 -274 1349
104 -275 1355
105 -269 1324
107 -264 1297
106 -251 1233
0 0 0
0 0 0
374 -821 4026
365 -778 3812
0 0 0
367 -735 3600
362 -705 3450
379 -719 3521
353 -651 3185
369 -663 3244
351 -615 3008
373 -637 3113
378 -630 3077
391 -638 3115
405 -645 3151
388 -604 2950
0 0 0
375 -559 2727
409 -596 2906
426 -609 2969
432 -606 2950
443 -608 2960
447 -603 2933
461 -610 2965
461 -598 2906
469 -597 2902
471 -589 2860
490 -602 2924
502 -606 2942
515 -612 2967
517 -604 2930
518 -595 2884
491 -554 2685
477 -530 2567
453 -496 2399
472 -508 2458
520 -552 2669
491 -513 2479
454 -467 2255
380 -385 1858
396 -396 1909
377 -371 1788
367 -356 1717
312 -298 1435
273 -256 1236
225 -208 1002
219 -199 960
152 -135 651
121 -105 508
98 -83 402
129 -110 531
160 -136 653
90 -74 357
0 0 0
0 0 0
0 0 0
140 -111 534
0 0 0
100 -77 368
16 -9 45
32 -21 103
12 -5 29
57 -40 193
0 0 0
0 0 0
0 0 0
0 0 0
0 0 0
0 0 0
0 0 0
0 0 0
0 0 0
0 0 0
0 0 0
0 0 0
0 0 0
0 0 0
0 0 0
0 0 0
0 0 0
0 0 0
0 0 0
0 0 0
0 0 0
0 0 0
0 0 0
0 0 0
0 0 0
0 0 0
0 0 0
1052 -617 2859
1059 -616 2851
1074 -620 2865
1083 -620 2861
1077 -612 2820
1095 -617 2842
1081 -604 2781
1071 -594 2730
1059 -583 2675
1065 -581 2665
1099 -595 2727
1050 -564 2582
1077 -575 2626
1068 -566 2582
1054 -554 2525
1116 -583 2652
1090 -565 2567
1090 -561 2546
1092 -558 2529
1093 -554 2511
1101 -554 2508
1102 -551 2488
1108 -550 2482
1116 -550 2479
1112 -545 2450
1117 -543 2440
1114 -538 2415
1112 -533 2390
1129 -538 2408
1122 -531 2373
1115 -524 2339
1116 -521 2322
1112 -516 2296
1125 -518 2303
1103 -505 2242
1108 -504 2234
1106 -500 2211
1118 -502 2218
1106 -494 2177
1107 -491 2162
1114 -491 2159
1120 -491 2155
1120 -488 2137
1122 -486 2125
1126 -484 2116
1118 -478 2086
1117 -475 2067
1116 -472 2050
1118 -470 2038
1115 -466 2018
1136 -472 2041
1124 -464 2003
1145 -470 2026
1132 -462 1988
-496 -187 843
-484 -184 829
-477 -182 823
-471 -181 819
-475 -183 832
-470 -183 830
-469 -183 834
-465 -183 833
-457 -181 825
-472 -188 859
-472 -189 865
-468 -188 864
-489 -198 910
-469 -191 880
-577 -237 1090
-1038 -429 1975
-1082 -450 2076
-1076 -450 2078
-1070 -451 2084
-1058 -449 2077
-1053 -449 2083
-1044 -449 2082
-1033 -447 2076
-1027 -447 2079
-1021 -447 2083
-1009 -445 2076
-1007 -447 2088
-990 -443 2070
-981 -441 2066
-972 -440 2064
-957 -436 2048
-966 -444 2085
-958 -443 2084
-949 -442 2081
-938 -440 2075
-930 -439 2073
-916 -436 2060
-896 -429 2032
-885 -427 2024
-884 -429 2037
-881 -431 2049
-874 -431 2049
-874 -434 2066
-854 -428 2037
-837 -422 2013
-845 -429 2049
-831 -425 2033
-838 -432 2067
-823 -428 2049
-804 -421 2019
-791 -418 2004
-797 -425 2038
-780 -419 2013
-770 -417 2005
-766 -418 2011
-759 -417 2010
-754 -418 2018
-762 -426 2056
-760 -429 2070
-740 -421 2033
-719 -413 1997
-728 -421 2040
-720 -420 2036
-706 -416 2017
-711 -422 2050
-709 -425 2065
-703 -425 2068
-702 -428 2084
-691 -425 2071
-680 -423 2059
-663 -416 2028
-659 -417 2035
-663 -424 2071
-658 -425 2076
-650 -424 2071
-639 -421 2059
-633 -421 2061
-632 -425 2080
-623 -423 2072
-618 -423 2076
-610 -422 2071
-601 -420 2064
-594 -420 2065
-590 -421 2072
-583 -421 2072
-575 -420 2066
-571 -421 2074
-570 -425 2094
-563 -425 2095
-558 -426 2099
-545 -421 2077
-544 -425 2097
-537 -424 2096
-528 -422 2084
-521 -421 2082
-518 -424 2097
-511 -424 2097
-506 -425 2104
-497 -422 2092
-493 -425 2104
-495 -431 2139
-563 -497 2464
-687 -614 3046
-691 -626 3105
-687 -631 3134
-678 -632 3137
-671 -633 3145
-666 -637 3167
-661 -642 3191
-650 -640 3183
-641 -641 3186
-630 -639 3182
-618 -637 3169
-613 -641 3192
-607 -646 3216
-598 -646 3217
-589 -646 3221
-579 -646 3222
-569 -646 3219
-561 -647 3228
-552 -647 3229
-543 -648 3234
-532 -647 3230
-522 -646 3227
-514 -647 3233
-505 -648 3238
-494 -647 3231
-484 -646 3227
-475 -646 3231
-466 -648 3238
-456 -647 3235
-448 -649 3244
-436 -646 3231
-427 -646 3234
-418 -647 3240
-408 -647 3237
-399 -647 3239
-390 -648 3245
-380 -647 3241
-369 -645 3232
-360 -646 3237
-352 -648 3248
-342 -648 3246
-333 -648 3249
-322 -646 3239
-314 -649 3252
-304 -647 3243
-295 -648 3249
-285 -648 3247
-276 -648 3251
-266 -648 3248
-257 -648 3247
-251 -658 3301
0 0 0
0 0 0
0 0 0
0 0 0
-22 -78 395
-31 -112 566
-24 -96 485
-23 -98 495
-27 -116 584
0 0 0
0 0 0
0 0 0
0 0 0
-44 -262 1315
-40 -256 1285
-35 -252 1266
-28 -229 1149
-28 -256 1285
-24 -251 1262
-20 -251 1259
-17 -251 1262
-13 -255 1283
-9 -254 1275
-6 -260 1307
-2 -260 1308
1 -258 1293
5 -254 1277
8 -257 1291
12 -260 1303
16 -258 1293
21 -271 1360
22 -245 1227
29 -272 1364
30 -251 1257
35 -258 1293
39 -259 1300
42 -256 1281
45 -253 1268
49 -252 1261
53 -255 1280
55 -246 1234
60 -253 1269
69 -275 1376
72 -273 1364
76 -270 1352
78 -266 1329
82 -263 1315
84 -260 1300
90 -265 1322
91 -258 1289
104 -282 1408
100 -260 1300
104 -261 1302
110 -268 1338
110 -257 1283
0 0 0
0 0 0
376 -814 4052
369 -773 3846
375 -763 3794
0 0 0
0 0 0
0 0 0
380 -691 3433
376 -667 3310
376 -649 3223
385 -648 3214
382 -628 3113
388 -623 3089
396 -621 3079
375 -574 2846
370 -555 2750
386 -566 2804
412 -593 2934
428 -603 2982
437 -604 2985
444 -602 2973
458 -608 3003
469 -611 3017
469 -600 2961
484 -608 3001
492 -606 2989
500 -606 2984
509 -606 2985
522 -611 3009
524 -603 2969
529 -599 2946
518 -577 2839
498 -545 2679
426 -459 2254
482 -512 2513
556 -582 2854
563 -581 2849
556 -564 2766
408 -407 1997
395 -389 1905
387 -375 1836
385 -368 1799
320 -301 1472
279 -258 1263
223 -203 995
0 0 0
190 -168 820
165 -143 700
111 -94 461
138 -116 566
123 -102 498
101 -82 402
122 -99 483
0 0 0
0 0 0
0 0 0
124 -95 465
91 -68 332
55 -39 194
10 -4 23
43 -29 145
64 -44 218
0 0 0
0 0 0
0 0 0
0 0 0
0 0 0
0 0 0
0 0 0
0 0 0
0 0 0
0 0 0
0 0 0
0 0 0
0 0 0
0 0 0
0 0 0
0 0 0
0 0 0
0 0 0
0 0 0
0 0 0
0 0 0
0 0 0
0 0 0
0 0 0
0 0 0
0 0 0
0 0 0
1054 -610 2865
1067 -612 2874
1072 -610 2861
1066 -601 2817
1078 -603 2824
1078 -599 2798
1075 -592 2765
1072 -586 2734
1077 -584 2721
1053 -567 2637
1056 -564 2622
1060 -562 2609
1107 -582 2701
1099 -574 2658
1104 -572 2647
1091 -561 2593
1104 -564 2602
1091 -553 2550
1105 -556 2561
1107 -553 2543
1101 -546 2509
1112 -548 2512
1113 -544 2493
1103 -536 2451
1110 -536 2446
1117 -536 2443
1102 -525 2390
1118 -529 2405
1111 -522 2370
1103 -514 2333
1109 -514 2328
1103 -508 2297
1106 -506 2285
1110 -504 2274
1105 -499 2246
1103 -495 2224
1093 -487 2187
1110 -492 2204
1112 -490 2191
1114 -487 2177
1112 -483 2157
1113 -481 2143
1108 -476 2116
1120 -478 2123
1115 -473 2098
1108 -467 2069
1122 -470 2078
1128 -470 2073
1127 -467 2056
1127 -464 2040
1122 -459 2017
1131 -460 2018
1141 -462 2021
1137 -458 1998
-494 -183 840
-487 -182 834
-482 -181 833
-486 -184 846
-462 -176 810
-468 -179 826
-480 -185 855
-461 -178 826
-470 -183 848
-453 -177 824
-466 -184 854
-460 -182 849
-480 -191 893
-477 -191 894
-594 -240 1122
-1051 -428 2002
-1080 -443 2073
-1077 -444 2083
-1065 -442 2076
-1058 -442 2078
-1056 -444 2090
-1045 -442 2085
-1035 -441 2080
-1032 -442 2090
-1020 -440 2082
-1013 -440 2085
-997 -436 2068
-992 -436 2073
-973 -431 2051
-965 -431 2051
-965 -433 2067
-963 -435 2078
-964 -439 2098
-947 -434 2079
-940 -434 2080
-926 -431 2065
-908 -425 2042
-901 -425 2044
-891 -424 2039
-888 -425 2048
-882 -425 2050
-875 -425 2053
-863 -422 2041
-855 -422 2040
-847 -421 2039
-841 -421 2041
-846 -427 2071
-826 -420 2039
-812 -416 2023
-789 -408 1983
-799 -416 2025
-787 -413 2014
-794 -420 2050
-781 -416 2033
-763 -410 2004
-759 -411 2013
-756 -413 2022
-763 -421 2062
-753 -418 2053
-744 -417 2048
-724 -409 2011
-720 -410 2018
-716 -412 2027
-713 -413 2036
-713 -417 2057
-708 -418 2063
-705 -420 2072
-691 -415 2052
-691 -419 2072
-683 -418 2070
-672 -415 2057
-665 -415 2056
-662 -417 2067
-660 -420 2083
-652 -419 2080
-634 -411 2042
-632 -414 2058
-633 -418 2082
-627 -419 2085
-622 -420 2090
-607 -414 2063
-601 -414 2065
-594 -414 2064
-593 -417 2083
-580 -413 2061
-571 -411 2053
-576 -418 2092
-564 -415 2076
-556 -413 2070
-555 -417 2089
-548 -417 2089
-542 -417 2090
-535 -417 2090
-532 -419 2101
-522 -416 2088
-515 -415 2086
-508 -415 2085
-506 -418 2102
-497 -416 2093
-493 -418 2105
-498 -428 2153
-567 -493 2484
-683 -602 3032
-695 -621 3126
-686 -620 3127
-681 -624 3148
-673 -626 3159
-666 -629 3171
-659 -631 3184
-650 -631 3186
-641 -631 3188
-635 -635 3210
-622 -631 3192
-613 -632 3197
-606 -634 3209
-597 -635 3213
-591 -639 3235
-581 -638 3230
-569 -636 3222
-562 -639 3237
-552 -638 3232
-542 -638 3232
-533 -639 3239
-524 -639 3241
-513 -637 3232
-503 -637 3229
-495 -639 3242
-485 -637 3235
-475 -638 3238
-466 -638 3237
-457 -639 3245
-448 -640 3249
-437 -638 3239
-427 -637 3238
-421 -642 3263
-409 -639 3245
-401 -641 3259
-390 -639 3246
-381 -639 3249
-371 -639 3248
-362 -640 3253
-351 -637 3241
-343 -639 3252
-333 -638 3247
-323 -637 3242
-314 -640 3255
-304 -637 3243
-295 -639 3250
-286 -639 3254
-276 -639 3252
-266 -639 3253
-258 -642 3267
-255 -659 3356
0 0 0
0 0 0
-319 -929 4729
0 0 0
-31 -105 539
-31 -112 575
-29 -109 561
0 0 0
-24 -105 537
-27 -123 630
0 0 0
0 0 0
0 0 0
-42 -244 1245
-38 -240 1226
-35 -245 1251
-33 -261 1333
-29 -259 1321
-24 -248 1266
-22 -266 1355
-17 -250 1277
-14 -266 1357
-9 -252 1287
-6 -257 1311
-2 -254 1293
1 -257 1312
5 -253 1288
8 -258 1317
12 -251 1279
17 -269 1372
20 -264 1345
23 -248 1266
26 -241 1226
30 -246 1251
34 -250 1272
38 -252 1285
42 -255 1296
47 -259 1319
49 -249 1265
54 -255 1298
62 -273 1388
59 -244 1241
67 -263 1338
69 -254 1291
75 -262 1331
78 -262 1329
85 -272 1381
84 -255 1293
90 -262 1329
93 -260 1318
97 -259 1315
102 -263 1333
106 -264 1337
109 -259 1315
114 -263 1333
0 0 0
0 0 0
369 -787 3975
376 -777 3926
379 -759 3832
0 0 0
375 -710 3582
0 0 0
373 -669 3373
379 -661 3334
359 -610 3075
366 -608 3062
376 -609 3067
391 -619 3116
399 -617 3104
368 -556 2797
0 0 0
401 -581 2919
415 -587 2952
430 -597 2996
433 -589 2958
445 -594 2979
458 -600 3008
461 -592 2969
474 -597 2991
482 -597 2988
500 -607 3040
503 -600 3004
514 -603 3016
517 -597 2983
527 -597 2984
526 -586 2928
510 -560 2793
487 -526 2625
412 -437 2180
0 0 0
573 -592 2946
576 -586 2915
569 -570 2833
0 0 0
375 -364 1809
375 -358 1779
379 -357 1772
345 -320 1591
291 -266 1320
224 -201 999
221 -196 972
229 -200 991
205 -176 874
0 0 0
125 -103 514
115 -94 466
0 0 0
0 0 0
158 -125 619
0 0 0
74 -55 276
0 0 0
85 -63 312
19 -10 55
24 -14 74
62 -43 214
44 -29 147
0 0 0
0 0 0
0 0 0
0 0 0
0 0 0
0 0 0
0 0 0
0 0 0
0 0 0
0 0 0
0 0 0
0 0 0
0 0 0
0 0 0
0 0 0
0 0 0
0 0 0
0 0 0
0 0 0
0 0 0
0 0 0
0 0 0
0 0 0
0 0 0
0 0 0
0 0 0
0 0 0
1053 -600 2864
1060 -599 2856
1061 -595 2832
1074 -597 2842
1068 -589 2800
1079 -591 2803
1072 -582 2759
1070 -576 2730
1073 -573 2712
1089 -578 2730
1079 -568 2679
1078 -563 2654
1086 -563 2650
1089 -560 2634
1108 -566 2659
1084 -550 2579
1100 -554 2594
1099 -549 2570
1103 -547 2558
1095 -539 2517
1113 -544 2537
1100 -534 2488
1104 -532 2474
1097 -525 2438
1102 -524 2429
1115 -527 2438
1100 -516 2387
1101 -513 2369
1087 -503 2320
1126 -518 2385
1075 -491 2258
1088 -494 2267
1082 -487 2235
1095 -490 2246
1104 -491 2245
1103 -487 2225
1104 -485 2210
1083 -473 2152
1104 -479 2176
1113 -480 2177
1120 -480 2173
1116 -475 2148
1121 -475 2143
1122 -472 2127
1118 -468 2105
1137 -473 2123
1130 -467 2094
1123 -461 2066
1131 -462 2065
1139 -462 2064
1136 -458 2042
1145 -459 2043
1136 -453 2012
1145 -454 2012
-491 -180 836
-487 -179 835
-486 -180 840
-483 -180 841
-479 -179 840
-475 -179 840
-470 -178 836
-468 -178 839
-460 -176 832
-461 -178 840
-481 -187 882
-487 -190 901
-461 -181 860
-506 -200 951
-613 -244 1160
-1067 -428 2033
-1083 -437 2079
-1072 -435 2074
-1071 -438 2089
-1058 -435 2079
-1051 -435 2081
-1046 -436 2089
-1033 -433 2078
-1027 -434 2082
-1018 -433 2081
-1009 -432 2078
-998 -430 2071
-985 -427 2060
-978 -427 2063
-961 -422 2044
-957 -423 2051
-963 -429 2082
-957 -429 2084
-949 -429 2084
-940 -428 2081
-932 -427 2080
-911 -420 2050
-898 -417 2037
-889 -416 2034
-881 -415 2033
-873 -415 2032
-873 -418 2048
-859 -414 2034
-853 -414 2036
-847 -414 2039
-847 -418 2057
-834 -415 2043
-827 -414 2042
-816 -412 2034
-785 -399 1973
-781 -400 1980
-783 -405 2004
-792 -412 2044
-769 -404 2002
-755 -399 1984
-757 -404 2008
-759 -408 2031
-757 -411 2044
-761 -417 2076
-741 -409 2040
-730 -406 2029
-728 -409 2041
-715 -405 2024
-717 -410 2051
-716 -413 2067
-707 -411 2062
-707 -415 2081
-701 -415 2084
-689 -412 2067
-680 -410 2062
-664 -404 2034
-661 -406 2046
-665 -412 2077
-658 -412 2078
-646 -409 2061
-634 -405 2045
-633 -409 2063
-632 -412 2080
-622 -410 2071
-615 -409 2070
-602 -405 2048
-597 -406 2055
-593 -407 2063
-593 -411 2086
-578 -405 2055
-578 -410 2080
-572 -410 2082
-564 -408 2074
-560 -410 2087
-552 -409 2081
-551 -413 2100
-544 -412 2100
-535 -410 2090
-529 -410 2093
-526 -413 2106
-519 -412 2105
-512 -412 2102
-505 -411 2100
-496 -409 2092
-489 -409 2089
-500 -423 2165
-572 -490 2507
-691 -600 3067
-694 -610 3121
-689 -614 3143
-681 -615 3151
-671 -614 3148
-663 -617 3160
-661 -623 3192
-645 -617 3166
-641 -622 3191
-629 -620 3181
-623 -624 3201
-615 -625 3210
-606 -625 3211
-596 -624 3208
-588 -627 3221
-581 -629 3234
-569 -627 3223
-562 -629 3238
-552 -629 3237
-544 -631 3247
-534 -630 3242
-523 -628 3236
-514 -629 3242
-504 -628 3236
-494 -627 3233
-486 -629 3244
-475 -629 3240
-467 -629 3245
-457 -630 3248
-447 -629 3246
-438 -629 3245
-427 -628 3239
-418 -629 3244
-409 -630 3251
-399 -628 3241
-391 -631 3258
-380 -628 3241
-370 -628 3242
-361 -628 3244
-351 -628 3245
-342 -628 3243
-332 -628 3247
-323 -628 3245
-313 -629 3249
-304 -629 3250
-296 -631 3263
-284 -627 3241
-275 -628 3249
-267 -631 3261
-257 -631 3261
-257 -653 3377
0 0 0
-310 -853 4410
-299 -859 4439
-320 -960 4961
0 0 0
-29 -102 533
-16 -64 335
-21 -87 453
-25 -108 562
0 0 0
0 0 0
0 0 0
0 0 0
-41 -237 1226
-36 -230 1194
-36 -247 1280
-31 -241 1251
-27 -236 1222
-24 -245 1270
-19 -230 1193
-18 -257 1330
-14 -253 1311
-10 -260 1348
-6 -247 1280
-2 -239 1238
1 -246 1272
5 -248 1284
8 -251 1301
12 -251 1301
15 -237 1226
20 -255 1318
22 -236 1224
28 -260 1346
31 -250 1292
35 -249 1287
39 -254 1315
41 -241 1248
44 -240 1243
49 -246 1269
54 -253 1309
54 -235 1213
59 -239 1234
68 -261 1346
69 -249 1288
74 -254 1310
80 -263 1359
78 -243 1255
88 -263 1357
88 -252 1299
94 -259 1336
97 -257 1322
100 -254 1307
102 -249 1282
113 -267 1375
115 -261 1344
0 0 0
0 0 0
356 -746 3829
386 -786 4029
0 0 0
390 -748 3832
376 -701 3592
364 -661 3384
0 0 0
379 -652 3339
358 -600 3071
368 -601 3073
377 -602 3080
387 -603 3083
400 -609 3110
394 -587 2998
0 0 0
384 -547 2793
414 -578 2950
428 -585 2982
436 -584 2978
449 -590 3005
455 -586 2986
466 -589 2998
476 -591 3007
481 -586 2981
489 -585 2976
495 -582 2957
508 -587 2983
519 -589 2991
529 -591 2998
532 -584 2963
512 -554 2806
462 -491 2487
363 -378 1917
0 0 0
566 -575 2909
575 -575 2909
547 -539 2723
473 -459 2319
404 -385 1947
371 -349 1762
383 -356 1795
326 -298 1501
277 -249 1254
0 0 0
232 -202 1018
237 -204 1026
222 -189 950
164 -136 687
165 -135 682
0 0 0
121 -96 483
0 0 0
141 -109 550
0 0 0
126 -95 481
136 -102 513
64 -45 230
39 -26 135
17 -9 51
28 -17 88
18 -9 50
0 0 0
0 0 0
0 0 0
0 0 0
0 0 0
0 0 0
0 0 0
0 0 0
0 0 0
0 0 0
0 0 0
0 0 0
0 0 0
0 0 0
0 0 0
0 0 0
0 0 0
0 0 0
0 0 0
0 0 0
0 0 0
0 0 0
0 0 0
0 0 0
0 0 0
0 0 0
0 0 0
1043 -586 2838
1066 -594 2875
1074 -593 2868
1085 -594 2871
1072 -583 2811
1073 -578 2788
1089 -582 2804
1064 -565 2716
1091 -575 2761
1097 -573 2751
1086 -563 2698
1093 -562 2692
1097 -561 2680
1083 -549 2621
1089 -548 2613
1100 -550 2618
1113 -552 2625
1107 -545 2590
1093 -534 2536
1091 -530 2510
1095 -528 2497
1089 -521 2462
1095 -520 2457
1094 -516 2434
1104 -517 2435
1077 -501 2355
1086 -502 2356
1097 -504 2362
1078 -492 2302
1081 -489 2289
1101 -495 2313
1044 -467 2176
1084 -481 2241
1104 -487 2265
1105 -484 2249
1096 -478 2214
1092 -473 2187
1090 -469 2167
1108 -473 2185
1107 -470 2167
1113 -470 2162
1131 -474 2179
1127 -470 2155
1129 -468 2143
1131 -466 2130
1128 -462 2108
1126 -458 2088
1130 -457 2079
1137 -457 2076
1135 -454 2058
1131 -450 2035
1133 -448 2024
1140 -448 2020
1142 -446 2009
-498 -179 849
-479 -174 823
-481 -175 831
-473 -173 825
-479 -177 841
-470 -174 831
-463 -173 825
-469 -176 842
-461 -174 835
-461 -175 840
-484 -185 889
-468 -180 867
-490 -189 913
-475 -185 893
-642 -252 1215
-1070 -423 2041
-1082 -430 2080
-1076 -430 2083
-1068 -430 2084
-1060 -429 2084
-1049 -428 2080
-1045 -429 2087
-1035 -428 2084
-1026 -426 2081
-1021 -427 2087
-1011 -426 2083
-1002 -425 2081
-998 -426 2089
-985 -423 2078
-965 -417 2052
-955 -416 2049
-966 -424 2088
-954 -421 2079
-946 -421 2079
-938 -420 2079
-925 -417 2066
-909 -413 2047
-905 -414 2054
-893 -412 2045
-884 -410 2041
-882 -412 2053
-867 -409 2036
-860 -408 2036
-850 -407 2031
-850 -409 2047
-843 -409 2048
-841 -411 2060
-835 -412 2065
-816 -406 2035
-783 -392 1970
-775 -391 1967
-795 -404 2035
-783 -402 2023
-767 -397 1999
-770 -401 2025
-759 -399 2014
-751 -398 2011
-762 -407 2060
-746 -402 2036
-736 -400 2028
-727 -398 2021
-719 -398 2018
-717 -400 2031
-716 -403 2049
-710 -403 2049
-704 -403 2052
-698 -403 2056
-693 -404 2061
-693 -408 2081
-685 -407 2077
-665 -399 2038
-655 -397 2028
-660 -403 2065
-658 -406 2078
-645 -402 2059
-635 -400 2049
-632 -402 2061
-631 -405 2077
-619 -401 2061
-609 -399 2051
-605 -401 2060
-598 -400 2057
-595 -402 2069
-591 -404 2079
-582 -401 2069
-571 -399 2056
-575 -406 2094
-571 -407 2102
-562 -405 2093
-555 -404 2091
-550 -406 2098
-541 -404 2091
-537 -406 2100
-530 -405 2098
-519 -402 2081
-520 -407 2110
-514 -407 2111
-510 -409 2121
-495 -402 2089
-491 -404 2099
-498 -415 2157
-583 -492 2556
-691 -591 3071
-690 -598 3109
-685 -601 3128
-675 -601 3126
-674 -609 3167
-666 -609 3172
-657 -610 3179
-650 -612 3191
-638 -610 3180
-630 -611 3188
-620 -611 3188
-615 -616 3212
-609 -619 3229
-598 -617 3223
-588 -617 3220
-579 -617 3225
-570 -618 3228
-561 -619 3234
-552 -620 3239
-544 -621 3247
-535 -621 3249
-523 -619 3238
-515 -621 3248
-504 -620 3242
-494 -618 3236
-485 -619 3241
-476 -619 3244
-466 -619 3244
-457 -621 3251
-448 -620 3250
-437 -619 3244
-428 -620 3250
-418 -620 3248
-409 -619 3248
-399 -619 3244
-389 -618 3243
-381 -621 3257
-371 -620 3254
-360 -617 3239
-352 -619 3251
-342 -619 3248
-332 -618 3245
-323 -620 3256
-314 -621 3260
-304 -619 3248
-294 -618 3244
-284 -617 3240
-274 -617 3238
-265 -617 3238
-256 -618 3244
-255 -639 3354
0 0 0
-299 -810 4251
-294 -832 4368
-301 -889 4667
-20 -71 377
-25 -88 467
-24 -90 476
-8 -40 216
-21 -90 476
0 0 0
0 0 0
0 0 0
0 0 0
-40 -227 1194
-38 -236 1245
-32 -221 1165
-31 -236 1241
-27 -239 1256
-24 -245 1287
-21 -251 1323
-16 -232 1220
-13 -244 1284
-9 -241 1270
-5 -233 1228
-2 -244 1283
1 -233 1224
5 -256 1347
8 -242 1272
12 -244 1285
15 -234 1230
19 -238 1249
24 -248 1305
27 -248 1303
29 -230 1208
33 -230 1208
38 -244 1282
43 -252 1321
44 -235 1236
52 -257 1347
54 -246 1289
59 -253 1329
61 -247 1296
68 -256 1344
69 -247 1295
72 -244 1277
75 -241 1264
78 -240 1257
84 -247 1296
94 -265 1389
93 -252 1319
101 -263 1376
97 -241 1260
107 -257 1343
105 -242 1268
105 -236 1232
0 0 0
0 0 0
361 -747 3893
382 -766 3991
373 -725 3777
371 -701 3647
0 0 0
366 -654 3402
362 -629 3269
344 -582 3027
348 -575 2987
377 -606 3150
380 -597 3100
384 -590 3063
391 -586 3044
0 0 0
0 0 0
403 -565 2930
414 -568 2946
430 -579 2999
435 -575 2976
447 -578 2993
455 -577 2987
459 -572 2956
468 -572 2958
487 -584 3017
492 -580 2993
493 -570 2944
507 -577 2977
511 -572 2951
522 -575 2963
522 -565 2908
502 -534 2750
429 -449 2312
0 0 0
0 0 0
552 -552 2835
574 -566 2905
552 -536 2750
0 0 0
401 -377 1934
377 -350 1792
380 -347 1780
347 -312 1598
268 -237 1215
0 0 0
235 -202 1033
0 0 0
0 0 0
0 0 0
191 -155 794
0 0 0
135 -106 542
0 0 0
0 0 0
143 -108 554
0 0 0
57 -39 204
53 -36 187
24 -14 75
17 -9 51
1289 -940 4748
27 -16 86
0 0 0
0 0 0
0 0 0
0 0 0
0 0 0
0 0 0
0 0 0
0 0 0
0 0 0
0 0 0
0 0 0
0 0 0
0 0 0
0 0 0
0 0 0
0 0 0
0 0 0
0 0 0
0 0 0
0 0 0
0 0 0
0 0 0
0 0 0
0 0 0
0 0 0
0 0 0
0 0 0
1061 -587 2888
1061 -582 2862
1065 -579 2846
1074 -580 2843
1078 -577 2829
1089 -578 2831
1097 -578 2828
1087 -568 2775
1081 -561 2737
1090 -561 2734
1092 -558 2716
1107 -561 2729
1093 -550 2671
1093 -546 2648
1100 -546 2642
1105 -544 2631
1092 -533 2577
1098 -532 2570
1108 -534 2572
1092 -522 2514
1109 -526 2530
1095 -516 2478
1090 -510 2445
1106 -514 2461
1115 -515 2462
1097 -503 2402
1042 -474 2263
1103 -499 2376
1061 -477 2267
1050 -468 2224
1082 -480 2275
1054 -464 2197
1092 -478 2259
1095 -476 2247
1098 -474 2237
1110 -476 2243
1106 -471 2217
1091 -462 2171
1108 -467 2187
1109 -464 2172
1112 -462 2161
1119 -463 2158
1127 -463 2157
1127 -460 2140
1133 -460 2135
1132 -457 2117
1139 -457 2114
1134 -452 2088
1138 -451 2080
1132 -446 2053
1144 -448 2060
1139 -444 2035
1140 -441 2022
1140 -439 2007
-486 -172 830
-489 -174 840
-474 -170 821
-471 -170 821
-481 -174 845
-473 -173 838
-471 -173 840
-451 -167 811
-460 -171 833
-470 -176 857
-501 -188 920
-470 -178 871
-482 -183 899
-489 -187 919
-683 -264 1293
-1078 -419 2057
-1083 -424 2082
-1073 -423 2080
-1066 -422 2082
-1063 -424 2091
-1050 -421 2082
-1042 -421 2082
-1033 -420 2080
-1025 -420 2081
-1019 -420 2084
-1010 -419 2082
-1002 -418 2082
-994 -418 2082
-990 -419 2090
-966 -412 2057
-959 -411 2057
-962 -416 2081
-959 -417 2090
-949 -415 2086
-941 -415 2086
-918 -408 2052
-914 -409 2059
-908 -409 2063
-888 -403 2035
-882 -403 2037
-874 -402 2036
-869 -403 2043
-861 -402 2040
-845 -398 2019
-845 -401 2037
-839 -401 2041
-842 -406 2065
-831 -403 2055
-814 -398 2030
-790 -390 1989
-792 -394 2011
-791 -396 2026
-782 -395 2021
-766 -390 1999
-766 -393 2015
-751 -388 1994
-739 -386 1982
-749 -394 2025
-752 -399 2052
-730 -390 2011
-730 -394 2031
-713 -388 2003
-729 -400 2067
-717 -397 2053
-718 -401 2074
-710 -400 2071
-704 -400 2074
-696 -400 2071
-688 -398 2066
-689 -403 2091
-676 -399 2071
-662 -395 2052
-659 -396 2062
-661 -402 2090
-645 -396 2061
-636 -394 2053
-632 -395 2060
-628 -397 2071
-627 -400 2088
-614 -396 2068
-606 -394 2062
-599 -394 2062
-600 -399 2088
-596 -400 2096
-586 -398 2085
-570 -391 2051
-570 -396 2077
-568 -399 2094
-561 -399 2093
-553 -397 2087
-549 -399 2097
-542 -398 2092
-540 -401 2111
-528 -397 2089
-521 -397 2088
-517 -398 2099
-508 -396 2090
-503 -397 2093
-495 -396 2089
-494 -400 2111
-501 -411 2168
-592 -492 2596
-689 -580 3061
-697 -594 3140
-686 -593 3135
-676 -593 3134
-672 -597 3158
-667 -602 3182
-658 -601 3181
-649 -602 3188
-640 -602 3189
-630 -602 3187
-618 -600 3178
-614 -604 3204
-606 -606 3215
-596 -605 3211
-587 -606 3217
-581 -610 3236
-568 -606 3218
-559 -607 3223
-552 -609 3237
-542 -609 3235
-533 -610 3239
-523 -609 3236
-513 -609 3237
-504 -609 3238
-494 -609 3237
-484 -608 3234
-475 -609 3240
-466 -610 3244
-456 -609 3244
-446 -609 3240
-436 -608 3236
-429 -612 3257
-418 -610 3248
-408 -608 3241
-398 -608 3241
-389 -608 3242
-380 -610 3251
-370 -609 3246
-361 -609 3247
-352 -610 3253
-341 -609 3247
-332 -609 3249
-323 -610 3256
-313 -608 3245
-304 -609 3250
-295 -611 3257
-285 -610 3252
-275 -610 3254
-265 -609 3248
-259 -615 3283
-264 -651 3471
-265 -680 3629
-278 -743 3962
-289 -804 4287
-301 -875 4669
-7 -30 168
-25 -88 474
-8 -36 197
-22 -88 476
-28 -116 623
0 0 0
0 0 0
0 0 0
0 0 0
-38 -214 1145
-39 -241 1287
-34 -228 1220
-31 -233 1246
-27 -231 1236
-25 -246 1313
-21 -243 1298
-17 -246 1313
-13 -240 1283
-9 -230 1232
-6 -245 1309
-2 -234 1253
1 -234 1248
5 -239 1276
9 -246 1315
12 -238 1273
16 -241 1289
19 -235 1253
25 -259 1383
27 -237 1264
31 -244 1301
35 -247 1318
37 -231 1231
44 -252 1346
44 -229 1223
52 -254 1354
53 -238 1268
58 -244 1299
60 -237 1265
63 -235 1254
67 -237 1264
73 -245 1306
81 -259 1381
86 -260 1386
85 -247 1315
89 -248 1319
96 -256 1359
99 -252 1338
98 -241 1280
107 -254 1350
109 -248 1319
105 -231 1226
0 0 0
0 0 0
389 -792 4193
0 0 0
389 -745 3939
0 0 0
0 0 0
0 0 0
371 -634 3351
373 -621 3281
366 -594 3138
375 -594 3136
377 -583 3078
385 -581 3066
395 -583 3076
0 0 0
344 -485 2559
397 -548 2887
412 -557 2933
422 -559 2944
440 -572 3006
438 -559 2937
446 -557 2928
462 -567 2976
468 -563 2958
475 -561 2943
493 -572 3003
501 -571 2996
510 -572 2995
523 -577 3020
529 -574 3003
522 -557 2912
490 -513 2684
0 0 0
0 0 0
0 0 0
567 -559 2917
554 -538 2807
558 -534 2784
0 0 0
400 -371 1931
375 -342 1784
382 -344 1789
321 -284 1479
277 -241 1256
211 -180 938
234 -198 1030
251 -209 1089
212 -174 905
0 0 0
152 -120 627
0 0 0
112 -85 445
0 0 0
126 -94 491
0 0 0
72 -51 268
0 0 0
0 0 0
51 -34 180
1285 -933 4791
24 -14 74
27 -16 85
66 -43 225
0 0 0
0 0 0
0 0 0
0 0 0
0 0 0
0 0 0
0 0 0
0 0 0
0 0 0
0 0 0
0 0 0
0 0 0
0 0 0
0 0 0
0 0 0
0 0 0
0 0 0
0 0 0
0 0 0
0 0 0
0 0 0
0 0 0
0 0 0
0 0 0
0 0 0
0 0 0
1033 -562 2812
1060 -572 2859
1071 -574 2863
1073 -570 2842
1089 -574 2860
1084 -567 2819
1089 -565 2808
1085 -559 2771
1094 -559 2769
1097 -556 2754
1090 -548 2711
1100 -549 2712
1091 -541 2666
1102 -542 2672
1095 -535 2631
1077 -522 2565
1097 -528 2590
1083 -517 2537
1079 -512 2505
1066 -502 2454
1071 -500 2444
1080 -501 2444
1048 -483 2352
1086 -497 2419
1069 -486 2360
1092 -493 2393
1085 -487 2358
1105 -492 2381
1076 -476 2301
1078 -474 2286
1112 -486 2340
1108 -481 2313
1100 -474 2276
1110 -475 2280
1109 -472 2260
1121 -474 2267
1117 -469 2241
1113 -464 2215
1104 -458 2180
1106 -456 2167
1114 -456 2165
1124 -457 2168
1130 -457 2163
1136 -457 2157
1135 -454 2139
1149 -457 2150
1133 -447 2103
1132 -444 2086
1141 -445 2087
1138 -441 2065
1136 -438 2046
1141 -438 2040
1139 -434 2021
1138 -431 2004
-486 -170 830
-491 -172 845
-485 -171 841
-474 -168 828
-473 -169 832
-466 -167 825
-467 -169 833
-467 -170 840
-472 -173 855
-459 -169 838
-453 -168 833
-472 -176 875
-482 -181 900
-500 -188 940
-715 -272 1355
-1083 -414 2068
-1081 -416 2080
-1071 -415 2076
-1065 -415 2081
-1058 -415 2083
-1049 -414 2081
-1041 -414 2083
-1034 -414 2083
-1026 -413 2084
-1017 -412 2082
-1008 -412 2081
-1002 -412 2084
-989 -409 2074
-976 -407 2063
-974 -408 2074
-964 -407 2070
-963 -409 2085
-957 -410 2089
-952 -410 2094
-941 -408 2086
-928 -405 2074
-908 -400 2047
-897 -398 2039
-895 -400 2052
-882 -397 2040
-874 -396 2037
-867 -396 2037
-863 -397 2046
-856 -397 2046
-848 -396 2045
-845 -398 2057
-831 -394 2039
-825 -394 2042
-804 -387 2008
-775 -376 1952
-782 -383 1988
-794 -392 2036
-773 -384 2001
-774 -388 2020
-764 -386 2013
-752 -383 2000
-756 -388 2027
-762 -395 2063
-751 -392 2052
-737 -388 2034
-729 -387 2030
-722 -387 2030
-713 -385 2022
-713 -389 2043
-717 -394 2073
-703 -390 2053
-703 -394 2074
-698 -394 2077
-691 -394 2078
-676 -389 2054
-663 -385 2035
-653 -383 2024
-660 -391 2065
-654 -391 2069
-648 -391 2071
-638 -389 2059
-633 -390 2065
-629 -391 2074
-622 -391 2073
-615 -390 2072
-602 -386 2050
-599 -388 2062
-593 -388 2065
-587 -388 2067
-583 -390 2076
-573 -387 2064
-567 -388 2067
-566 -391 2087
-561 -392 2091
-555 -393 2096
-548 -392 2093
-540 -391 2089
-533 -390 2086
-527 -390 2086
-522 -391 2095
-517 -392 2098
-506 -388 2081
-505 -392 2104
-498 -392 2101
-490 -390 2095
-500 -403 2165
-591 -483 2592
-697 -578 3100
-696 -584 3135
-685 -583 3132
-678 -585 3144
-667 -584 3137
-666 -591 3178
-659 -593 3192
-650 -594 3196
-638 -592 3185
-628 -590 3179
-625 -597 3214
-612 -593 3195
-605 -596 3211
-595 -596 3211
-588 -598 3225
-576 -596 3214
-570 -599 3231
-562 -601 3245
-552 -600 3239
-543 -601 3244
-533 -600 3241
-523 -600 3243
-514 -600 3244
-503 -599 3239
-494 -599 3238
-483 -598 3234
-476 -600 3247
-466 -601 3249
-458 -602 3256
-447 -601 3251
-437 -599 3244
-427 -600 3246
-418 -600 3249
-408 -599 3244
-399 -600 3250
-388 -597 3234
-379 -598 3239
-370 -600 3248
-361 -600 3251
-351 -599 3248
-342 -600 3252
-332 -600 3251
-323 -600 3252
-313 -600 3251
-303 -598 3240
-294 -599 3247
-284 -599 3249
-276 -602 3265
-266 -601 3259
-258 -604 3278
-265 -643 3486
-263 -664 3600
-265 -698 3786
-281 -770 4172
-300 -861 4665
-20 -66 364
-20 -72 396
-15 -59 324
-16 -67 366
0 0 0
0 0 0
0 0 0
0 0 0
0 0 0
-39 -213 1159
-37 -225 1226
-34 -225 1223
-33 -246 1337
-27 -231 1255
-24 -229 1247
-21 -245 1332
-16 -226 1230
-13 -229 1242
-9 -228 1240
-5 -230 1251
-2 -228 1238
1 -227 1234
5 -233 1268
8 -229 1242
12 -234 1272
17 -253 1375
19 -229 1243
23 -227 1234
27 -234 1267
29 -221 1201
33 -226 1226
37 -225 1220
43 -245 1326
47 -241 1308
47 -225 1218
55 -244 1324
57 -237 1286
62 -242 1312
66 -241 1304
69 -239 1293
76 -249 1347
79 -247 1339
79 -234 1267
78 -221 1197
93 -253 1365
88 -231 1248
97 -242 1310
107 -259 1402
106 -246 1328
105 -235 1267
108 -233 1257
0 0 0
0 0 0
377 -755 4062
0 0 0
366 -690 3708
379 -694 3731
0 0 0
0 0 0
360 -607 3257
372 -610 3275
357 -571 3061
368 -574 3080
375 -571 3061
383 -570 3054
396 -575 3082
357 -507 2716
0 0 0
387 -526 2817
414 -551 2948
422 -551 2947
432 -553 2956
445 -558 2981
450 -553 2955
459 -555 2960
458 -542 2893
472 -549 2928
482 -551 2938
493 -553 2948
499 -550 2929
512 -555 2955
522 -556 2960
520 -545 2899
459 -473 2517
0 0 0
0 0 0
460 -452 2398
560 -543 2879
550 -525 2783
577 -544 2880
0 0 0
399 -364 1927
386 -347 1836
378 -335 1773
329 -287 1516
266 -228 1206
201 -169 896
248 -207 1094
252 -207 1095
0 0 0
0 0 0
171 -134 710
0 0 0
153 -116 615
0 0 0
0 0 0
0 0 0
0 0 0
0 0 0
84 -58 308
37 -23 124
11 -4 26
38 -24 128
57 -36 193
0 0 0
0 0 0
0 0 0
0 0 0
0 0 0
0 0 0
0 0 0
1073 -690 3572
0 0 0
0 0 0
0 0 0
0 0 0
0 0 0
0 0 0
0 0 0
0 0 0
0 0 0
0 0 0
0 0 0
0 0 0
0 0 0
0 0 0
0 0 0
0 0 0
0 0 0
0 0 0
0 0 0
1040 -558 2834
1059 -563 2859
1075 -567 2875
1076 -563 2852
1084 -563 2848
1089 -561 2833
1105 -565 2851
1086 -551 2777
1090 -548 2762
1093 -546 2745
1090 -540 2712
1097 -539 2705
1080 -527 2642
1073 -520 2603
1069 -514 2568
1077 -514 2566
1088 -515 2570
1073 -504 2513
1059 -494 2460
1071 -497 2468
1056 -486 2413
1066 -487 2415
1092 -496 2454
1031 -464 2296
1091 -488 2411
1081 -481 2370
1068 -471 2321
1092 -479 2355
1084 -472 2317
1110 -480 2355
1121 -482 2359
1112 -475 2322
1110 -471 2299
1109 -468 2279
1111 -465 2264
1122 -467 2269
1120 -463 2248
1108 -455 2207
1108 -453 2190
1113 -452 2181
1108 -447 2155
1118 -448 2159
1126 -449 2156
1130 -448 2149
1135 -447 2140
1135 -444 2125
1129 -439 2097
1131 -437 2085
1123 -432 2055
1135 -434 2061
1132 -430 2040
1129 -426 2020
1129 -424 2005
1141 -426 2010
-489 -168 836
-489 -169 842
-481 -167 834
-485 -169 846
-472 -166 830
-471 -166 835
-473 -168 844
-478 -171 860
-457 -164 828
-466 -169 851
-472 -172 868
-488 -179 905
-495 -182 924
-506 -188 952
-764 -286 1450
-1083 -408 2068
-1079 -409 2077
-1073 -409 2082
-1065 -409 2083
-1056 -408 2081
-1048 -407 2080
-1043 -408 2087
-1035 -407 2087
-1025 -406 2084
-1018 -406 2085
-1008 -405 2082
-998 -403 2076
-992 -404 2080
-988 -405 2089
-968 -399 2063
-963 -400 2069
-967 -404 2094
-955 -402 2085
-949 -403 2090
-940 -401 2085
-920 -396 2058
-901 -390 2034
-888 -388 2021
-883 -388 2026
-880 -389 2035
-880 -393 2053
-874 -393 2057
-859 -389 2039
-840 -383 2010
-840 -386 2028
-844 -391 2054
-841 -392 2064
-827 -389 2048
-813 -385 2030
-790 -377 1990
-772 -372 1963
-791 -384 2029
-792 -387 2049
-768 -379 2006
-762 -379 2009
-752 -377 2000
-757 -382 2031
-766 -390 2075
-752 -386 2055
-737 -382 2034
-730 -381 2032
-723 -381 2031
-722 -384 2050
-720 -386 2063
-715 -387 2068
-712 -389 2078
-697 -384 2057
-693 -385 2063
-689 -387 2074
-672 -381 2043
-672 -384 2062
-657 -379 2038
-664 -387 2079
-655 -386 2074
-648 -385 2071
-632 -379 2042
-632 -383 2064
-626 -383 2066
-623 -385 2079
-615 -384 2074
-604 -381 2059
-599 -382 2064
-594 -382 2069
-592 -386 2086
-576 -379 2053
-579 -385 2086
-565 -380 2060
-565 -384 2084
-561 -386 2092
-551 -384 2082
-551 -387 2104
-541 -385 2093
-529 -381 2072
-531 -387 2104
-520 -383 2085
-517 -386 2100
-511 -386 2103
-506 -387 2111
-495 -383 2090
-494 -388 2116
-500 -397 2168
-584 -470 2566
-686 -559 3053
-694 -574 3131
-684 -573 3130
-679 -576 3149
-665 -572 3127
-661 -577 3154
-652 -578 3159
-645 -580 3172
-636 -580 3173
-626 -579 3172
-622 -585 3203
-618 -590 3231
-606 -588 3220
-598 -589 3229
-591 -591 3242
-580 -590 3236
-574 -593 3254
-571 -601 3296
-563 -602 3304
-552 -601 3297
-544 -603 3309
-533 -601 3302
-520 -598 3287
-512 -600 3295
-500 -597 3282
-489 -595 3273
-480 -597 3280
-472 -598 3291
-460 -595 3274
-450 -595 3273
-439 -593 3264
-431 -595 3272
-421 -595 3275
-411 -594 3269
-401 -594 3271
-391 -592 3261
-380 -591 3254
-372 -594 3271
-362 -593 3264
-351 -591 3254
-343 -592 3263
-334 -593 3269
-322 -589 3248
-314 -592 3263
-304 -590 3253
-294 -590 3251
-285 -592 3261
-275 -591 3256
-267 -593 3266
-259 -598 3296
-271 -648 3570
-266 -662 3647
-269 -696 3835
-279 -752 4146
-300 -846 4662
-11 -39 222
-16 -58 325
-11 -46 257
-10 -43 243
-22 -90 501
0 0 0
0 0 0
0 0 0
0 0 0
-36 -199 1102
-39 -229 1263
-34 -221 1219
-31 -230 1273
-29 -243 1341
-24 -231 1274
-21 -238 1315
-16 -220 1216
-13 -225 1243
-9 -223 1232
-6 -236 1302
-2 -222 1223
1 -250 1380
5 -227 1254
8 -233 1285
12 -232 1279
16 -235 1294
20 -231 1276
23 -228 1259
26 -225 1241
33 -250 1377
36 -243 1338
39 -237 1307
40 -218 1203
42 -214 1179
47 -222 1224
51 -220 1212
57 -231 1273
64 -247 1362
62 -223 1229
68 -232 1275
70 -227 1251
77 -237 1306
77 -226 1243
88 -246 1350
92 -246 1351
95 -245 1347
102 -253 1387
101 -241 1325
101 -230 1264
109 -242 1327
102 -217 1190
0 0 0
0 0 0
0 0 0
0 0 0
0 0 0
366 -659 3601
367 -642 3503
377 -642 3505
369 -611 3335
349 -564 3076
369 -580 3163
355 -544 2966
379 -568 3097
383 -561 3054
395 -564 3073
0 0 0
0 0 0
382 -511 2781
409 -536 2912
428 -550 2989
432 -544 2956
440 -543 2948
447 -542 2940
441 -524 2842
460 -536 2907
444 -508 2755
444 -499 2706
474 -524 2837
503 -546 2956
483 -515 2787
504 -529 2860
488 -504 2723
361 -366 1977
255 -253 1368
0 0 0
509 -493 2658
536 -511 2755
506 -475 2562
439 -406 2185
0 0 0
407 -365 1967
385 -340 1829
387 -338 1815
323 -277 1490
283 -239 1286
217 -179 965
228 -187 1005
0 0 0
189 -150 808
147 -115 617
128 -98 527
140 -106 568
0 0 0
172 -128 687
133 -97 521
0 0 0
0 0 0
105 -73 391
21 -12 67
27 -15 86
33 -19 108
10 -3 23
47 -29 159
70 -44 239
0 0 0
0 0 0
0 0 0
0 0 0
1029 -664 3500
1033 -661 3479
1032 -653 3437
1077 -675 3548
0 0 0
0 0 0
0 0 0
0 0 0
0 0 0
0 0 0
0 0 0
0 0 0
0 0 0
0 0 0
0 0 0
0 0 0
0 0 0
0 0 0
0 0 0
0 0 0
0 0 0
0 0 0
1057 -558 2881
1064 -557 2874
1076 -559 2879
1074 -553 2848
1082 -553 2844
1083 -549 2819
1095 -551 2826
1072 -535 2741
1099 -544 2785
1068 -524 2681
1071 -522 2668
1057 -512 2609
1070 -514 2617
1061 -506 2574
1032 -488 2481
1050 -493 2504
1013 -472 2393
1061 -491 2486
1071 -492 2489
1082 -494 2494
1091 -494 2493
1078 -485 2444
1061 -474 2384
1085 -481 2418
1098 -484 2428
1101 -482 2415
1100 -478 2393
1110 -479 2396
1096 -470 2345
1106 -471 2348
1112 -471 2342
1122 -472 2343
1125 -470 2332
1130 -469 2323
1118 -461 2281
1125 -461 2276
1125 -458 2258
1112 -450 2215
1106 -445 2187
1108 -443 2174
1113 -442 2166
1120 -442 2162
1122 -440 2150
1135 -442 2158
1130 -438 2132
1136 -438 2128
1128 -432 2096
1124 -428 2074
1127 -426 2064
1136 -427 2064
1130 -422 2037
1130 -420 2023
1131 -418 2009
1132 -416 1995
-481 -162 823
-489 -166 843
-472 -161 818
-477 -164 833
-472 -163 832
-473 -164 838
-459 -160 820
-466 -164 839
-464 -164 842
-468 -167 856
-484 -173 891
-476 -172 884
-486 -176 909
-514 -188 969
-816 -300 1548
-1085 -402 2074
-1078 -402 2076
-1069 -401 2075
-1067 -403 2087
-1058 -402 2087
-1049 -401 2085
-1042 -401 2087
-1034 -401 2087
-1023 -399 2081
-1015 -398 2081
-1007 -398 2081
-999 -397 2079
-991 -397 2081
-982 -396 2077
-961 -390 2049
-969 -396 2084
-961 -396 2084
-957 -396 2091
-949 -396 2091
-941 -395 2090
-923 -391 2067
-904 -385 2041
-899 -386 2046
-890 -385 2042
-881 -384 2040
-883 -387 2060
-876 -387 2063
-861 -383 2043
-851 -382 2038
-851 -384 2054
-845 -385 2057
-837 -384 2056
-826 -382 2046
-819 -382 2047
-795 -374 2005
-787 -373 2002
-800 -382 2054
-778 -374 2015
-764 -370 1995
-768 -375 2024
-754 -372 2006
-739 -368 1985
-755 -378 2046
-751 -380 2055
-734 -374 2027
-739 -380 2060
-725 -376 2039
-713 -373 2024
-727 -384 2085
-714 -380 2065
-708 -381 2070
-702 -381 2072
-697 -381 2077
-688 -380 2070
-674 -376 2050
-678 -381 2083
-660 -375 2048
-665 -381 2083
-657 -380 2080
-639 -374 2045
-637 -376 2059
-637 -380 2081
-629 -379 2077
-625 -380 2086
-615 -378 2074
-606 -376 2067
-606 -380 2088
-595 -377 2073
-590 -378 2078
-578 -374 2061
-578 -378 2085
-573 -379 2088
-567 -380 2093
-559 -378 2087
-556 -381 2101
-554 -383 2117
-541 -379 2092
-534 -378 2091
-526 -377 2087
-523 -379 2100
-514 -377 2090
-511 -380 2105
-504 -380 2103
-495 -378 2093
-490 -378 2096
-495 -387 2146
-538 -426 2364
-666 -534 2963
-672 -547 3035
-661 -545 3024
-665 -555 3084
-646 -548 3043
-650 -559 3105
-645 -562 3125
-645 -570 3171
-638 -572 3184
-632 -575 3202
-625 -578 3219
-619 -582 3239
-625 -596 3320
-615 -596 3320
-603 -594 3312
-592 -593 3305
-599 -610 3401
-621 -642 3583
-626 -659 3676
-616 -660 3682
-637 -694 3876
-632 -701 3916
-610 -690 3852
-581 -670 3741
-571 -671 3747
-554 -664 3708
-549 -671 3749
-522 -651 3637
-493 -628 3513
-477 -620 3469
-467 -621 3475
-459 -624 3491
-458 -636 3561
-437 -622 3478
-417 -608 3403
-401 -598 3346
-392 -599 3355
-380 -596 3337
-372 -600 3357
-359 -594 3329
-351 -597 3344
-341 -597 3343
-327 -589 3298
-321 -596 3340
-313 -599 3355
-303 -598 3351
-291 -595 3332
-280 -592 3318
-274 -599 3358
-267 -604 3388
-276 -650 3642
-267 -653 3660
-273 -695 3895
-282 -750 4204
-305 -847 4746
-15 -50 288
-13 -46 266
-8 -33 191
-6 -28 163
-29 -111 628
0 0 0
0 0 0
0 0 0
0 0 0
-37 -199 1118
-36 -213 1195
-34 -220 1234
-31 -226 1268
-27 -224 1260
-25 -234 1313
-20 -224 1256
-17 -226 1272
-12 -217 1217
-9 -228 1282
-5 -220 1238
-2 -233 1305
1 -228 1281
5 -218 1225
9 -234 1316
12 -228 1281
16 -228 1281
20 -229 1286
24 -234 1310
28 -233 1307
31 -233 1305
35 -230 1290
38 -224 1255
39 -212 1189
44 -222 1243
50 -232 1300
52 -223 1252
58 -233 1304
58 -217 1217
66 -236 1322
66 -222 1244
74 -236 1320
82 -249 1392
84 -242 1353
86 -237 1326
82 -217 1213
92 -232 1294
95 -232 1295
105 -246 1373
111 -250 1392
100 -216 1208
99 -207 1153
0 0 0
0 0 0
0 0 0
0 0 0
0 0 0
370 -655 3639
0 0 0
368 -617 3424
367 -599 3321
359 -571 3166
351 -544 3015
365 -551 3052
374 -552 3058
384 -553 3061
404 -569 3147
0 0 0
0 0 0
389 -512 2831
411 -530 2929
415 -524 2897
432 -536 2958
420 -510 2818
417 -496 2739
0 0 0
0 0 0
0 0 0
0 0 0
0 0 0
0 0 0
0 0 0
0 0 0
0 0 0
290 -288 1585
255 -249 1368
0 0 0
449 -427 2342
448 -420 2305
371 -342 1875
315 -285 1563
0 0 0
418 -369 2018
379 -330 1803
376 -322 1761
318 -268 1467
284 -236 1290
256 -209 1143
0 0 0
246 -196 1071
156 -121 663
105 -79 436
83 -61 335
116 -86 469
142 -104 571
135 -98 537
0 0 0
0 0 0
118 -82 448
0 0 0
110 -75 408
36 -22 123
16 -7 44
21 -11 62
50 -30 167
0 0 0
0 0 0
0 0 0
0 0 0
0 0 0
1037 -659 3531
1042 -655 3509
1050 -654 3497
1052 -649 3467
0 0 0
0 0 0
0 0 0
0 0 0
0 0 0
0 0 0
0 0 0
0 0 0
0 0 0
0 0 0
0 0 0
1011 -558 2948
1071 -586 3093
980 -531 2801
0 0 0
0 0 0
0 0 0
0 0 0
1043 -542 2843
1060 -546 2864
1068 -546 2858
1076 -546 2855
1086 -546 2854
1078 -538 2807
1082 -535 2792
1085 -533 2777
1107 -540 2808
1068 -516 2683
1116 -536 2781
1078 -513 2663
1040 -491 2545
1071 -502 2598
1060 -493 2549
1052 -486 2509
1135 -521 2686
1109 -505 2601
1068 -483 2482
1091 -490 2516
1095 -488 2504
1087 -481 2464
1101 -484 2475
1099 -480 2451
1093 -474 2418
1109 -477 2432
