VERSION 0.7
FIELDS x y z
SIZE 4 4 4
TYPE I I I
COUNT 1 1 1
WIDTH 4013
HEIGHT 1
VIEWPOINT 0.0 0.0 0.0 1.0 0.0 0.0 0.0
POINTS 4013
DATA ascii
65 113 431
66 112 428
67 110 422
67 110 419
68 109 416
72 112 429
70 108 411
73 111 422
73 109 414
71 104 395
72 104 396
75 106 403
75 104 395
76 104 394
76 103 390
77 102 389
73 96 362
77 99 374
80 101 383
76 95 358
82 101 384
85 104 392
88 105 398
92 109 412
94 110 415
91 104 395
91 103 391
92 103 391
95 105 397
101 110 416
96 103 389
91 97 364
99 104 393
105 110 413
99 102 382
100 102 382
98 99 371
100 99 373
106 104 392
107 104 391
105 100 376
111 105 396
112 106 396
114 106 396
109 100 375
113 103 385
118 106 396
104 93 345
113 100 372
98 86 318
80 68 252
82 70 256
78 66 240
78 65 238
85 70 257
63 52 187
59 48 172
52 41 147
51 40 144
60 47 169
51 40 141
57 44 156
52 40 141
47 36 125
56 42 149
51 38 132
79 59 211
99 73 264
109 80 291
117 85 310
134 96 353
141 100 367
150 106 390
159 111 408
150 105 383
171 118 433
173 119 435
173 118 430
174 117 429
155 104 378
164 109 397
191 126 459
179 117 426
191 124 451
191 123 448
169 108 392
194 123 447
185 116 421
180 112 405
184 114 411
180 111 399
208 127 459
196 119 429
195 117 422
206 124 444
202 120 430
214 127 454
217 127 456
187 109 387
204 118 421
210 121 431
202 115 411
206 117 415
203 114 406
210 118 416
212 118 417
214 118 418
218 120 422
211 115 405
231 125 441
237 128 450
204 109 382
224 119 418
220 116 407
228 120 419
224 117 408
237 123 429
234 121 420
220 113 391
232 118 410
231 117 406
247 124 431
227 114 393
227 113 388
232 115 394
242 119 409
-2377 1198 4011
-2347 1189 3989
-2333 1189 3995
-2326 1192 4013
-77 42 134
-555 290 972
-538 283 950
-568 300 1011
-616 327 1104
-650 347 1174
-643 345 1171
-725 391 1330
-676 367 1249
-662 362 1233
-680 374 1275
-661 366 1250
-652 363 1242
-654 366 1257
-643 362 1244
-658 373 1283
-652 372 1282
-643 369 1274
-615 355 1228
-522 304 1051
-425 250 863
-302 180 619
-207 125 427
-141 87 294
-117 73 247
-95 60 202
-80 51 172
-80 52 174
-94 60 204
-151 96 330
-245 155 539
-367 232 815
-545 346 1220
-573 367 1294
-582 375 1325
-580 376 1332
-587 383 1358
-589 387 1374
-581 385 1369
-578 385 1372
-575 387 1378
-573 388 1386
-567 387 1383
-564 388 1387
-563 390 1398
-557 389 1396
-555 390 1401
-551 391 1406
-549 392 1412
-540 389 1401
-540 392 1414
-535 392 1414
-530 391 1414
-525 391 1414
-523 392 1421
-521 395 1431
-515 393 1428
-514 396 1439
-506 393 1430
-503 394 1435
-505 399 1456
-496 395 1442
-490 394 1440
-490 397 1453
-486 398 1458
-481 397 1456
-479 400 1466
-474 399 1466
-470 400 1468
-466 400 1472
-463 401 1476
-463 405 1492
-454 401 1480
-447 399 1473
-443 400 1476
-443 403 1491
-440 405 1498
-431 400 1482
-426 401 1484
-426 404 1499
-421 404 1500
-416 403 1498
-412 404 1501
-408 405 1506
-403 404 1503
-403 409 1523
-398 408 1522
-392 407 1517
-386 405 1512
-385 409 1527
-380 408 1526
-379 413 1544
-369 406 1520
-365 407 1523
-361 407 1527
-346 396 1486
-321 373 1398
-259 305 1143
-184 221 826
-172 210 785
-168 208 778
-164 206 772
-161 204 765
-164 211 792
-159 208 779
-154 205 768
-154 207 778
-150 205 771
-144 200 751
-135 191 716
-134 192 723
-135 197 740
-133 198 746
-126 191 718
-126 194 731
-125 195 735
-121 192 725
-121 196 741
-117 193 727
-118 198 746
-114 196 741
-114 200 755
-111 199 751
-106 193 728
-108 201 762
-104 198 750
-102 198 750
-99 197 746
-97 196 742
-96 199 755
-95 201 764
-91 198 750
-87 193 733
-83 190 722
-84 196 745
-74 180 681
-61 152 577
-46 120 454
-40 110 415
-38 107 405
-34 101 379
-34 103 386
-32 101 379
-29 96 362
-28 94 355
-25 88 331
-23 86 321
-22 86 322
-22 90 340
-21 88 331
-20 89 335
-17 83 311
-17 85 319
-17 88 330
-15 85 320
-14 86 321
-13 83 311
-13 92 345
-12 90 337
-12 93 350
-10 89 334
-9 93 349
-8 90 340
-7 93 351
-6 90 339
-6 96 361
-4 90 338
-3 88 331
-2 90 341
-1 87 329
0 89 336
0 89 334
1 90 341
2 96 363
3 110 418
5 116 441
6 112 424
7 99 376
7 95 359
8 94 357
9 94 354
10 92 348
11 92 347
13 101 382
14 92 349
15 93 350
15 88 330
16 86 326
18 91 344
19 93 351
20 95 359
22 97 367
24 101 380
25 101 384
27 105 398
29 107 404
28 101 384
33 116 439
34 114 433
37 120 455
36 112 423
34 100 379
36 105 397
38 105 397
43 117 442
44 115 437
52 134 507
52 130 493
56 137 520
57 134 510
51 118 448
61 137 521
55 121 458
53 113 426
57 118 448
56 114 433
58 114 431
59 113 429
62 117 442
61 114 430
62 113 428
64 114 432
66 115 433
65 112 423
67 112 423
69 113 428
69 111 420
70 112 422
72 112 421
76 116 437
73 110 413
72 107 401
74 108 406
76 108 407
77 109 409
77 107 400
77 105 394
76 102 382
78 103 386
77 101 378
80 103 387
81 103 384
78 97 361
83 102 380
84 102 382
87 104 388
89 105 391
87 101 376
93 107 400
95 108 403
96 107 400
104 115 429
97 106 396
90 97 362
91 96 358
98 103 382
99 103 384
105 108 401
106 108 402
103 103 383
103 103 380
105 103 383
110 107 395
105 101 372
112 106 393
116 109 403
103 95 352
113 104 385
109 99 365
107 96 355
93 83 304
78 69 250
79 68 248
78 67 242
70 59 214
61 51 184
63 53 189
62 51 182
50 41 143
48 38 134
53 42 148
49 39 135
48 38 132
59 46 164
46 35 122
43 33 112
60 45 160
96 72 261
120 90 327
110 82 297
112 82 297
148 109 396
141 102 371
151 109 396
155 111 403
155 110 399
162 114 412
173 121 438
165 114 413
186 128 464
168 114 412
172 117 420
177 119 428
165 110 394
168 111 399
192 126 453
193 126 452
162 105 375
174 112 398
197 125 449
172 109 387
192 121 430
206 128 458
197 122 434
205 126 448
196 120 424
181 110 388
197 118 419
192 115 405
168 99 350
194 114 403
218 128 450
201 117 412
191 110 386
208 119 418
213 121 426
210 119 417
208 117 408
203 113 396
208 116 403
198 109 379
218 119 415
218 119 413
209 113 391
235 127 439
222 119 411
225 120 413
235 124 429
220 116 398
245 128 440
227 118 405
245 126 432
228 117 399
228 116 396
248 126 429
220 111 376
249 125 425
236 118 398
-2367 1206 3990
-2360 1210 4009
-2309 1190 3951
-2317 1201 3995
-4 5 8
-574 303 1005
-529 281 932
-536 286 952
-558 300 998
-657 355 1186
-626 340 1139
-640 350 1172
-683 375 1260
-655 362 1219
-686 381 1286
-597 334 1128
-654 368 1246
-650 368 1247
-652 371 1261
-667 383 1301
-641 370 1259
-644 374 1274
-592 346 1181
-523 308 1052
-418 248 847
-291 175 596
-188 115 388
-130 81 271
-102 65 216
-94 60 199
-77 50 165
-80 52 173
-94 61 205
-155 100 339
-258 165 569
-376 241 835
-538 345 1203
-577 373 1301
-583 379 1325
-583 382 1337
-585 386 1353
-586 390 1367
-581 389 1368
-585 395 1389
-576 392 1380
-574 393 1386
-570 393 1389
-565 393 1390
-555 389 1377
-558 394 1395
-551 393 1392
-551 395 1404
-552 399 1420
-543 396 1409
-534 393 1400
-537 398 1420
-534 398 1423
-530 399 1426
-522 397 1420
-517 396 1418
-516 399 1430
-512 399 1431
-509 400 1436
-505 400 1439
-503 402 1447
-499 402 1451
-494 402 1451
-488 401 1449
-486 402 1455
-478 400 1448
-481 406 1472
-473 403 1462
-474 407 1478
-467 405 1472
-462 405 1472
-459 406 1479
-455 407 1482
-451 407 1483
-446 407 1485
-442 408 1488
-438 407 1489
-437 410 1502
-433 412 1507
-425 408 1494
-421 409 1499
-421 413 1515
-410 407 1494
-406 408 1498
-402 408 1500
-399 409 1505
-396 411 1515
-392 411 1515
-390 414 1529
-386 415 1532
-379 412 1522
-375 413 1527
-371 413 1527
-368 415 1535
-359 410 1518
-347 402 1489
-325 381 1411
-284 338 1253
-190 231 853
-171 211 778
-170 212 784
-170 216 799
-166 213 788
-166 216 801
-157 208 771
-150 201 747
-149 203 753
-142 197 730
-148 209 776
-138 198 735
-134 195 726
-135 199 740
-133 200 743
-129 197 734
-127 198 736
-126 199 740
-126 203 757
-120 197 734
-118 197 734
-117 199 742
-115 199 742
-108 191 714
-113 204 764
-110 202 754
-108 203 761
-105 202 755
-100 196 735
-96 193 723
-95 195 732
-93 196 733
-88 190 710
-82 182 681
-79 178 667
-76 176 659
-75 180 675
-70 171 643
-55 142 530
-45 120 446
-41 112 417
-38 108 403
-37 109 404
-31 96 355
-32 103 382
-29 97 360
-28 96 355
-25 91 336
-23 86 317
-22 86 319
-21 86 320
-20 86 317
-18 84 313
-18 86 320
-18 88 328
-16 88 327
-16 90 335
-15 92 342
-13 83 307
-13 93 347
-11 87 323
-11 88 326
-10 91 340
-9 90 335
-8 89 331
-7 89 332
-6 90 334
-5 89 329
-3 85 315
-3 87 324
-2 89 330
-1 88 327
0 88 329
0 90 337
1 88 327
2 92 343
3 90 334
4 90 334
5 87 324
6 89 330
7 92 343
8 94 351
9 94 350
10 92 343
11 93 348
13 94 351
14 94 349
15 94 351
16 93 346
16 90 335
17 89 333
18 88 329
19 87 325
21 94 351
23 99 369
24 98 367
26 102 382
28 105 393
25 91 338
32 112 419
37 124 465
35 114 428
35 108 405
33 99 371
34 99 371
34 97 360
39 107 400
42 112 421
48 125 467
50 127 475
51 125 470
53 126 474
54 125 469
57 129 484
60 132 494
56 121 453
54 114 427
56 114 428
58 117 436
58 114 424
59 112 420
61 114 427
62 115 429
63 113 423
66 116 434
65 112 418
66 113 421
67 111 415
67 110 410
69 111 415
71 111 415
71 110 409
71 109 404
74 111 414
74 109 405
75 108 402
75 107 399
76 106 395
79 109 403
77 105 389
78 104 385
80 106 392
77 100 371
81 104 383
78 98 362
83 104 383
81 99 364
86 104 384
87 103 382
90 106 393
93 108 398
94 108 397
91 103 378
93 104 382
95 105 388
93 101 373
94 101 371
95 101 370
100 105 386
101 105 385
107 110 406
101 102 375
101 101 370
108 107 392
102 100 366
107 104 381
111 107 392
110 105 382
112 105 385
105 98 356
105 96 350
112 102 370
99 89 324
81 72 260
82 73 261
65 57 201
72 62 221
57 48 170
48 40 138
54 45 157
48 39 137
41 33 113
49 40 138
46 36 125
65 52 181
41 32 109
44 34 117
70 54 190
71 54 192
87 67 236
103 78 278
132 100 358
130 98 349
128 95 340
164 121 435
172 126 451
162 117 420
152 109 390
145 103 368
164 116 415
163 114 407
179 125 446
169 117 416
175 120 426
171 116 412
178 120 426
195 131 464
171 113 402
170 112 397
169 111 391
183 119 421
195 126 444
188 120 424
180 114 402
195 123 433
176 110 386
196 122 427
196 121 425
183 112 392
197 120 418
224 136 475
200 120 420
197 118 410
243 144 503
201 118 411
240 140 488
200 116 402
206 119 411
203 116 402
204 116 400
201 114 391
222 125 430
218 122 418
222 123 423
216 119 409
221 121 415
219 119 408
230 124 425
236 127 434
239 128 435
237 126 429
222 117 398
220 115 390
213 111 376
222 115 388
231 119 401
252 129 435
250 127 428
235 119 398
253 127 427
-2374 1224 3999
-2333 1209 3958
-2310 1204 3950
-2322 1217 3999
-2443 1288 4239
0 0 0
-541 290 953
-530 286 941
-575 312 1028
-543 297 979
-529 291 962
-554 306 1014
-612 340 1128
-584 327 1086
-625 351 1170
-626 354 1182
-634 361 1207
-629 360 1207
-633 365 1223
-639 371 1245
-630 368 1236
-625 367 1237
-590 349 1177
-514 306 1034
-386 232 783
-271 165 554
-171 106 353
-118 74 245
-101 65 213
-91 59 194
-80 52 171
-84 55 181
-92 61 200
-152 99 333
-244 158 538
-362 234 802
-521 338 1165
-570 373 1285
-578 380 1313
-586 388 1343
-587 392 1356
-582 391 1357
-587 397 1380
-579 395 1374
-573 394 1372
-574 398 1386
-567 396 1382
-569 400 1397
-564 399 1397
-558 398 1395
-554 399 1398
-550 399 1400
-548 401 1408
-546 403 1417
-537 399 1406
-526 394 1390
-527 398 1404
-527 401 1418
-523 402 1422
-521 404 1429
-514 402 1424
-512 403 1430
-508 403 1433
-504 404 1437
-499 404 1436
-498 406 1448
-489 403 1436
-490 407 1451
-487 408 1458
-480 406 1452
-480 410 1467
-474 408 1462
-469 408 1465
-466 409 1470
-462 410 1472
-460 412 1482
-454 410 1477
-450 411 1481
-453 417 1506
-441 410 1482
-437 411 1484
-436 415 1500
-430 413 1495
-428 415 1504
-421 413 1498
-412 409 1483
-412 414 1501
-407 413 1499
-402 412 1497
-400 415 1510
-397 416 1516
-393 416 1517
-389 417 1522
-385 418 1527
-378 415 1517
-374 416 1521
-370 417 1524
-367 418 1530
-358 414 1515
-349 409 1498
-328 389 1425
-302 363 1331
-202 248 905
-178 222 811
-167 212 773
-158 204 744
-162 211 773
-151 200 732
-163 218 798
-148 201 736
-147 202 742
-143 201 737
-140 199 729
-139 201 739
-140 206 757
-132 197 723
-132 201 738
-130 201 740
-126 199 731
-129 206 757
-126 206 758
-117 194 716
-119 200 739
-112 194 714
-114 200 736
-110 197 726
-106 193 712
-104 195 719
-105 200 739
-104 201 744
-91 182 673
-87 178 658
-84 176 650
-78 167 618
-76 167 616
-75 169 625
-65 150 555
-69 164 606
-63 153 567
-59 147 543
-47 122 450
-43 115 425
-40 111 409
-37 107 392
-35 105 384
-33 102 374
-30 97 354
-30 100 367
-27 95 347
-25 91 334
-24 92 337
-23 91 333
-22 90 330
-21 92 338
-20 90 330
-18 87 320
-17 89 328
-17 92 339
-14 84 309
-14 88 323
-13 87 319
-12 85 311
-12 92 339
-11 89 326
-10 90 330
-9 90 330
-8 89 326
-7 89 327
-6 91 334
-5 92 339
-4 90 332
-3 88 324
-2 88 322
-1 89 329
0 89 327
0 91 334
1 89 328
2 85 314
3 92 339
4 84 310
5 84 307
6 88 325
7 91 334
8 89 328
10 97 357
10 93 343
11 93 344
13 95 350
14 96 354
15 96 353
15 88 325
16 89 327
17 88 325
17 82 302
19 91 333
21 96 354
23 98 363
24 99 365
25 100 370
28 105 389
30 108 401
32 113 417
36 124 459
37 120 445
42 133 494
36 110 408
42 123 457
34 96 352
39 109 403
45 122 453
46 121 448
51 130 481
55 136 503
49 118 436
53 125 464
55 125 462
56 124 460
58 127 471
57 121 448
56 117 432
58 117 432
59 117 430
60 117 432
60 115 423
61 114 421
63 115 426
64 114 420
65 114 422
67 115 423
66 111 409
69 114 421
70 114 419
70 111 407
71 111 406
72 110 404
73 111 409
76 113 414
76 111 408
75 108 396
78 111 407
77 107 393
79 108 396
79 106 389
77 103 377
79 104 379
80 103 378
80 102 371
80 101 368
82 101 369
88 108 395
82 98 359
89 106 385
91 107 389
100 116 422
97 111 405
98 111 405
95 106 386
93 103 374
94 102 371
96 104 377
95 101 367
95 99 360
99 103 373
104 107 387
109 110 401
99 99 357
106 105 379
103 101 366
105 102 369
106 101 365
99 94 338
96 90 325
107 99 357
81 75 266
81 73 261
75 67 238
70 62 220
60 52 183
55 47 165
46 39 134
51 43 148
56 47 164
53 44 152
56 46 160
41 33 111
58 47 164
40 32 108
52 41 142
85 67 237
98 77 271
110 86 303
118 91 324
107 82 289
131 100 353
141 107 378
142 107 378
153 114 403
169 125 444
170 124 440
157 114 403
162 117 412
174 124 438
155 110 387
160 112 395
147 102 359
157 109 382
166 114 400
180 122 430
171 116 405
164 110 385
173 115 402
177 117 409
194 128 446
188 122 426
181 117 409
185 119 413
196 125 435
186 118 408
185 116 402
173 108 373
190 118 407
175 107 370
184 113 388
187 113 390
218 131 453
220 132 453
203 121 415
202 119 408
208 122 419
199 116 397
193 112 382
221 127 433
207 118 403
198 113 382
209 118 400
223 125 424
220 122 415
214 119 401
209 115 388
216 118 397
229 124 419
230 124 418
225 121 405
219 117 392
206 109 365
230 122 406
225 118 392
209 109 362
229 118 394
224 115 383
219 112 371
225 114 378
-2381 1241 4007
-2369 1241 4016
-2337 1232 3992
-2324 1232 3999
-2425 1293 4205
-535 289 936
-527 286 927
-496 271 881
-463 255 828
-471 261 848
-448 250 813
-493 276 901
-560 315 1032
-580 328 1078
-630 358 1179
-601 344 1134
-630 362 1197
-622 361 1192
-611 356 1180
-611 358 1189
-607 358 1190
-601 357 1189
-579 346 1153
-513 309 1031
-381 232 772
-241 149 493
-150 94 310
-115 73 239
-102 66 215
-94 62 200
-81 54 174
-85 57 184
-90 60 196
-144 95 315
-227 149 499
-320 210 709
-495 325 1105
-563 372 1267
-571 380 1298
-585 392 1340
-585 395 1352
-586 398 1366
-588 402 1381
-580 400 1376
-574 399 1373
-574 402 1386
-569 402 1385
-569 405 1397
-566 405 1401
-555 401 1387
-552 402 1391
-550 404 1400
-548 405 1408
-544 405 1410
-535 402 1400
-535 406 1413
-530 405 1413
-528 407 1420
-521 404 1413
-524 410 1436
-518 409 1434
-508 404 1418
-509 409 1435
-508 412 1447
-501 410 1441
-496 409 1440
-489 407 1433
-489 410 1449
-483 409 1445
-476 407 1439
-475 410 1452
-474 412 1461
-472 415 1472
-464 412 1463
-463 415 1475
-460 416 1480
-457 418 1487
-448 414 1474
-442 413 1470
-440 414 1478
-437 415 1483
-432 415 1483
-429 417 1492
-424 417 1491
-419 416 1489
-416 418 1497
-412 418 1498
-410 420 1508
-400 415 1490
-396 416 1494
-395 419 1506
-386 414 1492
-390 423 1524
-380 417 1505
-377 419 1513
-376 423 1529
-364 415 1499
-361 416 1505
-353 412 1492
-343 406 1472
-316 379 1372
-292 355 1286
-205 255 920
-171 216 778
-175 223 806
-162 211 761
-157 206 746
-155 207 750
-154 209 756
-148 204 737
-143 200 723
-141 200 723
-142 205 742
-144 211 764
-135 201 731
-137 207 751
-134 206 749
-130 204 740
-127 202 736
-125 203 738
-121 200 727
-118 197 718
-116 198 721
-113 196 715
-106 188 684
-103 187 681
-96 178 649
-93 175 638
-89 171 625
-80 159 578
-78 158 575
-75 155 564
-71 150 546
-68 149 542
-67 149 541
-65 148 538
-61 143 523
-60 146 531
-59 145 530
-52 134 487
-52 137 501
-43 117 424
-40 113 410
-39 113 409
-35 106 383
-33 105 380
-30 100 361
-28 96 348
-28 99 361
-25 92 333
-23 88 317
-22 89 323
-22 94 341
-20 90 324
-18 85 309
-18 89 322
-17 87 315
-16 87 316
-15 89 324
-14 87 317
-14 92 333
-12 87 315
-12 95 345
-10 89 322
-9 89 323
-9 92 333
-8 92 334
-7 92 334
-6 90 326
-4 87 318
-4 89 324
-2 85 308
-2 87 315
-1 89 323
0 87 317
0 86 312
1 90 326
2 90 326
3 82 299
4 88 319
5 87 316
6 87 316
7 86 312
8 92 334
9 92 335
10 91 330
11 95 347
12 93 340
14 96 349
14 91 331
16 96 348
15 87 315
17 91 330
18 88 321
18 88 319
20 91 331
21 94 341
23 97 354
24 97 352
27 103 377
29 108 393
31 109 400
35 121 444
36 118 434
39 125 460
39 122 447
39 116 426
36 105 382
38 105 382
39 107 390
48 126 462
47 120 440
50 125 458
50 123 449
53 126 463
58 134 491
60 136 500
60 133 485
58 124 453
61 129 472
61 126 460
59 119 433
61 119 434
62 119 436
65 121 443
64 117 427
66 119 434
65 115 417
65 113 413
66 112 409
70 117 424
69 113 411
71 115 417
72 114 415
72 112 408
73 111 404
72 108 390
76 112 408
78 114 415
75 107 388
78 110 397
81 112 405
78 106 385
80 107 388
82 108 392
81 106 385
83 107 386
82 104 374
82 103 373
83 102 368
84 103 369
80 97 347
83 99 355
99 116 417
93 108 389
91 104 375
95 107 386
90 101 361
96 106 380
93 101 362
96 103 371
98 104 373
97 102 364
98 102 364
101 103 370
100 102 364
107 108 385
105 104 372
106 104 370
102 99 353
101 97 344
91 86 304
90 84 298
87 81 286
79 73 256
77 70 245
66 59 207
61 54 188
40 34 116
56 48 166
34 29 95
40 33 112
44 37 125
45 37 126
57 47 162
50 41 138
56 46 155
83 67 233
106 85 297
100 80 279
108 85 298
120 94 330
132 103 361
141 109 381
150 115 403
142 108 377
165 124 437
149 111 387
151 111 389
152 112 390
175 127 445
153 111 386
163 117 407
158 112 390
167 118 409
170 119 412
143 99 343
156 108 372
165 113 390
168 114 394
162 109 377
180 120 416
159 106 363
189 124 428
187 122 421
190 123 424
183 118 405
183 117 400
178 113 387
176 111 380
197 124 423
192 119 407
207 128 436
200 122 417
207 126 429
199 120 408
197 119 402
195 117 395
193 114 387
190 112 377
204 120 403
199 116 389
208 120 405
193 111 371
203 116 388
201 114 381
213 120 402
226 127 423
201 112 372
216 120 398
231 127 422
215 117 389
224 121 403
213 115 380
201 108 356
226 121 398
248 132 434
219 115 379
214 112 368
216 113 369
245 127 417
225 116 378
-2408 1268 4048
-2396 1269 4059
-2350 1252 4011
-2356 1262 4051
-2417 1302 4187
-298 164 520
-366 202 644
-370 205 655
-388 217 694
-356 200 640
-363 205 658
-416 236 760
-467 266 859
-506 290 939
-511 295 957
-534 309 1006
-561 327 1066
-582 341 1114
-597 352 1151
-591 350 1148
-572 341 1120
-577 346 1139
-580 351 1155
-501 305 1005
-369 227 746
-227 142 463
-154 98 317
-115 74 239
-102 66 214
-94 62 198
-81 54 172
-76 51 164
-84 57 183
-123 83 270
-206 137 453
-282 188 625
-460 306 1027
-552 369 1243
-571 384 1296
-573 388 1311
-588 401 1358
-578 397 1345
-581 402 1364
-577 403 1367
-576 405 1377
-579 410 1395
-572 408 1392
-566 407 1388
-562 407 1390
-563 411 1406
-551 405 1387
-549 407 1396
-545 407 1398
-544 410 1408
-541 411 1413
-534 409 1409
-531 410 1413
-531 413 1426
-523 411 1419
-525 415 1436
-518 414 1433
-511 412 1427
-510 414 1437
-503 412 1431
-501 414 1439
-498 415 1445
-494 415 1447
-488 414 1445
-485 415 1450
-480 415 1449
-477 416 1456
-471 415 1453
-466 414 1452
-464 416 1460
-463 419 1472
-461 422 1482
-448 414 1457
-450 420 1480
-448 422 1488
-440 419 1477
-439 423 1492
-433 421 1488
-427 419 1482
-426 423 1496
-423 424 1503
-416 422 1496
-415 425 1509
-406 421 1493
-403 423 1501
-394 418 1486
-393 422 1501
-388 420 1497
-378 415 1478
-376 417 1488
-369 415 1479
-361 411 1468
-360 415 1483
-347 405 1447
-343 405 1447
-323 387 1385
-288 350 1252
-256 315 1128
-210 263 941
-179 229 816
-159 206 735
-166 218 779
-163 216 773
-152 206 735
-152 208 744
-154 214 767
-143 202 725
-142 204 729
-144 210 752
-131 194 694
-134 202 725
-128 196 702
-128 200 717
-125 197 708
-120 193 692
-116 191 686
-110 184 662
-98 168 602
-96 167 599
-96 171 613
-85 153 551
-83 153 551
-81 152 547
-79 152 547
-75 148 533
-70 141 506
-71 146 525
-68 142 512
-67 145 522
-62 138 495
-64 144 518
-62 144 518
-57 136 491
-60 146 527
-54 136 488
-58 150 541
-46 124 448
-42 115 414
-40 114 411
-38 111 400
-35 107 384
-32 103 371
-32 105 378
-30 101 363
-27 98 351
-24 89 319
-25 96 344
-21 88 314
-20 85 305
-21 92 331
-19 90 324
-17 86 306
-17 91 325
-16 90 322
-15 88 315
-14 90 323
-12 85 305
-13 92 329
-12 91 327
-10 87 312
-9 89 320
-8 90 324
-8 92 329
-6 89 318
-6 91 326
-5 94 337
-4 89 321
-3 92 332
-2 91 327
-1 89 321
0 91 328
0 90 323
1 90 325
2 88 316
3 88 315
4 84 300
5 89 319
6 87 314
7 89 321
8 93 333
10 98 354
10 95 344
11 93 333
13 96 347
14 97 351
14 96 344
15 93 333
16 91 328
17 90 324
17 88 317
19 92 330
19 89 320
21 94 338
23 96 345
24 96 346
26 102 367
29 106 384
30 107 387
32 110 397
36 119 431
36 116 420
39 122 441
42 129 467
36 105 380
40 114 412
37 100 361
46 122 441
49 128 465
49 125 451
48 117 424
51 123 445
50 117 421
54 123 444
58 130 469
61 133 482
60 128 462
59 123 443
59 120 433
64 126 456
60 116 418
62 118 427
61 114 409
64 117 422
66 117 422
65 115 413
67 116 417
67 114 409
69 115 413
71 116 417
70 111 400
73 115 414
72 111 397
73 111 400
74 110 396
75 111 398
76 110 395
79 113 403
77 108 386
79 109 390
82 111 398
81 109 389
84 111 396
82 107 383
83 107 383
87 111 395
84 105 375
83 103 366
84 103 365
90 108 386
86 102 363
86 101 357
92 106 377
90 102 363
92 104 368
91 102 361
93 102 361
91 99 350
92 98 348
93 98 347
97 102 359
101 104 369
101 103 364
117 119 422
105 105 370
102 101 355
98 96 338
97 94 330
94 90 317
84 80 278
70 65 226
81 75 263
61 56 192
66 60 207
53 47 160
50 44 149
43 37 125
53 46 154
34 29 93
50 42 142
39 33 107
53 44 147
50 41 138
86 71 244
91 75 258
112 91 315
117 95 328
110 88 303
126 100 345
129 101 351
141 110 381
135 105 361
148 113 392
147 112 387
164 124 430
138 103 356
163 121 417
159 117 404
147 108 370
143 103 354
161 116 398
150 107 365
157 111 381
144 101 345
162 113 386
160 110 377
171 117 400
182 124 423
177 119 407
161 108 368
182 121 413
193 128 436
185 122 413
178 116 394
194 126 426
206 133 449
181 115 389
196 124 420
193 121 409
195 122 411
183 114 381
188 116 388
187 115 384
182 111 370
181 109 364
206 124 414
174 104 346
197 117 388
200 118 392
206 121 401
209 122 404
215 124 412
220 126 418
217 123 408
215 122 402
211 119 391
230 128 423
207 115 377
202 112 366
216 119 388
226 123 404
222 120 393
217 117 380
227 121 395
233 124 404
217 115 373
214 113 364
219 115 370
231 120 388
-2425 1291 4074
-2403 1287 4066
-2382 1283 4062
-2358 1277 4051
-2400 1307 4154
-159 90 278
-326 182 574
-269 152 477
-328 185 585
-260 149 468
-202 117 366
-322 185 588
-374 216 689
-453 263 841
-488 284 912
-505 296 952
-525 309 997
-546 323 1044
-568 339 1096
-542 325 1053
-563 340 1102
-549 334 1084
-554 338 1101
-480 296 964
-359 223 725
-240 151 490
-159 102 328
-123 80 257
-96 64 202
-89 60 189
-83 56 177
-79 54 171
-83 57 181
-116 79 254
-191 128 420
-279 187 617
-432 291 965
-554 375 1247
-564 384 1280
-574 393 1313
-576 397 1328
-573 398 1333
-581 406 1363
-578 408 1368
-580 412 1384
-576 413 1388
-572 412 1390
-566 411 1387
-562 411 1389
-555 409 1385
-553 411 1392
-552 414 1403
-550 415 1409
-542 413 1402
-536 412 1400
-535 414 1410
-531 414 1413
-534 420 1433
-523 415 1418
-517 413 1414
-516 417 1427
-511 416 1425
-511 419 1438
-506 419 1439
-502 419 1442
-496 418 1440
-498 423 1458
-490 420 1449
-487 422 1455
-479 418 1445
-480 423 1462
-474 422 1461
-467 420 1454
-464 421 1459
-462 423 1468
-460 426 1479
-453 423 1472
-450 425 1478
-444 423 1473
-441 424 1478
-437 425 1483
-433 425 1486
-428 425 1484
-417 419 1464
-417 423 1479
-408 418 1465
-401 416 1457
-397 416 1460
-396 420 1475
-386 414 1453
-376 408 1433
-369 405 1426
-358 397 1398
-353 397 1398
-340 386 1362
-329 379 1337
-328 382 1348
-325 384 1355
-325 389 1374
-313 379 1339
-295 363 1282
-265 331 1169
-232 293 1035
-181 233 822
-173 226 797
-166 220 776
-162 217 768
-162 221 782
-148 206 727
-142 201 709
-138 198 700
-130 189 669
-128 188 667
-126 189 670
-126 191 678
-111 173 612
-107 169 597
-105 170 601
-95 156 552
-92 153 542
-91 155 548
-81 141 499
-83 147 521
-80 144 510
-78 143 508
-77 145 513
-74 143 506
-73 142 504
-70 140 495
-67 137 485
-67 139 495
-65 138 491
-65 143 508
-61 137 489
-58 133 474
-62 145 515
-54 131 466
-58 142 506
-56 142 504
-51 134 477
-50 135 482
-48 132 471
-35 102 363
-37 110 391
-36 111 394
-33 107 378
-32 106 375
-30 103 365
-27 99 351
-26 99 351
-24 94 334
-22 91 321
-20 88 312
-20 92 326
-18 87 308
-18 92 327
-18 93 328
-16 88 313
-14 86 303
-14 91 323
-12 85 302
-12 90 318
-11 89 314
-11 94 332
-10 92 325
-8 90 321
-7 90 320
-6 89 318
-6 91 322
-4 86 305
-4 93 330
-3 90 319
-2 90 320
-1 93 331
0 89 317
0 86 307
1 88 311
2 91 324
3 90 321
4 91 324
5 86 306
6 88 314
7 90 319
8 93 329
9 92 328
10 94 333
11 90 321
12 94 335
13 94 334
15 102 362
15 95 338
16 94 335
16 86 305
18 93 330
17 85 300
20 94 333
21 92 329
23 96 341
24 100 355
25 99 353
28 107 380
30 108 385
32 111 396
37 124 445
35 112 402
40 126 450
40 122 437
42 123 440
45 129 461
39 108 385
41 110 392
47 124 444
47 120 430
53 131 469
55 133 475
53 125 447
54 124 442
60 135 482
61 134 480
58 124 444
62 129 461
61 125 448
63 127 453
62 122 435
64 123 438
65 122 433
63 117 416
64 116 412
65 115 410
67 117 416
67 114 406
68 114 403
71 117 416
72 117 414
73 116 413
74 116 413
74 113 401
75 114 403
76 113 401
76 112 395
79 113 402
77 109 387
79 110 389
82 113 399
80 109 385
82 109 385
83 109 384
83 108 381
84 108 381
84 106 372
83 103 362
87 106 374
85 104 364
92 110 388
72 85 295
89 104 365
86 99 345
85 97 339
90 101 354
94 104 365
92 101 352
93 101 352
98 106 370
99 105 366
97 102 356
88 92 318
84 86 300
96 97 339
86 85 296
84 84 289
79 77 265
75 73 250
71 68 232
60 57 193
52 48 163
42 38 126
49 44 148
50 45 151
31 27 86
44 38 127
44 38 127
42 36 117
51 44 145
44 37 123
71 60 204
70 59 198
108 91 311
109 90 309
114 94 320
123 100 343
129 104 358
126 101 347
132 105 360
149 117 402
143 112 384
146 113 388
139 106 363
145 111 377
141 107 364
138 103 352
160 119 407
159 118 400
150 109 372
157 114 387
159 115 389
155 111 374
170 121 410
178 126 426
165 115 389
177 123 415
165 114 384
189 130 437
182 123 415
183 123 415
207 139 467
170 113 379
193 128 428
191 125 419
195 127 424
192 124 413
187 120 400
182 116 386
176 111 369
182 114 379
179 112 369
181 112 371
191 118 389
198 121 400
174 106 348
179 108 354
204 122 402
195 116 380
221 130 429
211 124 407
193 113 368
211 122 399
194 112 365
205 117 381
222 126 411
207 117 381
219 123 399
217 121 392
204 113 365
209 115 371
218 119 385
233 127 409
217 118 378
216 116 374
219 117 376
225 120 384
219 116 370
236 124 397
-2388 1285 4008
-2377 1286 4019
-2326 1266 3963
-2338 1280 4013
-2351 1294 4065
-130 75 227
-322 182 566
-234 134 415
-186 108 332
-168 98 303
-207 121 375
-227 133 415
-285 167 525
-352 207 652
-463 273 865
-498 295 937
-492 293 933
-516 309 987
-532 321 1025
-520 315 1009
-553 338 1083
-539 331 1062
-544 336 1082
-482 300 966
-351 221 710
-240 153 489
-160 104 329
-118 78 246
-97 65 204
-86 58 182
-79 54 168
-75 52 161
-83 57 180
-112 77 244
-184 126 405
-293 199 648
-429 292 957
-555 379 1246
-562 386 1273
-568 393 1297
-586 409 1351
-580 407 1348
-583 413 1368
-577 411 1365
-573 412 1367
-571 413 1374
-570 415 1383
-565 415 1383
-568 420 1403
-556 415 1387
-556 418 1400
-551 418 1400
-544 416 1394
-543 418 1405
-539 418 1406
-533 417 1403
-536 423 1426
-530 421 1421
-526 422 1424
-517 418 1415
-519 423 1433
-512 421 1427
-510 423 1434
-504 422 1433
-501 423 1436
-499 425 1445
-493 423 1442
-490 425 1447
-480 420 1432
-480 424 1448
-476 424 1450
-470 423 1447
-463 421 1442
-464 426 1460
-458 424 1454
-454 425 1459
-449 424 1457
-447 426 1467
-436 420 1447
-436 424 1461
-425 418 1441
-421 418 1443
-411 412 1425
-403 409 1413
-395 405 1402
-392 406 1407
-374 393 1360
-370 392 1359
-362 388 1346
-354 384 1333
-351 386 1340
-354 393 1368
-345 387 1346
-345 392 1364
-344 396 1380
-344 401 1398
-338 398 1388
-335 399 1394
-324 391 1366
-305 374 1307
-265 329 1149
-211 266 929
-178 229 797
-159 207 721
-148 197 686
-125 169 589
-128 175 608
-130 180 629
-126 177 617
-120 172 599
-115 168 586
-112 166 578
-100 150 524
-97 149 520
-101 157 548
-93 147 513
-94 150 525
-85 139 487
-85 143 498
-82 140 489
-83 143 502
-76 134 470
-72 130 454
-72 132 462
-73 136 478
-72 137 480
-68 132 460
-71 140 492
-63 128 448
-64 133 467
-60 128 449
-64 139 489
-63 139 488
-60 136 477
-59 137 482
-60 142 500
-57 138 486
-57 143 503
-56 143 505
-54 144 506
-48 131 462
-36 105 366
-38 111 388
-36 110 387
-36 114 400
-34 111 390
-32 106 373
-30 104 365
-28 104 363
-25 97 340
-23 94 329
-22 92 322
-22 94 329
-19 89 311
-19 91 320
-18 91 320
-16 88 307
-16 93 326
-14 87 305
-14 89 313
-13 91 321
-12 91 320
-11 87 304
-10 90 317
-9 91 318
-8 90 317
-7 89 311
-6 88 309
-5 89 313
-4 90 314
-3 89 313
-3 93 326
-1 87 304
-1 89 311
0 88 307
0 88 310
1 88 310
2 87 306
3 89 312
4 91 319
5 88 308
6 90 316
7 91 321
8 92 322
9 94 332
10 91 320
11 95 333
12 89 312
13 93 327
14 96 339
16 101 355
16 95 335
17 93 327
17 88 309
18 91 319
19 88 309
20 89 312
22 96 339
23 93 327
26 102 359
27 104 366
29 106 375
31 111 391
36 125 442
39 129 457
42 133 473
43 134 475
39 118 415
44 127 448
38 105 370
40 108 381
35 90 317
43 110 387
49 124 438
51 125 440
50 120 424
53 123 433
56 128 453
54 120 424
57 123 434
59 125 443
59 122 431
60 121 426
64 128 451
63 122 430
68 129 455
63 117 411
65 119 420
66 117 413
66 115 404
67 115 404
70 119 417
70 116 408
71 115 405
73 118 413
74 117 410
75 116 407
76 116 406
77 116 405
76 113 395
77 113 394
80 114 400
81 115 401
80 111 388
81 111 389
82 110 385
85 113 395
85 112 391
85 110 383
87 111 387
87 109 381
88 109 380
89 109 379
94 114 397
92 110 384
83 97 337
84 98 338
84 97 336
88 100 345
94 105 364
94 104 359
98 108 373
99 108 372
93 100 345
81 85 292
74 77 262
68 70 239
78 80 273
68 69 234
70 69 236
56 55 184
54 52 174
48 46 152
49 47 155
49 46 153
49 46 152
42 38 125
52 47 157
31 28 88
48 43 140
39 34 110
50 44 145
42 36 117
64 56 185
65 55 184
98 83 282
103 87 295
122 103 349
126 105 355
124 102 347
130 106 361
127 103 349
132 106 359
145 116 392
150 119 403
143 112 380
142 110 371
145 112 377
132 101 340
158 120 405
156 118 396
153 114 383
169 125 422
166 122 410
156 114 382
163 118 395
173 124 415
178 127 425
179 126 423
157 110 367
197 137 459
177 123 408
184 126 420
186 127 422
181 122 406
179 120 398
171 114 377
174 115 379
176 115 381
169 110 364
170 110 362
172 110 362
173 110 362
156 99 324
190 120 392
186 117 382
174 108 352
201 124 406
191 117 382
196 120 389
181 110 356
200 120 391
196 117 379
187 111 359
198 117 378
189 111 358
205 119 384
183 106 340
195 112 360
211 120 387
209 119 381
213 120 385
211 119 379
208 116 370
223 124 394
220 121 386
218 119 379
227 123 392
222 120 381
224 121 381
231 124 391
226 120 379
-2386 1298 4001
-2360 1291 3987
-2354 1295 4006
-2324 1285 3985
-2339 1301 4041
-86 51 150
-271 155 476
-312 179 552
-300 174 535
-223 130 400
-212 125 384
-276 163 503
-320 189 589
-361 214 669
-441 262 822
-516 308 969
-502 302 951
-526 318 1005
-533 324 1025
-582 357 1129
-547 338 1070
-549 340 1081
-567 354 1125
-499 314 999
-379 241 765
-233 150 474
-163 107 336
-131 87 272
-97 65 203
-90 61 190
-84 58 179
-75 52 162
-81 57 175
-107 74 234
-184 126 403
-283 195 627
-427 294 952
-555 383 1246
-570 396 1290
-582 407 1328
-574 405 1323
-570 405 1324
-572 409 1340
-575 414 1359
-574 417 1369
-577 422 1387
-572 421 1387
-564 419 1381
-561 420 1386
-554 418 1381
-553 420 1390
-553 423 1402
-547 422 1399
-544 423 1405
-537 421 1400
-539 426 1419
-529 421 1404
-529 425 1418
-525 425 1421
-518 423 1415
-513 423 1415
-508 423 1416
-509 427 1431
-503 426 1429
-500 427 1434
-493 425 1428
-492 428 1440
-485 425 1434
-478 423 1427
-474 423 1428
-471 424 1435
-467 425 1437
-458 420 1423
-450 417 1413
-444 416 1411
-436 412 1398
-432 413 1402
-427 412 1400
-420 409 1391
-413 407 1385
-392 390 1330
-390 392 1338
-389 395 1349
-383 393 1345
-378 392 1342
-379 398 1362
-376 399 1365
-375 402 1377
-368 399 1368
-367 402 1379
-361 400 1374
-351 394 1354
-344 390 1341
-327 376 1295
-291 339 1166
-247 292 1004
-214 257 884
-190 231 794
-168 208 714
-145 182 624
-123 157 538
-110 143 488
-103 136 464
-107 143 489
-113 153 524
-104 143 489
-101 141 483
-102 144 494
-101 145 499
-101 147 505
-91 135 464
-98 148 508
-90 137 472
-84 131 452
-86 136 468
-84 135 464
-79 130 447
-84 139 481
-84 141 487
-81 139 481
-77 135 466
-73 131 453
-72 131 453
-73 136 470
-73 138 476
-67 129 446
-68 133 460
-69 138 478
-71 146 506
-67 140 485
-67 143 497
-64 140 486
-59 133 463
-61 139 483
-61 142 495
-57 136 474
-56 139 483
-55 138 481
-52 136 473
-52 138 480
-46 127 441
-43 122 424
-41 122 424
-33 103 356
-39 122 424
-35 114 395
-32 110 380
-30 105 363
-29 107 371
-26 100 345
-24 98 339
-22 94 324
-21 94 327
-21 96 334
-19 91 314
-18 92 318
-16 89 310
-15 88 304
-15 91 315
-14 92 319
-12 88 303
-13 95 329
-11 88 305
-10 93 322
-9 91 314
-8 91 316
-8 94 327
-6 93 322
-5 88 305
-4 91 315
-3 89 308
-2 91 315
-1 87 303
-1 89 310
0 90 313
0 90 311
1 90 312
2 93 322
3 90 312
4 90 314
5 91 316
6 90 312
7 87 302
7 82 284
9 90 314
10 93 324
11 93 324
12 92 320
13 94 326
14 96 334
16 102 355
16 96 332
17 95 329
17 88 306
18 88 304
19 88 306
21 97 336
22 95 329
24 98 340
25 98 342
27 104 361
29 109 380
30 108 378
32 111 388
32 105 366
34 110 384
39 122 426
44 135 472
43 126 441
44 125 438
35 95 331
40 106 370
37 95 330
48 123 429
48 118 411
50 121 422
53 124 432
56 128 446
57 128 447
62 135 472
58 123 429
61 128 447
58 118 410
63 126 441
63 123 428
67 129 451
66 124 430
65 120 416
64 115 400
64 114 397
68 119 415
68 117 405
68 115 399
71 118 409
73 119 412
73 116 403
74 116 402
73 113 391
77 117 406
80 119 412
83 122 423
83 120 416
81 115 398
80 113 390
81 113 390
81 111 384
83 112 387
83 109 377
85 111 381
86 110 380
86 110 377
92 116 399
93 115 397
94 114 394
88 107 367
88 104 358
84 99 339
84 97 333
81 93 318
89 101 345
93 104 357
95 105 360
84 91 311
73 79 266
64 68 230
64 67 225
61 63 210
53 54 178
48 49 160
51 51 168
41 41 133
52 50 167
34 32 103
38 36 118
41 39 126
35 32 103
30 27 84
49 45 146
44 40 131
52 47 154
46 41 134
48 42 137
64 57 187
61 54 176
65 56 184
112 97 324
106 91 304
117 99 334
120 101 339
125 104 348
125 103 345
134 110 368
133 108 361
144 116 389
139 111 371
131 104 346
155 122 407
145 113 378
151 116 388
161 123 411
158 120 400
128 96 318
149 112 371
164 122 405
164 121 402
166 121 402
170 123 408
169 122 402
170 121 401
168 119 394
172 121 400
169 118 387
169 117 384
166 114 374
165 112 368
161 109 356
162 109 357
161 108 351
162 108 351
164 108 352
191 125 407
163 106 342
169 109 354
183 117 380
161 103 331
179 113 366
185 116 374
210 131 423
190 118 380
196 121 388
183 112 360
197 120 384
203 123 394
195 117 374
212 126 403
181 107 341
205 121 385
214 125 400
199 116 368
212 122 388
208 119 378
196 112 353
218 124 392
197 111 349
219 122 386
208 116 365
202 112 350
214 117 368
210 115 358
205 112 348
220 119 371
237 128 398
-2370 1302 3970
-2353 1301 3972
-2336 1299 3973
-2323 1299 3980
-2365 1329 4082
-14 11 24
-298 172 523
-293 170 517
-359 209 639
-261 154 468
-233 138 422
-225 134 409
-256 153 470
-256 154 473
-460 277 858
-482 291 905
-523 318 991
-520 318 992
-540 332 1037
-558 345 1081
-554 345 1082
-581 364 1144
-536 338 1063
-501 319 1003
-379 243 765
-245 160 499
-165 109 339
-122 82 253
-95 65 200
-87 60 184
-81 57 174
-74 52 159
-80 56 173
-100 71 219
-173 120 379
-278 193 615
-414 288 922
-553 386 1241
-560 393 1267
-560 396 1279
-566 403 1303
-573 411 1331
-574 415 1343
-576 419 1359
-575 422 1370
-572 422 1374
-570 425 1383
-570 427 1393
-564 426 1391
-556 423 1384
-554 426 1392
-545 422 1383
-549 428 1403
-543 427 1403
-541 428 1408
-534 426 1403
-530 427 1406
-526 428 1410
-517 423 1398
-516 426 1410
-514 428 1416
-506 425 1409
-501 424 1407
-498 425 1412
-487 420 1395
-481 418 1391
-478 419 1396
-475 421 1403
-463 414 1380
-456 412 1374
-450 410 1369
-438 403 1346
-435 404 1352
-426 399 1336
-421 398 1336
-410 392 1316
-408 394 1323
-406 396 1331
-414 408 1372
-410 408 1374
-409 411 1384
-398 404 1363
-397 408 1376
-389 403 1363
-380 399 1348
-374 396 1342
-358 383 1298
-320 347 1176
-280 307 1041
-234 261 884
-202 229 774
-178 205 691
-157 183 619
-146 173 583
-127 153 515
-101 124 415
-111 137 461
-111 139 468
-100 127 428
-105 134 453
-96 125 422
-93 123 416
-94 125 423
-90 122 411
-93 128 434
-96 133 451
-96 136 460
-88 127 430
-89 130 440
-87 129 439
-87 130 443
-89 136 462
-87 134 455
-88 138 471
-86 137 466
-84 136 463
-80 132 451
-77 129 440
-76 130 443
-75 130 443
-77 137 468
-76 137 469
-75 138 471
-74 138 473
-71 136 467
-70 137 470
-68 136 464
-68 139 476
-66 136 467
-65 137 471
-62 135 463
-61 135 463
-62 140 482
-60 138 475
-56 134 459
-54 132 454
-58 143 494
-54 137 473
-54 142 488
-54 145 500
-50 138 474
-49 140 482
-47 138 476
-35 109 374
-34 109 373
-34 111 381
-33 112 386
-30 107 369
-29 106 364
-26 102 349
-24 97 332
-23 96 330
-20 90 308
-20 94 323
-19 93 320
-16 83 284
-17 93 319
-15 88 301
-16 96 329
-14 93 317
-13 95 325
-12 89 306
-11 92 317
-10 93 319
-8 86 295
-8 92 316
-7 91 311
-6 92 314
-5 93 319
-4 90 307
-4 94 322
-3 94 324
-2 93 319
-1 90 309
0 93 318
0 92 316
1 90 309
2 93 318
3 92 315
4 90 310
5 91 314
6 91 314
6 75 255
9 106 365
9 93 320
10 93 321
11 94 324
12 94 324
13 97 335
14 98 336
15 98 338
17 102 351
17 98 336
18 97 334
18 92 318
20 94 323
20 89 307
21 93 318
25 104 358
25 98 338
27 105 361
29 108 372
32 114 393
32 111 383
36 122 422
40 132 456
41 129 448
42 129 445
45 133 462
46 133 461
45 125 430
44 118 408
42 110 380
44 114 391
47 118 405
48 117 403
52 124 430
55 127 437
58 132 457
59 131 452
61 132 455
58 122 422
59 122 421
61 123 425
61 120 415
63 122 422
66 125 431
64 119 409
67 123 423
68 122 420
72 127 437
69 120 411
71 120 413
72 119 410
72 118 405
74 119 410
76 121 414
76 118 405
74 114 389
80 121 416
80 119 408
84 123 421
76 110 375
84 119 409
81 113 388
82 113 387
82 112 382
84 113 386
86 114 389
87 113 385
87 112 380
92 117 397
83 104 352
85 105 358
92 113 383
90 108 367
87 104 351
87 103 347
83 96 324
90 104 351
85 96 323
77 86 289
66 73 244
62 67 224
55 59 195
41 43 140
46 48 157
44 45 146
53 54 178
55 56 183
45 45 145
45 44 142
48 47 152
31 29 91
34 32 102
34 32 101
51 48 155
35 32 102
47 43 139
46 42 136
65 59 192
77 69 227
73 65 215
69 61 199
84 74 242
97 85 280
122 106 351
117 100 333
124 106 351
125 105 349
130 109 360
140 116 385
150 124 410
144 117 389
146 118 389
147 118 390
144 114 378
150 118 390
155 121 400
157 122 401
157 121 398
155 118 389
151 114 375
155 116 381
151 112 367
157 116 380
149 109 356
150 109 355
144 104 338
148 106 345
154 109 355
157 110 358
154 108 349
155 107 347
155 107 346
157 108 348
169 115 371
161 108 349
160 107 346
180 120 387
171 113 363
173 113 364
167 109 349
180 117 374
174 112 358
197 126 402
202 128 410
183 116 368
194 122 388
191 119 378
198 122 389
188 115 366
196 119 378
191 115 365
216 130 411
190 114 359
210 125 394
190 112 353
201 118 370
199 116 364
210 122 381
204 118 368
195 112 348
205 117 363
223 126 393
221 125 387
202 113 350
205 114 353
225 124 385
207 114 350
217 118 365
229 124 383
-2354 1308 3941
-2360 1318 3979
-2301 1293 3910
-2290 1294 3920
-2340 1329 4036
-27 18 46
-301 176 528
-329 193 581
-381 224 678
-300 178 537
-271 162 489
-273 164 497
-243 147 445
-318 193 587
-457 278 851
-495 302 929
-541 332 1023
-572 353 1090
-592 368 1138
-565 354 1095
-552 347 1076
-587 371 1154
-557 355 1103
-520 334 1039
-389 252 784
-266 175 541
-178 119 366
-127 86 263
-101 69 211
-90 63 191
-82 58 175
-76 54 163
-78 56 169
-97 69 211
-168 118 368
-269 188 593
-394 277 877
-545 384 1221
-563 400 1273
-556 397 1268
-568 408 1305
-568 412 1318
-571 417 1335
-570 419 1344
-570 422 1356
-568 424 1365
-569 428 1378
-564 428 1379
-560 428 1381
-555 427 1381
-556 431 1395
-549 429 1391
-541 427 1384
-543 431 1401
-534 428 1391
-527 425 1384
-522 425 1386
-513 422 1375
-512 424 1384
-506 422 1380
-490 412 1349
-490 416 1362
-483 414 1358
-472 408 1339
-465 406 1332
-452 398 1308
-447 396 1304
-451 404 1332
-438 396 1305
-439 401 1323
-437 402 1328
-443 412 1361
-430 403 1336
-431 409 1354
-423 405 1343
-423 408 1356
-413 403 1337
-407 401 1332
-393 391 1302
-373 376 1251
-340 346 1151
-299 308 1026
-264 275 915
-231 244 812
-200 214 712
-179 194 645
-164 180 597
-155 173 574
-126 143 473
-111 128 422
-120 139 460
-111 130 431
-106 126 418
-98 119 394
-104 127 422
-109 134 447
-89 112 370
-97 123 409
-87 112 373
-100 130 433
-99 130 434
-89 120 398
-96 129 432
-93 128 428
-92 128 427
-96 135 452
-92 131 440
-89 130 434
-87 129 431
-84 126 422
-84 128 429
-80 124 416
-86 135 453
-83 132 445
-85 138 464
-82 134 452
-79 132 446
-78 133 448
-77 134 451
-79 138 467
-73 131 443
-76 139 471
-75 139 470
-69 131 444
-70 135 458
-72 142 480
-69 138 467
-67 138 467
-65 136 461
-62 134 453
-62 135 458
-62 138 469
-60 137 466
-58 137 464
-59 140 478
-55 136 462
-54 136 461
-51 134 454
-53 140 477
-50 137 467
-50 141 481
-48 140 477
-40 121 412
-33 105 355
-38 121 413
-32 107 364
-24 87 293
-31 112 379
-29 108 366
-27 107 363
-25 103 349
-22 97 328
-21 95 320
-20 93 316
-18 91 308
-18 95 320
-15 87 293
-14 86 292
-14 91 307
-14 95 323
-13 93 314
-12 93 316
-11 90 307
-9 88 297
-9 91 308
-9 99 335
-7 91 308
-6 91 309
-5 91 308
-5 94 321
-3 92 313
-2 90 306
-2 93 316
-1 91 309
0 91 307
0 91 308
1 89 302
2 91 308
3 94 321
4 95 323
5 92 314
6 104 354
7 104 354
8 94 318
9 92 311
10 92 311
10 90 305
12 93 317
12 90 307
14 94 320
15 97 331
16 98 332
17 99 336
17 94 318
18 90 307
19 93 314
21 97 330
21 93 315
23 98 333
25 102 347
26 103 352
28 104 355
30 108 368
32 112 383
33 111 378
35 115 394
38 120 408
41 127 435
42 125 426
43 126 430
44 123 421
47 130 443
46 122 415
43 110 375
45 113 384
50 121 415
49 117 400
54 127 433
54 123 419
56 124 424
58 127 435
59 126 431
58 120 410
59 119 407
59 118 401
64 126 429
63 120 409
66 125 427
66 121 412
69 124 423
72 129 439
69 120 407
71 121 412
74 125 424
73 121 412
73 119 404
75 119 405
77 121 412
77 119 404
77 117 397
83 125 422
82 121 411
83 121 411
88 126 427
86 122 413
86 120 404
85 117 393
89 121 408
88 117 396
89 118 397
88 115 387
92 118 397
96 121 408
90 112 376
95 117 392
84 102 342
99 119 401
76 90 299
92 108 363
77 89 295
71 81 269
64 72 236
56 61 201
56 61 201
58 62 205
50 53 172
59 62 203
61 63 208
52 54 175
42 43 137
48 48 155
43 43 137
40 39 125
43 42 133
36 34 107
43 41 130
43 41 129
35 32 100
70 66 214
73 68 222
88 81 265
94 86 283
82 74 241
61 54 174
93 83 271
109 96 316
110 96 314
127 110 361
121 104 341
138 118 387
126 106 347
150 126 414
156 129 424
120 99 322
141 115 376
145 117 383
143 115 375
143 114 372
139 109 355
145 113 368
142 110 357
137 106 342
142 109 352
140 106 343
138 104 336
143 106 343
143 105 340
147 108 348
146 106 342
150 108 348
133 95 304
175 125 402
145 103 329
129 90 287
168 117 375
175 121 388
172 118 378
181 123 394
160 108 345
162 109 346
172 115 366
160 106 335
177 117 370
191 125 396
186 121 383
164 106 334
191 123 387
196 125 394
184 116 366
184 116 363
193 120 378
189 118 368
200 123 387
195 120 374
206 125 392
195 118 367
200 120 374
199 119 369
200 119 369
205 121 374
203 119 368
196 114 352
203 118 363
206 119 366
209 119 367
207 118 362
223 126 387
197 111 338
209 117 357
207 115 350
223 123 376
211 116 352
-2357 1322 3941
-2355 1328 3967
-2305 1308 3913
-2298 1312 3931
-2338 1342 4028
-30 20 53
-379 222 663
-379 224 669
-499 296 887
-381 228 683
-300 181 540
-321 195 584
-350 213 642
-501 305 925
-423 260 787
-519 320 973
-595 369 1124
-586 366 1117
-619 388 1188
-605 382 1171
-603 383 1175
-621 397 1221
-616 396 1221
-545 353 1088
-422 276 849
-287 190 582
-170 115 349
-126 86 261
-102 71 213
-93 65 196
-78 56 166
-77 56 166
-78 56 169
-87 63 190
-149 106 327
-208 148 459
-300 214 667
-450 321 1008
-464 333 1049
-471 341 1074
-495 361 1139
-497 365 1153
-514 379 1202
-515 383 1215
-537 402 1278
-544 410 1305
-549 417 1328
-549 420 1340
-544 420 1340
-542 421 1347
-534 419 1340
-534 422 1352
-523 417 1336
-522 419 1345
-519 420 1349
-502 410 1318
-496 408 1315
-493 409 1319
-488 409 1319
-482 407 1314
-472 402 1300
-472 405 1312
-475 411 1333
-460 402 1304
-463 408 1324
-459 408 1327
-454 407 1325
-444 402 1310
-445 406 1325
-432 399 1301
-418 389 1270
-408 384 1254
-378 359 1175
-334 320 1047
-291 282 923
-249 245 801
-222 220 720
-194 195 638
-170 173 566
-152 157 512
-151 158 514
-135 143 467
-141 151 493
-127 138 449
-118 130 423
-122 135 440
-120 135 440
-113 128 419
-110 126 412
-109 127 416
-103 121 395
-104 124 407
-107 129 422
-97 119 389
-97 120 393
-92 116 380
-101 127 419
-95 121 399
-91 118 389
-98 128 423
-96 127 420
-88 119 393
-89 122 404
-93 129 425
-93 130 431
-94 133 441
-89 128 425
-91 133 442
-90 134 444
-88 133 442
-85 131 435
-83 129 430
-86 136 452
-82 132 439
-80 131 437
-83 138 459
-77 130 432
-80 137 456
-74 130 433
-74 133 442
-73 132 442
-72 133 445
-71 134 448
-69 133 443
-71 138 463
-68 135 453
-65 133 444
-65 136 455
-64 135 453
-61 133 445
-60 133 444
-62 139 468
-58 135 452
-58 137 459
-55 134 448
-54 134 451
-53 136 457
-54 141 475
-52 140 473
-48 133 448
-48 137 462
-44 130 438
-44 134 450
-42 132 444
-34 113 378
-36 120 404
-36 125 419
-29 107 360
-29 111 374
-27 106 356
-25 105 353
-25 107 360
-22 100 334
-20 97 326
-19 95 320
-18 96 321
-17 93 313
-16 94 316
-15 93 312
-13 88 293
-12 90 300
-12 91 306
-11 93 312
-10 92 308
-9 91 305
-8 91 304
-7 93 312
-6 95 320
-5 94 315
-4 88 297
-3 93 313
-2 88 295
-1 92 307
-1 96 324
0 92 310
0 94 316
1 89 299
2 93 311
3 92 309
4 93 311
5 91 306
6 89 297
7 99 335
8 96 323
9 94 315
10 94 317
10 91 305
12 93 311
12 93 311
13 91 305
16 102 344
15 93 312
16 94 315
18 100 335
19 95 319
19 94 317
21 98 328
22 98 331
24 103 345
23 95 320
26 104 351
28 104 352
30 111 375
31 110 371
33 112 377
34 114 384
40 129 436
45 140 474
45 135 458
42 124 418
45 127 428
47 129 436
47 126 425
44 116 390
37 92 307
40 99 334
48 117 393
51 119 402
58 134 452
56 127 428
59 130 439
60 129 434
60 127 428
60 123 415
62 124 419
60 119 400
62 119 401
64 122 411
63 118 396
66 121 407
65 117 393
68 120 403
69 119 401
71 121 405
72 121 407
74 121 407
72 116 390
75 119 399
73 114 383
78 120 402
81 123 414
80 119 399
82 121 404
85 123 413
86 123 412
87 123 410
85 117 392
87 119 397
84 113 378
88 117 389
86 113 377
89 115 384
87 111 370
95 120 401
92 114 380
93 114 378
96 116 385
97 116 385
74 88 289
74 86 282
57 65 210
67 76 249
44 49 157
32 35 108
38 41 130
39 42 132
33 35 108
48 51 162
49 50 161
57 58 188
45 46 147
41 41 131
45 44 141
39 38 118
45 43 137
40 38 119
34 32 97
64 61 197
73 69 224
82 77 250
95 89 289
93 85 277
54 49 156
70 63 203
80 72 230
117 104 339
119 105 341
139 122 397
131 114 371
121 104 337
149 127 413
137 116 376
135 113 365
132 110 354
133 109 352
130 106 341
127 103 330
129 104 334
128 102 327
130 103 331
131 102 328
133 103 330
136 105 335
140 107 342
120 91 289
135 102 324
141 105 336
158 117 374
145 106 338
156 114 362
140 102 323
173 124 396
152 109 345
143 101 320
156 110 347
164 114 362
173 120 379
164 113 356
169 116 365
175 119 374
176 119 373
172 115 362
177 118 371
177 117 366
187 123 384
189 123 386
184 119 372
177 114 354
181 116 361
187 119 370
196 124 385
200 125 388
184 114 354
200 124 383
183 112 347
185 113 349
194 117 361
198 120 368
204 122 375
199 118 363
205 121 372
213 126 384
197 115 352
217 126 386
197 114 346
203 117 354
200 114 345
209 119 359
212 120 361
211 118 356
219 122 369
212 117 353
-2374 1345 3965
-2352 1340 3958
-2314 1326 3923
-2311 1332 3948
-2344 1359 4035
-152 91 263
0 0 0
-544 323 958
-491 294 871
-473 285 846
-482 292 869
-454 277 825
-440 270 806
-457 281 842
-553 342 1027
