VERSION 0.7
FIELDS x y z
SIZE 4 4 4
TYPE I I I
COUNT 1 1 1
WIDTH 3589
HEIGHT 1
VIEWPOINT 0.0 0.0 0.0 1.0 0.0 0.0 0.0
POINTS 3589
DATA ascii
-639 306 1929
-633 306 1928
-626 305 1926
-623 307 1937
-618 307 1940
-617 310 1958
-607 307 1944
-606 310 1962
-597 308 1955
-601 313 1987
-580 305 1940
-582 309 1966
-579 311 1978
-573 311 1978
-571 313 1995
-556 308 1965
-547 306 1952
-544 307 1964
-540 309 1973
-541 312 1999
-532 311 1991
-523 309 1981
-524 313 2005
-510 308 1977
-514 314 2015
-502 310 1995
-494 309 1986
-495 313 2017
-486 311 2005
-479 310 2000
-474 311 2006
-469 312 2012
-460 309 1997
-451 308 1988
-440 304 1964
-438 306 1981
-427 303 1961
-426 306 1984
-419 305 1976
-409 302 1959
-407 305 1978
-394 300 1946
-392 302 1962
-383 300 1949
-382 303 1970
-371 299 1947
-367 301 1958
-365 304 1978
-358 302 1970
-353 304 1979
-357 311 2032
-351 311 2033
-351 316 2067
-326 299 1956
-311 291 1900
-292 278 1819
-285 276 1807
-279 276 1805
-270 272 1783
-270 277 1814
-266 278 1823
-271 289 1895
-272 296 1945
-264 294 1926
-258 293 1924
-255 296 1943
-252 299 1964
-244 296 1946
-239 297 1955
-234 299 1965
-228 297 1956
-221 297 1953
-217 299 1966
-209 295 1942
-202 293 1931
-198 296 1948
-193 296 1951
-187 296 1951
-183 299 1975
-179 301 1987
-170 295 1950
-163 293 1935
-161 300 1984
-154 297 1963
-148 298 1970
-143 298 1973
-141 306 2025
-128 291 1928
-123 291 1927
-105 263 1737
-88 230 1523
-84 232 1533
-80 235 1552
-76 235 1555
-72 238 1575
-68 240 1588
-64 241 1592
-59 241 1597
-57 249 1647
-54 258 1707
-50 264 1750
-47 271 1800
-44 290 1923
-40 299 1984
-34 299 1985
-29 302 2009
-23 302 2009
-17 300 1995
-11 298 1978
-6 298 1979
0 301 2000
5 297 1976
11 299 1987
16 298 1978
22 299 1986
28 298 1985
34 300 1995
39 298 1982
45 300 1996
51 300 1997
56 296 1968
63 299 1989
68 297 1975
74 300 1996
80 299 1991
85 297 1979
92 301 2000
98 301 2001
103 299 1988
110 301 2003
116 302 2013
120 298 1982
126 299 1988
132 299 1989
139 301 2002
143 298 1983
150 300 1994
156 301 2005
163 304 2020
170 305 2027
174 302 2010
180 302 2011
187 303 2017
194 305 2028
198 301 2006
205 304 2021
211 303 2018
217 303 2019
225 306 2038
230 306 2032
234 304 2020
241 304 2021
248 305 2030
253 305 2028
259 305 2026
268 308 2047
272 306 2032
279 307 2038
286 308 2046
288 304 2019
292 302 2007
295 299 1985
303 301 1997
312 305 2022
317 303 2012
323 303 2010
330 304 2018
334 302 2005
339 302 2002
345 302 2001
355 306 2026
357 302 2000
365 304 2012
377 308 2042
378 305 2018
385 305 2019
388 303 2004
396 305 2015
402 305 2017
409 306 2021
416 306 2023
420 305 2013
429 307 2029
432 305 2011
442 307 2028
445 306 2017
446 302 1992
456 305 2011
465 307 2021
471 307 2023
472 303 1999
484 308 2025
484 304 1998
496 307 2021
504 308 2028
511 309 2032
517 309 2027
518 306 2010
527 308 2018
536 309 2030
541 309 2024
552 311 2040
552 308 2016
566 312 2043
571 312 2041
577 312 2039
580 310 2025
589 311 2034
593 310 2025
598 310 2021
609 312 2036
619 314 2046
624 313 2043
630 314 2042
632 311 2026
644 314 2042
646 312 2029
649 311 2018
663 314 2041
669 314 2037
681 317 2055
688 317 2055
706 323 2088
710 321 2079
719 322 2085
726 323 2087
727 320 2068
733 320 2066
735 318 2053
721 309 1993
721 307 1975
678 286 1841
636 266 1709
695 289 1853
742 306 1961
762 311 1994
776 315 2015
785 316 2020
788 314 2010
795 314 2008
799 313 2000
805 313 1999
813 314 2002
809 310 1974
818 311 1980
813 307 1950
815 306 1940
809 301 1908
802 296 1876
807 296 1872
811 295 1865
807 291 1839
803 288 1816
809 288 1814
807 285 1796
806 283 1779
801 279 1753
807 279 1752
809 278 1743
804 275 1718
811 275 1717
809 273 1701
811 271 1691
811 270 1678
812 268 1667
819 269 1668
817 266 1652
818 265 1640
818 263 1627
823 263 1625
821 261 1609
826 261 1606
830 260 1601
828 258 1585
836 259 1588
836 257 1576
841 257 1574
853 259 1585
862 260 1589
866 260 1585
885 264 1608
908 269 1637
922 272 1650
939 275 1668
984 287 1735
-505 156 871
-496 154 862
-513 160 898
-504 158 890
-496 156 882
-471 149 844
-499 159 901
-462 148 841
-476 153 871
-497 161 918
-491 160 913
-490 161 919
-494 163 933
-496 165 943
-481 161 921
-484 163 935
-487 165 948
-478 162 937
-504 172 996
-480 165 955
-509 176 1023
-512 178 1036
-473 166 964
-486 171 998
-504 179 1044
-511 182 1067
-479 172 1008
-516 187 1095
-496 181 1062
-479 176 1033
-515 190 1120
-515 191 1128
-502 188 1108
-502 189 1119
-511 194 1148
-518 198 1173
-492 189 1123
-503 195 1157
-501 195 1164
-477 187 1116
-519 205 1225
-480 191 1142
-477 191 1144
-511 206 1237
-532 216 1298
-596 244 1467
-701 289 1741
-748 310 1873
-745 311 1882
-751 316 1915
-740 314 1904
-731 312 1897
-728 314 1907
-727 315 1920
-721 315 1921
-714 315 1921
-702 312 1907
-695 311 1904
-687 311 1901
-679 309 1895
-676 311 1905
-668 310 1902
-664 310 1906
-655 309 1900
-656 312 1920
-647 310 1912
-644 312 1924
-635 310 1915
-631 311 1923
-621 309 1910
-618 310 1922
-614 311 1927
-616 315 1954
-605 312 1938
-603 314 1954
-589 310 1928
-585 311 1934
-581 312 1943
-570 309 1927
-568 311 1939
-567 314 1959
-559 312 1952
-553 312 1954
-542 309 1936
-539 310 1945
-538 314 1966
-533 314 1969
-529 315 1979
-519 312 1964
-514 313 1969
-511 315 1981
-506 315 1985
-501 315 1988
-492 314 1978
-485 313 1974
-486 317 2002
-478 316 1998
-468 313 1981
-465 315 1991
-459 315 1996
-448 311 1973
-437 308 1952
-433 309 1961
-425 307 1949
-418 306 1944
-415 308 1957
-406 306 1946
-400 305 1944
-398 308 1964
-391 307 1958
-383 305 1945
-378 306 1954
-368 303 1931
-364 304 1942
-363 308 1967
-357 307 1964
-352 308 1971
-352 313 2006
-355 321 2057
-334 307 1968
-324 303 1942
-305 291 1864
-294 286 1832
-282 279 1790
-272 274 1761
-269 277 1775
-267 280 1798
-266 283 1822
-266 290 1864
-267 297 1910
-264 299 1928
-257 298 1920
-251 298 1918
-249 301 1941
-241 299 1926
-238 302 1946
-232 301 1942
-222 296 1911
-219 299 1932
-216 303 1955
-209 300 1941
-203 300 1940
-196 299 1932
-193 302 1954
-183 296 1912
-182 303 1960
-173 297 1923
-167 296 1917
-164 300 1944
-156 297 1925
-152 299 1939
-146 299 1938
-144 307 1988
-139 307 1992
-125 290 1882
-117 284 1839
-101 258 1675
-86 232 1502
-82 232 1504
-79 237 1536
-74 234 1520
-70 235 1527
-67 242 1568
-63 241 1566
-59 245 1591
-55 249 1616
-53 258 1680
-50 266 1730
-46 274 1780
-43 289 1878
-39 301 1960
-34 302 1967
-29 305 1988
-23 302 1964
-17 303 1974
-11 299 1950
-5 303 1976
0 304 1978
5 301 1965
11 305 1986
16 301 1966
22 300 1959
28 302 1967
33 301 1964
39 301 1965
45 300 1956
51 302 1971
56 302 1968
62 301 1967
68 301 1967
74 302 1971
78 298 1947
85 301 1965
92 306 1999
97 303 1976
103 303 1977
108 302 1969
113 299 1954
119 302 1972
126 304 1986
132 304 1985
136 300 1955
144 305 1989
150 305 1993
153 301 1966
161 305 1993
167 305 1992
172 304 1982
181 309 2017
186 308 2009
190 305 1987
198 307 2005
201 304 1985
208 305 1991
215 306 1999
223 310 2024
228 309 2013
232 306 1998
239 308 2009
245 308 2005
251 308 2006
257 308 2010
267 313 2043
272 311 2030
277 311 2025
282 310 2018
285 306 1994
292 308 2003
299 309 2012
300 304 1979
311 309 2011
320 312 2031
322 308 2003
328 308 2004
332 307 1993
337 306 1990
345 308 2000
346 304 1973
360 310 2016
365 309 2010
366 306 1986
372 306 1984
381 308 2002
390 310 2014
396 311 2015
393 303 1967
402 306 1983
408 306 1984
415 307 1988
417 304 1970
428 308 1992
434 307 1990
441 309 1997
448 309 2000
454 309 2000
463 311 2010
466 309 1996
475 312 2012
478 309 1997
491 314 2026
490 309 1996
495 309 1992
501 309 1990
505 308 1981
509 306 1973
522 311 2000
531 313 2010
536 312 2003
543 313 2008
547 311 1999
555 312 2004
568 316 2028
570 314 2012
578 315 2020
579 312 1998
584 312 1996
590 312 1994
603 315 2015
614 318 2031
608 312 1990
621 315 2010
631 317 2022
633 315 2007
640 315 2007
647 316 2011
655 316 2013
658 315 2003
672 319 2025
675 317 2015
684 319 2023
698 322 2043
709 325 2057
711 322 2041
722 325 2055
729 325 2054
737 326 2058
739 324 2044
730 317 2000
724 312 1965
723 309 1945
687 291 1830
654 275 1725
715 298 1870
737 304 1910
761 312 1955
784 319 1998
779 314 1969
791 317 1980
797 317 1979
797 314 1961
804 314 1960
812 315 1965
814 314 1953
821 314 1951
814 309 1919
808 304 1888
809 303 1876
809 300 1858
809 298 1844
806 295 1822
808 293 1810
807 291 1794
810 290 1785
807 287 1765
805 284 1747
808 283 1739
806 281 1720
809 280 1713
811 279 1704
810 276 1688
815 276 1684
814 274 1669
809 271 1647
820 273 1657
816 270 1636
816 268 1622
817 266 1611
822 266 1610
820 264 1594
819 262 1579
826 262 1579
828 261 1572
833 261 1569
837 261 1566
840 260 1558
844 260 1554
852 261 1558
855 260 1552
863 261 1555
870 262 1556
891 266 1582
902 268 1589
-499 157 860
-500 158 869
-513 163 898
-496 158 875
-473 152 841
-474 153 848
-495 161 894
-477 156 867
-491 161 899
-476 157 879
-482 160 896
-487 163 912
-496 167 937
-480 162 914
-493 168 944
-505 173 975
-505 174 984
-510 177 1001
-488 170 964
-489 171 974
-500 176 1004
-482 171 975
-504 180 1027
-496 178 1019
-484 175 1002
-496 181 1036
-498 182 1048
-487 179 1032
-480 178 1026
-496 185 1069
-502 189 1091
-496 188 1086
-497 189 1096
-492 189 1095
-519 200 1165
-496 193 1123
-515 202 1175
-498 196 1146
-499 198 1157
-515 206 1206
-497 200 1173
-497 202 1183
-508 207 1218
-526 216 1273
-615 254 1502
-737 306 1813
-746 312 1851
-755 319 1891
-736 313 1859
-738 316 1881
-736 318 1891
-733 319 1902
-722 317 1890
-713 315 1883
-712 317 1897
-704 316 1894
-697 316 1892
-688 314 1884
-686 316 1896
-672 312 1876
-672 315 1894
-664 314 1890
-653 311 1874
-656 315 1901
-647 313 1894
-652 319 1928
-641 316 1913
-630 314 1901
-621 312 1890
-616 312 1893
-605 309 1879
-607 313 1904
-606 316 1922
-598 315 1917
-591 314 1914
-578 310 1890
-578 313 1910
-570 311 1904
-567 313 1914
-568 317 1940
-561 316 1938
-551 313 1922
-549 316 1938
-545 316 1944
-536 315 1936
-534 317 1950
-517 310 1911
-520 315 1944
-516 316 1950
-513 318 1962
-506 318 1961
-498 316 1953
-489 314 1940
-488 317 1961
-483 317 1965
-479 318 1974
-478 322 1996
-471 321 1993
-461 318 1978
-454 317 1972
-448 317 1971
-434 312 1939
-428 311 1938
-421 310 1933
-417 311 1938
-410 310 1935
-405 311 1939
-397 309 1927
-394 311 1945
-390 312 1950
-377 306 1914
-380 313 1961
-367 308 1927
-361 307 1921
-360 311 1950
-352 309 1940
-348 310 1948
-349 316 1987
-347 320 2009
-337 316 1983
-318 304 1909
-304 295 1856
-293 290 1826
-282 284 1787
-274 282 1772
-275 287 1810
-262 279 1760
-263 286 1802
-268 297 1877
-267 302 1907
-258 299 1887
-254 300 1897
-248 299 1890
-244 301 1903
-239 302 1912
-234 302 1912
-230 304 1925
-223 303 1915
-218 303 1919
-210 300 1902
-206 302 1913
-200 302 1914
-196 304 1928
-187 299 1899
-184 303 1921
-179 303 1923
-172 301 1911
-167 302 1921
-162 302 1922
-154 299 1902
-149 300 1907
-145 303 1926
-140 303 1930
-136 307 1955
-122 289 1837
-114 281 1791
-97 253 1607
-85 234 1485
-82 236 1500
-77 235 1493
-74 238 1511
-69 237 1509
-66 241 1536
-61 241 1533
-58 245 1562
-55 250 1591
-53 262 1674
-49 269 1713
-45 272 1737
-43 292 1861
-39 302 1929
-33 303 1935
-28 304 1941
-22 304 1943
-16 302 1929
-11 304 1945
-5 303 1938
0 302 1934
5 302 1933
11 305 1950
16 308 1972
22 303 1939
28 305 1948
33 305 1954
39 303 1939
44 301 1923
50 305 1954
56 304 1947
61 303 1941
67 303 1940
72 301 1929
77 300 1922
84 302 1935
90 305 1950
96 305 1950
101 305 1954
106 302 1935
112 303 1942
118 304 1949
123 303 1940
131 307 1965
135 304 1949
141 305 1951
147 305 1955
155 311 1990
159 307 1965
163 303 1942
168 303 1938
177 307 1965
183 308 1974
190 310 1982
196 310 1983
201 309 1976
205 306 1958
215 312 1998
221 314 2007
227 314 2007
232 312 1997
239 313 2003
241 308 1971
248 310 1983
256 313 2000
263 314 2006
266 311 1985
270 308 1971
276 309 1974
280 307 1960
288 310 1978
296 312 1992
299 309 1972
308 311 1988
317 315 2012
318 311 1981
319 306 1951
326 307 1957
336 310 1979
338 307 1958
348 311 1979
351 309 1967
358 310 1972
368 313 1994
368 308 1963
377 311 1979
385 313 1990
385 308 1959
391 308 1959
400 310 1970
407 311 1979
411 310 1967
424 315 2002
424 310 1971
430 311 1973
440 314 1990
438 308 1954
445 309 1960
454 311 1970
459 311 1968
470 314 1989
471 310 1964
473 308 1951
478 308 1947
490 311 1969
493 310 1956
503 312 1972
510 313 1975
515 312 1972
520 312 1967
537 318 2008
540 316 1993
543 315 1982
547 313 1973
553 313 1972
568 319 2003
568 315 1983
575 316 1983
583 317 1990
587 316 1982
590 314 1972
593 313 1960
614 321 2008
612 316 1979
623 319 1995
625 317 1981
633 318 1985
640 318 1987
648 319 1992
655 319 1992
658 318 1984
667 320 1991
673 319 1987
675 318 1975
698 326 2024
708 327 2033
717 328 2037
717 326 2020
732 330 2043
738 329 2040
736 326 2015
742 326 2014
729 317 1960
726 313 1933
730 312 1926
678 288 1772
654 275 1693
711 297 1825
741 307 1886
759 312 1917
782 319 1956
791 320 1961
797 320 1961
797 318 1943
801 317 1935
809 318 1940
813 317 1933
819 317 1929
813 312 1899
815 310 1888
807 305 1854
814 306 1854
810 302 1829
809 299 1813
808 297 1796
809 295 1783
808 293 1767
809 291 1754
807 289 1737
810 287 1728
805 284 1705
807 283 1696
809 281 1685
807 279 1667
810 278 1661
820 279 1667
812 275 1640
810 273 1622
813 272 1616
818 272 1613
815 269 1595
814 267 1581
816 266 1573
822 266 1573
820 264 1556
824 264 1552
833 265 1557
828 262 1536
842 264 1550
836 261 1528
846 262 1535
848 262 1527
859 263 1536
862 263 1529
869 263 1530
-484 155 835
-502 161 872
-481 156 842
-475 154 837
-480 157 853
-485 159 867
-477 158 860
-492 164 893
-485 162 888
-488 164 900
-489 165 908
-481 164 901
-499 171 942
-519 179 987
-493 171 945
-483 168 933
-487 171 948
-489 172 959
-491 174 969
-504 180 1003
-484 174 972
-504 182 1019
-500 182 1020
-496 182 1019
-487 180 1009
-501 186 1045
-498 186 1047
-498 187 1056
-486 184 1039
-490 187 1056
-506 194 1099
-505 195 1106
-502 195 1109
-478 187 1063
-527 207 1181
-513 203 1160
-496 198 1131
-524 210 1204
-503 203 1167
-508 207 1187
-503 206 1187
-505 209 1201
-507 211 1217
-537 225 1299
-642 270 1566
-736 312 1811
-753 321 1868
-741 319 1856
-730 316 1844
-726 317 1850
-725 319 1863
-723 321 1875
-724 323 1893
-711 320 1876
-695 315 1851
-695 318 1870
-689 318 1870
-679 316 1860
-667 313 1845
-661 313 1844
-666 318 1877
-652 313 1853
-650 315 1866
-645 316 1869
-638 315 1866
-635 316 1878
-634 318 1892
-625 317 1884
-613 314 1867
-606 313 1863
-605 315 1878
-603 317 1893
-594 315 1885
-591 316 1892
-587 317 1899
-578 316 1890
-566 312 1873
-567 315 1893
-562 316 1898
-560 318 1911
-551 316 1902
-545 316 1904
-540 317 1907
-524 310 1869
-527 315 1901
-525 317 1917
-515 315 1902
-513 317 1917
-511 319 1934
-506 320 1936
-491 314 1904
-493 318 1931
-484 316 1921
-479 317 1925
-473 317 1925
-470 319 1939
-469 321 1957
-467 324 1973
-453 319 1941
-448 319 1946
-438 316 1928
-434 317 1936
-425 315 1923
-418 314 1919
-412 313 1918
-406 313 1918
-397 311 1903
-393 312 1910
-390 314 1924
-382 311 1911
-376 311 1910
-373 313 1925
-364 311 1909
-363 314 1933
-357 314 1933
-351 314 1932
-346 314 1934
-344 318 1960
-342 322 1983
-327 312 1926
-313 304 1875
-289 287 1768
-292 294 1818
-280 288 1778
-279 291 1801
-271 289 1789
-272 295 1825
-261 289 1789
-266 300 1859
-264 304 1886
-256 302 1871
-249 300 1860
-245 301 1869
-242 305 1892
-236 304 1885
-233 307 1907
-226 305 1892
-217 301 1869
-213 303 1881
-207 302 1876
-204 305 1897
-196 302 1877
-194 306 1906
-186 303 1884
-180 302 1884
-175 303 1890
-172 306 1908
-165 303 1891
-159 304 1895
-155 306 1911
-148 302 1886
-142 302 1886
-137 302 1888
-130 300 1877
-118 284 1772
-108 272 1699
-93 247 1540
-84 233 1456
-80 235 1466
-76 236 1476
-72 238 1487
-68 238 1484
-65 243 1518
-60 242 1510
-58 248 1554
-54 250 1566
-51 261 1632
-49 272 1700
-44 273 1709
-41 286 1793
-38 300 1879
-33 306 1919
-28 308 1931
-22 304 1908
-16 306 1916
-11 306 1920
-5 302 1897
0 304 1907
5 304 1910
11 307 1928
16 308 1931
22 306 1921
28 309 1939
33 309 1938
38 304 1912
44 306 1922
50 306 1921
55 304 1911
61 305 1916
67 307 1926
72 307 1927
78 309 1939
83 305 1915
89 306 1920
94 305 1919
100 306 1925
106 309 1938
112 307 1932
117 306 1923
122 304 1911
127 304 1908
133 305 1916
140 308 1932
144 304 1912
150 306 1921
158 310 1944
164 311 1952
170 311 1952
174 309 1939
181 311 1953
189 314 1971
192 309 1942
200 314 1970
204 311 1954
213 316 1984
220 318 1997
226 317 1991
232 318 1996
234 313 1964
238 311 1950
248 316 1984
254 316 1986
260 317 1988
269 320 2010
270 314 1972
278 317 1989
281 314 1966
285 312 1956
294 316 1978
295 310 1943
304 313 1963
309 312 1957
315 313 1957
321 313 1959
326 312 1955
330 311 1946
340 315 1971
343 312 1951
352 315 1972
355 313 1955
365 316 1973
364 310 1939
371 312 1946
378 312 1951
384 313 1953
394 316 1973
400 316 1969
401 312 1945
411 315 1965
414 313 1950
420 313 1950
424 312 1944
426 310 1927
442 317 1971
444 314 1953
453 316 1966
456 314 1954
463 315 1959
466 313 1946
472 313 1945
478 313 1944
489 316 1963
490 313 1943
503 318 1970
508 318 1967
505 312 1933
519 317 1960
524 316 1956
528 315 1948
539 318 1968
542 317 1956
547 316 1951
556 318 1962
562 318 1958
573 321 1976
567 314 1934
582 319 1964
592 321 1977
592 318 1956
594 316 1941
611 322 1976
613 320 1961
616 318 1950
625 320 1959
627 318 1946
639 321 1963
653 325 1986
654 322 1970
668 326 1992
656 317 1935
671 322 1962
685 325 1984
687 323 1970
697 326 1982
718 332 2022
716 328 1996
728 331 2011
733 331 2006
742 332 2012
738 327 1984
738 325 1965
735 320 1938
726 314 1897
725 311 1878
657 280 1687
654 276 1664
720 302 1817
744 309 1861
763 315 1892
783 321 1926
790 321 1925
796 321 1924
802 321 1921
807 320 1917
813 320 1915
812 317 1895
815 317 1888
814 314 1869
816 312 1858
814 309 1837
814 307 1823
812 304 1803
811 301 1786
809 299 1768
811 297 1758
808 294 1738
809 292 1725
808 290 1709
808 288 1696
808 286 1681
812 286 1677
813 284 1666
814 283 1655
813 281 1641
810 278 1622
812 277 1613
812 275 1601
814 274 1593
816 273 1584
821 273 1581
821 271 1570
820 269 1555
819 267 1542
824 267 1540
823 265 1526
828 265 1524
831 264 1517
837 264 1517
842 265 1516
848 265 1514
848 263 1503
859 265 1511
-482 157 831
-482 158 837
-476 157 833
-486 161 857
-479 160 851
-478 160 856
-493 166 888
-478 162 867
-492 168 901
-484 166 891
-489 168 907
-497 172 931
-496 173 935
-507 178 964
-492 174 942
-490 174 945
-507 181 986
-488 175 955
-505 182 997
-493 179 981
-489 179 980
-514 189 1039
-493 183 1004
-495 185 1017
-502 188 1039
-476 180 993
-493 187 1037
-490 187 1037
-494 190 1056
-474 184 1021
-497 194 1079
-504 198 1102
-530 209 1168
-489 195 1089
-495 198 1110
-529 213 1196
-521 211 1188
-505 206 1161
-503 207 1167
-506 210 1184
-504 210 1188
-501 210 1191
-506 214 1212
-512 218 1239
-611 262 1490
-716 309 1762
-749 325 1858
-725 317 1815
-725 320 1831
-712 317 1814
-715 320 1837
-711 321 1843
-708 322 1851
-702 322 1853
-696 322 1853
-682 318 1833
-675 317 1832
-671 318 1837
-664 317 1835
-657 316 1832
-645 313 1818
-648 317 1843
-638 315 1831
-632 315 1831
-630 317 1843
-631 320 1863
-625 319 1863
-619 319 1864
-608 317 1850
-593 312 1823
-592 314 1837
-584 312 1831
-583 315 1848
-593 323 1898
-582 321 1884
-572 318 1870
-575 322 1898
-565 320 1887
-556 318 1876
-554 320 1890
-541 316 1866
-536 316 1868
-525 313 1853
-520 313 1855
-518 316 1871
-517 318 1887
-512 319 1892
-506 318 1890
-503 320 1902
-495 319 1895
-493 321 1907
-488 321 1914
-475 316 1884
-472 318 1895
-468 319 1903
-465 321 1915
-463 323 1932
-451 319 1907
-451 323 1931
-444 322 1926
-430 316 1894
-430 320 1917
-420 317 1899
-412 315 1891
-403 312 1874
-400 314 1885
-391 312 1874
-387 312 1879
-384 315 1894
-378 314 1892
-374 316 1902
-371 318 1917
-361 313 1890
-352 311 1877
-353 316 1910
-343 312 1886
-345 319 1929
-337 317 1920
-336 322 1947
-326 318 1923
-304 301 1823
-290 292 1772
-286 294 1782
-278 291 1766
-274 292 1769
-270 294 1782
-266 295 1789
-262 296 1797
-262 301 1831
-258 303 1843
-256 307 1869
-250 307 1866
-243 305 1856
-235 301 1836
-232 304 1851
-227 304 1855
-223 307 1871
-218 307 1876
-210 304 1855
-205 305 1860
-199 304 1855
-196 307 1875
-189 304 1858
-182 302 1846
-181 309 1890
-173 305 1865
-169 307 1879
-162 305 1866
-156 303 1856
-151 304 1864
-147 306 1873
-139 302 1851
-133 301 1845
-126 295 1808
-113 277 1695
-104 267 1638
-90 245 1500
-82 235 1437
-79 238 1460
-75 239 1462
-71 238 1457
-68 241 1479
-64 242 1487
-60 244 1500
-56 244 1499
-52 249 1531
-51 265 1627
-49 277 1701
-43 275 1691
-41 289 1780
-36 296 1823
-32 307 1886
-27 307 1888
-22 309 1900
-16 310 1910
-10 304 1874
-5 307 1888
0 308 1897
5 308 1894
11 309 1904
16 308 1897
21 306 1884
27 308 1898
32 306 1889
38 307 1891
43 307 1894
49 306 1884
55 311 1917
60 308 1896
66 310 1913
71 306 1887
76 307 1893
83 310 1911
88 310 1914
93 306 1887
99 308 1898
104 306 1888
110 309 1903
116 310 1914
123 312 1927
126 307 1891
131 307 1891
138 310 1911
143 309 1904
151 313 1930
155 310 1911
163 314 1935
166 309 1906
174 314 1938
178 311 1916
184 311 1920
192 315 1942
196 313 1928
204 317 1954
210 317 1956
216 317 1957
221 316 1949
223 311 1914
232 315 1944
234 311 1916
242 314 1936
251 318 1956
257 318 1957
262 318 1957
268 318 1957
270 313 1925
275 313 1925
283 315 1938
288 315 1937
295 316 1943
301 317 1946
303 312 1917
314 318 1952
313 311 1910
324 316 1943
327 313 1925
332 313 1919
338 313 1921
345 315 1931
352 316 1937
359 316 1940
361 313 1921
368 314 1926
372 313 1920
381 316 1937
385 315 1927
388 312 1909
394 312 1911
400 313 1914
407 314 1920
413 314 1918
418 313 1913
426 315 1924
433 316 1931
439 316 1930
442 315 1919
451 316 1930
456 316 1928
463 317 1931
468 316 1927
477 319 1941
474 312 1902
490 320 1945
486 313 1903
504 321 1950
503 316 1922
512 318 1934
519 319 1936
523 318 1928
529 318 1929
535 318 1929
543 319 1935
550 320 1938
555 320 1935
567 323 1954
564 318 1923
575 321 1940
582 322 1943
589 322 1945
595 323 1945
601 322 1942
607 322 1942
608 320 1926
621 323 1945
624 322 1936
630 322 1934
641 324 1948
650 326 1958
646 321 1926
662 326 1954
663 324 1938
672 325 1945
689 330 1974
693 329 1968
707 333 1988
715 334 1992
720 334 1989
730 335 1997
734 334 1989
738 333 1980
744 333 1978
746 332 1968
748 330 1956
737 322 1909
734 318 1884
710 305 1805
633 270 1594
650 275 1623
721 303 1785
741 309 1819
772 319 1881
791 325 1910
796 324 1905
797 322 1892
804 323 1892
811 323 1892
806 319 1866
817 321 1875
818 319 1862
822 318 1855
829 318 1856
815 311 1810
816 309 1797
809 304 1767
810 303 1755
812 301 1744
810 298 1726
809 296 1710
811 295 1702
812 293 1691
810 291 1673
813 289 1664
812 287 1651
818 287 1649
818 286 1637
814 283 1617
814 281 1604
814 279 1591
815 277 1581
817 276 1573
819 275 1564
820 274 1555
817 271 1537
824 272 1538
827 271 1532
831 271 1528
833 270 1521
831 268 1505
836 268 1504
836 266 1491
840 266 1488
838 264 1474
-479 159 826
-484 161 840
-487 163 851
-491 165 865
-489 166 869
-489 167 875
-489 167 881
-472 162 856
-484 168 884
-499 174 920
-487 171 904
-477 168 893
-495 175 932
-489 174 929
-480 172 919
-494 178 953
-493 179 958
-489 179 959
-492 181 972
-498 184 990
-489 182 980
-487 182 984
-486 183 989
-499 189 1023
-488 186 1010
-494 190 1030
-496 192 1042
-505 196 1069
-508 199 1085
-506 199 1090
-492 195 1068
-506 202 1107
-492 198 1085
-509 206 1132
-500 204 1122
-498 204 1125
-488 202 1112
-493 205 1133
-488 204 1131
-510 215 1192
-498 212 1175
-493 211 1172
-510 220 1222
-532 231 1287
-630 275 1536
-719 316 1767
-730 323 1809
-722 321 1805
-715 321 1804
-716 324 1822
-708 323 1819
-698 321 1809
-702 325 1835
-691 322 1822
-682 321 1816
-678 321 1820
-666 318 1806
-669 322 1830
-659 320 1819
-648 318 1808
-639 316 1799
-640 319 1819
-632 318 1813
-624 317 1808
-623 319 1822
-618 319 1825
-618 322 1844
-612 321 1842
-605 321 1840
-593 317 1823
-591 319 1835
-574 313 1801
-577 317 1827
-571 317 1829
-572 321 1852
-566 320 1849
-558 319 1842
-557 321 1859
-547 319 1845
-537 316 1834
-533 317 1840
-529 318 1846
-524 318 1848
-514 315 1832
-513 318 1851
-508 319 1855
-503 319 1859
-499 319 1862
-490 317 1851
-486 318 1860
-480 318 1858
-477 319 1868
-466 316 1848
-471 323 1893
-460 319 1871
-457 321 1883
-450 320 1876
-443 319 1873
-437 319 1872
-436 322 1894
-430 321 1892
-416 315 1857
-415 318 1876
-407 316 1865
-400 315 1859
-400 319 1885
-394 319 1886
-383 315 1861
-380 316 1871
-372 315 1862
-366 314 1858
-360 314 1860
-357 316 1872
-346 311 1844
-346 315 1870
-339 315 1867
-337 318 1887
-339 325 1930
-329 320 1903
-315 312 1858
-302 304 1811
-285 293 1741
-284 297 1769
-281 299 1780
-276 299 1781
-270 298 1778
-268 302 1804
-266 305 1821
-260 305 1822
-257 307 1836
-252 307 1836
-244 305 1821
-238 304 1817
-235 306 1832
-229 306 1831
-225 307 1838
-220 308 1843
-213 305 1830
-210 308 1848
-203 306 1835
-200 310 1857
-194 309 1852
-188 307 1845
-180 304 1823
-178 309 1854
-170 305 1830
-165 306 1837
-160 306 1838
-155 306 1841
-150 308 1852
-143 304 1826
-135 298 1792
-126 289 1739
-118 282 1700
-108 271 1632
-100 261 1573
-88 244 1466
-82 237 1427
-79 240 1445
-74 240 1442
-69 237 1428
-66 241 1450
-63 244 1467
-59 247 1489
-56 249 1502
-53 258 1554
-50 266 1604
-48 280 1688
-43 279 1683
-40 289 1744
-35 295 1781
-32 306 1847
-27 310 1874
-21 311 1878
-16 310 1873
-10 312 1888
-5 309 1871
0 311 1883
5 310 1877
10 310 1873
16 312 1890
21 311 1882
27 309 1871
32 312 1887
38 309 1872
43 309 1869
48 309 1871
54 307 1858
59 309 1873
65 309 1869
70 309 1873
76 311 1884
81 309 1872
87 312 1891
92 307 1861
98 310 1879
103 309 1868
109 311 1882
114 311 1882
120 310 1877
126 313 1893
132 313 1896
137 313 1896
142 312 1887
146 308 1865
154 314 1899
160 313 1898
167 316 1913
171 315 1905
179 317 1922
183 316 1910
189 316 1911
195 316 1914
200 316 1913
206 317 1916
213 318 1924
216 315 1907
222 315 1908
225 311 1881
232 313 1893
238 314 1896
245 315 1906
249 314 1899
256 316 1908
263 318 1919
267 315 1906
268 311 1876
277 314 1898
287 319 1927
288 314 1897
294 314 1898
298 312 1885
303 312 1882
311 315 1899
315 312 1884
320 313 1885
327 314 1890
331 312 1881
341 316 1903
342 312 1881
350 314 1891
360 319 1918
363 315 1898
371 318 1910
371 313 1882
380 316 1898
390 319 1918
397 321 1927
396 315 1893
405 318 1909
412 319 1915
416 317 1905
420 316 1896
422 313 1878
433 317 1902
438 317 1901
445 318 1903
450 317 1900
458 319 1909
465 320 1911
468 318 1900
476 320 1911
476 316 1885
485 318 1897
486 315 1881
496 317 1894
503 319 1899
513 321 1913
516 319 1903
527 322 1919
535 324 1927
541 324 1927
543 322 1912
545 320 1900
561 326 1934
568 326 1936
567 322 1912
573 322 1910
575 320 1897
586 323 1913
595 325 1923
595 322 1903
601 322 1900
621 329 1944
620 326 1923
625 325 1918
632 326 1921
642 328 1930
641 324 1909
652 327 1924
653 325 1908
660 325 1910
672 328 1926
682 330 1936
701 336 1970
713 339 1986
716 338 1975
720 337 1970
732 339 1982
728 335 1955
734 334 1951
740 335 1951
752 337 1963
754 335 1950
755 333 1937
742 325 1887
725 315 1827
703 303 1754
616 263 1522
653 277 1601
724 305 1761
754 315 1818
783 325 1874
795 327 1885
801 327 1885
796 323 1857
815 328 1885
812 325 1863
815 323 1853
823 324 1856
827 323 1850
831 323 1845
826 319 1818
820 314 1790
816 310 1768
817 309 1755
809 304 1724
811 302 1715
811 300 1701
815 300 1695
812 296 1675
809 294 1657
814 293 1654
814 291 1640
811 288 1621
815 288 1617
816 286 1606
815 284 1591
815 283 1581
815 281 1569
817 280 1561
825 281 1563
821 277 1543
817 275 1525
820 274 1519
825 274 1515
826 273 1507
825 271 1494
824 269 1481
829 269 1479
834 269 1476
830 266 1458
-483 163 832
-494 167 857
-476 162 832
-470 161 828
-487 168 864
-491 170 877
-499 174 898
-484 169 878
-485 171 887
-496 176 913
-490 175 909
-480 172 897
-489 176 922
-499 181 948
-501 183 958
-516 189 995
-490 181 952
-493 183 964
-491 183 968
-509 191 1012
-497 188 995
-519 197 1048
-495 190 1007
-500 193 1025
-495 192 1023
-494 193 1030
-516 203 1084
-515 204 1090
-517 206 1103
-482 193 1037
-479 193 1039
-492 200 1076
-522 213 1151
-501 206 1112
-498 207 1117
-490 204 1106
-514 216 1171
-500 212 1149
-498 212 1154
-488 209 1140
-498 215 1173
-510 222 1213
-590 258 1414
-630 277 1521
-642 285 1563
-670 299 1645
-702 316 1739
-702 318 1756
-709 324 1789
-707 325 1798
-701 325 1800
-693 324 1794
-688 324 1797
-688 326 1813
-672 322 1788
-670 323 1799
-666 324 1806
-656 322 1795
-655 324 1810
-643 321 1793
-637 320 1792
-628 319 1784
-625 320 1793
-620 320 1796
-619 322 1810
-603 317 1782
-610 323 1819
-599 320 1805
-594 320 1807
-590 321 1812
-584 321 1812
-572 317 1794
-572 320 1811
-567 320 1815
-566 323 1829
-560 323 1831
-558 325 1844
-549 322 1832
-539 320 1817
-539 323 1837
-526 319 1816
-520 318 1815
-516 319 1819
-513 320 1830
-506 319 1826
-503 321 1836
-493 318 1820
-487 318 1819
-487 321 1839
-477 318 1823
-475 320 1838
-470 321 1842
-467 322 1852
-460 321 1848
-455 321 1850
-448 321 1847
-442 320 1843
-436 320 1844
-432 320 1849
-427 321 1853
-415 316 1825
-409 316 1825
-404 316 1828
-401 317 1838
-393 316 1828
-388 315 1828
-386 318 1846
-376 315 1827
-370 314 1825
-363 313 1817
-362 316 1836
-353 313 1824
-351 316 1841
-345 315 1834
-338 314 1831
-334 315 1839
-329 316 1843
-323 315 1840
-321 318 1856
-309 311 1819
-299 307 1796
-289 302 1763
-279 297 1735
-279 303 1771
-272 301 1760
-267 301 1762
-266 305 1786
-257 301 1762
-259 310 1816
-254 310 1818
-250 311 1824
-243 309 1812
-239 310 1821
-233 309 1816
-228 310 1825
-222 308 1814
-217 309 1815
-212 309 1821
-207 310 1823
-201 309 1823
-195 308 1813
-191 310 1830
-184 307 1812
-180 309 1822
-178 315 1858
-170 310 1831
-164 309 1821
-157 306 1806
-155 312 1844
-150 312 1844
-143 310 1831
-132 297 1755
-122 286 1690
-113 276 1633
-103 263 1557
-96 257 1521
-88 247 1459
-81 240 1419
-76 237 1403
-74 243 1438
-69 242 1430
-66 246 1455
-62 245 1452
-59 248 1471
-54 249 1472
-52 257 1523
-50 269 1593
-47 281 1664
-42 279 1653
-39 288 1709
-35 295 1749
-31 306 1817
-26 307 1820
-21 312 1852
-16 312 1856
-10 309 1836
-5 311 1846
0 313 1860
5 311 1846
10 313 1859
16 309 1837
21 313 1861
26 308 1833
32 313 1862
37 312 1852
42 309 1835
48 312 1858
53 310 1842
59 310 1845
64 311 1848
69 310 1843
75 313 1864
81 313 1860
86 311 1852
90 309 1837
97 313 1861
102 313 1860
107 309 1838
111 307 1828
118 312 1853
124 312 1855
131 316 1881
134 310 1845
141 314 1868
147 316 1878
154 319 1898
158 314 1869
163 315 1871
168 313 1860
174 315 1874
178 313 1858
185 315 1871
192 317 1886
199 319 1896
202 316 1876
210 319 1896
215 318 1892
218 315 1873
226 318 1888
230 316 1879
233 313 1861
241 317 1880
250 321 1907
253 318 1887
256 314 1861
258 310 1838
267 314 1864
273 314 1865
275 311 1842
284 315 1865
294 320 1895
293 312 1851
300 314 1861
304 313 1855
311 315 1863
316 314 1858
323 316 1869
327 313 1855
330 312 1844
333 309 1826
341 311 1839
352 317 1873
359 318 1878
363 317 1871
368 316 1865
374 317 1870
380 317 1868
390 321 1892
398 322 1900
404 322 1901
399 314 1850
410 318 1876
413 317 1864
417 315 1856
428 319 1877
434 320 1882
439 319 1878
441 317 1861
452 320 1881
461 322 1894
463 320 1880
470 321 1883
475 321 1880
484 323 1894
491 324 1899
495 323 1892
502 323 1892
502 320 1873
512 323 1887
518 323 1886
522 322 1881
528 322 1880
537 324 1892
540 322 1879
546 322 1879
551 322 1876
559 323 1883
572 327 1906
572 324 1885
580 325 1891
591 329 1909
593 326 1894
597 326 1889
597 322 1869
613 328 1899
624 330 1914
629 330 1910
629 327 1892
641 330 1909
641 327 1890
650 329 1897
654 328 1890
665 330 1903
681 335 1931
689 336 1935
699 338 1945
710 341 1957
709 338 1938
717 338 1940
729 341 1955
725 337 1928
738 340 1943
741 338 1933
748 339 1935
757 340 1941
755 337 1919
753 333 1897
736 323 1837
724 315 1792
699 302 1714
619 265 1503
696 296 1676
736 311 1760
759 318 1798
783 326 1842
796 329 1856
801 328 1850
802 326 1838
810 327 1842
814 327 1836
823 328 1842
819 324 1817
827 325 1819
829 323 1809
817 316 1768
819 315 1758
815 311 1736
822 312 1735
813 306 1703
812 304 1688
816 303 1682
814 301 1666
812 298 1648
810 295 1632
814 295 1627
811 292 1608
817 292 1608
811 288 1583
815 288 1579
817 287 1571
815 284 1555
819 284 1551
818 282 1538
816 279 1522
825 280 1527
823 278 1511
822 276 1498
823 275 1489
824 273 1480
822 271 1466
831 273 1471
831 271 1460
-479 164 824
-484 167 839
-479 166 837
-489 170 860
-480 168 851
-489 172 873
-486 172 875
-491 175 890
-480 172 877
-477 172 878
-481 174 891
-483 176 903
-491 180 925
-506 187 960
-492 183 942
-505 188 973
-487 183 946
-493 186 965
-505 192 996
-495 189 984
-486 187 974
-502 194 1013
-482 188 980
-493 193 1011
-490 193 1012
-498 198 1037
-508 203 1067
-497 200 1053
-493 200 1052
-494 201 1063
-499 205 1082
-510 211 1115
-480 200 1058
-493 206 1095
-509 215 1140
-500 212 1130
-509 218 1159
-489 211 1124
-495 214 1146
-488 213 1139
-496 218 1168
-513 227 1218
-564 251 1350
-587 263 1417
-545 246 1328
-557 254 1370
-640 293 1585
-696 321 1741
-702 326 1771
-698 327 1775
-693 327 1779
-687 327 1779
-678 325 1771
-675 326 1781
-671 327 1784
-664 326 1783
-660 327 1789
-658 328 1800
-647 325 1785
-643 326 1790
-627 321 1764
-631 325 1791
-619 322 1776
-598 314 1732
-604 320 1766
-607 324 1791
-601 324 1792
-592 322 1782
-590 324 1794
-586 325 1800
-577 322 1789
-572 322 1792
-562 320 1780
-559 321 1789
-557 323 1799
-549 322 1793
-553 327 1825
-544 325 1815
-535 323 1804
-526 321 1795
-516 318 1778
-516 321 1799
-511 321 1801
-510 324 1816
-506 325 1826
-500 324 1823
-496 325 1831
-490 325 1828
-482 323 1819
-471 319 1800
-467 320 1806
-462 320 1808
-457 321 1811
-454 323 1824
-451 324 1835
-446 324 1837
-437 322 1823
-430 320 1816
-427 322 1827
-420 321 1821
-417 323 1833
-405 318 1807
-399 317 1803
-398 320 1823
-390 319 1815
-379 314 1788
-378 317 1806
-370 315 1797
-368 318 1814
-357 313 1786
-354 314 1796
-352 318 1816
-347 318 1818
-339 316 1806
-334 316 1807
-333 320 1831
-325 317 1817
-320 318 1822
-316 319 1829
-301 309 1773
-290 303 1741
-281 299 1719
-274 297 1707
-271 299 1719
-270 303 1741
-262 300 1727
-259 302 1741
-252 300 1730
-253 307 1768
-249 309 1782
-245 310 1790
-240 310 1788
-232 307 1772
-227 307 1773
-222 307 1776
-219 310 1789
-214 311 1796
-207 308 1780
-204 311 1798
-199 311 1802
-193 310 1797
-188 310 1794
-182 310 1795
-177 310 1798
-173 312 1810
-166 309 1793
-162 310 1800
-157 311 1802
-151 309 1796
-146 310 1800
-140 308 1790
-129 296 1719
-120 286 1660
-110 275 1596
-101 263 1528
-94 256 1485
-85 244 1415
-80 240 1391
-77 243 1414
-74 246 1428
-68 243 1410
-65 246 1428
-61 246 1431
-58 249 1446
-55 254 1475
-51 255 1483
-50 273 1591
-45 274 1597
-42 279 1627
-39 291 1696
-34 298 1737
-30 304 1771
-26 313 1827
-21 313 1828
-15 312 1821
-10 314 1832
-5 313 1830
0 311 1814
5 311 1815
10 312 1821
16 312 1824
21 311 1818
26 313 1831
31 312 1821
37 313 1826
43 316 1846
48 314 1835
53 315 1842
58 313 1826
63 310 1812
69 312 1825
74 312 1825
80 313 1832
86 316 1845
90 313 1829
96 314 1834
100 311 1818
105 310 1813
111 312 1823
116 311 1820
123 315 1840
127 311 1817
133 314 1837
139 315 1838
145 317 1851
149 314 1835
155 314 1834
162 317 1852
167 318 1855
172 316 1845
178 317 1852
184 319 1862
192 323 1885
195 319 1861
202 321 1875
207 321 1871
212 319 1862
217 319 1862
223 320 1867
227 317 1849
232 317 1852
240 320 1865
245 319 1864
251 320 1865
256 319 1862
256 313 1824
260 311 1813
265 311 1811
276 317 1850
278 314 1826
282 312 1818
290 315 1834
296 315 1836
299 313 1823
306 314 1828
312 315 1831
316 314 1824
320 313 1819
326 313 1817
331 313 1819
339 315 1829
347 317 1841
347 312 1812
361 320 1858
368 322 1867
375 323 1874
372 316 1829
377 315 1827
391 322 1869
395 321 1861
398 319 1848
408 322 1864
415 324 1874
419 322 1864
423 321 1858
429 321 1856
431 319 1842
433 316 1828
449 324 1869
454 323 1864
462 325 1876
460 320 1843
464 319 1837
469 318 1833
479 322 1852
487 323 1858
489 321 1845
498 323 1855
506 324 1864
509 323 1854
520 326 1873
523 325 1863
535 328 1881
535 325 1860
541 325 1862
550 327 1873
553 325 1861
560 326 1866
565 326 1861
571 326 1861
580 328 1872
580 325 1851
587 325 1855
606 333 1896
606 330 1877
611 330 1874
614 328 1864
622 329 1870
627 329 1865
645 335 1899
639 329 1865
648 331 1874
657 332 1881
664 333 1882
683 339 1917
704 347 1958
708 346 1952
708 343 1934
713 342 1928
719 342 1927
727 344 1932
731 343 1925
738 343 1926
742 342 1918
749 342 1918
752 341 1910
754 339 1897
758 338 1891
743 329 1838
728 320 1786
727 317 1766
691 299 1663
635 273 1515
706 301 1673
741 313 1739
765 321 1782
788 329 1821
800 331 1833
808 332 1836
807 329 1819
813 330 1818
818 329 1813
827 330 1818
829 329 1809
832 328 1799
838 328 1797
829 322 1764
823 317 1737
821 315 1720
816 311 1695
816 309 1682
818 307 1673
813 303 1649
815 302 1641
811 299 1621
815 298 1615
815 296 1603
816 295 1592
815 293 1579
816 291 1567
816 289 1556
817 288 1546
816 286 1533
819 285 1526
822 284 1520
824 283 1513
825 282 1503
817 278 1477
824 278 1478
825 277 1470
831 277 1470
828 275 1453
-480 167 826
-472 165 817
-487 171 850
-485 172 854
-502 179 889
-489 175 873
-498 179 896
-499 181 904
-497 181 908
-503 184 925
-490 181 909
-487 180 909
-494 184 931
-496 186 940
-507 191 968
-488 185 940
-506 193 981
-493 189 964
-498 192 981
-499 194 990
-489 191 978
-493 194 995
-492 195 1000
-499 199 1023
-489 196 1011
-491 198 1023
-501 204 1052
-484 198 1023
-500 206 1066
-494 205 1062
-508 212 1100
-494 208 1079
-480 203 1057
-486 207 1079
-502 215 1124
-508 219 1146
-508 221 1157
-533 233 1222
-494 218 1143
-497 220 1160
-492 220 1158
-496 223 1177
-504 228 1207
-507 231 1223
-502 231 1223
-545 252 1340
-679 316 1680
-694 325 1733
-699 330 1762
-688 328 1750
-690 331 1769
-683 330 1768
-674 329 1761
-671 329 1767
-660 327 1755
-648 323 1738
-650 327 1761
-645 327 1763
-637 326 1759
-626 323 1743
-618 321 1737
-612 321 1738
-609 322 1744
-598 319 1732
-594 320 1735
-596 324 1757
-595 326 1773
-588 325 1770
-582 325 1767
-580 326 1780
-574 326 1779
-556 319 1742
-559 324 1769
-556 325 1778
-547 323 1767
-548 326 1788
-549 330 1813
-539 327 1796
-536 329 1807
-521 323 1777
-512 321 1765
-510 323 1776
-507 324 1788
-504 326 1797
-499 326 1797
-497 328 1811
-487 325 1797
-482 325 1799
-477 325 1801
-471 325 1801
-466 325 1803
-461 325 1807
-457 326 1812
-454 328 1823
-441 323 1794
-436 323 1796
-434 325 1808
-427 323 1802
-422 324 1808
-417 324 1806
-412 325 1812
-402 321 1792
-396 320 1790
-390 319 1785
-383 318 1779
-377 317 1776
-373 319 1785
-364 315 1766
-359 315 1768
-351 313 1754
-350 316 1776
-348 319 1793
-337 314 1764
-334 316 1776
-329 317 1782
-322 315 1772
-317 315 1773
-315 318 1793
-308 316 1783
-302 316 1780
-285 303 1711
-281 304 1716
-275 303 1712
-270 303 1711
-259 296 1675
-259 301 1705
-252 300 1695
-251 304 1723
-249 308 1744
-244 307 1740
-243 313 1774
-236 311 1761
-231 311 1766
-226 310 1762
-222 312 1770
-216 312 1770
-212 312 1774
-207 313 1777
-203 315 1793
-196 312 1773
-191 313 1780
-187 315 1791
-179 310 1764
-175 311 1773
-170 312 1780
-166 313 1785
-161 313 1786
-154 311 1773
-150 314 1789
-144 312 1778
-137 307 1754
-130 302 1724
-121 293 1672
-110 279 1594
-102 269 1535
-93 257 1468
-86 250 1427
-79 242 1379
-75 243 1388
-72 245 1400
-68 246 1402
-65 248 1415
-60 248 1415
-57 249 1422
-54 254 1450
-50 257 1470
-48 270 1545
-45 276 1577
-40 275 1577
-38 292 1671
-34 298 1710
-29 303 1738
-26 318 1823
-20 316 1815
-15 313 1794
-10 312 1790
-4 313 1795
0 315 1806
5 313 1793
10 315 1805
16 315 1806
21 315 1809
26 315 1810
31 314 1800
36 311 1785
42 316 1815
47 317 1823
52 315 1808
58 316 1816
63 316 1812
68 316 1815
73 315 1809
79 316 1817
84 315 1811
89 313 1799
95 317 1820
100 315 1810
105 316 1816
111 317 1820
116 317 1820
121 315 1808
126 315 1811
134 321 1842
137 315 1808
143 318 1825
148 316 1814
152 313 1799
162 323 1856
166 320 1837
173 323 1855
179 325 1866
182 320 1838
186 318 1824
192 319 1831
201 324 1862
208 327 1876
213 326 1871
215 321 1842
222 323 1851
226 321 1841
230 319 1828
237 321 1841
240 319 1827
244 317 1816
251 319 1830
258 321 1836
259 316 1809
263 313 1793
270 315 1806
274 315 1800
280 315 1803
281 310 1775
290 315 1799
295 314 1798
301 315 1802
302 310 1773
309 312 1782
316 314 1794
324 316 1805
328 315 1797
335 316 1805
335 311 1776
345 316 1803
354 319 1820
361 321 1828
367 321 1828
366 316 1799
379 323 1837
388 325 1852
392 324 1846
390 318 1810
396 318 1811
401 318 1806
410 321 1822
419 324 1838
424 323 1836
430 323 1836
430 320 1814
439 322 1828
450 326 1847
453 324 1836
453 320 1815
465 325 1838
470 325 1837
475 324 1832
478 323 1825
491 327 1849
497 327 1849
500 326 1842
506 326 1842
517 330 1861
524 331 1865
522 326 1837
536 331 1864
533 326 1834
543 328 1846
544 326 1830
555 329 1849
559 328 1841
568 330 1851
572 329 1846
582 331 1857
585 330 1847
595 332 1859
599 331 1853
605 331 1852
605 328 1834
616 331 1848
618 329 1837
630 333 1856
629 329 1835
645 335 1863
646 332 1846
653 333 1850
678 342 1902
690 346 1919
698 347 1924
708 349 1931
705 344 1905
713 346 1911
725 348 1925
725 345 1907
731 346 1907
736 345 1902
740 344 1896
744 343 1888
753 345 1894
755 343 1882
759 342 1876
758 339 1857
753 334 1829
741 326 1784
732 320 1748
681 295 1611
633 273 1484
698 298 1623
734 311 1694
763 321 1746
790 330 1794
797 331 1794
806 332 1800
810 332 1795
815 331 1792
820 331 1787
830 333 1794
834 332 1788
834 330 1774
837 329 1766
827 322 1730
822 318 1707
820 315 1689
818 313 1673
818 311 1658
814 307 1638
818 307 1633
808 301 1600
811 300 1595
815 299 1589
812 297 1572
818 297 1570
819 295 1561
818 293 1547
818 291 1535
818 290 1524
816 287 1509
819 287 1503
820 285 1494
828 286 1496
825 283 1479
825 282 1469
823 279 1454
828 279 1452
-493 175 848
-485 173 840
-482 173 842
-487 175 856
-495 179 877
-479 175 855
-492 180 885
-490 181 888
-479 177 873
-485 181 893
-496 186 920
-490 185 914
-488 185 918
-490 187 929
-479 184 915
-483 186 930
-492 191 953
-490 191 957
-495 195 976
-487 192 966
-495 197 990
-511 204 1030
-507 204 1029
-489 198 1002
-481 196 993
-486 199 1011
-484 200 1015
-490 204 1036
-489 205 1043
-491 207 1055
-500 212 1084
-489 209 1068
-497 214 1094
-512 222 1137
-512 223 1147
-519 228 1171
-511 226 1163
-503 224 1154
-504 226 1166
-492 222 1148
-496 226 1168
-501 229 1188
-505 233 1209
-534 248 1289
-566 264 1378
-609 286 1496
-677 320 1677
-686 327 1713
-686 329 1727
-685 332 1742
-679 331 1740
-673 331 1741
-667 331 1742
-660 330 1739
-653 329 1737
-645 328 1732
-640 327 1732
-625 323 1709
-627 326 1730
-622 326 1731
-617 327 1735
-612 327 1737
-602 324 1725
-602 327 1741
-588 322 1719
-592 327 1745
-579 323 1724
-582 327 1749
-576 327 1749
-568 325 1742
-566 327 1755
-556 324 1741
-550 324 1739
-542 322 1733
-544 326 1758
-541 328 1766
-536 328 1769
-528 326 1762
-522 326 1761
-516 325 1758
-511 325 1760
-504 324 1757
-497 323 1750
-495 325 1764
-497 330 1792
-491 329 1788
-483 328 1782
-479 329 1788
-475 329 1792
-466 327 1782
-461 327 1782
-456 327 1786
-455 330 1803
-443 326 1780
-438 325 1778
-431 324 1773
-429 327 1789
-426 328 1798
-422 329 1804
-409 323 1772
-404 323 1775
-396 321 1763
-392 322 1772
-390 325 1786
-381 321 1768
-372 319 1755
-369 320 1765
-363 320 1761
-357 319 1757
-348 315 1740
-346 318 1755
-338 316 1743
-333 316 1746
-329 316 1750
-327 319 1768
-320 318 1758
-316 319 1765
-315 323 1790
-302 316 1750
-298 317 1756
-288 311 1724
-279 307 1703
-272 305 1692
-269 307 1706
-261 303 1686
-256 303 1687
-252 304 1692
-247 305 1696
-244 307 1709
-243 311 1734
-238 311 1734
-232 310 1728
-231 316 1763
-223 312 1738
-220 315 1756
-212 310 1731
-208 312 1742
-203 312 1746
-199 315 1759
-193 313 1750
-189 315 1761
-184 315 1764
-177 311 1742
-173 313 1752
-170 316 1771
-162 311 1742
-160 318 1784
-153 315 1764
-149 316 1775
-143 315 1764
-135 308 1730
-128 305 1709
-118 293 1642
-109 281 1574
-100 268 1506
-92 259 1453
-84 248 1392
-78 244 1366
-74 244 1369
-71 246 1383
-67 246 1384
-63 246 1384
-60 249 1400
-56 250 1407
-53 256 1439
-49 258 1452
-47 270 1521
-43 272 1531
-39 276 1551
-37 288 1622
-34 302 1704
-29 307 1730
-25 317 1788
-20 315 1774
-15 314 1772
-9 316 1783
-4 314 1769
0 315 1779
5 315 1780
10 316 1781
16 319 1802
21 317 1786
26 314 1769
31 316 1782
36 315 1780
41 316 1786
47 317 1790
52 318 1794
57 315 1780
62 317 1788
67 315 1781
73 319 1800
78 318 1797
82 314 1771
88 316 1784
94 318 1795
99 317 1789
104 316 1784
109 317 1788
115 317 1790
120 318 1795
125 317 1791
130 317 1788
137 322 1815
141 318 1795
149 324 1827
151 317 1792
159 322 1818
163 321 1810
170 323 1821
177 326 1838
179 321 1810
187 324 1827
193 325 1835
199 327 1847
202 324 1826
210 326 1841
215 326 1838
217 322 1813
224 323 1823
225 318 1791
232 320 1805
238 321 1807
243 321 1806
248 320 1801
249 315 1773
256 317 1786
261 316 1780
267 317 1784
272 317 1786
278 318 1787
281 315 1773
288 317 1784
292 316 1778
299 318 1788
305 318 1788
309 317 1783
315 318 1784
321 319 1792
322 315 1765
332 319 1788
330 313 1753
339 316 1769
350 321 1799
354 320 1793
361 321 1799
365 320 1792
372 322 1802
380 324 1813
382 321 1796
392 325 1818
393 321 1795
398 321 1793
408 325 1813
409 321 1794
414 321 1790
425 325 1813
427 322 1797
437 326 1819
438 323 1798
446 324 1807
456 328 1824
453 322 1789
463 325 1808
470 326 1811
469 322 1788
485 329 1825
486 326 1810
495 328 1823
496 325 1803
501 325 1802
510 327 1813
525 333 1845
526 330 1829
531 330 1827
533 328 1814
538 327 1809
542 327 1805
557 333 1835
564 333 1836
566 331 1825
567 329 1809
581 333 1833
576 327 1800
594 334 1837
591 330 1810
602 333 1825
608 333 1825
612 332 1819
625 336 1840
621 331 1811
636 335 1834
637 333 1822
653 339 1850
674 346 1891
695 354 1932
707 357 1946
695 348 1895
701 348 1894
701 346 1878
712 348 1890
715 346 1879
725 348 1889
734 350 1895
739 349 1890
736 345 1868
741 345 1864
747 345 1862
753 345 1860
758 345 1857
758 342 1841
758 339 1825
750 333 1790
732 323 1731
727 318 1705
647 281 1503
614 265 1414
699 299 1598
734 312 1664
766 323 1723
802 336 1789
800 333 1771
808 334 1774
813 334 1770
819 334 1770
826 334 1771
828 333 1760
830 331 1751
837 332 1751
833 328 1730
830 325 1710
825 321 1685
821 317 1664
823 316 1655
814 310 1624
818 310 1619
816 307 1603
818 306 1595
815 303 1577
817 302 1568
822 302 1566
821 299 1551
815 295 1528
817 294 1521
831 297 1536
821 292 1506
799 283 1454
830 292 1499
822 287 1473
822 286 1463
829 286 1464
825 283 1446
-485 174 833
-487 176 843
-489 178 853
-468 171 822
-480 177 850
-473 175 843
-488 181 876
-487 182 882
-489 184 891
-493 187 907
-477 181 882
-480 184 895
-481 185 905
-492 191 933
-491 191 938
-489 192 940
-494 195 958
-492 195 960
-492 197 970
-496 199 985
-502 203 1004
-486 198 980
-487 199 990
-490 202 1002
-495 205 1022
-496 207 1032
-490 206 1026
-470 199 993
-484 206 1031
-480 206 1032
-502 216 1087
-505 219 1102
-531 232 1167
-544 239 1206
-560 247 1252
-558 248 1258
-536 240 1219
-503 227 1153
-494 225 1142
-483 222 1127
-498 230 1172
-517 240 1225
-542 254 1297
-572 269 1379
-597 283 1451
-599 286 1470
-659 317 1630
-685 332 1710
-679 332 1710
-677 333 1721
-669 332 1715
-670 335 1732
-664 334 1733
-653 331 1720
-649 332 1723
-636 328 1706
-632 328 1709
-628 329 1716
-621 328 1713
-624 333 1737
-611 329 1717
-604 327 1712
-593 324 1698
-592 326 1711
-588 327 1717
-582 327 1717
-575 326 1713
-574 328 1727
-567 327 1721
-561 326 1720
-557 327 1725
-553 328 1731
-542 324 1714
-537 325 1718
-530 323 1711
-531 327 1734
-526 327 1735
-518 325 1726
-514 326 1734
-509 326 1736
-505 327 1738
-497 325 1731
-492 325 1732
-491 328 1749
-486 328 1750
-478 326 1742
-477 329 1760
-478 333 1784
-471 332 1779
-466 332 1778
-460 331 1777
-458 334 1793
-450 332 1783
-442 330 1773
-437 330 1775
-429 328 1766
-422 327 1760
-419 328 1768
-410 325 1754
-411 330 1780
-400 325 1756
-386 318 1718
-388 324 1754
-377 320 1728
-370 318 1719
-371 323 1749
-361 319 1726
-359 322 1743
-350 318 1722
-349 322 1747
-342 320 1736
-339 321 1747
-335 322 1752
-330 323 1755
-321 319 1737
-313 316 1721
-311 319 1739
-305 318 1733
-300 318 1735
-291 314 1713
-285 313 1709
-278 311 1697
-271 308 1683
-263 306 1669
-261 309 1688
-255 307 1679
-251 308 1684
-246 308 1684
-246 314 1722
-241 315 1723
-233 310 1699
-231 314 1723
-224 311 1707
-220 313 1716
-216 314 1726
-212 315 1731
