VERSION 0.7
FIELDS x y z
SIZE 4 4 4
TYPE I I I
COUNT 1 1 1
WIDTH 3690
HEIGHT 1
VIEWPOINT 0.0 0.0 0.0 1.0 0.0 0.0 0.0
POINTS 3690
DATA ascii
-730 113 2479
-713 112 2447
-713 113 2475
-710 114 2493
-705 114 2501
-697 114 2502
-676 111 2454
-654 109 2402
-637 107 2367
-616 105 2314
-593 102 2256
-588 102 2261
-571 100 2224
-563 100 2217
-549 99 2190
-536 98 2165
-512 94 2093
-500 93 2070
-488 92 2048
-471 90 2002
-454 88 1957
-442 87 1928
-431 86 1907
-421 85 1886
-417 85 1897
-412 85 1897
-406 85 1896
-405 86 1920
-398 85 1912
-393 86 1919
-391 86 1935
-384 86 1932
-376 85 1920
-368 85 1908
-363 85 1909
-355 84 1898
-337 81 1831
-354 87 1955
-337 84 1892
-325 82 1859
-337 86 1955
-319 83 1888
-317 84 1907
-300 81 1836
-285 78 1781
-279 78 1775
-269 77 1746
-269 78 1781
-265 78 1783
-266 80 1829
-285 87 1997
-274 86 1961
-263 84 1922
-255 83 1907
-253 84 1930
-242 83 1891
-237 83 1899
-231 83 1893
-212 78 1783
-210 79 1809
-201 77 1772
-201 79 1822
-189 76 1758
-182 76 1741
-189 81 1859
-177 78 1789
-163 74 1705
-161 75 1736
-156 75 1736
-154 77 1771
-157 81 1866
-146 78 1800
-142 78 1816
-138 79 1833
-130 77 1788
-122 76 1755
-113 73 1692
-108 73 1688
-95 68 1569
-92 69 1591
-86 68 1571
-82 68 1580
-76 67 1550
-74 69 1601
-73 72 1671
-65 68 1588
-57 66 1526
-56 69 1613
-51 69 1606
-46 68 1585
-42 69 1607
-37 68 1581
-33 69 1618
-28 68 1576
-23 67 1564
-19 69 1607
-14 68 1599
-10 68 1584
-5 68 1583
-1 69 1613
3 67 1580
8 68 1583
12 67 1582
17 67 1578
22 69 1610
26 67 1570
31 69 1610
35 68 1593
40 68 1592
44 67 1576
49 68 1594
56 71 1666
59 69 1625
64 69 1633
69 69 1627
74 70 1647
76 67 1580
83 69 1636
89 70 1653
90 67 1585
98 70 1644
104 70 1667
104 67 1583
109 67 1596
118 70 1659
117 67 1575
132 72 1718
138 73 1724
149 76 1805
159 78 1865
169 81 1919
176 81 1929
180 80 1907
182 79 1879
191 80 1915
202 82 1965
217 86 2052
231 89 2128
240 90 2157
247 90 2158
254 91 2163
255 89 2117
246 84 1998
248 82 1962
249 81 1928
249 79 1888
264 82 1959
254 77 1842
261 78 1851
266 77 1850
268 76 1822
283 79 1888
283 78 1855
283 76 1817
292 77 1843
290 75 1795
288 73 1746
304 76 1817
306 75 1794
310 75 1785
331 78 1878
311 72 1731
322 74 1767
330 74 1777
336 75 1782
342 75 1787
338 73 1737
349 74 1770
358 75 1786
363 75 1786
368 74 1782
364 73 1737
389 76 1831
386 75 1791
384 73 1755
385 73 1738
394 73 1756
393 72 1725
392 71 1700
419 75 1792
421 74 1777
422 74 1760
422 73 1737
420 71 1708
434 73 1742
433 72 1715
431 71 1688
431 70 1666
448 72 1714
459 73 1736
455 71 1699
464 72 1713
472 72 1724
473 71 1706
488 73 1742
485 72 1712
480 70 1675
498 72 1718
501 72 1711
518 73 1751
493 69 1646
516 71 1706
517 71 1691
517 70 1673
516 69 1653
532 71 1687
538 71 1689
544 71 1692
539 70 1658
515 66 1567
513 65 1548
508 64 1517
503 63 1487
512 63 1498
501 61 1451
490 59 1405
498 60 1417
520 62 1466
539 64 1506
550 64 1521
551 64 1511
571 65 1552
585 67 1576
622 70 1661
628 70 1661
645 71 1691
627 69 1628
654 71 1684
638 69 1628
652 70 1649
660 70 1657
665 70 1653
669 70 1649
674 70 1647
681 70 1652
702 72 1689
704 71 1678
712 71 1683
717 71 1682
723 71 1682
730 72 1684
743 72 1700
765 74 1737
749 72 1685
768 73 1714
814 77 1803
809 76 1777
833 77 1816
790 73 1708
772 71 1655
863 79 1836
801 72 1691
817 73 1711
827 74 1718
788 70 1625
787 69 1610
810 71 1644
845 73 1702
870 75 1741
892 76 1771
893 76 1759
901 76 1762
912 76 1769
917 76 1766
920 76 1758
924 76 1752
933 76 1756
938 76 1752
940 76 1744
943 76 1736
954 76 1742
962 76 1744
959 75 1727
969 76 1732
-1305 125 2276
-1295 124 2274
-1284 124 2272
-1283 125 2287
-1249 122 2243
-1252 123 2265
-1243 123 2265
-1220 121 2240
-1219 122 2254
-1209 121 2253
-1191 120 2236
-1197 122 2264
-1178 120 2246
-1163 119 2233
-1151 119 2227
-1140 118 2222
-1134 119 2229
-1124 118 2225
-1111 117 2216
-1102 117 2214
-1093 117 2215
-1085 117 2214
-1070 116 2202
-1061 116 2200
-1050 115 2194
-1039 115 2188
-1039 115 2206
-1015 113 2173
-1003 113 2163
-985 111 2142
-983 112 2154
-991 114 2188
-990 114 2204
-987 115 2215
-992 116 2244
-974 115 2222
-962 114 2214
-957 114 2221
-939 113 2195
-895 108 2110
-824 100 1960
-803 99 1927
-793 98 1919
-795 99 1939
-784 98 1930
-776 98 1926
-774 98 1937
-766 98 1933
-763 98 1942
-758 98 1946
-747 98 1936
-749 99 1958
-758 101 1998
-783 105 2084
-798 108 2143
-781 106 2118
-791 108 2163
-814 112 2247
-817 113 2275
-809 113 2274
-790 112 2243
-782 111 2240
-775 111 2241
-773 112 2257
-764 112 2252
-729 107 2169
-706 105 2123
-697 104 2114
-698 105 2139
-702 107 2175
-708 109 2213
-711 110 2245
-708 111 2260
-712 112 2295
-706 113 2300
-705 113 2321
-711 115 2366
-700 115 2354
-694 115 2358
-691 115 2374
-686 116 2382
-679 116 2384
-671 115 2380
-664 115 2382
-639 112 2321
-638 113 2341
-635 114 2358
-622 113 2338
-608 111 2312
-590 109 2272
-541 102 2107
-516 98 2034
-511 98 2037
-503 98 2032
-488 96 1996
-473 94 1961
-462 93 1940
-452 92 1922
-447 92 1924
-437 91 1908
-428 91 1895
-418 89 1872
-416 90 1890
-407 89 1877
-402 90 1880
-405 91 1921
-394 90 1897
-386 89 1883
-379 89 1879
-371 89 1868
-359 87 1834
-368 90 1905
-362 90 1907
-351 89 1875
-337 87 1834
-338 88 1869
-341 90 1914
-339 91 1937
-331 91 1926
-335 93 1979
-329 93 1981
-316 91 1938
-290 85 1808
-275 82 1747
-275 84 1780
-265 82 1748
-263 83 1770
-270 87 1858
-273 90 1918
-269 90 1926
-261 89 1908
-261 91 1948
-250 89 1913
-246 90 1925
-242 90 1939
-225 86 1845
-214 84 1796
-202 81 1739
-206 84 1817
-199 84 1804
-188 81 1751
-179 80 1717
-177 81 1743
-173 81 1758
-167 81 1749
-165 82 1772
-160 82 1781
-148 79 1705
-146 80 1739
-142 81 1744
-139 82 1770
-137 84 1818
-130 83 1797
-122 80 1744
-111 77 1662
-106 76 1659
-98 74 1609
-95 75 1630
-91 76 1651
-85 75 1634
-78 72 1577
-74 73 1589
-69 73 1589
-64 72 1568
-62 75 1640
-54 71 1551
-53 75 1642
-47 74 1618
-42 73 1588
-38 74 1614
-31 71 1544
-28 72 1579
-23 72 1577
-19 74 1615
-14 73 1593
-10 75 1637
-5 73 1594
0 72 1578
3 73 1596
8 72 1591
13 75 1640
17 73 1596
21 71 1560
26 71 1560
30 71 1559
35 72 1578
39 71 1570
44 72 1582
48 70 1547
53 72 1586
57 70 1543
64 73 1611
68 73 1616
75 76 1669
79 74 1633
80 71 1574
86 72 1591
89 71 1573
98 74 1639
102 74 1634
105 72 1599
112 74 1634
115 73 1611
120 73 1622
126 74 1632
136 77 1706
144 78 1739
152 80 1778
164 83 1852
170 84 1865
172 82 1825
172 79 1766
179 80 1784
190 83 1848
204 87 1929
217 90 2001
228 91 2040
239 94 2090
249 95 2119
252 94 2092
248 90 2009
245 87 1937
247 86 1909
252 85 1904
255 85 1890
262 85 1902
263 84 1868
267 83 1854
275 84 1874
282 84 1882
278 82 1822
279 80 1794
289 81 1819
293 81 1810
300 82 1825
299 80 1784
305 80 1789
311 80 1793
326 83 1846
333 83 1856
321 79 1757
332 80 1792
342 81 1814
347 81 1815
355 82 1825
357 81 1810
378 84 1888
383 84 1886
374 81 1811
371 79 1773
376 79 1770
373 77 1731
381 78 1742
387 78 1748
392 78 1743
400 79 1756
404 78 1751
420 80 1795
423 80 1787
418 78 1744
414 76 1703
429 78 1744
432 78 1735
428 76 1697
442 78 1732
434 75 1677
451 77 1724
458 77 1730
449 75 1678
464 77 1712
464 76 1694
468 76 1690
483 77 1722
483 76 1706
499 78 1741
496 77 1713
505 77 1725
508 77 1717
514 77 1718
513 76 1697
508 75 1661
478 70 1546
481 69 1539
515 73 1634
537 76 1687
549 77 1705
543 75 1672
524 72 1596
510 69 1537
505 68 1508
501 67 1482
499 66 1462
497 65 1440
489 64 1405
500 64 1422
519 66 1461
532 67 1486
544 68 1506
543 67 1487
554 68 1504
568 69 1528
626 76 1671
629 75 1664
632 75 1656
636 75 1653
657 77 1692
647 75 1651
662 76 1677
668 76 1675
669 76 1663
677 76 1669
681 76 1666
688 76 1668
698 76 1678
703 76 1676
700 75 1656
712 76 1670
709 75 1649
721 76 1662
723 75 1652
756 78 1715
738 76 1661
767 78 1713
759 77 1681
759 76 1668
772 77 1683
755 75 1631
758 75 1625
784 77 1667
780 76 1646
787 76 1649
778 75 1617
786 75 1619
817 77 1670
790 74 1604
822 77 1657
852 79 1704
880 81 1746
894 82 1761
899 81 1757
906 82 1758
916 82 1763
920 82 1757
931 82 1765
936 82 1761
937 82 1750
942 82 1747
949 82 1747
952 81 1738
955 81 1731
967 82 1741
969 81 1732
-1291 131 2252
-1290 131 2266
-1289 132 2281
-1276 131 2274
-1253 130 2249
-1256 131 2273
-1255 131 2288
-1222 129 2243
-1224 130 2264
-1201 128 2237
-1192 127 2237
-1189 128 2248
-1180 128 2249
-1161 126 2229
-1150 126 2224
-1145 126 2232
-1130 125 2220
-1118 125 2214
-1111 125 2216
-1102 124 2215
-1089 124 2206
-1078 123 2200
-1067 122 2195
-1044 121 2163
-1034 120 2161
-1025 120 2158
-1003 118 2130
-985 117 2107
-962 115 2075
-956 115 2078
-952 115 2086
-946 115 2090
-947 116 2109
-940 116 2109
-941 117 2128
-938 117 2139
-918 115 2112
-919 116 2132
-922 117 2156
-905 116 2134
-835 108 1986
-804 105 1927
-797 104 1927
-788 104 1922
-778 103 1913
-771 103 1914
-769 104 1925
-758 103 1914
-755 103 1923
-748 103 1923
-743 103 1924
-740 104 1935
-749 106 1975
-770 109 2050
-781 112 2098
-728 105 1973
-710 103 1941
-735 108 2028
-730 108 2034
-723 108 2033
-718 108 2036
-699 106 2002
-692 106 2001
-680 105 1984
-667 103 1966
-643 101 1913
-627 99 1886
-622 99 1889
-630 101 1930
-623 101 1929
-624 102 1952
-622 103 1966
-624 104 1992
-629 106 2028
-626 106 2041
-625 107 2056
-629 109 2093
-630 110 2117
-621 109 2109
-619 110 2128
-588 106 2044
-577 105 2028
-581 106 2063
-574 106 2061
-547 102 1985
-552 104 2028
-565 108 2098
-559 108 2101
-554 108 2105
-538 106 2069
-501 100 1951
-485 98 1912
-492 100 1965
-483 100 1954
-474 99 1941
-467 99 1935
-455 97 1909
-455 98 1935
-448 98 1931
-435 96 1900
-426 96 1887
-418 95 1872
-413 95 1877
-410 96 1892
-403 95 1886
-408 98 1932
-396 96 1905
-382 94 1864
-374 93 1854
-364 92 1832
-366 94 1871
-351 91 1817
-354 94 1863
-338 91 1810
-358 97 1943
-346 96 1912
-345 97 1937
-340 97 1945
-336 98 1953
-332 98 1963
-325 97 1953
-304 93 1864
-289 90 1802
-277 88 1763
-274 89 1779
-270 89 1787
-268 90 1803
-262 90 1803
-277 97 1946
-265 94 1894
-266 97 1947
-254 94 1897
-241 91 1840
-250 96 1950
-233 92 1867
-229 93 1878
-218 90 1827
-208 88 1789
-204 89 1801
-206 92 1863
-191 88 1778
-187 88 1787
-175 85 1725
-174 87 1762
-165 85 1728
-159 84 1709
-157 86 1750
-150 85 1720
-144 84 1712
-139 84 1716
-137 86 1751
-136 88 1796
-127 86 1746
-117 83 1685
-108 80 1626
-102 79 1608
-96 77 1579
-94 80 1628
-89 79 1619
-84 79 1619
-76 76 1554
-75 78 1607
-69 77 1587
-65 79 1610
-61 79 1627
-56 79 1619
-53 80 1641
-46 76 1569
-42 78 1602
-37 77 1580
-32 77 1574
-28 77 1576
-24 79 1623
-19 77 1586
-15 79 1626
-9 76 1572
-5 76 1563
0 76 1577
3 78 1601
8 77 1594
12 75 1555
17 77 1593
21 75 1554
26 76 1580
30 76 1568
35 77 1589
39 76 1571
44 76 1563
48 75 1547
54 77 1590
58 77 1592
62 76 1581
67 76 1569
71 76 1571
77 77 1607
82 77 1606
88 79 1640
92 78 1613
98 79 1636
108 83 1734
107 79 1636
113 80 1657
118 79 1654
120 78 1624
125 78 1625
136 82 1700
135 78 1633
144 80 1676
157 85 1779
165 87 1808
168 85 1778
168 83 1728
179 85 1784
179 83 1741
192 87 1816
201 88 1847
210 90 1879
223 93 1945
239 97 2036
241 95 2001
241 93 1955
244 92 1934
247 91 1910
249 90 1883
254 90 1878
258 89 1871
263 89 1865
266 88 1849
284 92 1932
281 89 1874
280 88 1835
284 87 1823
289 87 1819
298 88 1840
298 86 1807
297 85 1773
306 86 1796
308 85 1774
324 87 1834
330 87 1836
322 84 1765
335 86 1807
352 89 1870
350 87 1826
350 86 1799
376 91 1907
427 101 2131
432 101 2127
384 89 1862
370 84 1765
380 85 1787
379 84 1757
380 83 1736
378 81 1705
400 85 1779
393 82 1725
413 85 1792
417 85 1785
412 83 1737
414 82 1723
441 87 1817
433 84 1757
430 82 1725
430 81 1703
440 82 1723
449 83 1736
468 85 1790
444 80 1677
481 86 1796
470 83 1735
477 83 1740
468 81 1689
502 86 1791
499 84 1761
503 84 1756
500 82 1724
517 84 1767
521 84 1760
516 83 1725
512 81 1693
483 76 1580
470 73 1520
476 73 1524
501 76 1587
533 80 1671
550 82 1711
521 77 1603
528 77 1609
510 74 1538
513 74 1531
501 71 1479
508 72 1486
497 69 1439
491 68 1408
501 69 1424
520 71 1464
531 71 1481
532 71 1471
546 72 1496
553 73 1501
582 76 1568
621 80 1658
634 81 1676
634 80 1661
663 83 1724
627 78 1615
677 84 1729
668 82 1690
666 81 1670
665 80 1654
673 80 1659
686 81 1676
693 82 1681
695 81 1672
696 81 1659
701 81 1658
704 80 1651
706 80 1642
714 80 1646
735 82 1681
788 87 1789
754 83 1697
799 87 1784
785 85 1738
786 84 1726
776 83 1691
751 80 1623
761 80 1631
761 80 1619
772 80 1630
777 80 1627
752 77 1561
755 77 1556
770 78 1575
786 79 1596
813 81 1637
830 82 1658
872 86 1731
893 87 1758
902 87 1762
907 87 1758
913 87 1757
921 87 1760
926 87 1756
929 87 1748
937 87 1749
939 87 1741
949 87 1747
951 87 1736
960 87 1740
969 87 1744
967 87 1727
-1295 139 2257
-1280 138 2248
-1253 135 2216
-1268 138 2259
-1240 136 2227
-1232 135 2229
-1230 136 2240
-1222 136 2243
-1198 134 2216
-1185 133 2207
-1188 134 2230
-1153 131 2181
-1149 131 2189
-1150 132 2208
-1131 131 2187
-1133 132 2209
-1118 131 2197
-1121 132 2218
-1116 132 2227
-1099 131 2209
-1090 131 2208
-1085 131 2214
-1067 129 2194
-1054 129 2185
-1019 125 2128
-1006 124 2119
-994 124 2109
-983 123 2103
-966 122 2083
-965 122 2097
-955 122 2092
-947 122 2091
-939 121 2091
-930 121 2088
-930 122 2104
-921 121 2100
-922 122 2120
-925 124 2145
-935 126 2186
-931 126 2195
-878 120 2087
-842 116 2018
-808 112 1954
-782 109 1906
-775 109 1907
-769 109 1909
-762 109 1908
-759 109 1915
-752 109 1915
-745 108 1913
-741 109 1921
-748 111 1955
-756 113 1994
-772 116 2054
-750 113 2014
-691 105 1872
-674 104 1843
-663 103 1829
-668 104 1861
-661 104 1858
-653 104 1853
-645 103 1848
-638 103 1844
-627 102 1831
-624 102 1839
-623 103 1854
-604 101 1815
-600 101 1822
-603 102 1849
-584 100 1808
-582 101 1822
-581 101 1836
-581 102 1856
-579 103 1866
-574 103 1870
-565 102 1861
-559 102 1859
-568 105 1909
-553 103 1879
-548 103 1884
-528 100 1834
-521 100 1830
-533 103 1891
-516 101 1854
-504 100 1832
-513 103 1885
-524 106 1949
-512 104 1923
-517 107 1967
-521 109 2003
-503 106 1959
-490 104 1930
-499 108 1991
-490 107 1981
-477 105 1952
-468 104 1937
-447 101 1878
-446 102 1895
-441 102 1900
-429 101 1872
-421 100 1863
-413 99 1851
-414 101 1883
-405 100 1865
-398 100 1862
-400 101 1896
-390 100 1877
-380 99 1854
-374 99 1852
-369 99 1856
-363 99 1853
-360 99 1865
-355 99 1867
-352 100 1883
-352 102 1913
-348 102 1925
-347 103 1950
-341 103 1945
-337 104 1958
-330 103 1952
-324 103 1948
-302 98 1853
-283 93 1768
-277 93 1761
-275 94 1781
-267 93 1764
-266 94 1790
-257 93 1770
-273 101 1918
-272 102 1944
-266 102 1945
-259 101 1934
-252 101 1929
-246 101 1919
-239 100 1915
-232 100 1902
-222 97 1863
-212 95 1821
-202 93 1782
-194 92 1763
-188 91 1750
-181 90 1732
-178 91 1751
-166 88 1688
-163 89 1705
-156 88 1684
-153 89 1701
-147 88 1694
-143 88 1696
-140 89 1720
-135 89 1719
-127 88 1688
-119 85 1646
-117 88 1688
-105 82 1575
-103 84 1621
-96 82 1581
-91 82 1578
-90 84 1630
-82 81 1566
-79 83 1606
-73 82 1580
-67 80 1553
-63 81 1565
-58 80 1550
-56 83 1612
-50 81 1579
-46 82 1579
-41 81 1579
-36 79 1541
-31 80 1548
-27 80 1546
-23 81 1580
-19 81 1577
-14 81 1566
-9 81 1578
-5 82 1591
0 81 1572
3 80 1548
8 81 1581
12 82 1594
17 84 1632
22 82 1590
27 83 1617
30 80 1554
35 81 1590
40 82 1611
45 82 1595
47 78 1527
52 78 1529
57 79 1541
63 81 1593
66 80 1566
71 80 1556
75 80 1560
84 84 1647
89 84 1652
92 83 1627
97 83 1631
102 83 1631
106 83 1625
112 84 1639
120 86 1689
125 86 1685
133 88 1722
136 87 1705
141 87 1708
144 85 1680
145 83 1639
161 90 1762
168 90 1777
170 89 1747
171 87 1706
177 87 1721
187 89 1760
206 96 1897
220 100 1966
224 99 1954
232 100 1973
235 99 1955
239 98 1941
243 97 1924
245 96 1895
247 95 1868
252 94 1861
257 94 1859
260 93 1846
267 94 1855
273 94 1855
279 94 1865
282 93 1842
289 94 1853
292 93 1840
296 93 1828
298 92 1809
296 89 1766
305 90 1785
312 91 1794
315 90 1784
328 92 1826
341 95 1870
344 94 1852
373 100 1980
358 95 1870
371 96 1907
413 106 2093
453 114 2263
421 105 2073
374 92 1809
371 89 1768
375 89 1765
398 93 1848
403 93 1846
399 91 1800
391 88 1738
389 87 1708
405 89 1754
402 87 1717
407 87 1716
414 87 1726
434 90 1785
437 90 1774
435 88 1744
440 88 1745
431 86 1687
449 88 1736
445 86 1699
453 87 1709
441 84 1646
470 88 1733
467 86 1703
488 89 1762
481 87 1717
482 86 1701
483 86 1683
496 87 1712
524 91 1787
511 88 1726
493 84 1646
487 82 1609
485 81 1586
470 78 1521
477 78 1526
493 80 1562
512 82 1607
519 82 1611
521 82 1603
518 81 1577
510 78 1536
495 76 1477
491 74 1449
502 75 1470
496 74 1437
488 72 1400
501 73 1425
517 75 1457
536 77 1497
543 77 1502
540 76 1479
560 78 1520
586 81 1577
615 84 1642
629 85 1663
634 85 1661
635 85 1650
644 85 1659
651 85 1661
650 85 1645
677 87 1699
667 85 1658
686 87 1691
668 84 1632
704 88 1707
697 87 1675
683 84 1628
687 84 1624
702 85 1645
708 85 1645
708 85 1631
746 88 1706
822 97 1865
821 96 1848
873 101 1949
873 100 1935
851 97 1869
794 90 1730
750 85 1621
757 85 1623
754 84 1603
758 84 1600
762 84 1595
783 85 1627
759 82 1564
774 83 1582
783 83 1588
808 85 1626
827 87 1652
857 89 1699
888 92 1748
899 93 1757
909 93 1762
913 93 1758
917 93 1752
925 93 1753
930 93 1750
945 94 1764
941 93 1744
947 93 1742
953 93 1741
958 92 1736
962 92 1731
968 92 1729
-1293 146 2255
-1272 144 2235
-1273 145 2252
-1249 143 2226
-1247 144 2239
-1231 143 2227
-1222 142 2226
-1221 143 2241
-1202 141 2223
-1189 141 2215
-1154 137 2166
-1118 134 2115
-1076 130 2051
-1063 129 2042
-1052 128 2036
-1074 132 2093
-1023 126 2010
-1062 132 2102
-1050 131 2094
-1037 130 2083
-1038 131 2103
-1034 131 2110
-1019 130 2097
-1020 131 2114
-999 129 2087
-994 129 2092
-980 128 2079
-978 129 2092
-955 127 2058
-959 128 2084
-951 128 2082
-944 128 2084
-933 127 2078
-935 128 2098
-929 128 2103
-923 128 2106
-927 130 2133
-924 130 2143
-927 131 2168
-920 131 2170
-891 128 2118
-856 124 2053
-807 118 1952
-790 116 1928
-778 115 1913
-773 115 1917
-769 115 1925
-764 116 1929
-756 115 1926
-753 116 1934
-748 116 1939
-760 118 1986
-772 121 2037
-792 125 2107
-750 120 2015
-685 110 1857
-662 107 1810
-650 106 1794
-651 107 1814
-646 107 1816
-626 105 1777
-620 105 1778
-620 106 1794
-617 106 1801
-608 105 1792
-606 106 1803
-592 104 1781
-591 105 1794
-579 104 1775
-575 104 1780
-561 102 1754
-557 103 1760
-551 102 1760
-552 104 1781
-544 103 1774
-543 104 1789
-528 102 1758
-530 103 1783
-529 104 1800
-512 102 1760
-507 102 1763
-500 101 1757
-497 102 1766
-494 102 1776
-486 102 1766
-479 101 1761
-487 104 1809
-475 102 1785
-469 102 1784
-471 104 1812
-467 104 1818
-466 105 1839
-452 103 1803
-458 105 1850
-437 102 1787
-441 104 1827
-428 102 1798
-421 102 1791
-415 102 1788
-408 101 1783
-405 102 1792
-400 101 1792
-400 103 1816
-393 102 1811
-388 103 1815
-384 103 1821
-381 103 1834
-372 102 1817
-371 103 1837
-367 104 1846
-362 104 1849
-356 104 1846
-354 105 1864
-351 105 1879
-347 106 1884
-344 106 1903
-339 106 1902
-334 107 1910
-327 106 1903
-324 107 1914
-319 107 1922
-303 104 1858
-286 100 1786
-280 99 1779
-275 99 1780
-271 100 1790
-265 99 1784
-266 102 1830
-270 105 1895
-267 106 1910
-263 107 1926
-257 106 1918
-251 106 1915
-245 106 1915
-236 104 1886
-229 104 1875
-218 101 1831
-208 99 1789
-204 99 1799
-195 98 1768
-190 97 1768
-182 96 1742
-174 95 1718
-168 94 1707
-156 90 1629
-156 93 1687
-152 93 1687
-147 93 1692
-143 93 1700
-137 93 1687
-129 91 1654
-121 88 1605
-117 88 1611
-108 85 1558
-109 90 1642
-101 87 1584
-95 86 1568
-91 86 1576
-83 83 1515
-81 85 1548
-76 85 1548
-73 86 1568
-69 87 1588
-62 84 1532
-60 87 1600
-55 86 1574
-53 90 1647
-46 86 1574
-42 87 1593
-37 86 1582
-32 86 1573
-28 86 1577
-24 88 1614
-19 86 1587
-13 84 1538
-9 83 1525
-5 86 1578
0 87 1608
3 88 1624
8 88 1614
12 86 1587
17 85 1570
22 86 1592
26 86 1592
31 87 1613
36 87 1599
39 85 1569
44 86 1581
49 85 1575
54 86 1591
56 82 1517
63 86 1590
68 87 1605
69 82 1516
76 85 1576
82 87 1606
88 88 1639
93 88 1634
98 89 1647
102 88 1636
106 87 1614
111 88 1625
113 86 1590
122 89 1647
124 86 1603
130 88 1627
141 91 1700
144 91 1684
152 92 1716
153 90 1675
164 93 1734
165 91 1692
168 90 1672
172 90 1671
184 93 1731
206 102 1894
219 105 1957
221 103 1931
226 103 1918
231 103 1917
231 100 1875
233 99 1844
237 98 1832
236 96 1784
239 95 1768
245 95 1770
249 95 1766
250 93 1737
252 92 1711
257 92 1711
261 91 1703
266 91 1704
271 91 1707
277 92 1712
280 91 1701
287 92 1711
293 92 1715
305 94 1756
314 95 1779
322 96 1795
330 97 1807
348 100 1877
348 99 1847
347 97 1814
383 105 1969
447 121 2265
447 119 2231
417 110 2049
368 95 1781
371 95 1769
375 95 1765
383 95 1777
387 95 1771
392 95 1769
396 94 1761
399 94 1752
408 95 1769
415 95 1772
415 94 1750
422 94 1756
426 94 1754
431 94 1749
436 94 1747
440 93 1741
443 93 1735
442 92 1708
448 92 1712
458 93 1728
467 94 1742
470 93 1733
476 93 1737
480 93 1731
487 93 1738
492 93 1733
494 93 1723
505 94 1742
525 96 1790
533 97 1799
522 94 1745
521 93 1722
488 86 1593
470 82 1519
478 83 1529
487 83 1544
514 87 1611
505 85 1568
500 83 1536
499 82 1517
508 83 1532
495 80 1477
495 79 1460
499 79 1459
494 78 1432
490 76 1405
502 77 1426
517 79 1455
525 80 1466
541 81 1496
554 82 1517
550 81 1493
603 88 1623
623 90 1662
630 91 1665
622 89 1630
635 90 1650
644 90 1659
654 91 1668
671 93 1697
672 92 1685
666 90 1656
674 91 1661
658 88 1607
677 90 1642
686 90 1649
708 92 1687
698 90 1649
675 87 1580
708 90 1646
712 90 1640
739 93 1688
797 99 1807
816 101 1835
842 103 1880
837 102 1854
872 105 1915
864 104 1882
761 91 1643
746 89 1599
753 89 1600
756 88 1594
752 87 1573
755 87 1568
791 91 1629
804 91 1643
782 88 1585
808 91 1627
822 92 1641
855 95 1695
892 98 1755
900 98 1758
907 98 1759
913 98 1756
925 99 1767
930 99 1763
929 98 1748
933 98 1742
937 98 1737
945 98 1738
950 98 1734
960 98 1739
966 98 1738
962 97 1718
-1295 153 2257
-1291 154 2266
-1277 153 2258
-1265 152 2253
-1256 152 2254
-1220 148 2206
-1229 150 2238
-1215 149 2230
-1211 150 2239
-1190 148 2216
-1163 145 2182
-1060 133 2005
-1026 130 1954
-1006 128 1932
-989 127 1913
-984 127 1918
-966 125 1898
-967 126 1914
-989 130 1972
-992 131 1993
-982 130 1988
-951 127 1941
-951 128 1957
-971 131 2012
-960 131 2006
-930 127 1957
-932 128 1977
-931 129 1992
-916 128 1974
-939 132 2040
-914 129 2002
-919 131 2028
-903 129 2011
-911 131 2044
-897 130 2029
-890 130 2031
-894 131 2056
-892 132 2068
-888 132 2075
-872 131 2055
-851 129 2023
-821 125 1969
-801 123 1937
-789 122 1924
-785 122 1931
-783 123 1941
-768 121 1922
-764 121 1927
-758 121 1930
-757 122 1945
-749 122 1939
-754 123 1970
-768 127 2026
-786 131 2092
-740 124 1987
-684 116 1854
-667 114 1823
-651 112 1796
-644 112 1794
-642 112 1805
-636 112 1805
-623 111 1786
-618 111 1788
-615 111 1797
-623 113 1836
-600 110 1786
-588 109 1767
-595 111 1807
-578 109 1773
-582 111 1803
-562 108 1759
-562 109 1777
-562 110 1795
-541 107 1745
-547 109 1782
-537 108 1768
-528 107 1756
-528 108 1775
-513 106 1745
-510 107 1754
-508 107 1766
-505 108 1775
-490 105 1739
-500 109 1797
-488 107 1774
-480 107 1765
-460 103 1710
-463 105 1742
-450 103 1711
-459 106 1768
-453 106 1764
-451 107 1780
-439 105 1754
-436 106 1764
-425 104 1741
-423 105 1753
-418 105 1753
-405 103 1722
-404 104 1741
-401 104 1751
-391 103 1730
-382 102 1714
-387 105 1761
-376 103 1735
-374 104 1749
-366 103 1737
-356 102 1714
-354 102 1726
-355 104 1760
-343 102 1728
-343 104 1751
-333 102 1728
-331 103 1744
-329 104 1763
-319 102 1735
-319 104 1761
-316 105 1779
-307 103 1753
-304 104 1770
-301 105 1779
-293 104 1764
-284 102 1744
-283 104 1768
-278 104 1770
-271 103 1755
-269 104 1775
-260 103 1755
-259 104 1783
-254 104 1781
-248 104 1778
-245 105 1796
-242 106 1810
-238 106 1823
-231 105 1811
-226 105 1810
-216 103 1773
-207 101 1739
-203 102 1750
-201 103 1774
-195 102 1764
-185 100 1724
-176 98 1689
-170 97 1678
-165 97 1673
-160 97 1669
-156 97 1678
-151 98 1686
-146 97 1680
-140 97 1670
-133 95 1637
-124 92 1593
-118 91 1568
-112 90 1554
-109 91 1568
-105 91 1584
-99 90 1555
-93 88 1530
-90 90 1553
-87 91 1583
-82 91 1573
-78 91 1588
-71 88 1527
-67 89 1543
-64 91 1588
-61 92 1610
-55 91 1581
-52 93 1618
-46 90 1575
-41 90 1571
-37 92 1600
-31 89 1551
-28 93 1626
-22 88 1540
-18 90 1574
-13 88 1530
-9 88 1543
-5 93 1624
0 93 1627
3 94 1647
8 91 1584
12 89 1556
17 91 1589
21 89 1557
26 91 1588
30 88 1548
35 89 1561
40 90 1580
44 90 1576
48 89 1566
52 88 1537
57 89 1556
64 93 1628
66 89 1562
72 90 1590
77 91 1600
84 94 1648
87 92 1615
92 92 1622
99 94 1657
106 97 1700
107 92 1627
113 94 1647
115 92 1614
124 94 1665
131 97 1704
128 91 1602
132 90 1592
143 95 1669
147 94 1659
155 96 1697
157 94 1661
155 90 1586
155 88 1545
159 87 1534
167 89 1569
182 95 1672
203 103 1815
215 106 1870
221 106 1877
222 104 1842
210 96 1698
208 93 1645
211 92 1626
208 89 1568
213 89 1569
226 92 1634
228 91 1612
236 92 1635
236 91 1601
243 91 1614
234 86 1528
244 88 1564
245 87 1542
251 88 1548
263 90 1595
260 88 1549
269 89 1575
272 88 1563
291 93 1645
289 91 1604
295 91 1612
299 91 1608
305 91 1616
314 92 1636
345 100 1773
417 119 2113
414 117 2068
380 105 1866
372 102 1799
377 102 1798
382 102 1797
391 102 1813
394 102 1801
393 100 1770
401 101 1782
406 101 1780
411 101 1781
419 101 1790
417 100 1759
428 101 1782
424 99 1745
434 100 1760
436 99 1746
437 98 1730
423 94 1656
418 92 1616
425 92 1621
441 94 1664
460 97 1717
473 99 1743
479 99 1746
483 99 1743
488 99 1742
490 98 1729
504 100 1758
528 103 1820
537 104 1832
572 110 1932
569 108 1902
570 107 1884
527 98 1722
475 88 1537
482 88 1540
490 89 1553
528 94 1655
509 90 1579
504 88 1549
498 87 1516
507 87 1526
490 84 1462
503 85 1485
493 83 1442
491 81 1420
489 80 1403
500 81 1419
505 82 1423
517 83 1442
528 84 1458
534 84 1463
554 86 1504
578 89 1555
618 95 1647
618 94 1633
631 95 1653
635 95 1650
639 95 1645
646 95 1649
659 96 1668
669 97 1679
660 95 1641
683 97 1684
683 96 1669
674 94 1633
669 93 1607
709 98 1688
689 94 1628
703 96 1647
705 95 1638
718 96 1655
743 99 1699
796 105 1804
819 107 1842
767 100 1711
775 100 1715
894 114 1964
880 112 1918
777 98 1678
763 96 1635
764 95 1623
767 95 1618
747 92 1563
761 93 1579
765 93 1575
789 95 1613
786 94 1594
805 95 1621
823 97 1644
863 101 1711
887 103 1745
897 104 1752
907 104 1757
911 104 1752
920 104 1755
926 104 1755
929 104 1746
935 104 1745
940 104 1742
952 104 1750
958 104 1749
957 104 1733
970 104 1744
971 104 1733
-1311 163 2285
-1297 162 2278
-1292 162 2286
-1271 160 2265
-1266 160 2272
-1250 159 2260
-1240 159 2258
-1227 158 2251
-1208 156 2232
-1201 157 2237
-1183 155 2220
-1135 150 2146
-1109 147 2113
-1087 145 2087
-1043 140 2017
-988 134 1926
-979 133 1923
-978 134 1934
-970 133 1934
-967 134 1943
-937 130 1896
-943 132 1923
-935 132 1922
-928 131 1922
-904 129 1887
-899 129 1892
-905 131 1919
-898 131 1921
-901 132 1942
-869 128 1887
-871 129 1907
-849 127 1874
-889 133 1978
-855 129 1917
-842 128 1904
-846 130 1929
-839 129 1930
-820 127 1901
-839 131 1962
-795 125 1875
-796 126 1892
-794 127 1903
-795 128 1922
-785 127 1914
-764 125 1879
-784 129 1945
-755 125 1890
-764 127 1927
-757 127 1928
-745 126 1912
-745 127 1931
-753 129 1968
-740 128 1953
-750 131 1997
-714 126 1918
-679 120 1840
-669 119 1829
-663 119 1831
-648 118 1805
-655 120 1841
-633 117 1797
-636 118 1823
-633 119 1831
-617 117 1802
-621 119 1832
-595 115 1770
-595 115 1787
-590 116 1791
-586 116 1797
-581 116 1800
-572 115 1789
-573 116 1810
-549 112 1752
-555 115 1791
-540 113 1760
-532 112 1752
-524 112 1745
-520 112 1748
-522 113 1775
-513 112 1763
-509 113 1767
-505 113 1773
-500 113 1778
-492 112 1769
-480 111 1743
-480 112 1763
-473 111 1759
-463 110 1741
-460 111 1751
-457 111 1759
-452 111 1761
-438 109 1727
-444 112 1772
-431 110 1741
-430 111 1760
-425 111 1762
-411 108 1724
-402 107 1711
-404 109 1742
-398 109 1739
-388 107 1715
-389 109 1745
-375 107 1704
-376 108 1733
-374 109 1750
-361 107 1711
-352 106 1694
-357 108 1742
-349 108 1729
-338 106 1701
-338 107 1726
-329 106 1707
-327 107 1721
-318 106 1704
-312 105 1698
-309 106 1710
-301 105 1693
-301 106 1721
-294 106 1711
-291 106 1723
-288 107 1733
-276 104 1693
-271 104 1690
-269 106 1715
-265 106 1718
-254 103 1682
-256 106 1727
-247 104 1699
-243 105 1707
-234 103 1679
-234 105 1717
-232 106 1736
-221 104 1693
-217 104 1701
-213 105 1710
-206 104 1694
-202 104 1696
-195 103 1680
-194 105 1713
-187 103 1694
-180 102 1674
-174 102 1668
-168 101 1656
-165 102 1679
-160 102 1675
-158 104 1706
-150 101 1668
-144 101 1658
-138 100 1646
-133 99 1636
-126 98 1607
-114 92 1512
-114 96 1580
-108 95 1563
-103 94 1555
-98 94 1543
-95 95 1560
-89 93 1543
-83 91 1508
-79 92 1515
-76 94 1556
-71 92 1525
-69 95 1578
-62 93 1538
-60 96 1590
-54 94 1555
-50 95 1569
-47 98 1627
-44 101 1675
-37 97 1609
-33 96 1602
-27 94 1555
-22 93 1538
-18 93 1544
-14 94 1571
-9 95 1588
-5 97 1620
0 96 1595
3 94 1566
8 96 1602
12 95 1585
17 95 1586
21 93 1546
26 93 1556
30 92 1532
34 91 1525
39 92 1540
44 94 1572
49 94 1575
55 98 1635
58 95 1590
63 96 1601
67 95 1581
72 95 1591
76 94 1568
83 97 1624
88 97 1625
91 95 1593
96 96 1601
101 96 1607
110 100 1677
110 96 1611
119 100 1670
123 99 1653
131 101 1698
136 101 1694
138 99 1668
147 102 1710
147 98 1653
157 102 1717
151 95 1598
152 93 1558
152 90 1512
154 89 1493
168 94 1579
164 90 1504
183 97 1633
202 105 1760
214 108 1817
213 105 1761
201 96 1621
207 97 1636
202 93 1558
203 91 1528
211 93 1557
213 92 1538
222 93 1570
222 92 1540
225 91 1525
227 90 1508
231 90 1509
235 89 1503
242 91 1521
247 91 1522
259 93 1567
255 90 1516
258 90 1505
260 89 1493
265 89 1496
278 92 1544
280 91 1530
286 91 1536
294 93 1556
302 94 1575
320 98 1641
378 114 1915
402 119 2003
379 111 1863
349 100 1689
365 103 1740
361 101 1694
374 103 1734
381 104 1741
351 94 1582
351 93 1559
359 94 1575
381 98 1650
389 99 1659
375 94 1581
392 97 1630
395 97 1622
410 99 1662
399 95 1600
384 91 1519
379 88 1479
364 84 1405
382 87 1457
390 88 1471
407 91 1515
437 96 1609
468 102 1707
472 102 1701
487 104 1735
490 103 1725
492 102 1715
482 99 1660
488 99 1663
522 105 1761
557 111 1859
542 107 1790
546 107 1785
489 95 1580
491 94 1569
518 98 1640
506 95 1585
521 97 1618
507 94 1557
491 90 1493
507 92 1526
495 89 1476
491 87 1449
504 89 1474
492 86 1425
491 85 1407
496 85 1410
519 88 1461
537 90 1497
528 88 1460
543 90 1486
555 91 1506
574 93 1544
614 99 1636
625 100 1651
642 102 1682
639 101 1659
642 100 1652
643 99 1640
652 100 1650
664 101 1665
668 101 1660
673 101 1657
684 102 1671
715 105 1732
702 103 1687
720 105 1715
710 102 1678
702 100 1644
701 100 1629
716 101 1648
741 104 1693
779 108 1765
767 106 1725
716 98 1595
753 102 1664
803 108 1762
773 103 1682
748 99 1615
746 98 1597
778 102 1653
768 100 1619
763 99 1596
762 98 1582
748 95 1540
734 93 1499
789 99 1600
805 101 1619
838 104 1672
875 108 1735
895 109 1760
906 110 1768
906 109 1754
916 110 1761
920 110 1756
924 110 1751
930 109 1748
936 109 1747
941 109 1743
948 110 1743
956 110 1745
962 110 1742
965 109 1734
965 109 1722
-1308 170 2279
-1294 169 2272
-1291 169 2284
-1275 168 2270
-1266 168 2272
-1256 167 2271
-1244 167 2265
-1234 166 2265
-1218 165 2252
-1210 165 2253
-1187 163 2227
-1170 161 2212
-1157 160 2204
-1147 160 2200
-1070 150 2069
-1001 141 1950
-975 139 1913
-967 138 1912
-961 138 1916
-964 139 1937
-953 139 1929
-948 139 1935
-941 139 1935
-930 138 1928
-924 138 1930
-914 137 1924
-898 136 1905
-899 137 1923
-888 136 1913
-880 136 1912
-872 135 1910
-868 135 1917
-857 135 1907
-855 135 1918
-845 135 1912
-842 135 1919
-827 133 1901
-825 134 1913
-797 130 1864
-810 133 1910
-786 130 1868
-771 129 1848
-778 131 1882
-776 132 1893
-780 133 1919
-756 130 1875
-725 126 1815
-737 129 1859
-749 132 1905
-742 131 1906
-707 126 1832
-706 127 1845
-696 126 1836
-678 124 1805
-687 126 1844
-658 122 1783
-661 124 1806
-662 125 1827
-665 126 1853
-644 123 1809
-631 122 1792
-635 124 1820
-621 122 1795
-621 123 1813
-601 120 1773
-588 118 1749
-600 122 1803
-587 120 1783
-573 118 1756
-575 120 1779
-574 121 1794
-568 121 1795
-546 117 1744
-549 119 1771
-552 121 1799
-551 122 1814
-526 117 1751
-533 120 1792
-523 119 1778
-508 117 1746
-513 119 1784
-509 119 1787
-502 119 1784
-499 119 1793
-492 119 1786
-484 118 1778
-473 117 1759
-470 117 1768
-467 118 1777
-459 117 1766
-454 117 1768
-445 116 1755
-447 118 1784
-427 114 1728
-431 116 1762
-422 115 1747
-418 115 1756
-418 117 1779
-403 114 1736
-403 115 1760
-398 115 1762
-390 114 1748
-381 113 1733
-377 114 1740
-371 113 1735
-364 113 1729
-360 113 1734
-355 113 1736
-351 113 1740
-342 112 1722
-339 113 1730
-333 112 1728
-328 112 1730
-321 111 1716
-316 112 1720
-312 112 1727
-304 111 1707
-304 112 1735
-298 112 1731
-289 111 1711
-288 112 1735
-274 109 1680
-275 111 1719
-269 110 1709
-265 111 1720
-255 109 1685
-251 109 1695
-250 111 1721
-239 108 1681
-237 109 1701
-229 108 1681
-225 108 1685
-225 111 1725
-216 108 1690
-211 109 1694
-206 109 1694
-200 108 1683
-197 108 1694
-194 110 1714
-187 108 1695
-180 107 1677
-174 106 1665
-170 107 1678
-167 108 1693
-163 109 1705
-154 106 1666
-150 106 1667
-144 105 1653
-137 104 1635
-133 105 1644
-125 102 1604
-119 101 1584
-115 101 1585
-108 99 1551
-103 98 1547
-97 97 1528
-89 93 1468
-88 97 1527
-84 97 1528
-78 95 1504
-74 96 1515
-70 96 1511
-68 99 1567
-62 98 1541
-59 100 1576
-54 99 1560
-51 101 1598
-46 100 1588
-40 96 1522
-36 99 1562
-31 97 1537
-27 97 1529
-22 96 1523
-18 98 1561
-14 100 1584
-10 102 1614
-5 100 1586
0 98 1552
3 98 1561
8 101 1605
13 100 1588
16 96 1518
21 97 1535
26 98 1563
30 97 1543
34 97 1539
39 97 1549
43 97 1547
49 99 1578
55 102 1628
60 103 1643
62 98 1563
73 108 1719
72 100 1593
79 102 1629
83 101 1620
88 102 1622
92 102 1622
97 101 1616
103 103 1643
110 105 1684
112 103 1640
123 108 1724
125 105 1681
133 108 1730
135 105 1685
137 103 1648
148 108 1721
152 107 1718
147 100 1606
146 97 1546
151 97 1544
151 94 1502
162 98 1567
160 94 1508
169 97 1544
167 93 1484
189 103 1647
208 110 1769
207 107 1712
198 100 1602
195 96 1536
198 95 1526
200 94 1509
214 98 1577
216 97 1557
218 96 1543
222 96 1533
223 95 1514
229 95 1526
233 95 1521
231 92 1480
239 94 1503
248 95 1527
253 96 1533
253 94 1506
260 95 1521
266 95 1528
275 97 1556
281 97 1561
275 94 1503
279 94 1500
284 94 1502
299 97 1559
314 101 1612
343 108 1734
358 111 1784
359 110 1762
348 105 1684
350 104 1668
359 105 1688
356 103 1648
351 100 1600
332 93 1493
336 93 1490
340 93 1488
353 96 1528
363 97 1551
344 91 1446
359 93 1490
366 94 1503
367 93 1487
367 92 1467
369 91 1458
368 90 1438
371 90 1431
368 88 1400
379 90 1427
390 91 1452
397 92 1462
414 95 1508
436 98 1569
469 105 1669
465 103 1639
493 108 1717
479 104 1652
482 103 1643
487 103 1643
516 108 1723
531 110 1754
527 108 1722
523 106 1690
504 101 1612
541 108 1715
529 104 1657
523 102 1622
525 102 1613
500 96 1520
501 95 1507
511 96 1523
496 93 1464
489 91 1429
488 89 1412
488 89 1399
497 89 1411
508 91 1429
525 93 1463
531 93 1467
535 93 1466
551 95 1495
575 98 1547
606 103 1616
625 105 1650
634 106 1661
637 105 1654
651 107 1676
645 105 1646
657 106 1660
662 106 1659
670 106 1664
679 107 1673
690 108 1684
687 106 1665
685 105 1645
737 112 1756
733 111 1730
713 107 1670
708 106 1644
710 105 1635
736 108 1682
747 109 1693
760 110 1708
717 103 1598
720 103 1592
769 109 1686
713 100 1551
705 99 1521
734 102 1572
846 116 1799
830 113 1750
802 109 1677
787 106 1633
773 104 1591
783 104 1600
804 106 1630
836 110 1683
860 112 1717
886 115 1755
895 115 1760
901 115 1758
905 115 1753
917 116 1763
915 115 1747
927 115 1756
931 115 1750
931 114 1737
944 115 1748
950 115 1746
957 115 1746
959 115 1737
968 115 1741
974 115 1738
-1312 178 2286
-1305 178 2291
-1300 178 2299
-1278 176 2277
-1263 175 2267
-1256 175 2270
-1246 174 2268
-1238 174 2271
-1223 173 2260
-1210 172 2252
-1195 171 2242
-1182 170 2235
-1167 169 2222
-1159 169 2224
-1093 160 2114
-1010 149 1968
-975 145 1915
-970 145 1919
-974 146 1941
-960 145 1928
-957 145 1936
-941 144 1919
-937 144 1927
-925 143 1916
-918 143 1917
-913 143 1921
-903 143 1916
-894 142 1911
-884 141 1906
-873 140 1896
-865 140 1894
-859 140 1897
-852 140 1896
-844 139 1893
-837 139 1892
-828 139 1889
-826 139 1900
-810 137 1877
-813 139 1900
-797 137 1878
-792 137 1882
-784 137 1879
-780 137 1886
-775 137 1888
-765 136 1881
-759 136 1882
-749 135 1873
-739 135 1865
-744 136 1893
-734 136 1885
-722 135 1871
-714 134 1867
-706 134 1862
-695 133 1849
-698 134 1873
-674 131 1827
-673 131 1840
-659 130 1817
-683 136 1903
-649 130 1825
-653 132 1854
-630 128 1803
-630 129 1820
-617 128 1801
-618 129 1820
-611 129 1818
-604 128 1814
-583 125 1769
-579 125 1776
-576 126 1784
-567 125 1774
-572 127 1808
-563 126 1796
-548 124 1766
-525 120 1712
-529 122 1742
-526 122 1751
-516 121 1735
-500 119 1698
-504 121 1731
-500 121 1737
-496 121 1742
-502 124 1782
-480 120 1724
-483 122 1755
-473 121 1739
-471 121 1750
-454 118 1709
-476 125 1811
-467 124 1796
-456 123 1778
-439 119 1732
-446 123 1781
-433 120 1748
-430 121 1760
-426 121 1764
-415 120 1742
-419 122 1781
-411 121 1770
-399 119 1743
-400 121 1769
-387 119 1736
-389 121 1769
-380 120 1751
-382 122 1787
-373 121 1767
-361 118 1738
-356 118 1738
-354 119 1754
-343 117 1727
-343 119 1753
-338 119 1752
-329 118 1732
-326 118 1746
-323 119 1755
-315 118 1741
-308 117 1730
-307 119 1755
-297 117 1726
-296 118 1752
-291 119 1755
-283 117 1734
-276 116 1722
-269 115 1710
-266 116 1725
-261 116 1724
-256 116 1726
-248 115 1705
-246 116 1728
-238 114 1703
-233 115 1708
-227 114 1701
-222 114 1700
-218 114 1706
-212 114 1697
-205 112 1678
-201 113 1690
-196 113 1688
-192 113 1694
-186 113 1689
-180 112 1681
-175 112 1677
-174 114 1715
-164 111 1665
-156 109 1636
-150 108 1624
-147 109 1636
-141 108 1625
-136 108 1623
-129 106 1596
-123 105 1577
-117 104 1562
-112 103 1551
-108 104 1558
-102 102 1540
-99 104 1561
-96 105 1577
-89 102 1538
-85 102 1544
-79 100 1512
-76 102 1543
-70 101 1526
-66 101 1522
-63 104 1569
-59 104 1577
-54 103 1559
-49 103 1554
-46 104 1576
-40 102 1539
-35 101 1522
-31 102 1545
-27 104 1571
-23 103 1562
-18 104 1583
-14 103 1562
-9 102 1547
-5 103 1556
0 104 1581
3 101 1536
8 104 1576
12 103 1568
17 103 1572
22 105 1589
26 105 1589
30 103 1565
35 104 1576
41 106 1617
45 105 1604
49 103 1566
54 106 1609
59 106 1620
65 107 1631
68 104 1590
75 109 1658
78 106 1622
83 107 1632
88 107 1637
93 107 1628
100 110 1681
110 115 1754
110 110 1675
118 113 1724
117 107 1633
123 108 1656
128 108 1653
136 111 1698
141 111 1698
142 108 1658
149 109 1674
159 113 1731
149 103 1575
150 101 1537
152 99 1509
158 100 1522
162 100 1525
169 101 1550
172 100 1531
191 108 1659
212 117 1795
206 111 1704
197 104 1586
204 105 1606
205 103 1579
207 102 1560
208 100 1532
217 102 1565
216 100 1527
223 101 1540
223 99 1514
229 100 1523
234 100 1527
237 99 1515
237 97 1489
246 99 1518
250 99 1510
259 101 1541
261 100 1525
261 98 1498
271 100 1532
275 100 1525
279 100 1524
279 98 1499
289 100 1528
299 102 1557
312 105 1599
322 106 1626
346 112 1722
341 109 1670
331 104 1597
351 109 1672
335 103 1571
338 102 1565
344 103 1568
330 97 1484
331 96 1468
340 98 1489
347 98 1500
354 99 1509
345 95 1454
356 97 1480
359 97 1471
362 96 1468
363 95 1450
364 94 1437
365 94 1426
355 90 1368
368 92 1404
380 94 1431
389 95 1448
394 95 1449
406 97 1478
432 102 1554
434 102 1543
465 108 1639
475 109 1655
470 107 1620
468 105 1593
499 111 1683
537 118 1792
571 124 1886
569 122 1860
545 116 1761
521 110 1668
504 105 1597
513 106 1608
532 109 1650
504 102 1549
495 100 1506
500 100 1504
496 98 1479
488 95 1440
490 95 1431
485 93 1404
486 93 1393
495 93 1405
502 94 1413
510 94 1420
525 97 1450
538 98 1471
555 100 1504
582 104 1565
609 108 1622
609 107 1608
630 110 1650
647 112 1678
637 109 1637
636 108 1622
650 110 1642
647 108 1620
667 111 1658
673 111 1658
690 113 1684
692 112 1675
692 112 1662
715 114 1702
716 114 1690
725 114 1698
728 114 1691
723 112 1664
751 116 1715
765 117 1733
745 113 1674
741 112 1651
758 113 1676
781 116 1714
713 105 1550
723 106 1560
743 108 1591
812 117 1726
816 117 1721
818 116 1711
783 111 1625
767 108 1579
795 111 1623
831 115 1685
855 118 1720
875 120 1747
894 121 1772
900 121 1770
906 121 1768
905 120 1752
909 120 1747
919 121 1754
924 121 1750
936 121 1759
942 121 1757
946 121 1751
945 120 1736
957 121 1745
957 120 1733
965 121 1733
963 120 1717
-1313 185 2287
-1296 184 2274
-1292 184 2283
-1277 183 2274
-1265 182 2269
-1262 183 2280
-1250 182 2276
-1240 182 2275
-1223 180 2260
-1212 180 2257
-1198 179 2248
-1190 178 2249
-1179 178 2244
-1168 177 2240
-1108 169 2142
-1014 156 1976
-980 152 1924
-971 151 1920
-971 152 1936
-971 153 1950
-942 149 1907
-949 151 1935
-937 150 1925
-927 149 1919
-918 149 1917
-914 149 1923
-903 148 1915
-896 148 1915
-889 148 1915
-875 147 1901
-868 146 1900
-860 146 1898
-855 146 1902
-843 145 1891
-835 145 1888
-830 145 1892
-821 144 1888
-815 144 1888
-805 143 1881
-797 143 1878
-790 143 1877
-779 142 1866
-773 142 1869
-764 141 1863
-758 141 1864
-751 141 1862
-744 140 1860
-736 140 1856
-728 139 1853
-721 139 1852
-711 138 1840
-708 139 1851
-700 138 1847
-691 137 1838
-689 138 1848
-682 138 1846
-670 136 1830
-673 138 1856
-660 137 1838
-659 137 1853
-652 137 1850
-642 136 1839
-639 137 1848
-636 137 1856
-624 136 1839
-614 135 1827
-605 134 1817
-596 133 1808
-603 136 1847
-598 136 1850
-585 134 1828
-571 132 1803
-568 133 1813
-565 133 1822
-556 132 1813
-555 133 1828
-542 131 1803
-532 130 1789
-528 131 1794
-528 132 1814
-510 129 1773
-496 127 1743
-503 130 1787
-503 131 1806
-491 129 1784
-485 129 1780
-480 129 1785
-475 129 1787
-470 129 1788
-456 127 1756
-435 122 1695
-437 124 1725
-436 125 1739
-431 125 1743
-417 123 1708
-410 122 1699
-410 123 1721
-406 124 1728
-404 125 1742
-403 126 1758
-390 123 1726
-384 123 1724
-387 126 1760
-388 127 1788
-359 120 1677
-366 124 1737
-374 128 1797
-355 123 1732
-350 123 1733
-335 120 1686
-332 120 1695
-334 123 1731
-328 122 1729
-333 126 1781
-324 125 1764
-320 125 1767
-314 125 1764
-311 125 1777
-295 121 1713
-299 125 1770
-285 121 1717
-289 125 1772
-279 123 1743
-275 123 1751
-276 126 1791
-261 121 1725
-260 123 1756
-252 121 1730
-248 122 1745
-245 123 1753
-237 121 1733
-233 122 1741
-224 120 1711
-218 119 1707
-209 117 1674
-207 119 1699
-197 116 1661
-192 115 1652
-184 114 1631
-180 114 1631
-174 113 1626
-172 115 1647
-165 114 1629
-158 112 1609
-159 116 1664
-151 113 1629
-146 113 1631
-141 113 1623
-132 109 1573
-127 109 1572
-124 111 1592
-118 109 1565
-111 107 1539
-105 105 1509
-106 111 1595
-96 105 1508
-91 104 1497
-88 106 1529
-85 107 1550
-79 105 1521
-75 106 1536
-69 103 1488
-67 107 1544
-62 105 1525
-59 108 1559
-53 105 1523
-49 107 1553
-42 101 1466
-38 101 1463
-35 105 1517
-32 108 1567
-27 106 1532
-22 106 1540
-18 105 1519
-14 111 1609
-9 106 1545
-5 109 1591
0 107 1558
3 104 1515
8 109 1586
12 107 1562
17 110 1600
21 106 1541
27 110 1600
31 109 1594
35 107 1558
41 111 1623
45 109 1593
50 110 1599
53 108 1578
59 109 1594
64 110 1604
69 111 1627
72 108 1582
78 111 1618
84 113 1645
90 114 1661
95 114 1671
102 116 1699
106 116 1695
111 116 1699
117 117 1708
125 120 1751
127 117 1716
128 113 1657
138 117 1720
140 116 1692
147 117 1711
149 114 1674
155 116 1693
154 111 1628
152 106 1552
153 104 1517
155 103 1499
165 106 1546
167 104 1525
176 107 1571
195 116 1693
214 124 1816
203 115 1681
192 106 1548
201 108 1583
198 104 1528
201 103 1513
202 102 1489
214 105 1540
214 103 1513
218 103 1506
230 107 1562
231 105 1535
238 106 1550
235 103 1505
241 103 1509
244 103 1501
249 103 1507
249 101 1482
263 105 1533
269 105 1542
268 103 1511
273 103 1514
272 102 1487
283 104 1521
295 107 1560
299 106 1554
309 108 1585
333 115 1684
349 119 1737
342 115 1678
338 112 1632
340 111 1620
329 105 1542
339 107 1569
345 108 1574
330 101 1482
335 102 1488
338 101 1479
357 105 1541
359 105 1531
342 99 1437
353 101 1467
359 101 1471
354 98 1433
365 100 1459
367 99 1448
366 98 1429
371 98 1432
376 98 1431
378 98 1424
387 99 1439
395 100 1455
409 102 1487
425 105 1530
432 106 1537
473 114 1664
490 117 1705
479 113 1649
472 111 1608
460 107 1551
499 114 1663
508 115 1676
566 127 1850
561 125 1815
501 111 1602
503 110 1591
504 109 1577
528 113 1636
509 108 1561
492 104 1496
493 103 1483
502 104 1495
492 101 1450
487 99 1422
480 96 1388
488 97 1397
497 98 1410
502 98 1411
514 100 1431
526 101 1452
526 100 1438
541 102 1467
570 107 1532
636 118 1694
634 117 1676
636 116 1663
642 116 1665
643 115 1654
634 113 1616
651 115 1644
643 113 1610
647 112 1605
647 112 1593
662 113 1615
690 117 1669
690 116 1656
703 118 1674
712 118 1681
729 120 1706
733 120 1701
738 120 1699
751 121 1714
785 126 1779
779 124 1751
794 125 1769
785 123 1734
761 118 1669
762 118 1657
752 115 1622
744 113 1593
822 124 1745
827 124 1744
811 121 1695
763 113 1583
757 111 1558
803 117 1640
838 121 1698
852 123 1714
881 126 1759
900 128 1783
902 127 1774
909 127 1773
915 127 1772
919 127 1765
919 126 1753
922 126 1746
930 126 1746
941 127 1754
943 126 1745
951 127 1747
961 127 1753
963 127 1742
967 126 1737
971 126 1732
-1310 192 2282
-1299 192 2279
-1287 191 2274
-1273 190 2267
-1262 189 2264
-1256 189 2269
-1248 189 2271
-1231 188 2257
-1219 187 2252
-1211 187 2254
-1200 186 2251
-1184 185 2236
-1181 185 2249
-1164 184 2233
-1125 179 2174
-1026 164 1999
-984 158 1931
-973 157 1923
-972 158 1936
-974 159 1955
-961 158 1944
-948 157 1933
-941 157 1935
-926 155 1918
-921 156 1923
-914 155 1924
-907 155 1923
-895 154 1913
-889 154 1916
-877 153 1903
-873 153 1910
-864 153 1907
-858 153 1908
-846 151 1896
-837 151 1891
-852 155 1943
-829 151 1905
-819 151 1898
-849 157 1983
-788 147 1858
-801 150 1903
-798 151 1912
-734 140 1773
-772 148 1880
-749 145 1841
-747 146 1852
-748 147 1871
-744 147 1876
-713 142 1814
-713 143 1831
-707 143 1831
-723 147 1890
-686 141 1810
-689 142 1831
-691 144 1856
-690 145 1867
-655 139 1791
-681 145 1879
-671 145 1869
-631 137 1774
-630 138 1786
-640 141 1832
-632 141 1826
-626 141 1828
-615 139 1813
-609 139 1813
-604 139 1814
-597 139 1811
-590 138 1808
-585 138 1809
-575 137 1798
-571 137 1802
-566 138 1806
-560 137 1805
-554 137 1803
-546 137 1797
-542 137 1804
-534 136 1797
-528 136 1795
-524 136 1801
-518 136 1799
-511 136 1794
-501 134 1778
-498 135 1787
-502 137 1822
-490 135 1798
-488 136 1812
-484 137 1819
-468 134 1782
-467 135 1798
-452 132 1762
-456 135 1798
-460 137 1835
-444 134 1792
-438 134 1792
-426 132 1765
-429 134 1802
-430 136 1827
-415 133 1786
-401 130 1751
-393 129 1738
-390 130 1751
-383 130 1743
-372 127 1716
-378 131 1769
-367 129 1739
-356 127 1711
-357 129 1742
-345 127 1712
-342 127 1718
-338 128 1727
-337 129 1746
-327 127 1725
-305 120 1631
-329 132 1787
-313 127 1731
-307 127 1724
-307 129 1753
-289 123 1680
-288 125 1702
-294 130 1773
-287 129 1758
-278 127 1738
-267 124 1699
-268 127 1736
-252 122 1670
-259 128 1745
-252 127 1733
-241 124 1692
-236 124 1691
-235 125 1719
-236 129 1768
-224 125 1716
-220 125 1720
-219 127 1751
-199 119 1638
-192 118 1615
-188 118 1619
-183 118 1621
-171 113 1556
-171 116 1593
-169 118 1622
-161 116 1593
-154 113 1561
-155 117 1618
-149 117 1613
-141 114 1575
-140 117 1615
-131 113 1564
-128 115 1583
-122 113 1565
-119 114 1582
-113 113 1558
-107 112 1543
-101 110 1525
-97 111 1533
-93 111 1532
-89 111 1540
-83 109 1511
-79 110 1530
-74 109 1514
-71 111 1547
-65 109 1510
-61 108 1502
-59 112 1561
-54 112 1550
-48 108 1502
-45 111 1548
-39 108 1501
-36 113 1570
-32 112 1564
-27 113 1578
-23 113 1579
-18 113 1579
-14 114 1592
-9 114 1591
-5 113 1581
0 113 1574
3 112 1569
8 113 1577
13 113 1581
17 114 1592
22 113 1582
26 114 1596
31 115 1605
36 115 1607
40 115 1602
45 115 1603
50 115 1610
55 115 1610
59 114 1601
64 115 1607
68 114 1594
73 115 1608
79 116 1627
84 118 1647
91 120 1677
95 119 1675
100 119 1674
105 120 1679
111 120 1685
115 120 1683
121 120 1690
125 120 1685
131 121 1695
136 121 1692
140 120 1691
146 121 1701
151 121 1703
158 122 1721
160 120 1691
156 114 1598
156 111 1553
160 110 1546
158 106 1484
169 110 1546
181 115 1614
198 123 1722
211 127 1787
204 120 1689
197 113 1587
197 110 1550
199 109 1530
203 109 1531
208 109 1530
213 109 1534
219 110 1545
220 108 1520
226 109 1532
232 110 1539
232 108 1512
239 109 1525
242 108 1517
247 109 1523
252 109 1523
247 105 1466
258 107 1505
265 108 1518
269 108 1516
280 111 1555
288 112 1571
271 104 1454
293 111 1551
301 112 1567
314 115 1610
340 122 1720
359 127 1787
356 124 1745
