VERSION 0.7
FIELDS x y z
SIZE 4 4 4
TYPE I I I
COUNT 1 1 1
WIDTH 3619
HEIGHT 1
VIEWPOINT 0.0 0.0 0.0 1.0 0.0 0.0 0.0
POINTS 3619
DATA ascii
840 597 2232
843 595 2221
854 597 2229
858 595 2219
865 595 2216
870 594 2211
879 595 2213
885 595 2207
891 594 2203
896 593 2198
904 594 2197
912 594 2197
921 596 2200
928 595 2197
932 594 2189
940 594 2188
949 595 2189
956 595 2187
961 594 2180
967 594 2176
993 605 2215
975 590 2158
986 592 2163
1004 599 2186
1017 602 2195
1031 607 2208
1042 609 2213
1047 608 2206
1045 602 2184
1037 593 2149
1035 589 2128
1022 577 2083
971 545 1964
1006 561 2019
891 494 1774
753 414 1484
701 383 1371
705 383 1368
720 388 1386
714 383 1365
768 409 1456
890 471 1677
932 490 1743
940 491 1744
953 496 1756
953 492 1742
959 492 1738
968 494 1742
975 494 1741
981 495 1739
977 490 1720
993 495 1735
1001 496 1735
995 490 1712
-1350 682 2278
-1353 687 2300
-1329 679 2276
-1327 681 2290
-1323 683 2300
-1292 671 2263
-1288 673 2272
-1285 675 2284
-1268 670 2271
-1251 665 2259
-1241 663 2257
-1229 661 2253
-1225 663 2263
-1213 661 2258
-1198 656 2247
-1190 656 2249
-1172 650 2232
-1164 649 2234
-1156 649 2237
-1139 644 2221
-1129 642 2219
-1120 641 2218
-1114 642 2225
-1104 640 2222
-1072 625 2174
-1010 593 2065
-971 574 2001
-958 570 1990
-963 577 2017
-966 583 2041
-964 585 2052
-961 587 2062
-959 590 2075
-962 596 2099
-966 602 2125
-977 614 2168
-971 614 2173
-974 620 2196
-978 627 2225
-973 629 2233
-971 632 2246
-970 636 2264
-965 637 2272
-961 639 2282
-961 644 2301
-960 648 2318
-950 646 2315
-950 651 2336
-945 653 2344
-942 655 2357
-937 657 2366
-934 660 2380
-931 663 2392
-925 664 2399
-924 669 2419
-916 668 2420
-919 676 2450
-911 676 2453
-909 680 2470
-907 684 2487
-894 680 2475
-894 686 2499
-888 687 2506
-886 692 2526
-880 693 2534
-880 699 2558
-875 701 2568
-873 706 2588
-869 709 2600
-863 711 2612
-856 711 2614
-855 717 2638
-845 715 2634
-841 718 2649
-835 721 2661
-828 722 2666
-824 725 2680
-822 730 2701
-815 731 2708
-805 730 2705
-797 730 2709
-792 733 2723
-785 734 2728
-780 737 2741
-776 741 2758
-769 743 2766
-760 742 2765
-755 745 2778
-746 744 2777
-740 747 2790
-725 740 2766
-715 738 2761
-704 735 2753
-700 740 2772
-687 735 2755
-677 733 2748
-669 733 2753
-661 733 2754
-651 731 2750
-641 729 2744
-633 729 2744
-623 727 2739
-615 727 2741
-606 727 2741
-596 724 2733
-587 723 2731
-579 724 2734
-570 722 2729
-560 720 2722
-549 716 2710
-538 712 2695
-463 623 2359
-446 609 2307
-454 629 2386
0 0 0
0 0 0
-409 595 2258
-412 609 2313
0 0 0
-388 594 2259
0 0 0
0 0 0
0 0 0
0 0 0
0 0 0
0 0 0
0 0 0
0 0 0
-316 572 2185
-316 585 2233
-315 594 2270
0 0 0
-297 586 2239
0 0 0
-263 544 2079
-274 579 2217
-278 601 2302
-252 561 2146
-248 566 2167
-248 579 2219
-235 566 2169
-235 581 2229
-215 547 2098
-221 577 2213
-213 574 2204
-204 566 2174
-202 581 2230
-189 561 2155
-188 576 2212
-178 566 2177
-170 561 2155
-168 574 2208
-160 569 2189
-158 586 2254
-145 562 2163
-141 570 2195
-135 574 2211
-130 579 2228
-123 577 2222
-114 568 2186
-108 570 2197
-101 565 2179
-94 564 2173
-90 579 2233
-83 573 2208
-74 554 2135
-69 569 2193
-62 558 2153
-55 555 2139
-49 561 2164
-44 574 2215
-39 595 2295
-33 600 2316
-26 614 2372
-20 638 2466
-13 643 2484
-6 650 2511
0 650 2513
8 653 2521
15 649 2507
23 651 2515
30 647 2501
37 647 2501
45 646 2498
52 642 2481
57 627 2422
62 597 2306
67 588 2270
76 601 2322
85 622 2403
94 635 2455
103 642 2482
110 644 2487
117 642 2479
125 642 2482
132 642 2479
139 641 2475
146 640 2473
153 639 2467
161 640 2472
167 637 2462
175 638 2465
183 640 2472
189 638 2465
196 637 2458
204 637 2460
211 637 2457
218 636 2455
225 635 2451
231 634 2446
239 633 2444
245 632 2440
253 633 2441
260 632 2439
268 634 2443
274 631 2434
281 631 2433
288 630 2428
295 631 2431
302 630 2426
309 629 2422
316 628 2420
323 628 2419
330 629 2419
337 628 2416
344 627 2413
350 625 2402
357 626 2406
364 624 2399
372 626 2406
377 623 2393
384 623 2392
392 624 2395
399 623 2391
405 622 2388
412 622 2384
421 624 2391
427 622 2385
432 619 2372
438 618 2368
447 621 2377
455 621 2379
463 622 2381
462 613 2343
476 621 2373
482 619 2367
487 617 2359
495 619 2362
502 618 2359
509 618 2359
515 616 2349
523 617 2353
526 613 2337
535 615 2341
543 616 2345
546 611 2326
554 612 2328
561 613 2328
567 612 2324
574 612 2323
581 612 2322
589 613 2323
595 611 2316
602 611 2315
607 609 2307
616 611 2311
624 612 2313
629 610 2307
636 610 2305
642 609 2299
649 609 2299
658 611 2303
662 608 2291
669 608 2289
677 609 2291
684 609 2290
692 609 2290
697 608 2283
705 609 2285
711 608 2278
716 607 2273
722 606 2268
730 606 2267
736 605 2264
744 606 2265
752 607 2267
758 606 2262
766 606 2261
771 605 2254
778 605 2252
784 605 2249
794 607 2253
797 604 2241
805 605 2242
811 604 2238
818 604 2234
826 604 2235
830 602 2225
836 602 2222
846 604 2228
849 601 2215
859 603 2219
863 601 2210
871 601 2210
877 601 2207
885 602 2207
893 602 2207
898 601 2200
907 602 2203
915 603 2202
921 603 2198
927 602 2192
934 602 2190
941 602 2188
948 602 2185
955 602 2184
963 602 2184
965 599 2169
973 600 2169
977 598 2161
988 600 2166
986 595 2144
1031 618 2224
1040 619 2225
1038 614 2203
1050 616 2210
1036 604 2163
1036 600 2146
1041 599 2139
1014 579 2066
972 552 1964
1009 569 2023
856 480 1702
729 406 1437
713 394 1394
716 393 1387
722 394 1389
734 398 1401
788 425 1493
904 484 1702
928 494 1734
948 502 1758
946 497 1740
955 499 1744
959 498 1738
970 501 1744
971 498 1734
976 498 1728
989 502 1739
994 501 1735
999 501 1730
1005 501 1727
-1350 689 2275
-1337 686 2270
-1339 691 2291
-1321 686 2277
-1316 687 2286
-1295 680 2267
-1281 677 2259
-1270 675 2256
-1268 678 2269
-1255 675 2263
-1235 668 2245
-1233 671 2257
-1222 669 2255
-1213 668 2256
-1194 662 2238
-1189 663 2246
-1182 663 2250
-1171 661 2246
-1155 656 2233
-1146 655 2232
-1137 653 2232
-1128 653 2233
-1121 653 2236
-1099 644 2210
-1084 639 2197
-1025 608 2093
-978 585 2014
-961 578 1995
-963 584 2016
-966 589 2039
-966 593 2054
-959 593 2057
-956 595 2067
-960 602 2093
-963 607 2116
-975 619 2161
-971 621 2172
-978 630 2204
-980 636 2229
-975 637 2235
-972 640 2248
-968 642 2258
-963 643 2266
-963 648 2284
-960 651 2298
-954 652 2304
-953 656 2321
-949 658 2331
-944 659 2340
-937 660 2344
-936 664 2362
-936 669 2384
-928 669 2385
-924 671 2396
-923 676 2416
-917 677 2422
-917 682 2443
-909 682 2445
-904 684 2455
-902 688 2473
-903 694 2498
-896 695 2503
-890 696 2509
-890 702 2534
-885 705 2546
-881 708 2560
-874 709 2564
-874 715 2590
-866 714 2590
-864 719 2610
-856 719 2613
-854 724 2634
-847 725 2640
-841 727 2650
-836 729 2659
-829 731 2667
-822 732 2673
-818 735 2687
-818 743 2719
-810 742 2719
-804 745 2730
-794 743 2726
-790 747 2744
-781 746 2741
-775 749 2754
-769 751 2763
-758 748 2756
-753 751 2768
-747 753 2779
-740 755 2788
-728 752 2777
-713 744 2751
-704 744 2752
-696 743 2753
-688 744 2755
-678 742 2751
-668 740 2744
-660 740 2748
-651 740 2748
-643 740 2750
-633 738 2743
-623 736 2738
-614 734 2734
-606 735 2738
-596 733 2733
-586 730 2724
-579 732 2733
-570 730 2727
-561 729 2724
-551 727 2718
-537 719 2690
-489 666 2491
-422 584 2184
0 0 0
0 0 0
0 0 0
0 0 0
0 0 0
0 0 0
0 0 0
0 0 0
0 0 0
0 0 0
0 0 0
-356 603 2269
0 0 0
0 0 0
-334 601 2264
0 0 0
0 0 0
-294 562 2120
0 0 0
-305 609 2300
-284 581 2194
-278 582 2198
0 0 0
0 0 0
-249 559 2114
-259 598 2262
-258 610 2311
-242 588 2228
-238 595 2255
-223 573 2172
-214 567 2151
-209 571 2165
-209 587 2227
-197 571 2166
-197 591 2243
-189 587 2229
-176 566 2148
-177 591 2243
-167 578 2194
-160 576 2189
-148 558 2122
-145 571 2171
-143 588 2236
-133 571 2172
-128 579 2202
-121 576 2193
-116 583 2218
-107 569 2164
-103 585 2227
-95 576 2194
-86 559 2129
-81 569 2168
-76 578 2204
-68 564 2148
-64 582 2220
-56 569 2168
-49 564 2149
-44 577 2202
-38 590 2249
-33 611 2331
-27 629 2399
-20 636 2428
-13 634 2420
-6 652 2488
0 655 2501
8 658 2511
15 656 2505
23 657 2508
30 656 2505
37 656 2505
45 654 2497
52 652 2490
59 647 2471
64 631 2410
69 612 2336
78 629 2401
88 648 2473
96 650 2483
103 651 2485
110 652 2488
117 650 2480
124 647 2471
132 649 2478
139 648 2472
146 647 2471
153 646 2467
161 648 2474
167 645 2461
176 648 2473
182 644 2457
189 644 2458
196 645 2459
203 643 2453
210 641 2446
217 641 2446
225 642 2450
232 641 2445
239 641 2442
247 643 2453
252 639 2435
260 641 2442
268 641 2442
275 640 2438
281 638 2428
289 640 2436
295 637 2425
302 636 2422
310 638 2427
315 635 2415
322 634 2413
331 637 2421
336 634 2409
343 633 2407
351 633 2407
359 635 2413
364 631 2398
371 631 2396
378 630 2393
386 632 2400
393 632 2398
399 631 2393
406 631 2390
413 630 2387
419 628 2379
424 625 2368
435 631 2388
440 627 2374
447 627 2373
456 630 2382
462 629 2378
459 615 2326
475 627 2370
481 626 2362
487 625 2357
495 625 2358
502 626 2359
508 623 2349
515 623 2348
520 621 2339
528 622 2341
535 622 2340
541 621 2336
548 621 2334
554 620 2328
562 620 2329
568 619 2325
575 619 2323
582 620 2324
591 621 2327
596 620 2321
602 618 2313
611 620 2321
617 619 2315
623 618 2310
631 619 2310
636 617 2303
643 617 2300
647 614 2289
658 618 2303
662 615 2289
668 614 2284
675 614 2284
683 615 2286
691 616 2286
696 614 2279
703 614 2275
710 614 2276
718 615 2276
724 614 2272
731 614 2270
738 614 2268
742 612 2258
754 615 2270
757 612 2257
764 612 2254
772 613 2255
779 613 2252
786 613 2252
791 612 2245
799 612 2244
805 611 2241
813 612 2241
820 612 2239
825 611 2232
831 610 2226
839 611 2227
846 610 2224
853 610 2222
861 612 2224
863 608 2208
874 611 2217
880 610 2212
885 609 2206
892 608 2202
900 609 2203
906 609 2199
914 609 2199
923 610 2200
929 610 2196
936 610 2195
940 608 2183
948 608 2183
955 608 2181
960 607 2174
969 608 2176
976 609 2175
979 606 2163
992 610 2173
1002 612 2177
1007 610 2170
1055 635 2256
1039 621 2203
1050 623 2208
1041 614 2171
1037 607 2145
1042 606 2139
1018 588 2072
982 564 1982
1009 576 2022
836 473 1659
722 406 1421
713 399 1392
708 393 1371
704 389 1354
723 397 1379
801 437 1517
913 495 1717
932 502 1740
952 509 1762
940 500 1728
956 505 1743
961 505 1739
962 502 1728
977 507 1742
980 506 1735
986 506 1731
996 508 1737
1002 508 1734
1009 508 1733
-1374 709 2313
-1361 707 2310
-1320 689 2256
-1331 699 2292
-1308 691 2270
-1287 684 2250
-1279 683 2252
-1272 684 2259
-1262 682 2257
-1252 681 2256
-1241 679 2253
-1227 675 2246
-1214 672 2238
-1211 674 2250
-1200 672 2248
-1189 670 2244
-1180 669 2244
-1163 664 2230
-1155 663 2231
-1148 663 2235
-1131 658 2220
-1127 659 2229
-1119 659 2230
-1104 654 2218
-1091 651 2210
-1036 622 2114
-982 594 2022
-961 585 1994
-958 587 2004
-965 595 2034
-966 600 2053
-962 601 2062
-952 599 2058
-954 605 2079
-958 611 2104
-972 625 2154
-969 627 2165
-974 634 2194
-978 642 2222
-974 644 2231
-974 648 2251
-964 646 2246
-967 653 2272
-959 653 2274
-956 655 2287
-955 659 2303
-950 661 2311
-946 663 2322
-944 667 2339
-943 671 2358
-932 669 2351
-931 673 2367
-931 678 2390
-927 681 2401
-917 679 2399
-919 686 2426
-912 686 2430
-909 689 2442
-908 695 2465
-899 693 2462
-901 701 2491
-897 704 2504
-891 705 2512
-885 706 2518
-888 715 2553
-878 713 2547
-879 720 2575
-875 723 2589
-867 724 2593
-863 727 2608
-857 728 2615
-855 734 2636
-846 733 2635
-844 738 2658
-836 738 2660
-831 741 2671
-827 744 2687
-819 744 2690
-812 745 2695
-809 750 2715
-803 752 2724
-794 751 2724
-791 757 2746
-786 760 2759
-779 761 2764
-767 757 2755
-762 761 2769
-756 763 2778
-747 762 2780
-740 764 2787
-726 758 2766
-716 756 2761
-707 755 2761
-700 756 2767
-687 752 2753
-680 753 2758
-670 751 2753
-661 750 2753
-650 747 2741
-643 748 2747
-631 744 2734
-622 743 2733
-615 744 2737
-606 743 2736
-597 743 2737
-588 741 2731
-578 739 2725
-570 739 2728
-560 737 2722
-550 734 2712
-536 726 2684
-497 683 2527
-433 605 2238
-434 616 2279
0 0 0
0 0 0
-400 596 2210
0 0 0
0 0 0
0 0 0
0 0 0
0 0 0
0 0 0
-369 620 2307
-361 618 2299
0 0 0
0 0 0
-334 608 2264
-313 581 2165
-302 573 2136
-314 607 2264
0 0 0
0 0 0
-279 576 2150
0 0 0
-275 595 2225
-260 578 2160
-261 594 2220
-240 560 2092
-251 600 2246
-242 595 2227
-222 561 2098
-232 603 2260
-221 593 2220
-209 577 2162
-208 592 2221
-207 607 2277
-189 575 2158
-178 561 2105
-181 590 2214
-170 573 2150
-162 569 2136
-162 593 2225
-152 580 2178
-147 584 2193
-140 582 2187
-132 573 2155
-131 600 2255
-121 584 2196
-118 599 2252
-109 588 2212
-101 579 2177
-95 584 2198
-89 583 2195
-83 587 2212
-77 590 2220
-70 585 2205
-62 574 2162
-57 589 2217
-51 590 2221
-44 583 2198
-37 589 2220
-33 629 2371
-26 630 2375
-20 635 2395
-13 636 2400
-6 657 2477
1 667 2515
8 663 2502
15 663 2501
23 663 2501
30 663 2500
37 664 2506
45 662 2500
52 663 2501
59 661 2496
66 658 2483
73 651 2458
80 654 2466
89 660 2489
96 658 2482
103 656 2477
110 657 2480
118 658 2482
125 657 2479
132 657 2480
140 658 2482
146 655 2470
154 655 2470
161 654 2467
168 653 2465
175 653 2464
182 653 2464
189 651 2456
197 653 2464
204 652 2457
211 653 2461
217 649 2445
225 649 2447
232 650 2448
240 651 2452
247 650 2447
253 648 2441
260 647 2437
267 647 2436
275 647 2437
280 644 2424
289 646 2431
295 645 2428
302 645 2426
308 642 2415
317 644 2422
324 645 2424
331 644 2421
337 642 2413
345 643 2414
351 641 2407
357 639 2401
365 641 2404
371 639 2397
379 640 2402
386 639 2397
391 637 2388
398 637 2386
406 637 2387
412 635 2378
418 635 2376
426 636 2379
433 635 2377
442 637 2384
446 633 2368
456 637 2381
461 634 2369
463 628 2344
474 632 2360
481 632 2358
488 632 2358
494 631 2354
502 632 2356
508 630 2347
516 631 2350
521 629 2342
528 629 2338
535 629 2340
542 629 2338
548 628 2334
555 628 2330
561 627 2325
569 628 2328
576 628 2327
582 626 2321
590 627 2321
597 627 2320
602 626 2314
609 625 2309
615 624 2305
623 625 2306
628 623 2298
637 625 2305
643 624 2299
650 624 2297
656 623 2292
664 623 2293
670 623 2290
676 622 2286
683 622 2282
691 623 2285
698 622 2282
705 622 2279
712 623 2279
719 623 2277
724 621 2269
732 622 2271
737 620 2263
746 622 2267
752 621 2262
761 622 2265
767 621 2261
773 621 2258
779 620 2252
786 620 2251
791 618 2241
799 619 2243
806 619 2240
813 619 2239
818 618 2233
826 618 2232
832 617 2227
839 618 2225
850 621 2235
854 618 2224
856 615 2210
863 615 2207
869 614 2201
880 617 2209
886 616 2205
895 618 2208
902 617 2205
904 614 2192
914 616 2197
922 617 2197
928 616 2193
933 615 2184
941 616 2185
951 617 2189
955 616 2181
963 616 2179
968 615 2173
986 622 2195
981 614 2165
989 615 2165
997 615 2164
1015 622 2185
1033 629 2205
1043 631 2210
1048 629 2202
1040 620 2167
1039 615 2148
1042 613 2137
1012 591 2058
983 571 1984
1003 578 2007
817 468 1622
716 408 1408
702 397 1368
704 396 1363
718 401 1380
769 426 1465
823 454 1558
921 505 1730
936 510 1745
939 508 1737
953 513 1751
948 507 1728
962 511 1740
971 513 1743
973 511 1734
981 512 1735
980 508 1720
993 512 1730
998 512 1726
1004 512 1723
-1378 719 2319
-1369 719 2322
-1329 702 2270
-1320 701 2271
-1316 703 2281
-1297 696 2265
-1290 697 2270
-1268 689 2248
-1255 686 2242
-1254 689 2258
-1234 682 2239
-1230 684 2249
-1204 674 2219
-1209 681 2245
-1200 680 2246
-1186 676 2237
-1180 677 2242
-1165 672 2231
-1161 674 2240
-1146 669 2229
-1134 667 2224
-1123 664 2218
-1113 663 2217
-1107 663 2223
-1091 658 2208
-1045 635 2132
-990 605 2036
-962 592 1994
-958 594 2003
-965 602 2033
-966 607 2053
-962 608 2061
-957 609 2067
-957 613 2084
-957 617 2101
-968 629 2143
-966 632 2156
-971 639 2185
-979 649 2221
-980 654 2243
-972 654 2245
-967 656 2253
-965 659 2266
-965 664 2287
-958 664 2289
-956 668 2305
-952 669 2314
-945 670 2318
-947 676 2344
-945 680 2359
-938 680 2363
-932 681 2369
-928 684 2382
-926 688 2398
-923 691 2411
-917 692 2417
-917 698 2442
-912 699 2449
-906 701 2456
-904 705 2474
-897 706 2479
-893 709 2493
-892 714 2513
-888 717 2527
-884 719 2538
-879 722 2551
-872 723 2556
-874 731 2586
-870 734 2600
-862 734 2602
-857 736 2614
-854 741 2633
-848 743 2640
-841 743 2645
-837 747 2662
-832 750 2674
-825 751 2680
-818 752 2685
-814 756 2702
-808 757 2709
-801 758 2715
-795 761 2726
-786 760 2726
-780 762 2734
-776 767 2754
-770 769 2764
-760 767 2759
-753 768 2765
-747 771 2777
-741 773 2787
-727 767 2769
-716 764 2760
-707 763 2758
-696 760 2750
-686 758 2744
-678 759 2750
-667 756 2741
-661 759 2752
-652 758 2750
-641 755 2740
-631 753 2734
-624 753 2739
-616 754 2741
-607 752 2739
-598 752 2740
-589 751 2736
-579 748 2729
-568 745 2719
-562 747 2726
-550 742 2709
-537 735 2686
-502 698 2550
-447 631 2308
-446 640 2340
0 0 0
-405 601 2199
0 0 0
0 0 0
0 0 0
0 0 0
-377 608 2231
0 0 0
0 0 0
0 0 0
-347 601 2211
-339 599 2205
0 0 0
0 0 0
-330 619 2279
0 0 0
0 0 0
-299 597 2203
0 0 0
0 0 0
-272 583 2152
0 0 0
0 0 0
-270 620 2292
0 0 0
-242 587 2170
-236 586 2169
-228 583 2156
-232 609 2255
-224 605 2241
-218 609 2255
-201 578 2143
-199 592 2193
-197 604 2239
-192 609 2257
-172 566 2099
-172 586 2174
-171 605 2244
-162 597 2217
-158 607 2254
-143 576 2139
-140 589 2187
-133 583 2167
-127 586 2177
-118 577 2143
-115 590 2194
-108 589 2190
-100 578 2150
-97 597 2222
-88 585 2175
-83 594 2208
-75 585 2177
-70 598 2226
-62 582 2165
-56 589 2194
-50 590 2199
-45 610 2271
-39 614 2286
-33 626 2333
-26 632 2355
-19 635 2368
-12 639 2381
-6 664 2476
1 672 2505
8 674 2513
15 671 2504
23 671 2504
30 670 2499
37 671 2501
45 670 2499
52 671 2502
59 669 2494
67 668 2493
74 667 2490
82 670 2498
89 669 2494
96 666 2484
103 666 2483
110 666 2483
118 665 2482
125 666 2483
132 665 2481
140 665 2480
147 664 2477
153 661 2466
161 661 2463
168 660 2461
175 662 2467
182 660 2459
190 661 2464
197 659 2456
204 659 2455
210 656 2445
219 660 2458
225 656 2443
232 656 2443
239 657 2446
245 653 2433
253 656 2440
260 654 2436
267 653 2431
274 653 2431
281 653 2428
288 652 2425
296 654 2432
302 651 2421
310 653 2427
317 651 2420
324 652 2423
331 652 2421
339 652 2422
344 649 2411
350 647 2402
358 648 2404
365 647 2400
372 648 2402
379 647 2398
385 645 2389
393 647 2397
399 645 2388
406 644 2386
414 646 2390
419 642 2375
426 643 2377
434 644 2380
441 643 2378
448 643 2377
458 647 2391
459 639 2359
466 639 2358
476 642 2369
482 641 2363
490 642 2366
493 637 2347
503 640 2358
508 637 2346
517 640 2354
524 639 2351
530 639 2347
535 636 2338
542 636 2337
549 636 2335
555 634 2328
563 636 2333
570 636 2330
575 633 2320
583 634 2322
590 634 2321
596 634 2317
603 633 2312
610 633 2311
617 633 2313
624 633 2310
630 632 2306
636 631 2300
645 633 2304
650 631 2295
658 632 2297
663 630 2290
672 631 2293
679 631 2291
683 629 2281
691 630 2284
699 630 2283
705 629 2278
711 628 2273
719 630 2276
726 629 2273
732 628 2268
738 628 2265
746 628 2264
751 627 2257
759 628 2258
765 627 2255
773 628 2255
781 628 2255
788 628 2253
792 626 2242
799 626 2240
806 626 2240
814 626 2239
820 626 2235
827 626 2233
835 627 2233
842 626 2230
845 623 2218
854 625 2221
857 622 2209
863 621 2204
869 621 2200
880 624 2208
888 624 2208
894 624 2205
900 623 2198
909 625 2202
916 625 2200
922 624 2194
930 625 2195
937 625 2193
941 623 2183
945 621 2174
956 623 2181
963 623 2178
966 621 2167
972 620 2162
981 621 2164
993 624 2171
1012 632 2195
1033 640 2222
1032 635 2201
1044 638 2210
1048 637 2201
1037 626 2160
1039 622 2146
1038 617 2126
1007 595 2046
989 581 1993
988 576 1975
779 451 1543
708 407 1391
709 405 1381
715 406 1383
712 402 1367
759 426 1446
842 469 1592
932 516 1749
937 516 1746
956 523 1768
955 519 1752
967 523 1761
963 517 1740
965 515 1730
970 515 1727
979 517 1730
986 517 1729
987 515 1718
994 515 1717
996 513 1706
-1380 728 2320
-1344 713 2277
-1350 721 2305
-1334 716 2293
-1336 721 2314
-1311 712 2288
-1279 699 2250
-1272 699 2255
-1256 694 2243
-1246 693 2242
-1230 688 2231
-1235 695 2257
-1214 687 2235
-1208 688 2242
-1198 686 2241
-1178 679 2220
-1167 677 2216
-1161 677 2222
-1158 679 2233
-1142 675 2220
-1140 678 2233
-1123 672 2218
-1111 669 2211
-1099 666 2205
-1091 665 2207
-1066 654 2173
-997 616 2050
-964 600 1996
-960 601 2005
-964 608 2029
-962 611 2042
-957 612 2049
-956 615 2064
-954 618 2075
-957 624 2099
-966 634 2137
-970 641 2163
-972 647 2187
-982 658 2226
-975 659 2231
-975 663 2249
-967 663 2251
-969 668 2273
-961 668 2275
-956 670 2283
-955 674 2300
-951 676 2311
-951 682 2332
-945 682 2336
-942 685 2349
-935 685 2353
-932 689 2368
-926 690 2375
-931 699 2409
-920 696 2401
-918 700 2419
-916 705 2437
-913 708 2450
-905 708 2452
-904 713 2474
-899 715 2483
-895 718 2495
-892 721 2510
-887 723 2520
-886 729 2544
-879 730 2548
-873 732 2557
-867 733 2565
-866 738 2585
-860 740 2594
-860 747 2622
-853 748 2627
-847 750 2635
-844 754 2652
-834 752 2648
-831 757 2667
-824 758 2673
-815 757 2673
-817 767 2709
-806 764 2703
-800 766 2711
-797 771 2730
-789 772 2735
-783 774 2746
-775 774 2749
-764 771 2741
-763 778 2768
-754 778 2769
-749 781 2782
-740 781 2783
-728 777 2770
-714 771 2751
-705 770 2751
-695 768 2746
-689 770 2754
-678 767 2746
-670 768 2750
-660 765 2743
-651 764 2742
-644 766 2748
-633 762 2738
-625 763 2742
-616 762 2740
-607 761 2739
-596 758 2728
-587 757 2726
-579 757 2727
-571 757 2730
-560 753 2718
-551 751 2712
-538 745 2692
-503 707 2556
-452 646 2334
0 0 0
0 0 0
-397 596 2156
-407 619 2243
0 0 0
0 0 0
0 0 0
0 0 0
0 0 0
-352 595 2161
-354 609 2211
0 0 0
-332 594 2160
-319 581 2114
-344 638 2324
0 0 0
0 0 0
0 0 0
-282 570 2078
0 0 0
0 0 0
0 0 0
-267 592 2160
-266 602 2200
-269 624 2282
-257 612 2235
-252 617 2258
-234 589 2153
0 0 0
-236 627 2297
-223 609 2230
-226 636 2328
-210 610 2233
-208 625 2291
-199 616 2258
-189 606 2223
-183 608 2230
-174 601 2203
-173 620 2274
-162 603 2212
-153 596 2189
-144 584 2145
-139 591 2169
-135 601 2206
-129 605 2222
-123 605 2223
-115 599 2200
-109 600 2207
-102 600 2206
-99 619 2275
-87 585 2149
-83 601 2210
-77 604 2224
-69 590 2172
-63 601 2211
-55 579 2129
-47 569 2093
-43 588 2166
-39 622 2289
-33 642 2366
-26 640 2357
-19 637 2348
-12 646 2382
-6 673 2479
1 681 2509
8 681 2512
15 681 2512
23 680 2507
30 679 2503
37 677 2495
45 678 2499
52 679 2503
59 675 2488
67 679 2503
74 676 2492
81 676 2491
89 677 2498
96 677 2495
104 676 2492
110 673 2480
118 674 2485
125 674 2484
132 672 2477
139 670 2470
147 672 2477
154 671 2473
162 672 2478
168 669 2465
175 667 2459
183 670 2469
190 668 2461
197 668 2459
204 667 2455
212 668 2459
218 666 2453
225 664 2445
232 665 2447
240 665 2448
247 664 2442
254 663 2439
260 662 2436
269 665 2445
275 662 2435
282 662 2433
289 662 2434
296 661 2431
303 660 2424
309 657 2415
317 659 2421
324 659 2419
332 660 2422
337 657 2410
344 656 2407
350 654 2400
358 655 2402
366 656 2405
372 655 2400
378 652 2391
386 653 2392
393 653 2392
400 654 2394
406 651 2384
415 654 2392
421 652 2385
426 649 2374
434 651 2378
441 651 2377
448 649 2372
457 653 2384
457 642 2344
467 647 2360
476 650 2369
482 648 2362
488 646 2355
496 647 2356
501 645 2348
509 645 2349
515 645 2344
523 646 2347
530 645 2344
536 644 2340
542 643 2334
549 643 2333
557 643 2333
563 642 2328
570 643 2329
577 642 2326
584 642 2324
591 643 2325
596 640 2314
605 642 2318
611 641 2314
617 640 2308
624 639 2306
630 639 2302
639 641 2307
644 639 2300
650 638 2294
658 639 2296
663 637 2288
670 637 2287
679 638 2290
684 636 2281
692 638 2284
698 636 2278
706 637 2280
711 636 2273
717 635 2267
725 636 2269
732 636 2268
739 636 2266
748 637 2269
755 637 2267
760 635 2260
766 635 2256
772 634 2249
780 635 2252
787 635 2250
794 634 2246
801 635 2246
807 633 2239
813 633 2235
821 634 2236
825 631 2226
831 631 2222
840 632 2224
847 632 2222
852 631 2216
858 630 2210
865 630 2209
873 630 2208
880 631 2207
888 631 2206
896 632 2206
902 631 2202
909 631 2199
914 630 2192
921 630 2191
930 632 2194
935 630 2186
944 632 2189
951 632 2186
957 630 2180
963 630 2176
968 629 2169
976 629 2167
982 629 2164
995 632 2173
1029 649 2229
1028 645 2211
1034 644 2205
1041 643 2201
1043 641 2188
1040 634 2164
1037 628 2141
1038 624 2125
1000 598 2031
992 589 1999
962 567 1922
792 464 1568
736 429 1445
717 415 1396
697 401 1347
735 419 1408
746 423 1420
862 486 1629
933 523 1750
945 526 1759
950 525 1754
953 524 1748
959 524 1745
964 524 1740
969 523 1737
977 524 1736
978 522 1726
992 526 1738
994 524 1728
1004 526 1732
999 521 1711
-1385 739 2327
-1362 731 2305
-1355 731 2310
-1343 729 2308
-1329 725 2301
-1307 717 2279
-1294 714 2274
-1284 713 2274
-1273 711 2271
-1248 701 2244
-1235 698 2237
-1224 696 2235
-1213 693 2230
-1200 690 2224
-1195 692 2232
-1178 686 2218
-1176 689 2232
-1145 675 2189
-1151 683 2218
-1143 682 2220
-1132 680 2215
-1128 682 2224
-1107 673 2201
-1099 673 2203
-1090 672 2203
-1065 661 2169
-1008 630 2070
-968 609 2005
-960 608 2003
-960 611 2019
-965 619 2048
-960 620 2053
-958 623 2066
-955 625 2076
-953 628 2088
-959 637 2121
-967 646 2156
-974 656 2189
-978 663 2217
-973 664 2225
-974 670 2246
-967 670 2249
-969 676 2272
-964 677 2280
-964 682 2299
-957 683 2304
-951 683 2308
-950 688 2327
-942 688 2329
-941 692 2345
-938 695 2361
-936 699 2376
-931 701 2385
-929 705 2400
-920 704 2401
-918 708 2417
-912 709 2425
-913 716 2449
-906 716 2453
-906 722 2476
-900 723 2483
-894 724 2490
-889 727 2500
-884 729 2511
-884 736 2536
-878 737 2544
-875 741 2559
-870 744 2572
-865 746 2582
-858 747 2587
-854 750 2602
-854 757 2627
-846 757 2629
-840 759 2639
-839 765 2662
-830 765 2664
-830 772 2691
-818 768 2680
-812 770 2691
-807 773 2702
-803 778 2721
-794 777 2720
-788 779 2731
-782 781 2739
-776 783 2749
-765 781 2742
-762 786 2763
-756 788 2774
-747 788 2775
-742 791 2788
-731 789 2782
-715 780 2751
-707 781 2756
-696 778 2749
-688 778 2750
-678 776 2746
-671 777 2750
-660 774 2744
-652 774 2745
-642 772 2738
-633 771 2739
-625 772 2741
-616 770 2738
-605 767 2729
-599 769 2737
-587 764 2723
-580 766 2730
-570 763 2722
-560 761 2716
-553 763 2724
-536 751 2681
-502 713 2547
-453 654 2337
-441 646 2311
-422 629 2250
0 0 0
0 0 0
0 0 0
0 0 0
0 0 0
-375 618 2216
-354 595 2134
-370 631 2266
-385 670 2407
0 0 0
-345 624 2242
-340 626 2253
-326 613 2205
-315 605 2176
0 0 0
0 0 0
-309 631 2273
0 0 0
-277 591 2133
-294 643 2320
-278 622 2245
-270 619 2234
-259 608 2195
-259 624 2254
0 0 0
-235 598 2161
-227 595 2150
-222 597 2158
-221 610 2209
-224 637 2307
-209 616 2229
-208 631 2286
-194 611 2212
-191 619 2244
-177 597 2164
-174 608 2203
-167 607 2200
-161 607 2201
-157 617 2238
-150 615 2233
-142 609 2210
-136 611 2219
-130 614 2232
-121 605 2198
-113 597 2169
-109 607 2204
-101 600 2181
-96 608 2211
-91 616 2241
-81 594 2160
-75 600 2183
-68 595 2164
-64 615 2239
-56 603 2194
-50 602 2192
-43 603 2194
-38 618 2251
-33 647 2356
-26 653 2377
-19 649 2363
-12 653 2377
-6 679 2473
1 689 2509
8 688 2508
16 689 2512
23 687 2505
30 688 2506
38 687 2503
45 685 2495
52 684 2493
60 684 2491
67 683 2490
74 682 2487
82 684 2494
89 686 2500
96 685 2495
103 681 2483
111 681 2482
118 682 2484
125 680 2479
132 680 2477
140 679 2473
147 678 2469
154 679 2475
161 676 2465
168 677 2465
176 679 2474
183 676 2462
190 676 2463
197 674 2455
204 675 2458
211 673 2451
219 676 2461
226 674 2452
233 674 2451
239 670 2439
247 672 2444
253 670 2436
261 671 2441
267 669 2431
275 670 2435
282 669 2432
289 667 2425
296 668 2426
303 667 2422
310 667 2424
316 665 2414
325 667 2422
331 665 2415
338 665 2413
344 663 2406
351 662 2402
359 663 2405
366 664 2406
372 662 2397
380 662 2400
386 660 2391
394 662 2396
401 663 2398
407 659 2386
413 658 2381
421 659 2382
427 657 2375
435 659 2380
441 658 2376
451 661 2388
459 663 2393
457 650 2346
468 655 2362
475 655 2360
481 654 2355
490 655 2360
495 653 2352
503 655 2355
509 654 2351
515 652 2342
523 653 2347
530 652 2342
536 652 2339
543 651 2334
551 652 2338
557 651 2335
562 649 2325
570 649 2326
579 651 2331
582 647 2315
590 649 2319
599 650 2322
605 649 2317
610 647 2308
618 648 2312
625 648 2308
632 648 2308
638 647 2304
644 646 2299
651 645 2294
656 644 2287
665 645 2292
673 647 2294
678 644 2284
686 646 2288
693 646 2287
700 645 2284
707 645 2282
711 643 2271
720 644 2275
726 643 2270
733 644 2269
738 642 2261
749 645 2270
751 641 2255
761 643 2260
769 644 2262
774 642 2254
782 643 2254
785 640 2242
794 642 2246
801 641 2243
807 641 2239
814 640 2235
819 639 2229
828 640 2231
835 641 2231
841 640 2226
849 641 2226
855 640 2221
860 638 2213
862 635 2199
874 638 2209
879 637 2202
888 638 2204
895 638 2202
904 640 2205
905 636 2189
918 640 2201
923 639 2194
930 639 2192
937 638 2188
945 639 2189
952 639 2185
958 638 2180
962 636 2171
971 638 2174
975 636 2165
981 635 2159
982 631 2143
1036 661 2244
1021 647 2193
1038 653 2211
1045 653 2208
1047 650 2194
1040 641 2162
1037 635 2139
1034 629 2115
991 599 2011
1000 600 2013
935 557 1865
751 445 1484
731 430 1433
719 420 1399
697 405 1345
724 418 1388
755 433 1436
877 500 1655
927 525 1738
935 526 1738
949 531 1751
957 532 1752
956 529 1738
964 529 1739
972 531 1740
975 529 1732
989 534 1744
987 529 1727
989 527 1718
1003 531 1728
1007 531 1723
-1380 744 2316
-1362 738 2303
-1348 735 2297
-1345 737 2308
-1330 733 2300
-1316 730 2293
-1305 728 2291
-1283 720 2269
-1277 721 2277
-1266 719 2274
-1253 715 2267
-1245 715 2270
-1227 709 2254
-1205 701 2233
-1205 705 2248
-1186 698 2230
-1163 689 2205
-1156 689 2209
-1144 686 2202
-1135 685 2202
-1125 683 2200
-1119 684 2206
-1117 687 2219
-1097 679 2197
-1097 683 2214
-1072 672 2181
-1008 637 2069
-968 615 2003
-957 612 1995
-960 618 2017
-965 626 2045
-962 628 2056
-959 630 2066
-955 632 2074
-952 635 2086
-961 645 2123
-971 656 2162
-973 662 2185
-980 671 2219
-974 672 2224
-973 677 2242
-971 680 2256
-970 684 2274
-965 686 2281
-958 686 2284
-959 691 2306
-948 688 2299
-948 694 2320
-945 697 2335
-942 700 2346
-936 701 2354
-933 705 2368
-927 705 2373
-927 711 2395
-925 716 2413
-917 715 2414
-913 718 2426
-910 721 2439
-910 727 2461
-903 728 2467
-901 732 2485
-897 735 2497
-892 737 2506
-887 740 2519
-881 741 2525
-879 746 2545
-875 749 2559
-870 752 2569
-864 753 2575
-865 760 2605
-855 759 2602
-852 764 2620
-847 766 2632
-842 769 2643
-835 770 2649
-830 773 2663
-824 775 2670
-818 777 2681
-814 781 2696
-804 779 2691
-804 787 2723
-794 785 2718
-785 785 2718
-778 786 2725
-774 789 2740
-767 791 2748
-759 791 2751
-757 798 2775
-745 794 2764
-742 799 2785
-729 795 2773
-716 790 2756
-705 787 2747
-698 788 2753
-689 787 2751
-679 786 2749
-670 784 2745
-662 784 2748
-652 783 2746
-644 783 2748
-634 781 2741
-624 779 2736
-614 776 2729
-607 778 2736
-598 776 2732
-588 774 2726
-579 774 2726
-568 770 2713
-561 771 2720
-552 769 2714
-539 762 2691
-510 733 2589
-442 645 2279
-463 686 2426
0 0 0
0 0 0
0 0 0
0 0 0
0 0 0
0 0 0
-375 625 2215
0 0 0
0 0 0
0 0 0
0 0 0
-340 621 2206
-324 604 2146
-345 655 2332
0 0 0
0 0 0
0 0 0
-297 613 2185
-296 625 2227
-295 637 2270
-275 608 2171
-285 645 2301
-281 651 2324
-258 613 2189
-261 635 2269
-245 613 2189
-231 595 2127
0 0 0
-233 633 2265
-217 609 2177
-226 652 2334
-204 606 2170
-203 622 2229
-201 638 2287
-188 619 2217
-176 599 2148
-174 613 2199
-172 630 2258
-160 611 2191
-153 607 2176
-146 604 2169
-145 627 2252
-131 597 2141
-133 634 2276
-123 622 2232
-119 633 2274
-111 625 2246
-100 603 2167
-97 621 2233
-90 618 2223
-83 614 2208
-77 620 2229
-67 591 2125
-62 605 2178
-55 596 2145
-47 579 2081
-44 615 2214
-39 637 2292
-33 658 2370
-26 662 2385
-19 652 2348
-12 662 2383
-5 685 2467
1 698 2514
8 697 2510
16 695 2505
23 696 2508
30 694 2501
38 693 2497
45 693 2496
52 693 2498
60 692 2493
67 691 2490
74 691 2489
82 692 2494
89 692 2494
96 691 2489
103 688 2479
111 687 2477
118 687 2474
125 686 2473
132 686 2473
140 686 2471
147 687 2477
154 686 2472
162 687 2474
168 684 2464
176 685 2468
183 683 2459
190 683 2461
197 682 2457
204 682 2454
211 682 2454
218 680 2449
226 680 2449
233 682 2452
240 680 2448
247 679 2443
254 679 2442
261 678 2437
269 678 2439
275 676 2428
282 675 2427
290 677 2431
297 677 2432
304 676 2426
310 675 2422
318 675 2423
324 673 2414
330 670 2405
337 671 2406
345 672 2411
352 671 2406
358 668 2396
366 671 2404
373 669 2398
381 672 2405
386 669 2394
394 670 2398
400 668 2390
407 667 2384
413 665 2377
421 667 2383
427 665 2374
434 665 2376
440 663 2367
451 669 2386
460 671 2394
457 657 2342
470 665 2369
477 665 2369
481 661 2354
490 663 2361
495 660 2350
503 661 2353
512 664 2359
518 662 2352
523 659 2342
530 660 2342
536 659 2338
544 659 2338
551 659 2338
557 658 2331
564 657 2329
570 657 2326
577 657 2324
585 658 2326
592 657 2322
599 657 2322
604 655 2312
610 654 2306
618 655 2310
623 653 2301
631 654 2303
639 654 2303
645 653 2297
651 653 2295
660 654 2298
665 652 2290
671 652 2286
680 653 2290
687 653 2288
692 651 2280
700 652 2281
706 651 2276
713 652 2276
720 651 2273
726 650 2268
732 650 2265
738 649 2260
747 650 2263
753 650 2259
759 649 2254
767 649 2254
773 649 2250
782 650 2254
791 651 2256
793 648 2241
804 651 2250
805 646 2231
814 648 2235
822 649 2236
830 649 2235
834 647 2225
844 649 2231
847 646 2219
853 645 2213
862 647 2216
865 644 2205
874 645 2208
883 647 2211
891 647 2210
894 645 2199
903 646 2201
913 648 2206
918 647 2199
924 646 2194
927 643 2182
936 645 2185
942 644 2179
951 645 2182
959 646 2180
961 643 2168
969 643 2166
977 644 2167
985 645 2167
995 647 2171
1048 676 2267
1029 659 2208
1037 660 2208
1044 659 2203
1044 655 2186
1035 645 2150
1038 643 2139
1032 634 2108
986 602 1999
1004 609 2018
897 540 1787
762 456 1505
712 424 1396
705 416 1370
708 416 1365
746 435 1427
772 448 1466
890 513 1678
938 537 1757
938 534 1743
949 537 1750
954 536 1745
959 535 1740
965 536 1739
969 535 1733
977 536 1733
980 534 1726
992 538 1734
994 536 1724
999 535 1720
1016 541 1737
-1380 752 2314
-1375 753 2322
-1362 751 2319
-1348 747 2311
-1328 740 2295
-1316 737 2290
-1303 735 2286
-1300 737 2297
-1277 728 2274
-1276 732 2291
-1258 726 2275
-1249 725 2276
-1232 720 2263
-1217 715 2253
-1207 714 2252
-1190 708 2236
-1180 706 2235
-1171 705 2235
-1159 702 2230
-1137 693 2205
-1128 692 2205
-1120 691 2205
-1121 697 2226
-1102 690 2206
-1090 686 2198
-1066 676 2168
-1017 649 2085
-975 626 2014
-955 618 1990
-958 624 2012
-964 632 2041
-963 635 2055
-958 636 2062
-953 638 2069
-951 641 2082
-955 647 2107
-969 661 2155
-974 670 2185
-977 676 2211
-980 683 2236
-974 684 2241
-972 688 2257
-966 689 2263
-964 692 2277
-961 695 2289
-958 698 2302
-955 701 2316
-949 702 2321
-946 705 2333
-946 711 2355
-934 707 2346
-930 710 2358
-932 717 2384
-927 719 2393
-923 721 2404
-916 722 2409
-918 729 2437
-913 731 2446
-909 734 2457
-904 736 2467
-896 736 2469
-893 739 2484
-891 744 2502
-887 748 2517
-881 749 2524
-879 754 2542
-875 757 2557
-868 758 2562
-863 760 2571
-861 765 2591
-857 769 2607
-853 772 2619
-846 773 2626
-839 774 2632
-835 778 2647
-829 780 2656
-823 782 2664
-817 783 2673
-810 785 2680
-805 788 2691
-800 791 2706
-799 798 2731
-788 795 2725
-780 796 2730
-771 795 2728
-769 802 2753
-763 804 2765
-753 802 2759
-745 803 2764
-741 808 2782
-732 806 2780
-716 798 2753
-706 797 2750
-697 795 2748
-689 796 2751
-679 794 2747
-671 794 2748
-660 791 2741
-652 791 2744
-642 789 2738
-634 790 2741
-626 789 2739
-614 785 2728
-606 785 2729
-598 785 2732
-589 784 2729
-578 780 2718
-570 780 2720
-562 781 2724
-553 779 2718
-539 770 2689
-507 736 2571
-450 665 2322
0 0 0
0 0 0
0 0 0
-404 635 2224
0 0 0
0 0 0
0 0 0
0 0 0
-379 649 2276
0 0 0
0 0 0
-361 654 2298
-353 652 2292
-319 601 2115
0 0 0
-336 659 2320
0 0 0
-297 607 2139
-317 661 2329
-296 632 2226
-269 588 2072
-274 612 2160
0 0 0
-255 597 2107
-258 620 2189
-258 636 2248
-232 589 2079
-239 620 2192
-253 675 2387
-230 633 2238
-229 648 2293
-207 604 2136
-201 604 2137
-195 606 2147
-197 633 2244
-192 638 2260
-184 632 2241
-177 632 2239
-172 636 2256
-165 637 2259
-156 626 2222
-148 619 2197
-141 619 2198
-133 612 2173
-132 637 2261
-122 621 2207
-116 622 2209
-108 615 2185
-104 631 2242
-101 656 2332
-89 620 2202
-80 600 2131
-74 604 2147
-70 619 2200
-62 612 2177
-56 617 2196
-50 623 2216
-43 613 2181
-39 657 2337
-33 669 2381
-26 669 2382
-19 659 2348
-12 667 2375
-5 692 2465
1 705 2510
8 703 2505
16 704 2508
23 703 2506
30 702 2502
38 702 2501
45 701 2498
53 704 2510
60 700 2494
67 701 2499
74 699 2490
82 698 2487
89 699 2493
97 701 2499
104 701 2499
111 696 2480
118 697 2482
126 696 2480
133 695 2477
140 695 2475
147 695 2476
154 694 2471
162 693 2469
170 696 2478
176 693 2468
183 692 2464
190 691 2462
197 689 2454
205 690 2457
212 691 2459
218 687 2443
226 689 2451
233 687 2444
240 688 2449
247 687 2442
255 687 2444
262 687 2441
268 685 2436
275 683 2428
283 686 2438
290 685 2433
296 683 2425
303 681 2419
310 681 2419
317 681 2418
325 681 2417
331 679 2410
338 679 2408
346 680 2412
352 678 2402
357 675 2393
366 678 2402
374 679 2406
380 677 2398
386 676 2391
394 677 2396
401 677 2394
408 676 2389
415 675 2386
420 673 2377
429 675 2383
434 672 2372
443 674 2379
452 677 2390
457 674 2377
455 661 2329
469 670 2362
476 671 2362
483 670 2360
490 670 2359
497 669 2355
505 671 2360
509 667 2346
516 667 2343
524 668 2346
531 668 2346
537 666 2338
544 666 2336
551 666 2335
557 665 2329
564 664 2327
571 665 2327
580 666 2331
585 665 2324
591 663 2318
599 664 2318
604 662 2310
613 664 2316
620 664 2314
625 662 2306
633 663 2308
640 663 2306
645 661 2299
650 659 2289
661 663 2301
666 660 2291
671 658 2282
682 662 2294
687 660 2286
692 659 2280
700 659 2280
708 660 2280
714 660 2278
722 660 2279
726 657 2266
734 658 2267
742 659 2269
748 658 2264
753 656 2255
759 656 2252
768 657 2256
773 655 2247
782 657 2252
787 655 2244
793 654 2238
803 657 2246
810 657 2242
815 655 2235
821 655 2231
826 653 2223
836 655 2228
842 655 2225
848 654 2219
855 653 2216
860 652 2209
868 653 2210
874 652 2205
884 654 2210
892 655 2210
897 654 2204
904 653 2201
910 653 2197
916 652 2191
925 653 2193
932 654 2192
938 653 2187
945 653 2185
950 652 2178
959 653 2180
964 652 2173
969 650 2165
978 651 2167
986 652 2167
1013 665 2208
1008 657 2179
1023 662 2192
1037 667 2205
1047 668 2207
1045 663 2186
1040 655 2157
1038 650 2137
1026 638 2095
989 611 2003
1006 617 2020
866 528 1725
738 447 1457
714 429 1397
723 432 1404
716 425 1379
749 442 1432
781 458 1483
906 528 1708
936 542 1752
943 543 1751
948 542 1747
949 539 1734
958 541 1738
967 542 1740
979 546 1749
981 544 1740
981 541 1726
984 539 1718
998 544 1730
1003 543 1725
1011 544 1726
-1386 763 2321
-1374 761 2319
-1361 758 2314
-1336 748 2289
-1330 749 2296
-1324 750 2303
-1303 742 2283
-1294 742 2286
-1279 737 2276
-1270 736 2276
-1258 734 2273
-1242 729 2262
-1232 727 2260
-1227 729 2269
-1211 723 2256
-1201 722 2254
-1186 717 2243
-1173 714 2237
-1161 711 2231
-1151 709 2230
-1123 696 2193
-1123 701 2210
-1113 699 2207
-1096 692 2190
-1091 694 2200
-1078 690 2190
-1032 665 2113
-981 636 2025
-957 625 1992
-957 629 2007
-962 637 2035
-963 642 2053
-955 641 2053
-953 644 2067
-951 647 2079
-955 654 2105
-965 666 2145
-968 673 2171
-976 683 2207
-977 688 2227
-976 693 2246
-973 696 2257
-966 696 2261
-963 699 2273
-961 702 2287
-955 703 2292
-950 705 2302
-951 711 2324
-944 711 2328
-941 714 2340
-939 718 2356
-937 722 2373
-928 721 2371
-924 724 2383
-925 731 2408
-917 730 2410
-915 734 2427
-916 741 2452
-904 738 2444
-902 742 2460
-901 747 2480
-895 749 2488
-896 756 2515
-892 759 2527
-884 759 2530
-880 763 2543
-871 762 2543
-872 769 2571
-867 772 2583
-860 772 2587
-858 778 2609
-849 777 2608
-846 781 2623
-837 781 2624
-836 787 2649
-830 789 2658
-821 788 2656
-821 796 2684
-809 793 2677
-806 797 2694
-803 802 2713
-791 799 2705
-788 804 2723
-781 805 2730
-774 807 2737
-770 811 2754
-759 809 2748
-751 808 2750
-744 810 2757
-738 813 2769
-730 812 2770
-715 806 2749
-706 804 2746
-696 803 2742
-688 803 2744
-680 803 2749
-670 801 2742
-661 800 2741
-653 801 2745
-643 798 2739
-632 795 2728
-626 797 2738
-616 795 2732
-605 792 2725
-598 793 2728
-590 793 2730
-577 787 2711
-572 791 2727
-560 787 2713
-550 784 2704
-539 779 2689
-512 751 2594
-442 659 2276
-447 676 2338
0 0 0
0 0 0
0 0 0
0 0 0
0 0 0
0 0 0
0 0 0
0 0 0
-378 666 2313
-365 656 2280
-369 675 2347
0 0 0
-336 639 2224
-339 658 2289
-321 636 2214
0 0 0
-301 621 2162
-283 598 2084
0 0 0
-287 634 2211
0 0 0
-261 604 2108
-268 635 2216
-268 650 2272
-250 623 2176
-228 585 2043
-241 633 2212
-237 640 2238
-233 646 2258
-220 628 2197
-221 649 2273
-211 641 2245
-207 650 2277
-192 623 2183
-184 619 2167
-183 635 2226
-179 646 2266
-169 632 2218
-165 642 2251
-159 644 2259
-150 638 2238
-143 634 2225
-133 619 2174
-134 656 2302
-118 610 2143
-116 630 2212
-114 658 2311
-105 643 2260
-94 617 2168
-85 599 2107
-82 625 2199
-77 630 2215
-72 645 2270
-62 621 2183
-57 634 2230
-47 596 2097
-43 622 2189
-38 635 2235
-33 672 2366
-26 672 2365
-19 667 2347
-12 673 2368
-5 700 2464
1 714 2515
8 713 2512
16 715 2518
23 716 2523
31 715 2519
38 711 2505
45 709 2498
52 707 2490
60 707 2492
67 708 2494
75 706 2490
82 705 2483
89 705 2486
97 708 2493
104 707 2491
111 705 2484
118 702 2474
126 703 2478
133 702 2473
140 703 2477
147 702 2473
155 702 2471
162 701 2468
169 702 2471
176 698 2457
183 698 2457
190 698 2459
198 700 2463
205 699 2459
211 694 2443
219 696 2448
226 695 2445
233 696 2449
241 697 2450
248 695 2443
254 691 2431
262 693 2437
269 693 2436
276 693 2434
283 692 2433
290 692 2430
297 691 2427
304 690 2423
310 689 2418
316 686 2408
326 690 2423
332 688 2414
339 688 2412
346 688 2414
353 688 2413
359 685 2401
366 685 2400
374 686 2402
381 685 2399
386 682 2388
393 682 2387
400 681 2383
408 682 2386
416 684 2392
423 684 2390
428 681 2378
434 679 2372
443 681 2377
452 684 2388
455 677 2363
457 671 2340
471 680 2371
478 680 2368
483 677 2357
490 676 2355
498 678 2359
504 677 2356
512 677 2355
516 674 2341
522 673 2336
530 674 2340
537 674 2338
544 674 2337
551 673 2334
558 673 2331
565 673 2332
571 672 2326
578 672 2323
586 673 2327
591 670 2316
599 671 2317
605 670 2311
611 669 2306
619 669 2307
625 669 2303
632 668 2301
640 670 2304
646 669 2299
653 669 2298
660 668 2294
666 667 2289
671 666 2283
678 666 2282
687 667 2283
694 667 2282
700 667 2280
706 665 2273
713 665 2272
723 668 2278
726 664 2263
735 666 2268
742 666 2268
748 665 2262
755 665 2260
760 663 2252
767 664 2251
775 664 2252
784 665 2254
789 664 2248
793 662 2237
800 662 2235
807 661 2233
817 664 2240
824 664 2236
830 663 2232
837 663 2228
842 661 2222
850 662 2222
855 661 2216
863 661 2216
868 660 2209
877 661 2210
884 661 2208
890 661 2205
896 660 2200
905 661 2201
913 662 2201
918 660 2194
927 662 2196
933 661 2192
940 661 2190
945 660 2182
953 660 2182
958 659 2175
963 658 2169
972 659 2171
981 660 2171
988 660 2169
1011 671 2201
1018 671 2199
1038 679 2222
1039 675 2208
1044 674 2200
1046 671 2187
1038 661 2151
1038 657 2135
1021 641 2082
991 618 2005
1007 624 2021
844 519 1678
723 442 1425
703 427 1375
728 439 1412
720 432 1386
727 433 1387
799 473 1515
910 535 1713
934 546 1745
945 549 1753
951 550 1750
947 544 1729
959 547 1738
959 544 1724
978 552 1746
975 546 1726
987 550 1735
993 550 1732
991 545 1716
1002 548 1721
1016 553 1733
-1384 770 2317
-1372 768 2314
-1358 764 2307
-1346 761 2304
-1336 760 2304
-1314 752 2284
-1314 756 2300
-1305 755 2302
-1286 749 2287
-1272 745 2278
-1258 741 2270
-1248 740 2270
-1232 735 2258
-1223 734 2258
-1216 734 2264
-1196 726 2243
-1188 726 2247
-1178 724 2245
-1166 721 2239
-1147 714 2220
-1137 712 2218
-1136 716 2233
-1123 712 2225
-1107 707 2212
-1090 701 2196
-1077 697 2186
-1037 676 2123
-986 646 2033
-962 635 2001
-956 635 2005
-958 641 2024
-963 649 2052
-961 652 2065
-957 653 2073
-951 654 2077
-955 661 2103
-961 670 2134
-972 682 2176
-980 693 2213
-981 698 2235
-974 699 2238
-969 700 2246
-967 704 2262
-965 707 2274
-961 710 2286
-960 714 2303
-954 715 2309
-950 718 2320
-947 721 2333
-938 720 2333
-942 728 2363
-936 729 2369
-926 727 2365
-924 732 2383
-924 737 2404
-925 744 2427
-914 742 2423
-911 745 2435
-911 751 2459
-901 749 2455
-900 755 2477
-896 758 2490
-891 760 2499
-888 764 2514
-887 770 2537
-881 771 2544
-870 768 2537
-871 776 2565
-862 776 2566
-859 780 2584
-855 783 2597
-852 788 2614
-848 791 2628
-840 791 2631
-833 793 2638
-830 797 2655
-824 799 2664
-817 801 2671
-810 801 2675
-808 807 2698
-797 804 2691
-789 805 2696
-784 809 2709
-781 814 2728
-768 809 2715
-765 814 2734
-759 817 2747
-752 818 2751
-752 827 2784
-741 824 2777
-732 823 2777
-717 816 2754
-708 815 2753
-697 812 2744
-689 813 2747
-678 809 2738
-669 809 2738
-660 807 2736
-652 807 2737
-642 806 2734
-634 806 2736
-624 804 2730
-616 803 2730
-608 803 2733
-598 801 2726
-588 799 2721
-579 798 2717
-571 798 2720
-563 799 2724
-553 796 2718
-541 790 2699
-514 762 2602
-456 687 2349
-450 688 2353
0 0 0
0 0 0
0 0 0
0 0 0
0 0 0
0 0 0
0 0 0
0 0 0
-365 651 2234
-349 633 2174
0 0 0
-339 639 2198
-343 659 2267
-339 664 2286
-316 632 2177
-316 645 2221
0 0 0
-293 624 2150
0 0 0
-283 630 2173
-289 659 2273
0 0 0
0 0 0
0 0 0
-261 658 2273
-241 622 2148
-243 646 2233
-232 633 2189
-226 635 2197
-226 653 2260
-209 621 2151
-212 650 2250
-207 655 2269
-198 650 2251
-185 629 2179
-180 632 2189
-174 636 2205
-173 655 2272
-169 664 2304
-155 638 2214
-147 631 2190
-140 630 2185
-134 632 2196
-130 641 2227
-125 649 2254
-115 631 2193
-111 647 2247
-99 612 2127
-99 656 2279
-88 629 2186
-83 637 2215
-78 646 2246
-69 632 2199
-61 615 2141
-56 623 2169
-52 662 2302
-42 609 2118
-38 644 2241
-33 679 2365
-26 683 2377
-19 672 2338
-12 675 2352
-5 695 2423
1 718 2500
8 721 2514
16 728 2536
24 732 2550
31 728 2537
38 721 2512
45 717 2500
53 715 2492
60 716 2494
67 716 2496
74 713 2485
82 714 2488
89 712 2483
97 716 2494
104 716 2497
111 711 2478
118 711 2476
126 712 2480
133 711 2479
140 710 2473
147 709 2469
154 707 2465
162 709 2470
169 707 2463
176 706 2460
183 706 2459
191 706 2459
198 706 2459
205 707 2462
212 705 2455
219 704 2449
226 703 2445
233 703 2446
240 701 2437
247 702 2441
255 703 2445
262 703 2444
268 699 2431
276 701 2438
283 701 2436
290 699 2428
298 700 2432
304 698 2425
312 699 2428
318 696 2417
325 696 2415
332 695 2411
340 697 2418
346 695 2411
353 695 2409
360 694 2404
367 694 2405
374 694 2403
381 693 2401
387 691 2392
394 690 2389
401 690 2389
408 690 2388
415 690 2384
422 689 2380
429 689 2381
436 688 2376
443 689 2377
452 691 2384
454 684 2358
461 683 2356
470 686 2363
477 686 2365
484 686 2362
491 685 2358
496 683 2351
505 685 2355
511 684 2352
518 683 2348
524 682 2341
533 684 2347
538 682 2338
544 680 2333
551 680 2332
560 683 2339
563 678 2322
574 682 2334
579 679 2324
586 680 2323
591 677 2313
597 677 2310
606 678 2315
614 679 2316
620 678 2310
624 674 2297
633 677 2304
639 676 2300
645 675 2294
653 675 2295
661 677 2298
667 676 2293
671 672 2280
680 674 2285
688 675 2286
695 676 2286
703 676 2286
709 675 2282
716 675 2281
721 673 2271
726 671 2264
734 672 2263
741 672 2262
749 672 2262
756 673 2262
764 674 2262
769 672 2254
774 670 2246
781 670 2244
788 670 2243
795 670 2240
802 670 2238
809 670 2236
815 669 2230
822 669 2229
831 671 2233
837 670 2227
844 670 2226
850 669 2220
856 669 2217
859 665 2203
870 668 2211
878 669 2212
885 669 2210
895 671 2214
900 669 2206
908 670 2207
913 669 2200
918 667 2191
927 669 2195
930 666 2182
939 667 2185
949 669 2188
955 668 2184
957 666 2172
968 668 2176
970 665 2164
981 667 2169
986 666 2163
1016 681 2210
1018 678 2195
1031 682 2206
1039 682 2205
1047 683 2203
1040 673 2171
1039 669 2152
1041 665 2139
1019 647 2076
992 625 2004
1002 628 2009
813 506 1614
716 443 1411
730 448 1425
709 433 1374
707 428 1359
720 433 1373
816 488 1545
914 544 1719
938 555 1752
934 549 1730
941 549 1729
958 556 1748
962 555 1741
964 553 1732
974 555 1736
973 551 1722
980 552 1721
990 554 1726
1014 564 1754
1000 553 1718
1007 554 1717
-1378 774 2304
-1373 776 2314
-1359 772 2307
-1353 773 2313
-1333 766 2297
-1322 764 2294
-1317 766 2304
-1295 757 2282
-1282 754 2276
-1279 757 2289
-1255 747 2264
-1250 749 2272
-1244 749 2277
-1227 744 2264
-1211 739 2253
-1204 738 2256
-1194 737 2256
-1181 734 2249
-1173 733 2251
-1161 730 2245
-1144 724 2230
-1132 721 2223
-1120 718 2218
-1108 715 2211
-1098 713 2209
-1089 712 2209
-1059 697 2165
-990 656 2041
-969 646 2013
-952 639 1995
-954 645 2016
-961 654 2046
-959 657 2059
-954 658 2066
-950 660 2073
-950 664 2090
-955 673 2120
-970 688 2171
-973 695 2196
-974 700 2216
-974 706 2236
-970 708 2246
-968 712 2261
-963 713 2269
-959 716 2279
