VERSION 0.7
FIELDS x y z
SIZE 4 4 4
TYPE I I I
COUNT 1 1 1
WIDTH 3894
HEIGHT 1
VIEWPOINT 0.0 0.0 0.0 1.0 0.0 0.0 0.0
POINTS 3894
DATA ascii
-723 54 2092
-718 53 2096
-713 54 2103
-705 53 2098
-699 53 2102
-700 54 2126
-686 53 2102
-679 53 2104
-672 53 2103
-667 53 2108
-651 52 2079
-640 52 2064
-636 52 2071
-631 52 2076
-634 53 2109
-629 53 2115
-623 53 2117
-614 53 2110
-609 53 2115
-610 53 2143
-598 53 2123
-588 52 2112
-575 52 2087
-576 52 2116
-568 52 2111
-564 52 2118
-558 52 2120
-553 52 2127
-540 52 2103
-537 52 2117
-529 52 2109
-524 52 2118
-518 52 2118
-513 52 2123
-506 52 2122
-498 51 2118
-503 53 2167
-538 57 2346
-658 70 2904
-687 74 3071
-683 74 3096
-675 74 3103
-668 74 3113
-660 75 3123
-653 75 3133
-646 75 3143
-638 75 3149
-632 75 3169
-617 74 3139
-611 75 3160
-604 75 3169
-595 75 3170
-589 75 3189
-579 75 3186
-567 75 3173
-558 75 3177
-552 75 3197
-540 75 3184
-533 75 3197
-523 75 3191
-514 75 3195
-505 75 3200
-497 75 3210
-487 75 3201
-477 74 3198
-467 74 3197
-458 74 3195
-450 74 3209
-440 74 3204
-431 74 3208
-422 74 3206
-412 74 3202
-403 74 3210
-392 74 3194
-384 74 3202
-375 74 3205
-366 74 3206
-356 73 3204
-347 74 3210
-337 73 3198
-329 73 3211
-319 73 3210
-310 73 3212
-301 73 3211
-292 73 3213
-282 73 3209
-273 73 3212
-264 73 3216
-257 74 3246
0 0 0
-40 14 582
-40 15 605
-33 13 522
-30 12 506
-30 13 529
-26 12 481
-25 12 499
-17 9 372
-254 112 5003
-222 104 4647
-202 100 4505
-182 97 4337
-151 86 3874
-136 84 3760
-127 85 3824
-136 99 4450
0 0 0
0 0 0
-19 22 963
0 0 0
0 0 0
-29 51 2291
-18 42 1891
-9 33 1451
-3 28 1234
0 18 796
3 24 1071
5 21 914
8 21 928
10 20 852
13 21 925
13 16 691
13 15 628
14 14 576
16 14 594
21 17 723
22 15 666
22 14 619
25 15 658
31 17 753
36 19 819
31 15 651
33 15 652
39 17 741
34 14 607
35 14 581
50 18 811
40 14 618
50 17 750
43 14 600
54 17 737
54 16 709
51 15 644
64 18 786
0 0 0
0 0 0
0 0 0
0 0 0
24 6 233
16 4 135
36 8 334
50 11 466
0 0 0
49 10 427
77 15 675
84 16 716
67 13 555
67 12 536
64 12 500
67 12 518
53 9 390
43 8 305
39 7 267
31 5 205
21 4 131
11 2 55
716 104 4918
725 103 4883
730 102 4823
727 99 4709
737 99 4681
732 96 4563
743 96 4548
756 96 4551
764 95 4517
746 91 4331
743 89 4241
714 84 4005
0 0 0
0 0 0
0 0 0
150 17 772
170 19 865
156 17 782
155 17 763
163 18 795
146 15 696
152 16 718
128 13 593
145 15 662
163 16 737
163 16 729
157 15 691
169 16 736
154 15 659
168 16 710
159 15 663
177 16 730
141 13 570
158 14 633
91 8 352
119 11 462
104 9 395
68 6 251
1244 99 4789
1275 100 4849
1276 99 4796
1309 100 4864
17 2 46
0 0 0
0 0 0
0 0 0
0 0 0
0 0 0
0 0 0
0 0 0
0 0 0
0 0 0
0 0 0
0 0 0
0 0 0
0 0 0
0 0 0
0 0 0
0 0 0
0 0 0
0 0 0
0 0 0
0 0 0
0 0 0
0 0 0
0 0 0
0 0 0
0 0 0
0 0 0
1051 60 2922
1051 60 2896
1071 60 2923
1066 59 2884
1096 60 2937
1040 57 2763
988 54 2600
1036 56 2703
1037 55 2681
1041 55 2668
1042 55 2647
1060 55 2671
1065 55 2660
1047 53 2592
1086 55 2665
1084 54 2639
1090 54 2630
1074 53 2570
1085 53 2575
1084 53 2550
1096 53 2558
1090 52 2523
1089 52 2498
1097 52 2496
1084 51 2446
1090 50 2440
1099 50 2441
1093 50 2408
1102 50 2408
1098 49 2381
1085 48 2334
1101 49 2350
1117 49 2365
1107 48 2325
1108 48 2308
1114 48 2304
1113 47 2284
1113 47 2266
1103 46 2228
1100 46 2205
1105 46 2197
1107 45 2184
1113 45 2179
1124 45 2184
1128 45 2177
1129 45 2161
1124 44 2137
1125 44 2121
1130 44 2115
1126 44 2092
1128 43 2081
1132 43 2071
1136 43 2064
1127 42 2032
1130 42 2023
-500 29 873
-501 29 881
-501 29 887
-487 28 868
-485 28 872
-482 28 873
-483 29 881
-470 28 864
-488 29 904
-495 30 924
-647 39 1215
-1090 65 2062
-1106 66 2109
-1093 66 2099
-1093 66 2116
-1087 66 2120
-1070 65 2103
-1064 65 2108
-1056 65 2107
-1050 65 2112
-1045 65 2117
-1035 65 2114
-1025 65 2110
-1018 65 2111
-1010 64 2111
-1006 65 2119
-995 64 2113
-989 64 2116
-979 64 2113
-975 64 2119
-965 64 2116
-960 64 2120
-952 64 2120
-944 64 2119
-918 62 2079
-911 62 2079
-911 63 2096
-899 62 2086
-892 62 2087
-889 62 2097
-880 62 2094
-866 61 2077
-864 62 2090
-858 62 2094
-839 61 2065
-836 61 2074
-829 61 2074
-829 61 2094
-820 61 2088
-809 61 2079
-807 61 2091
-803 61 2099
-790 61 2085
-788 61 2098
-781 61 2098
-770 60 2087
-767 61 2098
-758 60 2093
-742 59 2068
-732 59 2058
-732 60 2079
-727 60 2084
-722 60 2090
-715 60 2087
-722 61 2129
-704 60 2096
-705 60 2119
-700 60 2124
-691 60 2119
-682 60 2113
-676 60 2116
-666 59 2105
-653 59 2085
-639 58 2061
-638 58 2079
-633 58 2083
-631 59 2100
-626 59 2105
-619 59 2105
-616 59 2118
-612 59 2126
-602 59 2113
-596 59 2115
-593 59 2128
-578 58 2099
-575 58 2110
-569 58 2112
-564 58 2120
-559 59 2127
-552 58 2126
-543 58 2113
-539 58 2124
-533 58 2125
-523 58 2114
-521 58 2131
-515 58 2134
-505 58 2118
-499 58 2119
-501 59 2157
-535 63 2334
-664 79 2933
-693 83 3100
-683 83 3097
-674 83 3101
-670 84 3126
-661 84 3126
-652 84 3128
-646 84 3147
-638 84 3154
-631 84 3162
-618 84 3144
-610 84 3153
-601 84 3153
-596 84 3180
-586 84 3177
-576 84 3174
-569 84 3186
-557 84 3173
-551 84 3194
-542 84 3194
-534 84 3204
-524 84 3197
-514 84 3193
-504 84 3193
-495 84 3193
-486 84 3194
-476 84 3192
-468 84 3205
-459 84 3202
-449 84 3203
-439 83 3197
-432 84 3215
-420 83 3193
-411 83 3198
-403 83 3208
-393 83 3203
-384 83 3205
-374 83 3196
-366 83 3210
-356 83 3202
-347 83 3207
-337 83 3202
-327 82 3198
-319 82 3204
-310 82 3208
-300 82 3201
-291 82 3209
-282 82 3209
-273 82 3208
-264 82 3214
-258 83 3258
-343 114 4476
-18 8 277
-21 10 333
-19 9 320
-19 9 327
-15 8 285
-22 11 411
-17 10 343
-5 5 153
-247 123 4866
-225 119 4716
-214 120 4757
0 0 0
0 0 0
-122 85 3384
-121 91 3627
-129 106 4229
-140 126 5046
-4 8 266
0 0 0
0 0 0
0 0 0
0 0 0
0 0 0
-3 21 801
-1 21 788
1 17 639
3 20 761
5 18 692
6 18 670
9 19 738
10 18 673
10 14 515
9 11 387
14 15 580
11 10 351
16 14 525
21 17 647
16 11 420
14 9 316
26 16 621
22 13 472
21 11 422
19 10 345
24 12 432
20 9 341
31 14 520
23 10 350
22 9 321
24 9 338
30 11 417
37 13 488
0 0 0
0 0 0
0 0 0
0 0 0
0 0 0
0 0 0
17 5 154
0 0 0
2 1 -4
498 122 5036
2 1 -4
31 8 269
40 10 349
44 10 374
61 13 511
51 11 419
51 11 403
58 12 456
42 9 309
50 10 368
37 7 264
38 7 259
17 4 101
21 4 131
8 2 35
10 2 46
726 117 4887
723 114 4774
732 114 4741
730 111 4641
728 109 4542
736 108 4504
734 106 4411
744 105 4397
752 104 4366
760 104 4336
784 105 4398
783 103 4323
788 102 4281
750 96 4005
0 0 0
0 0 0
0 0 0
133 17 652
125 15 605
141 17 674
130 15 608
143 17 662
121 14 551
136 16 613
138 16 611
134 15 586
143 16 616
133 14 568
155 16 653
145 15 605
154 16 634
136 14 551
121 12 482
127 13 498
118 12 455
103 10 392
25 3 84
1258 114 4842
1263 113 4802
1282 114 4820
1288 113 4784
1321 114 4853
0 0 0
0 0 0
0 0 0
0 0 0
0 0 0
0 0 0
0 0 0
0 0 0
0 0 0
0 0 0
0 0 0
0 0 0
0 0 0
0 0 0
0 0 0
0 0 0
0 0 0
0 0 0
0 0 0
0 0 0
0 0 0
0 0 0
0 0 0
0 0 0
0 0 0
0 0 0
1027 68 2856
1051 68 2896
1070 69 2921
1071 68 2896
1075 68 2880
1097 69 2914
1053 66 2773
1086 67 2833
1092 67 2825
1098 67 2815
1023 62 2599
1044 62 2629
1025 61 2559
1048 61 2594
1043 61 2558
997 58 2424
1084 62 2616
1037 59 2479
1049 59 2487
1066 60 2508
1091 60 2545
1079 59 2497
1094 60 2511
1086 59 2472
1090 58 2460
1093 58 2448
1080 57 2399
1089 57 2400
1093 57 2388
1105 57 2396
1106 57 2379
1095 56 2336
1106 56 2342
1110 56 2331
1114 55 2322
1101 54 2277
1108 54 2273
1105 54 2250
1103 53 2227
1113 53 2230
1098 52 2184
1110 52 2190
1116 52 2186
1123 52 2183
1131 52 2182
1127 52 2157
1126 51 2140
1132 51 2134
1127 51 2110
1130 50 2098
1130 50 2084
1134 50 2075
1134 50 2060
1133 49 2044
1133 49 2028
-495 31 864
-499 32 878
-501 32 888
-497 32 887
-496 32 892
-492 32 891
-481 31 878
-479 31 880
-478 31 884
-507 33 946
-636 42 1194
-1088 71 2059
-1108 73 2112
-1096 72 2106
-1090 72 2110
-1083 72 2113
-1076 72 2116
-1067 72 2112
-1058 72 2110
-1051 72 2114
-1043 72 2114
-1034 71 2111
-1028 71 2116
-1017 71 2110
-1014 71 2119
-1004 71 2116
-996 71 2114
-989 71 2117
-979 71 2112
-972 70 2113
-967 71 2120
-957 70 2114
-951 70 2118
-941 70 2112
-917 69 2076
-907 68 2071
-895 68 2059
-901 69 2090
-896 69 2096
-874 68 2062
-876 68 2084
-872 68 2092
-856 67 2070
-859 68 2096
-850 68 2092
-833 67 2068
-836 68 2093
-822 67 2076
-826 68 2104
-818 68 2101
-810 68 2100
-806 68 2109
-794 67 2095
-786 67 2092
-785 67 2109
-782 68 2120
-769 67 2104
-757 66 2088
-738 65 2056
-728 65 2048
-736 66 2088
-732 66 2096
-721 66 2085
-719 66 2099
-716 66 2110
-712 67 2119
-694 66 2087
-694 66 2107
-690 66 2115
-679 66 2103
-679 66 2122
-669 66 2113
-656 65 2095
-640 64 2065
-634 64 2065
-635 65 2091
-628 65 2089
-628 65 2111
-618 65 2100
-615 65 2112
-609 65 2115
-605 65 2125
-597 65 2120
-587 65 2107
-582 65 2114
-576 65 2114
-570 65 2117
-565 65 2122
-557 65 2120
-552 65 2126
-544 64 2117
-538 64 2121
-530 64 2116
-522 64 2110
-523 65 2139
-513 64 2123
-507 64 2125
-498 64 2116
-500 65 2154
-533 70 2324
-656 87 2895
-681 91 3046
-685 93 3107
-677 93 3111
-670 93 3123
-661 93 3125
-654 93 3137
-647 93 3150
-640 94 3160
-629 93 3152
-620 93 3154
-609 93 3148
-601 93 3157
-595 93 3172
-584 93 3165
-575 93 3168
-568 93 3180
-559 93 3186
-552 94 3197
-543 94 3200
-533 93 3196
-521 93 3183
-513 93 3191
-504 93 3189
-495 93 3196
-486 93 3195
-476 93 3196
-467 93 3193
-458 93 3198
-447 92 3190
-439 93 3195
-430 92 3197
-422 93 3206
-411 92 3199
-403 93 3208
-393 92 3200
-384 92 3201
-374 92 3202
-365 92 3205
-356 92 3206
-347 92 3208
-337 92 3201
-327 92 3197
-319 92 3210
-309 91 3200
-301 92 3214
-290 91 3196
-282 91 3206
-272 91 3205
-265 92 3224
-259 93 3275
-349 129 4558
1 1 10
-11 7 194
-9 6 172
-3 4 87
-10 7 211
-298 142 5028
-1 3 66
-266 140 4972
-245 136 4830
-232 136 4857
-220 137 4892
0 0 0
0 0 0
-111 87 3102
-119 100 3571
-124 114 4067
-131 133 4751
1 2 39
0 4 103
0 0 0
0 0 0
0 0 0
0 0 0
0 0 0
0 20 690
1 17 582
3 15 520
4 16 531
6 17 576
8 18 620
7 11 349
11 17 573
12 17 562
10 12 387
9 9 299
9 8 251
17 15 506
10 7 226
11 8 255
13 8 265
9 5 155
19 11 378
19 11 348
7 4 91
10 5 141
6 3 64
14 7 200
15 7 204
19 8 255
12 5 143
18 7 221
25 10 312
33 12 401
20 7 215
396 132 4863
419 135 4971
426 133 4879
451 136 5001
457 133 4907
475 134 4946
479 131 4842
512 136 5033
514 133 4908
532 134 4940
11 3 69
34 9 277
28 7 216
24 6 176
32 8 238
26 6 185
27 6 187
26 6 175
20 5 130
20 4 123
12 3 67
10 3 50
726 134 4987
726 131 4888
742 132 4899
731 127 4732
726 124 4613
729 122 4548
737 121 4514
723 117 4344
737 117 4356
743 116 4311
754 115 4305
758 114 4251
758 112 4181
763 111 4140
768 110 4103
773 109 4064
750 104 3881
0 0 0
0 0 0
0 0 0
106 14 500
124 17 583
111 15 511
73 10 324
68 9 297
109 14 483
65 8 276
104 13 445
121 15 514
132 16 554
136 16 564
114 13 463
145 17 587
90 10 354
130 15 511
84 10 320
95 11 362
25 3 84
1271 130 4890
1264 128 4808
1280 128 4810
1296 128 4814
7 1 10
0 0 0
0 0 0
0 0 0
0 0 0
0 0 0
0 0 0
0 0 0
0 0 0
0 0 0
0 0 0
0 0 0
0 0 0
0 0 0
0 0 0
0 0 0
0 0 0
0 0 0
0 0 0
0 0 0
0 0 0
0 0 0
0 0 0
0 0 0
0 0 0
0 0 0
0 0 0
1047 78 2910
1049 77 2889
1059 77 2890
1066 77 2882
1075 77 2880
1075 76 2854
1065 75 2802
1076 75 2807
1093 75 2826
1037 71 2657
1065 72 2706
1083 73 2728
1031 69 2573
1064 70 2633
1066 70 2616
1025 67 2492
1052 68 2537
1055 68 2522
1020 65 2418
1054 66 2478
1108 69 2585
1044 65 2415
1066 66 2446
1071 65 2437
1095 66 2472
1087 65 2433
1074 64 2385
1062 63 2338
1101 65 2407
1089 64 2360
1108 64 2383
1095 63 2337
1098 63 2323
1105 63 2320
1109 62 2311
1109 62 2292
1106 61 2268
1095 60 2228
1088 59 2196
1097 60 2197
1100 59 2187
1106 59 2182
1117 59 2188
1122 59 2180
1125 59 2170
1123 58 2150
1129 58 2145
1135 58 2141
1124 57 2103
1127 57 2094
1125 57 2074
1133 57 2073
1135 56 2062
1134 56 2045
1137 56 2035
-513 35 894
-496 34 872
-496 35 879
-486 34 867
-489 34 879
-481 34 871
-483 34 881
-484 35 889
-476 34 882
-493 36 919
-636 46 1195
-1088 78 2059
-1107 79 2111
-1095 79 2104
-1090 79 2109
-1080 79 2106
-1073 79 2109
-1068 79 2114
-1055 78 2106
-1052 79 2116
-1042 78 2111
-1037 78 2118
-1028 78 2115
-1016 78 2108
-1014 78 2119
-1004 78 2115
-995 77 2114
-987 77 2112
-981 77 2117
-974 77 2119
-964 77 2113
-954 77 2107
-950 77 2116
-943 77 2116
-918 75 2079
-907 75 2070
-896 74 2061
-889 74 2063
-887 75 2076
-872 74 2057
-878 75 2088
-865 74 2076
-866 75 2094
-856 74 2089
-850 74 2091
-836 74 2074
-837 74 2094
-825 74 2083
-832 75 2119
-818 74 2103
-810 74 2100
-799 74 2090
-799 74 2107
-785 73 2089
-782 74 2101
-780 74 2114
-764 73 2088
-763 73 2107
-749 73 2086
-739 72 2077
-737 73 2091
-726 72 2081
-722 72 2090
-715 72 2088
-709 72 2092
-704 72 2096
-695 72 2090
-696 73 2113
-686 72 2104
-684 73 2117
-678 73 2122
-664 72 2096
-655 71 2092
-636 70 2052
-635 70 2068
-633 71 2084
-631 71 2100
-626 71 2106
-625 72 2124
-622 72 2135
-609 71 2114
-605 72 2125
-596 71 2115
-587 71 2107
-583 71 2118
-578 71 2121
-570 71 2119
-562 71 2114
-559 71 2124
-551 71 2120
-544 71 2119
-537 71 2116
-531 71 2119
-525 71 2121
-516 70 2112
-510 70 2112
-508 71 2132
-498 70 2116
-496 71 2137
-520 75 2266
-638 93 2818
-682 100 3053
-677 101 3070
-676 102 3108
-663 101 3090
-658 102 3110
-660 103 3165
-647 103 3149
-636 102 3144
-624 102 3131
-616 102 3136
-605 101 3127
-598 102 3139
-596 103 3180
-588 103 3187
-576 102 3172
-568 103 3183
-562 103 3201
-557 104 3224
-543 103 3200
-538 104 3224
-526 103 3211
-516 103 3207
-505 103 3199
-497 103 3210
-487 103 3206
-478 103 3209
-469 103 3211
-462 103 3226
-450 102 3211
-440 102 3204
-431 102 3206
-421 102 3203
-412 102 3203
-404 102 3213
-394 102 3214
-384 102 3206
-376 102 3213
-366 102 3208
-357 101 3209
-347 101 3212
-338 101 3215
-328 101 3208
-319 101 3211
-310 101 3213
-300 101 3201
-291 101 3211
-283 101 3216
-272 101 3205
-265 101 3225
-266 105 3361
-354 144 4622
-365 154 4954
-5 4 106
-335 154 4936
-322 154 4941
-308 154 4953
-287 150 4835
-281 154 4980
-261 151 4876
-245 150 4839
-234 151 4889
-220 151 4899
0 0 0
0 0 0
0 0 0
-115 107 3471
-119 121 3907
-124 139 4506
-121 150 4863
-109 153 4963
0 0 0
0 0 0
0 0 0
0 0 0
0 0 0
2 5 141
1 12 367
3 11 338
3 11 325
4 11 330
5 10 296
5 7 182
6 9 247
5 6 168
5 5 140
3 1 0
4 3 54
13 12 368
5 4 85
7 5 133
15 11 339
7 4 104
8 5 123
236 153 5039
4 2 33
3 1 1
0 0 0
12 6 158
5 2 38
9 4 96
15 7 180
12 5 128
9 4 82
0 0 0
387 148 4921
398 147 4887
394 140 4662
413 142 4735
432 144 4790
449 145 4818
465 145 4842
471 143 4760
486 143 4774
479 137 4570
511 142 4746
527 143 4768
0 0 0
579 149 4980
0 0 0
11 3 62
621 148 4960
4 2 11
7 2 33
671 150 5012
686 150 5011
695 148 4976
707 148 4952
707 145 4852
722 145 4861
723 142 4773
733 141 4747
737 139 4684
739 137 4604
736 134 4506
740 132 4449
733 129 4329
749 129 4345
738 125 4212
752 125 4216
753 123 4154
766 124 4157
774 123 4132
756 118 3975
765 118 3961
774 117 3947
759 113 3812
0 0 0
0 0 0
0 0 0
83 12 378
64 9 283
54 8 235
60 9 258
74 11 318
73 10 306
54 8 222
93 13 386
112 15 462
138 18 567
164 21 665
109 14 430
107 14 420
99 12 379
91 11 346
16 3 46
1270 144 4887
1266 142 4813
1289 143 4844
1308 143 4858
1314 142 4823
0 0 0
0 0 0
0 0 0
0 0 0
0 0 0
0 0 0
0 0 0
0 0 0
0 0 0
0 0 0
0 0 0
0 0 0
0 0 0
0 0 0
0 0 0
0 0 0
0 0 0
0 0 0
0 0 0
0 0 0
0 0 0
0 0 0
0 0 0
0 0 0
0 0 0
0 0 0
1032 85 2867
1049 86 2888
1060 86 2892
1066 86 2884
1070 85 2867
1086 86 2885
1068 84 2809
1078 84 2811
1066 82 2756
1079 82 2765
1075 81 2730
1051 79 2646
1081 80 2698
1098 81 2718
1101 81 2701
1070 78 2602
1062 76 2561
1026 73 2452
1046 74 2480
1078 76 2534
1088 76 2537
1080 75 2499
1064 73 2440
1031 70 2344
1028 70 2318
1054 71 2360
1083 72 2405
1062 70 2338
1059 69 2312
1091 71 2364
1074 69 2309
1060 68 2260
1097 70 2322
1104 70 2318
1104 69 2300
1101 69 2276
1104 68 2264
1101 68 2240
1099 67 2219
1098 67 2200
1101 66 2188
1109 66 2188
1120 66 2193
1119 66 2174
1122 66 2163
1122 65 2148
1129 65 2144
1128 65 2127
1128 64 2110
1127 64 2094
1132 64 2086
1130 63 2068
1130 63 2053
1135 63 2046
1132 62 2027
-513 38 896
-502 38 882
-496 37 878
-498 38 889
-487 37 876
-481 37 870
-475 37 866
-477 37 877
-474 37 877
-494 39 922
-626 49 1176
-1086 84 2054
-1106 86 2109
-1099 86 2111
-1091 86 2111
-1082 86 2111
-1075 86 2113
-1069 86 2116
-1056 85 2106
-1051 85 2113
-1043 85 2113
-1035 85 2113
-1029 85 2118
-1020 85 2116
-1012 85 2116
-1004 84 2115
-996 84 2115
-993 84 2125
-984 84 2122
-976 84 2123
-967 84 2119
-961 84 2123
-953 84 2122
-943 83 2118
-925 82 2094
-910 81 2076
-896 81 2061
-898 81 2084
-880 80 2058
-878 81 2072
-879 81 2091
-869 81 2083
-863 81 2088
-855 81 2087
-850 81 2091
-835 80 2071
-828 80 2073
-826 80 2085
-821 80 2090
-814 80 2090
-810 80 2099
-803 80 2100
-791 80 2087
-793 80 2110
-783 80 2104
-779 80 2111
-772 80 2111
-766 80 2114
-745 78 2074
-724 77 2036
-731 78 2075
-730 79 2091
-717 78 2074
-717 79 2095
-710 79 2094
-714 80 2126
-708 80 2128
-695 79 2111
-688 79 2109
-683 79 2114
-674 78 2108
-667 78 2108
-649 77 2071
-641 77 2067
-635 77 2070
-637 78 2097
-627 77 2087
-617 77 2076
-626 78 2129
-614 78 2108
-615 78 2134
-602 78 2114
-596 78 2117
-586 77 2103
-574 76 2083
-578 78 2124
-572 78 2126
-567 78 2130
-553 77 2101
-549 77 2111
-548 78 2135
-540 77 2129
-533 77 2126
-525 77 2120
-520 77 2127
-512 77 2122
-503 76 2112
-499 76 2121
-499 77 2146
-512 80 2234
-619 98 2734
-672 108 3009
-664 108 3014
-674 111 3101
-652 108 3039
-664 112 3139
-654 111 3136
-649 112 3159
-637 112 3148
-629 112 3154
-608 110 3097
-616 113 3184
-612 114 3214
-596 112 3180
-593 113 3215
-594 115 3272
-585 115 3275
-581 116 3308
-603 123 3493
-599 124 3528
-576 121 3455
-565 121 3448
-550 120 3417
-543 120 3439
-536 121 3456
-525 120 3451
-515 120 3457
-501 119 3424
-470 114 3281
-451 112 3213
-440 111 3201
-431 111 3206
-423 112 3215
-418 113 3251
-425 117 3381
-407 115 3313
-398 115 3318
-387 115 3314
-373 113 3272
-357 111 3217
-346 110 3201
-336 110 3196
-327 110 3195
-318 110 3198
-309 110 3205
-300 110 3208
-290 110 3193
-282 110 3214
-273 110 3216
-271 113 3297
-300 129 3782
-364 162 4753
-349 161 4734
-340 164 4807
-324 162 4766
-306 160 4700
-288 157 4628
-280 160 4728
-262 158 4652
-250 158 4670
-245 164 4846
-233 165 4884
-220 166 4905
0 0 0
0 0 0
-102 97 2849
-105 108 3188
-112 125 3711
-119 146 4324
-117 159 4724
-104 159 4740
0 0 0
0 0 0
-40 104 3090
0 0 0
0 0 0
0 0 0
2 1 -4
2 2 25
19 170 5069
3 7 164
4 5 124
4 7 161
3 3 65
3 2 33
8 10 256
9 11 286
0 0 0
147 165 4965
160 163 4913
174 164 4931
187 163 4895
208 168 5064
220 166 4995
231 163 4921
244 163 4904
6 4 71
278 166 5011
287 163 4907
3 1 7
320 165 4985
329 162 4910
4 2 19
366 166 5023
371 162 4903
376 158 4785
389 158 4773
394 154 4661
393 148 4492
421 154 4661
427 151 4585
437 150 4553
469 156 4737
454 147 4458
477 150 4550
489 149 4538
498 148 4506
516 149 4546
515 145 4426
0 0 0
542 146 4433
594 156 4747
620 159 4839
652 163 4974
645 158 4816
669 160 4889
682 160 4881
697 160 4882
697 157 4788
715 157 4812
726 157 4787
735 156 4757
737 153 4682
742 151 4626
736 147 4506
743 146 4464
746 144 4404
729 138 4228
735 137 4193
741 136 4156
745 134 4112
739 131 4009
751 131 4009
757 130 3979
765 129 3956
758 126 3863
767 126 3847
778 125 3844
798 127 3886
0 0 0
0 0 0
0 0 0
0 0 0
31 5 123
54 8 224
48 8 198
18 3 62
33 5 125
55 8 217
83 12 332
86 12 343
96 13 378
76 11 294
62 9 234
36 5 128
13 2 34
1261 158 4852
1267 156 4817
1276 156 4795
1305 157 4845
1324 158 4859
0 0 0
0 0 0
0 0 0
0 0 0
0 0 0
0 0 0
0 0 0
0 0 0
0 0 0
0 0 0
0 0 0
0 0 0
0 0 0
0 0 0
0 0 0
0 0 0
0 0 0
0 0 0
0 0 0
0 0 0
0 0 0
0 0 0
0 0 0
0 0 0
0 0 0
0 0 0
1052 96 2925
1058 95 2912
1061 95 2895
1064 94 2877
1078 95 2887
1077 94 2859
1077 93 2835
1085 93 2828
1081 92 2793
1073 90 2748
1079 90 2741
1078 89 2714
1075 88 2683
1082 88 2678
1060 86 2601
1073 86 2610
1082 86 2609
1091 86 2610
1089 85 2582
1052 82 2474
1076 83 2509
1069 82 2473
1048 79 2402
1063 80 2418
1051 78 2371
1032 76 2309
1061 78 2354
1069 78 2353
1059 77 2314
1055 76 2286
1114 79 2394
1071 76 2284
1080 76 2285
1087 76 2282
1087 75 2263
1095 75 2262
1094 75 2243
1096 74 2229
1099 74 2218
1102 74 2208
1103 73 2192
1107 73 2184
1118 73 2188
1124 73 2184
1120 72 2159
1134 73 2171
1125 72 2138
1125 71 2120
1123 71 2101
1130 71 2099
1134 70 2090
1131 70 2069
1134 70 2060
1133 69 2043
1134 69 2029
-510 41 890
-502 40 882
-496 40 878
-493 40 880
-483 40 868
-491 40 888
-470 39 857
-479 40 880
-488 41 904
-497 42 927
-618 52 1160
-1083 90 2049
-1103 93 2104
-1098 93 2108
-1091 93 2111
-1082 92 2110
-1073 92 2109
-1064 92 2106
-1059 92 2113
-1052 92 2115
-1045 92 2118
-1036 92 2115
-1028 91 2115
-1022 91 2119
-1011 91 2113
-1004 91 2116
-997 91 2116
-990 91 2118
-978 90 2109
-973 90 2116
-964 90 2114
-959 90 2118
-953 90 2123
-937 89 2103
-922 88 2088
-910 88 2077
-908 88 2088
-896 88 2078
-884 87 2068
-885 88 2088
-875 87 2081
-871 87 2089
-862 87 2085
-859 87 2094
-852 87 2095
-833 86 2067
-829 86 2076
-826 87 2085
-824 87 2098
-821 87 2110
-806 86 2088
-801 86 2093
-796 87 2100
-787 86 2096
-784 87 2107
-773 86 2095
-773 87 2114
-753 85 2079
-749 85 2086
-740 85 2079
-734 85 2083
-723 84 2073
-719 84 2079
-716 85 2090
-711 85 2095
-708 85 2108
-699 85 2101
-694 85 2106
-689 85 2113
-681 85 2109
-674 85 2108
-664 84 2099
-657 84 2096
-637 82 2054
-631 82 2056
-634 83 2086
-634 84 2108
-621 83 2089
-619 84 2103
-616 84 2115
-613 85 2128
-604 84 2121
-596 84 2117
-587 83 2106
-578 83 2099
-576 84 2117
-569 83 2115
-564 84 2119
-558 84 2122
-551 83 2119
-547 84 2131
-541 84 2132
-529 83 2109
-528 84 2133
-520 83 2128
-514 83 2127
-507 83 2127
-495 82 2102
-497 83 2138
-506 86 2207
-594 102 2624
-652 113 2916
-647 113 2934
-617 110 2838
-638 115 2974
-654 119 3092
-657 121 3151
-643 120 3132
-636 121 3144
-627 121 3142
-610 119 3105
-596 118 3080
-607 122 3188
-615 125 3278
-624 129 3383
-693 145 3814
-657 140 3676
-674 146 3836
-816 179 4722
-784 175 4616
-766 174 4589
-746 172 4549
-766 180 4756
-742 177 4695
-732 178 4720
-719 178 4724
-702 177 4700
-622 160 4249
-478 126 3335
-452 122 3225
-440 121 3201
-430 120 3197
-422 121 3209
-424 124 3297
-545 162 4330
-513 156 4177
-492 154 4105
-460 147 3929
-393 129 3444
-360 121 3241
-346 120 3204
-338 120 3211
-328 120 3203
-318 119 3199
-309 119 3204
-300 119 3207
-291 119 3203
-282 119 3212
-277 121 3258
-296 134 3603
-358 167 4508
-362 175 4727
-348 175 4724
-329 171 4644
-311 169 4582
-295 168 4544
-281 167 4524
-269 167 4543
-253 165 4488
-242 167 4529
-243 177 4808
-233 179 4882
-219 179 4875
0 0 0
0 0 0
-96 99 2686
-103 115 3127
-109 132 3595
-110 147 4015
-112 165 4522
-97 162 4437
0 0 0
0 0 0
-46 128 3514
0 0 0
-33 161 4405
-21 169 4646
-8 175 4815
4 173 4763
18 175 4819
33 179 4920
46 173 4768
3 3 47
76 180 4955
0 0 0
0 0 0
0 0 0
3 1 3
0 0 0
162 180 4978
176 180 4972
183 172 4765
192 168 4655
215 176 4881
227 175 4840
239 173 4789
0 0 0
270 175 4851
284 175 4865
304 178 4950
318 178 4946
323 173 4809
0 0 0
354 175 4856
356 169 4699
374 171 4758
366 161 4489
376 160 4448
388 159 4444
409 162 4528
415 160 4453
429 160 4466
439 159 4431
456 160 4471
468 160 4462
466 155 4327
476 154 4302
503 159 4433
489 150 4194
455 136 3808
492 144 4024
0 0 0
570 159 4444
615 167 4693
611 163 4561
653 170 4773
664 169 4747
679 170 4757
689 169 4729
709 170 4770
706 166 4656
733 169 4746
731 165 4644
747 166 4654
731 159 4471
742 159 4459
741 156 4376
742 153 4308
743 151 4238
737 147 4135
732 144 4039
746 144 4048
749 142 3998
741 139 3894
749 138 3876
746 135 3800
763 136 3831
754 133 3727
769 133 3745
776 132 3723
749 126 3542
775 129 3615
771 126 3546
0 0 0
0 0 0
63 10 263
1130 175 4928
3 1 -4
8 2 18
1171 174 4911
37 6 137
37 6 136
17 3 52
19 3 62
18 3 55
1250 172 4867
1250 170 4807
1251 168 4755
1271 169 4775
1277 168 4743
1294 168 4748
0 0 0
0 0 0
0 0 0
0 0 0
0 0 0
0 0 0
0 0 0
0 0 0
0 0 0
0 0 0
0 0 0
0 0 0
0 0 0
0 0 0
0 0 0
0 0 0
0 0 0
971 105 2939
0 0 0
0 0 0
0 0 0
0 0 0
0 0 0
0 0 0
0 0 0
0 0 0
1044 104 2902
1047 103 2881
1066 104 2908
1074 104 2904
1075 103 2879
1086 103 2883
1088 103 2863
1091 102 2846
1071 99 2767
1069 98 2738
1100 100 2793
1082 98 2723
1093 98 2727
1077 96 2664
1073 95 2631
1081 95 2630
1075 93 2593
1087 94 2600
1084 93 2571
1084 92 2549
1087 91 2534
1094 91 2530
1088 90 2494
1068 88 2430
1090 89 2460
1087 88 2433
1117 90 2480
1051 84 2315
1060 84 2314
1057 83 2289
1064 83 2286
1066 83 2273
1077 83 2279
1092 83 2291
1094 83 2278
1092 82 2257
1095 82 2245
1085 81 2207
1096 81 2212
1095 80 2193
1107 81 2199
1108 80 2186
1119 80 2191
1122 80 2180
1129 80 2177
1123 79 2149
1129 79 2144
1127 78 2124
1128 78 2110
1131 77 2100
1130 77 2083
1132 77 2071
1129 76 2051
1130 75 2036
1138 76 2036
-517 44 901
-498 43 876
-493 43 872
-492 43 877
-492 43 884
-486 43 879
-482 43 879
-480 43 882
-491 44 908
-506 46 944
-608 55 1142
-1076 96 2036
-1104 99 2105
-1100 100 2113
-1089 99 2107
-1082 99 2110
-1075 99 2112
-1068 99 2114
-1059 99 2112
-1049 98 2109
-1045 98 2116
-1036 98 2114
-1031 98 2122
-1022 98 2119
-1017 98 2125
-1003 97 2112
-997 97 2117
-987 97 2112
-981 97 2116
-975 97 2120
-966 97 2118
-963 97 2127
-950 96 2117
-943 96 2118
-924 95 2091
-905 94 2064
-903 94 2078
-898 94 2084
-893 94 2089
-880 94 2075
-877 94 2086
-870 94 2085
-865 94 2092
-856 94 2089
-845 93 2078
-833 92 2067
-831 93 2080
-829 93 2094
-826 94 2103
-818 93 2102
-805 93 2086
-802 93 2096
-789 92 2082
-793 93 2111
-784 93 2105
-773 92 2095
-770 93 2106
-765 93 2110
-754 92 2100
-737 91 2073
-734 91 2082
-729 91 2089
-718 91 2076
-714 91 2085
-710 91 2092
-705 91 2100
-698 91 2098
-698 92 2119
-691 92 2118
-676 91 2093
-677 92 2118
-668 91 2112
-659 91 2102
-637 88 2053
-634 89 2066
-633 90 2085
-642 92 2135
-624 90 2098
-618 90 2099
-618 91 2122
-607 90 2108
-599 90 2105
-595 90 2113
-589 90 2116
-580 90 2107
-576 90 2117
-570 90 2118
-567 90 2132
-558 90 2122
-552 90 2126
-547 90 2132
-536 89 2114
-535 90 2134
-523 89 2112
-522 90 2134
-516 90 2136
-503 89 2110
-501 89 2130
-496 90 2137
-504 92 2198
-570 105 2519
-619 116 2773
-611 115 2771
-615 118 2831
-629 122 2935
-650 127 3075
-652 130 3130
-650 131 3162
-642 131 3172
-629 130 3152
-619 130 3149
-622 133 3216
-668 144 3506
-688 151 3667
-755 168 4090
-765 173 4212
-629 144 3519
-652 152 3712
-766 181 4432
-786 189 4625
-784 191 4695
-774 192 4722
-773 195 4796
-750 193 4746
-742 194 4784
-735 196 4826
-723 196 4840
-664 184 4541
-483 137 3376
-452 131 3220
-440 130 3207
-431 130 3207
-423 130 3215
-427 135 3325
-569 182 4523
-575 189 4678
-551 185 4591
-540 186 4612
-466 164 4086
-388 141 3489
-363 135 3359
-341 130 3238
-326 128 3182
-319 129 3212
-312 130 3228
-304 130 3244
-294 130 3235
-288 131 3279
-297 140 3496
-366 178 4452
-362 182 4563
-355 185 4639
-346 187 4701
-325 183 4593
-304 178 4482
-284 174 4372
-280 179 4508
-263 176 4439
-245 173 4357
-243 180 4547
-244 191 4823
-232 193 4869
-218 192 4853
0 0 0
0 0 0
-90 101 2528
-100 120 3033
-109 142 3601
-107 154 3901
-105 168 4264
-90 164 4145
-74 155 3937
-62 155 3920
-49 148 3765
-38 148 3758
-28 153 3875
-19 167 4240
-7 176 4482
4 184 4678
18 187 4775
31 183 4660
0 0 0
58 181 4624
72 184 4703
0 0 0
0 0 0
110 180 4598
123 179 4577
134 177 4516
154 184 4724
0 0 0
180 183 4694
194 184 4705
208 184 4718
217 180 4623
227 177 4546
244 180 4623
0 0 0
279 185 4765
289 183 4713
303 183 4714
320 185 4770
328 182 4683
342 182 4688
346 177 4558
356 176 4525
366 174 4487
371 170 4383
380 168 4340
388 167 4295
407 169 4360
420 169 4372
420 164 4240
439 167 4301
455 168 4341
463 166 4295
479 168 4331
467 159 4109
467 155 4006
449 145 3756
475 150 3880
534 165 4260
569 171 4441
599 176 4568
609 175 4547
630 178 4602
640 176 4574
654 176 4576
667 176 4577
696 180 4678
702 178 4628
719 179 4652
720 176 4572
726 174 4524
732 172 4479
750 174 4507
742 169 4383
745 166 4320
748 164 4267
746 161 4182
753 160 4150
744 155 4036
735 151 3924
743 150 3906
735 146 3803
746 146 3801
753 145 3776
748 142 3698
762 143 3711
745 138 3575
764 139 3611
767 138 3578
770 136 3540
769 134 3486
766 132 3425
790 134 3488
0 0 0
0 0 0
1156 188 4908
1136 183 4763
12 3 33
17 3 53
1216 188 4911
1233 189 4916
1213 183 4780
1224 183 4763
1225 181 4709
1239 181 4709
1252 181 4703
1272 181 4722
1277 180 4687
0 0 0
0 0 0
0 0 0
0 0 0
0 0 0
0 0 0
0 0 0
0 0 0
0 0 0
0 0 0
0 0 0
0 0 0
0 0 0
0 0 0
0 0 0
0 0 0
0 0 0
959 112 2903
0 0 0
0 0 0
983 112 2891
1028 116 2994
1070 119 3087
0 0 0
0 0 0
0 0 0
1038 112 2883
1050 112 2891
1062 112 2897
1069 112 2890
1078 112 2887
1080 111 2866
1088 111 2862
1079 109 2814
1081 109 2794
1086 108 2783
1086 107 2757
1094 107 2754
1078 105 2689
1090 105 2696
1104 106 2707
1095 104 2662
1088 103 2624
1080 101 2581
1091 101 2585
1089 100 2559
1089 99 2538
1087 98 2513
1100 99 2521
1083 97 2463
1074 95 2423
1077 95 2409
1110 97 2464
1094 95 2408
1099 95 2401
1084 93 2348
1074 91 2307
1061 89 2261
1079 90 2283
1081 90 2268
1090 90 2269
1102 90 2277
1095 89 2245
1093 88 2224
1093 88 2206
1101 88 2206
1106 87 2198
1111 87 2190
1119 87 2191
1122 87 2179
1122 86 2163
1125 86 2152
1122 85 2130
1130 85 2129
1126 84 2107
1133 84 2103
1133 84 2088
1130 83 2067
1132 83 2056
1133 82 2041
1139 82 2037
-498 46 868
-508 47 892
-502 46 889
-496 46 884
-492 46 884
-479 45 866
-481 46 878
-474 45 871
-478 46 884
-489 47 911
-606 58 1138
-1072 103 2028
-1105 106 2107
-1099 106 2110
-1089 106 2108
-1081 106 2108
-1072 105 2106
-1068 106 2115
-1060 105 2115
-1051 105 2113
-1042 105 2112
-1032 105 2108
-1025 104 2108
-1021 105 2117
-1015 105 2121
-1006 104 2120
-997 104 2116
-988 104 2114
-981 104 2116
-974 104 2117
-965 103 2114
-961 104 2124
-954 103 2124
-936 102 2102
-921 101 2085
-905 100 2064
-907 101 2087
-904 101 2098
-888 100 2078
-879 100 2073
-871 100 2071
-874 101 2095
-867 101 2096
-853 100 2080
-856 101 2105
-835 99 2071
-831 99 2081
-826 99 2086
-815 99 2074
-822 100 2113
-813 100 2107
-797 99 2083
-792 99 2090
-788 99 2096
-774 98 2079
-775 99 2100
-771 99 2108
-761 99 2100
-747 98 2081
-736 97 2069
-735 98 2086
-725 97 2076
-722 97 2088
-724 99 2115
-714 98 2104
-711 98 2115
-700 98 2104
-693 97 2102
-686 97 2102
-681 98 2109
-675 98 2112
-665 97 2102
-657 97 2097
-640 95 2063
-641 96 2089
-635 96 2089
-626 96 2083
-626 97 2105
-625 97 2124
-614 96 2108
-610 97 2117
-598 96 2098
-598 97 2123
-586 96 2102
-585 97 2125
-578 96 2121
-569 96 2114
-563 96 2117
-558 96 2122
-554 96 2131
-546 96 2125
-534 95 2106
-530 95 2115
-527 96 2128
-522 96 2137
-513 96 2124
-507 96 2127
-500 95 2125
-495 96 2131
-501 98 2185
-556 110 2456
-565 113 2532
-599 121 2720
-601 123 2767
-618 128 2882
-653 137 3090
-654 139 3140
-646 139 3145
-639 140 3155
-631 140 3166
-652 147 3319
-702 160 3627
-802 185 4207
-832 195 4436
-825 196 4467
-741 179 4078
-604 149 3383
-623 156 3549
-807 204 4670
-795 205 4679
-787 206 4713
-792 211 4832
-773 209 4801
-769 212 4866
-750 211 4836
-737 211 4839
-718 209 4811
-683 203 4666
-498 151 3479
-452 140 3225
-441 140 3211
-431 139 3209
-422 139 3210
-429 145 3336
-586 201 4654
-582 204 4730
-568 204 4731
-555 205 4741
-533 201 4670
-499 193 4484
-445 177 4112
-357 146 3389
-334 141 3265
-331 143 3327
-320 143 3318
-318 146 3393
-297 141 3269
-293 144 3339
-339 171 3985
-379 197 4609
-369 199 4641
-358 200 4676
-339 197 4606
-323 195 4563
-313 197 4607
-295 194 4535
-278 191 4471
-261 188 4414
-236 179 4198
-231 184 4330
-240 202 4748
-232 206 4852
-210 199 4683
0 0 0
-99 110 2583
-94 112 2628
-96 124 2914
-102 144 3386
-102 157 3708
-104 180 4246
-90 175 4140
-72 161 3810
-58 154 3645
-47 152 3597
-37 154 3630
-28 162 3844
-18 171 4045
-7 186 4410
4 180 4264
17 187 4441
0 0 0
0 0 0
0 0 0
0 0 0
0 0 0
0 0 0
110 193 4604
0 0 0
123 174 4142
148 191 4548
160 189 4499
171 186 4447
184 187 4467
199 189 4518
213 190 4537
217 182 4341
237 188 4481
247 185 4430
263 188 4497
280 190 4550
284 185 4417
309 192 4605
312 186 4456
322 184 4405
335 184 4410
343 182 4358
358 183 4388
354 174 4178
377 179 4305
373 172 4130
400 178 4282
416 180 4321
409 172 4131
436 178 4276
431 171 4111
448 173 4153
438 165 3955
444 163 3906
445 159 3815
434 151 3631
455 155 3716
521 173 4155
548 178 4276
570 180 4346
594 184 4432
594 180 4338
612 182 4375
627 182 4389
634 180 4344
637 178 4280
667 182 4395
689 185 4454
712 187 4520
722 186 4499
727 184 4444
740 184 4443
742 181 4377
751 180 4359
758 179 4323
750 174 4204
748 171 4126
755 170 4096
749 166 3997
749 163 3932
749 160 3875
750 158 3819
747 155 3747
745 152 3678
740 149 3600
744 148 3570
752 147 3555
751 145 3502
754 144 3465
760 143 3445
771 143 3449
771 141 3403
763 138 3322
783 139 3362
872 153 3698
0 0 0
0 0 0
1143 193 4669
1163 194 4692
1149 189 4579
1181 192 4649
1201 193 4672
1201 191 4615
1227 193 4660
1222 190 4589
1235 190 4581
1242 188 4555
0 0 0
0 0 0
0 0 0
0 0 0
0 0 0
0 0 0
0 0 0
0 0 0
0 0 0
0 0 0
0 0 0
0 0 0
0 0 0
0 0 0
0 0 0
0 0 0
0 0 0
0 0 0
0 0 0
0 0 0
1025 126 3013
1038 126 3022
1050 126 3030
0 0 0
0 0 0
0 0 0
1045 121 2902
1054 121 2900
1060 121 2892
1073 121 2900
1078 121 2886
1082 120 2871
1068 118 2809
1084 118 2825
1078 117 2785
1084 116 2775
1082 115 2747
1074 114 2701
1084 114 2705
1078 112 2665
1076 111 2638
1081 111 2629
1100 112 2652
1090 110 2605
1082 108 2564
1083 107 2546
1093 108 2547
1085 106 2507
1094 106 2508
1089 105 2476
1097 105 2475
1089 103 2436
1106 104 2453
1100 103 2422
1093 101 2386
1105 102 2394
1090 100 2342
1084 98 2310
1099 99 2324
1100 98 2307
1104 98 2298
1105 98 2282
1103 97 2261
1094 95 2224
1094 95 2208
1106 95 2215
1105 94 2196
1114 94 2196
1120 94 2191
1120 94 2175
1132 94 2181
1132 93 2164
1127 92 2139
1136 93 2141
1122 91 2098
1133 91 2103
1130 90 2082
1128 90 2063
1137 90 2064
1134 89 2042
1131 88 2022
-508 49 887
-500 49 879
-498 49 882
-497 49 886
-489 49 878
-485 48 877
-478 48 872
-469 47 861
-474 48 878
-507 52 945
-599 61 1125
-1069 109 2022
-1104 113 2105
-1100 113 2113
-1092 113 2114
-1085 113 2115
-1074 112 2110
-1069 112 2116
-1059 112 2112
-1053 112 2116
-1046 112 2120
-1034 111 2111
-1030 112 2119
-1020 111 2116
-1009 111 2108
-1006 111 2119
-996 111 2114
-985 110 2107
-985 111 2124
-975 110 2119
-967 110 2119
-960 110 2120
-952 110 2120
-937 109 2103
-915 107 2071
-912 107 2081
-905 107 2081
-895 107 2076
-890 107 2082
-880 106 2075
-877 107 2085
-866 106 2076
-865 107 2092
-862 107 2101
-850 106 2090
-835 105 2073
-838 106 2098
-824 105 2080
-832 107 2119
-816 106 2096
-813 106 2107
-796 105 2080
-795 106 2097
-783 105 2083
-779 105 2091
-779 106 2111
-767 105 2097
-765 106 2110
-749 104 2087
-731 103 2055
-729 103 2069
-730 104 2092
-723 104 2092
-717 104 2092
-711 104 2096
-707 104 2105
-700 104 2105
-687 103 2087
-688 104 2110
-679 104 2102
-676 104 2113
-667 104 2107
-654 103 2088
-636 101 2051
-629 100 2051
-639 103 2104
-623 101 2073
-628 103 2112
-618 102 2099
-616 103 2118
-612 103 2126
-602 103 2114
-591 102 2099
-588 102 2112
-581 102 2108
-575 102 2112
-571 102 2119
-565 103 2125
-558 102 2124
-551 102 2119
-547 103 2131
-539 102 2125
-530 102 2114
-525 102 2121
-517 102 2116
-515 102 2133
-511 103 2142
-502 102 2132
-493 102 2124
-501 104 2184
-566 119 2501
-587 125 2626
-578 125 2624
-612 134 2814
-634 140 2960
-648 145 3067
-649 147 3113
-644 148 3135
-643 150 3177
-644 152 3229
-683 164 3478
-761 185 3932
-827 204 4340
-865 216 4609
-831 211 4501
-750 193 4130
-598 157 3347
-600 160 3419
-783 212 4532
-804 221 4732
-802 224 4805
-792 225 4831
-783 226 4862
-769 226 4862
-757 227 4876
-743 227 4882
-727 226 4868
-700 222 4786
-518 168 3620
-454 150 3238
-440 149 3203
-430 149 3203
-424 150 3230
-437 157 3400
-593 217 4710
-584 219 4749
-567 218 4724
-555 218 4740
-546 220 4781
-525 217 4720
-492 209 4543
-372 163 3532
-325 146 3180
-321 148 3225
-312 149 3231
-308 151 3287
-293 148 3229
-297 155 3377
-341 183 4003
-387 215 4708
-379 218 4767
-366 218 4780
-349 217 4747
-336 217 4752
-322 216 4744
-307 215 4730
-279 204 4490
-258 199 4361
-231 187 4109
-216 184 4052
-226 203 4464
-224 214 4707
0 0 0
-114 125 2743
-99 117 2564
-87 112 2455
-100 138 3031
-98 148 3265
-98 163 3604
-96 178 3932
-83 173 3816
-68 165 3654
-56 159 3514
-45 158 3486
-35 159 3515
-26 162 3577
-17 177 3920
-7 190 4211
4 193 4290
0 0 0
0 0 0
0 0 0
0 0 0
0 0 0
0 0 0
0 0 0
0 0 0
0 0 0
133 200 4460
140 192 4290
0 0 0
162 189 4224
176 191 4259
191 193 4311
200 191 4254
214 192 4287
224 190 4235
239 192 4293
248 190 4238
265 193 4315
282 196 4376
284 188 4217
0 0 0
315 192 4309
332 195 4374
328 186 4163
334 183 4091
363 191 4292
369 188 4216
371 183 4101
384 183 4109
394 183 4097
403 181 4061
411 180 4030
424 180 4043
435 180 4033
445 179 4012
441 172 3874
446 170 3820
437 163 3652
452 164 3685
500 177 3987
482 167 3757
527 178 4013
517 171 3852
516 167 3762
547 174 3907
574 178 4015
610 186 4183
615 183 4131
620 181 4085
637 183 4119
680 191 4314
704 195 4386
709 192 4334
724 193 4345
733 192 4324
741 190 4296
738 186 4206
752 187 4213
766 187 4224
756 182 4097
750 177 4001
752 175 3950
743 170 3842
749 169 3816
744 165 3731
745 163 3682
743 160 3615
749 159 3593
757 159 3581
751 155 3499
763 155 3505
758 152 3436
751 149 3357
758 148 3343
746 144 3247
756 144 3247
762 143 3231
745 138 3115
804 147 3322
0 0 0
0 0 0
1097 194 4370
1095 191 4309
1158 200 4505
1169 199 4491
1171 197 4447
1196 199 4488
1205 198 4472
1213 197 4447
0 0 0
0 0 0
0 0 0
0 0 0
0 0 0
0 0 0
0 0 0
0 0 0
0 0 0
0 0 0
0 0 0
0 0 0
0 0 0
0 0 0
0 0 0
0 0 0
0 0 0
0 0 0
0 0 0
0 0 0
981 129 2882
1013 132 2950
1051 136 3030
0 0 0
0 0 0
0 0 0
1034 129 2870
1049 129 2887
1059 129 2886
1065 129 2878
1072 129 2870
1073 128 2846
1080 128 2839
1090 128 2842
1082 126 2794
1066 123 2730
1081 124 2743
1076 122 2708
1076 121 2684
1084 121 2681
1078 119 2642
1076 118 2616
1083 118 2611
1090 118 2604
1086 117 2574
1093 116 2568
1090 115 2540
1095 115 2531
1085 113 2486
1093 113 2485
1100 113 2481
1098 112 2457
1093 110 2424
1104 111 2429
1098 109 2397
1106 109 2395
1104 108 2372
1110 108 2365
1113 108 2354
1102 106 2313
1106 106 2303
1096 104 2263
1092 103 2237
1090 102 2216
1101 102 2222
1098 101 2198
1101 101 2188
1113 101 2194
1120 101 2191
1124 101 2183
1124 100 2165
1129 100 2159
1124 99 2134
1129 99 2127
1126 98 2104
1123 97 2085
1125 97 2073
1134 97 2074
1131 96 2053
1137 96 2047
1137 95 2034
-498 51 868
-505 52 887
-502 52 889
-498 52 888
-500 53 898
-491 52 888
-485 52 884
-484 52 889
-477 51 883
-505 54 941
-596 64 1119
-1063 115 2011
-1106 120 2108
-1102 120 2116
-1090 119 2110
-1087 120 2119
-1076 119 2114
-1068 119 2115
-1061 119 2116
-1053 119 2116
-1044 118 2114
-1034 118 2111
-1029 118 2117
-1021 118 2116
-1012 118 2115
-1007 118 2121
-996 117 2114
-989 117 2117
-980 117 2114
-974 117 2117
-969 117 2122
-958 116 2116
-948 116 2110
-936 115 2101
-924 115 2092
-904 113 2061
-902 113 2074
-892 113 2070
-888 113 2077
-883 113 2083
-876 113 2082
-867 113 2078
-867 113 2096
-855 113 2085
-839 111 2065
-833 111 2068
-835 112 2090
-832 113 2099
-825 113 2100
-817 112 2098
-806 112 2087
-806 113 2107
-800 113 2109
-790 112 2101
-778 111 2088
-771 111 2090
-763 111 2087
-760 111 2097
-749 111 2087
-724 108 2037
-723 108 2051
-711 107 2035
-716 109 2071
-708 109 2067
-711 110 2097
-705 110 2099
-701 111 2107
-693 110 2104
-694 111 2128
-678 110 2098
-672 110 2101
-667 110 2107
-653 109 2085
-640 107 2062
-631 107 2055
-635 108 2089
-628 108 2088
-627 109 2110
-620 109 2108
-619 110 2125
-608 109 2111
-600 109 2106
-598 109 2122
-574 106 2062
-583 109 2117
-576 109 2117
-575 110 2135
-564 109 2119
-558 109 2121
-550 108 2117
-547 109 2130
-536 108 2112
-535 109 2135
-524 108 2117
-522 109 2135
-514 108 2131
-509 109 2136
-497 107 2112
-498 109 2145
-504 111 2199
-560 125 2473
-570 129 2553
-537 123 2438
-595 138 2737
-605 142 2825
-629 150 2974
-643 155 3086
-646 158 3145
-651 161 3219
-685 172 3433
-778 198 3958
-834 215 4308
-851 222 4462
-858 228 4572
-861 232 4659
-803 220 4421
-603 168 3375
-625 177 3559
-803 231 4648
-813 237 4784
-808 239 4837
-799 241 4873
-783 240 4861
-773 241 4888
-757 241 4876
-741 240 4870
-727 240 4871
-700 236 4783
-531 183 3704
-456 160 3251
-440 158 3205
-430 158 3203
-423 159 3220
-442 169 3441
-596 232 4733
-584 233 4749
-566 231 4717
-556 232 4747
-544 233 4766
-528 232 4741
-506 228 4666
-416 193 3950
-334 160 3265
-324 159 3261
-310 157 3209
-297 155 3175
-289 155 3183
-302 168 3437
-358 205 4209
-393 232 4776
-384 235 4835
-370 235 4834
-357 235 4854
-342 235 4837
-328 234 4831
-312 232 4800
-295 230 4748
-246 202 4162
-231 199 4102
-201 183 3772
-205 197 4072
-202 205 4236
-126 137 2831
-105 123 2540
-107 135 2779
-88 120 2479
-96 141 2924
-93 149 3091
-94 167 3454
-94 186 3852
-82 183 3798
-67 173 3600
-53 163 3381
-44 164 3398
-34 164 3415
-26 172 3584
0 0 0
0 0 0
0 0 0
0 0 0
0 0 0
0 0 0
52 198 4139
68 210 4396
0 0 0
0 0 0
0 0 0
0 0 0
0 0 0
0 0 0
151 202 4237
160 199 4167
171 197 4136
188 203 4257
192 194 4078
200 190 3994
225 203 4251
228 195 4094
239 194 4076
262 203 4261
266 197 4130
274 194 4076
308 209 4387
326 212 4463
0 0 0
323 194 4088
334 194 4088
347 194 4092
361 196 4117
364 191 4017
369 188 3954
379 187 3937
393 188 3956
401 186 3928
411 186 3910
424 186 3928
431 184 3883
435 181 3824
440 179 3768
448 178 3745
450 174 3668
476 180 3789
504 186 3926
502 181 3823
483 170 3597
489 169 3561
480 162 3423
511 169 3571
546 177 3736
560 178 3757
605 189 3986
626 191 4041
657 197 4167
657 193 4088
660 191 4036
682 194 4094
706 197 4163
729 200 4223
731 197 4167
747 198 4187
739 192 4070
749 192 4060
753 190 4016
754 187 3958
751 183 3880
757 182 3853
750 178 3762
744 174 3674
747 172 3632
751 170 3600
747 167 3533
747 165 3483
747 162 3431
749 161 3394
751 159 3355
759 158 3349
747 154 3249
756 154 3247
768 154 3254
757 150 3168
762 149 3149
771 149 3143
788 150 3174
788 148 3133
0 0 0
1017 187 3951
1095 199 4206
1130 203 4290
1140 202 4276
1202 211 4458
1213 211 4450
0 0 0
0 0 0
0 0 0
0 0 0
0 0 0
0 0 0
0 0 0
0 0 0
0 0 0
0 0 0
0 0 0
0 0 0
0 0 0
0 0 0
0 0 0
0 0 0
0 0 0
0 0 0
0 0 0
0 0 0
977 137 2870
1004 140 2922
1055 145 3041
0 0 0
0 0 0
0 0 0
1037 138 2881
1039 137 2858
1055 138 2877
1056 137 2852
1073 138 2872
1074 137 2850
1065 134 2800
1066 133 2777
1074 133 2774
1080 133 2766
1077 132 2734
1074 130 2701
1078 129 2688
1067 127 2639
1091 129 2675
1102 129 2678
1091 127 2630
1098 127 2623
1095 125 2594
1099 125 2583
1099 124 2561
1101 123 2544
1096 122 2513
1099 121 2498
1107 121 2495
1109 121 2480
1103 119 2447
1104 118 2429
1108 118 2418
1102 116 2385
1094 115 2349
1097 114 2337
1109 115 2345
1107 114 2322
1111 113 2311
1110 112 2291
1097 110 2247
1094 109 2224
1092 108 2202
1104 109 2210
1102 108 2189
1109 108 2185
1112 107 2176
1123 108 2180
1126 107 2170
1126 107 2154
1131 106 2147
1130 106 2129
1127 105 2106
1125 104 2088
1132 104 2086
1132 103 2069
1129 102 2048
1134 102 2042
1133 101 2025
-511 55 891
-506 55 888
-499 55 883
-494 55 881
-489 54 878
-489 55 884
-473 53 862
-475 54 873
-492 56 910
-510 58 951
-589 67 1105
-1061 121 2006
-1108 127 2112
-1100 127 2112
-1092 126 2113
-1080 126 2106
-1073 126 2107
-1069 126 2116
-1060 126 2114
-1051 125 2113
-1043 125 2112
-1036 125 2115
-1032 125 2122
-1024 125 2122
-1015 125 2120
-1008 125 2123
-998 124 2119
-993 124 2124
-982 124 2118
-976 124 2122
-967 123 2119
-961 123 2121
-954 123 2124
-945 123 2121
-921 121 2083
-914 121 2086
-903 120 2076
-892 119 2068
-887 119 2074
-875 119 2063
-873 119 2076
-865 119 2075
-864 119 2089
-858 120 2093
-851 119 2092
-827 117 2051
-829 118 2074
-834 120 2104
-826 119 2103
-815 119 2094
-814 119 2109
-802 118 2098
-798 119 2105
-790 118 2102
-783 118 2102
-777 118 2105
-772 118 2111
-762 118 2103
-756 118 2104
-731 115 2054
-727 115 2062
-728 116 2087
-717 116 2073
-711 115 2075
-711 117 2096
-708 117 2106
-697 116 2094
-694 117 2106
-686 116 2102
-685 117 2122
-673 116 2104
-663 115 2094
-655 115 2091
-642 114 2069
-638 114 2078
-633 114 2084
-634 116 2109
-630 116 2118
-619 115 2104
-619 116 2125
-612 116 2124
-603 116 2119
-595 115 2111
-581 114 2085
-587 116 2130
-578 115 2122
-569 115 2114
-566 115 2127
-557 115 2119
-552 115 2122
-545 115 2124
-536 114 2112
-533 115 2126
-530 115 2139
-521 115 2132
-511 114 2115
-507 114 2129
-502 115 2134
-496 115 2136
-495 116 2158
-527 125 2327
-538 129 2411
-514 125 2335
-563 138 2593
-562 140 2625
-606 153 2869
-637 163 3058
-671 173 3266
-713 187 3522
-800 212 4007
-884 238 4496
-870 237 4493
-854 236 4482
-875 246 4662
-864 246 4680
-838 243 4611
-615 182 3445
-633 190 3604
-801 243 4636
-816 252 4802
-811 255 4856
-798 255 4868
-780 254 4843
-771 255 4879
-759 256 4895
-745 256 4893
-730 255 4887
-711 253 4857
-624 227 4355
-473 176 3371
-445 169 3241
-433 168 3221
-437 173 3323
-499 202 3882
-598 247 4751
-584 246 4747
-560 242 4664
-537 238 4587
-537 244 4703
-533 248 4793
-513 245 4736
-482 236 4570
-375 190 3662
-319 166 3213
-309 166 3204
-299 165 3198
-292 166 3216
-286 169 3262
-332 201 3904
-385 241 4683
-383 248 4827
-372 250 4861
-359 250 4872
-343 249 4853
-330 250 4868
-315 249 4852
-295 244 4750
-258 224 4363
-225 206 4008
-204 197 3835
-206 210 4091
0 0 0
-117 136 2643
-105 131 2551
-94 125 2442
-83 121 2348
-93 145 2837
-93 158 3082
-89 167 3266
-86 180 3521
-79 187 3663
-60 165 3239
-51 166 3256
-40 159 3107
-32 166 3246
-24 175 3436
0 0 0
0 0 0
0 0 0
0 0 0
0 0 0
0 0 0
0 0 0
0 0 0
0 0 0
0 0 0
0 0 0
0 0 0
117 199 3924
124 191 3777
135 192 3780
152 199 3933
160 196 3873
0 0 0
179 192 3802
200 202 4001
209 199 3943
217 197 3891
224 193 3819
229 188 3719
256 201 3973
262 196 3886
278 200 3958
283 195 3866
308 204 4045
316 202 4009
325 200 3975
330 197 3899
346 199 3948
346 193 3824
371 200 3972
373 195 3870
382 194 3851
397 196 3886
407 195 3875
412 192 3818
419 190 3779
426 188 3743
430 185 3683
432 182 3607
451 185 3682
465 186 3705
492 193 3834
501 192 3811
472 177 3512
464 170 3375
484 174 3452
482 169 3368
502 173 3432
533 180 3574
550 182 3617
582 189 3755
623 198 3948
631 197 3926
648 199 3960
646 195 3876
697 206 4109
712 207 4125
713 204 4060
727 204 4073
743 205 4092
729 198 3951
753 202 4019
749 197 3934
766 199 3957
760 194 3870
755 190 3786
753 187 3719
745 182 3626
755 182 3622
747 177 3531
748 175 3485
746 172 3426
745 170 3376
749 168 3346
748 166 3297
751 164 3265
751 162 3224
754 161 3197
759 160 3173
769 160 3176
770 158 3138
756 153 3042
759 152 3019
777 154 3054
801 157 3111
839 162 3219
952 182 3610
1032 195 3871
1077 201 3994
0 0 0
0 0 0
0 0 0
0 0 0
0 0 0
0 0 0
0 0 0
0 0 0
0 0 0
0 0 0
0 0 0
0 0 0
0 0 0
0 0 0
0 0 0
0 0 0
0 0 0
0 0 0
0 0 0
0 0 0
1000 150 2966
1055 157 3100
0 0 0
0 0 0
0 0 0
0 0 0
0 0 0
1038 147 2881
1040 146 2861
1059 147 2885
1052 145 2842
1060 145 2837
1071 145 2840
1068 143 2806
1074 143 2798
1068 141 2759
1072 140 2743
1073 139 2722
1081 139 2717
1086 139 2709
1075 136 2656
1079 136 2643
1095 137 2661
1081 134 2603
1083 133 2588
1080 132 2558
1096 133 2575
1092 131 2544
1103 131 2548
1092 129 2502
1106 130 2514
1097 128 2472
1103 128 2467
1104 127 2448
1099 125 2416
1105 125 2411
1112 125 2408
1109 124 2383
1109 123 2362
1108 122 2342
1108 121 2323
1112 121 2313
1114 120 2301
1118 120 2290
1095 116 2225
1093 115 2205
1102 116 2206
1107 115 2197
1109 115 2185
1119 115 2188
1127 115 2188
1127 114 2170
1122 113 2145
1124 113 2132
1122 112 2113
1133 112 2118
1129 111 2095
1133 111 2087
1133 110 2071
1138 110 2064
1132 108 2039
1137 108 2032
-509 58 887
-502 58 881
-503 58 890
-496 58 884
-495 58 889
-484 57 876
-477 56 869
-476 57 874
-475 57 879
-486 58 905
-576 69 1081
-1059 127 2003
-1107 133 2109
-1101 133 2113
-1096 134 2121
-1085 133 2115
-1079 133 2120
-1072 133 2121
-1058 132 2109
-1054 132 2119
-1044 132 2113
-1038 132 2118
-1028 131 2115
-1022 131 2119
-1016 131 2123
-1007 131 2121
-998 131 2118
-990 131 2118
-980 130 2112
-976 130 2121
-968 130 2121
-960 130 2120
-951 129 2117
-938 129 2106
-921 127 2084
-915 127 2088
-907 127 2086
-903 127 2093
-898 127 2100
-880 126 2076
-870 125 2068
-870 126 2086
-867 126 2097
-863 127 2103
-847 125 2083
-834 124 2068
-829 124 2075
-826 125 2086
-821 125 2090
-822 126 2110
-816 126 2115
-799 124 2088
-799 125 2107
-794 125 2112
-780 124 2094
-771 124 2090
-765 124 2092
-759 124 2094
-752 124 2094
-709 118 1994
-713 119 2023
-726 122 2080
-725 123 2098
-725 124 2116
-710 123 2093
-708 123 2107
-704 124 2114
-692 123 2100
-685 123 2101
-681 123 2108
-670 122 2094
-667 122 2105
-655 121 2091
-646 121 2082
-640 121 2084
-647 123 2129
-633 122 2105
-624 121 2099
-619 121 2103
-612 121 2103
-609 122 2115
-604 122 2120
-592 121 2103
-586 121 2102
