VERSION 0.7
FIELDS x y z
SIZE 4 4 4
TYPE I I I
COUNT 1 1 1
WIDTH 3569
HEIGHT 1
VIEWPOINT 0.0 0.0 0.0 1.0 0.0 0.0 0.0
POINTS 3569
DATA ascii
593 308 2665
605 310 2682
612 310 2681
614 306 2651
625 308 2664
634 309 2668
641 308 2662
649 308 2660
653 306 2645
664 307 2654
677 310 2674
668 302 2607
679 304 2618
698 309 2660
700 306 2635
700 303 2605
712 304 2618
703 297 2554
681 285 2447
642 265 2280
671 274 2357
716 290 2489
737 295 2535
757 300 2574
764 300 2571
760 295 2531
767 295 2526
769 293 2505
778 293 2509
774 289 2470
786 290 2482
781 286 2444
791 287 2448
796 286 2439
797 284 2419
787 278 2365
792 277 2354
792 274 2333
789 271 2302
791 269 2286
789 266 2257
787 263 2232
793 263 2227
798 262 2221
795 259 2191
798 258 2178
798 255 2158
802 255 2149
806 254 2141
802 251 2112
803 249 2094
804 247 2079
806 246 2066
812 245 2062
806 242 2029
809 241 2018
809 239 2001
817 239 2005
816 237 1984
824 238 1987
825 236 1973
833 237 1976
844 238 1984
861 241 2007
876 244 2026
894 247 2050
928 254 2112
949 258 2143
964 260 2157
999 268 2218
1033 275 2275
1064 281 2326
1078 283 2338
1095 285 2355
1109 287 2366
1122 289 2376
1117 285 2347
1127 286 2349
1128 284 2332
1151 288 2361
1147 285 2334
1158 286 2339
1160 285 2325
1175 287 2338
1136 275 2241
1126 271 2206
1125 269 2187
1143 272 2204
1141 269 2184
1147 269 2179
1136 265 2141
1124 261 2103
1126 259 2090
1119 256 2063
1120 255 2049
1124 254 2040
1117 251 2013
1113 249 1990
1116 248 1981
-508 122 881
-515 124 899
-503 122 886
-497 121 882
-498 122 890
-489 121 880
-489 121 887
-473 118 865
-478 120 880
-488 123 905
-475 120 887
-499 127 939
-760 194 1441
-1023 262 1955
-1038 267 1998
-1004 260 1947
-971 253 1898
-898 236 1769
-800 211 1587
-751 200 1503
-736 197 1484
-736 198 1495
-717 195 1469
-708 193 1461
-697 191 1450
-701 194 1469
-704 196 1487
-661 185 1408
-602 170 1292
-528 150 1143
-498 143 1087
-500 144 1100
-510 148 1132
-492 144 1101
-492 145 1110
-508 150 1155
-505 151 1158
-490 147 1133
-486 147 1133
-502 153 1179
-496 152 1175
-504 156 1205
-508 158 1224
-513 161 1247
-512 162 1255
-518 165 1282
-589 188 1469
-814 261 2046
-822 266 2085
-820 267 2098
-805 264 2077
-803 266 2092
-800 267 2102
-794 267 2106
-783 265 2095
-781 267 2107
-768 265 2093
-761 264 2093
-763 267 2118
-751 265 2105
-744 265 2103
-746 268 2128
-731 265 2106
-726 265 2112
-718 264 2109
-709 263 2102
-702 263 2104
-698 264 2112
-692 264 2115
-689 265 2128
-681 265 2123
-671 263 2113
-667 264 2120
-657 263 2112
-647 261 2102
-645 263 2118
-639 263 2120
-627 261 2103
-629 264 2133
-616 261 2109
-610 261 2113
-598 258 2094
-593 259 2101
-588 259 2104
-589 263 2133
-581 262 2129
-572 261 2119
-565 260 2118
-553 258 2099
-554 261 2125
-545 260 2118
-541 261 2128
-534 260 2124
-528 260 2128
-516 258 2107
-513 259 2118
-510 261 2134
-501 259 2123
-495 259 2127
-496 263 2159
-516 277 2278
-525 285 2348
-524 289 2377
-532 296 2443
-530 299 2468
-539 309 2547
-534 310 2560
-511 301 2486
-505 301 2491
-486 295 2436
-476 293 2423
-471 294 2437
-455 288 2388
-455 293 2424
-457 299 2477
-447 297 2461
-438 296 2456
-444 304 2529
-444 309 2570
-426 302 2511
-423 305 2541
-445 326 2716
-456 341 2838
-450 342 2854
-426 329 2748
-406 321 2674
-396 318 2656
-388 318 2659
-379 317 2650
-371 317 2646
-358 313 2614
-364 324 2713
-372 338 2830
-367 341 2857
-351 334 2801
-332 324 2713
-315 314 2636
-302 309 2591
-306 321 2695
-301 324 2719
-303 334 2806
-298 338 2843
-291 340 2855
-284 341 2867
-273 338 2842
-266 338 2848
-258 339 2855
-247 335 2819
-235 330 2779
-217 316 2659
-192 290 2438
-182 286 2406
-185 302 2544
-180 305 2568
-163 288 2430
-140 260 2188
-126 245 2065
-116 238 2003
-105 227 1910
-97 221 1863
-92 222 1874
-86 221 1864
-81 221 1868
-77 226 1904
-75 236 1993
-74 251 2120
-69 254 2146
-62 252 2131
-58 260 2201
-54 272 2301
-50 286 2418
-45 297 2516
-38 300 2538
-30 296 2509
-23 295 2496
-16 297 2515
-8 295 2500
-1 294 2490
5 295 2505
12 294 2497
19 296 2508
27 294 2496
34 298 2529
41 294 2493
49 299 2535
56 298 2526
64 301 2554
71 299 2539
78 296 2510
85 296 2510
92 295 2506
101 300 2546
107 297 2521
115 298 2531
120 293 2489
129 297 2522
136 296 2511
144 299 2537
150 294 2500
156 293 2489
166 297 2526
172 296 2515
184 303 2579
189 299 2544
194 295 2505
205 301 2562
212 300 2551
216 296 2512
225 297 2527
236 303 2571
243 302 2569
245 295 2509
254 297 2524
262 298 2532
269 298 2531
279 301 2557
283 296 2518
292 299 2536
298 297 2526
304 296 2514
313 297 2524
326 302 2566
329 298 2533
334 296 2512
344 299 2535
351 298 2528
360 300 2545
369 300 2549
372 297 2520
386 302 2567
393 302 2560
401 302 2562
411 304 2578
416 302 2561
425 303 2570
436 305 2588
447 308 2610
449 304 2576
452 301 2549
466 305 2585
475 306 2593
483 306 2593
488 304 2577
494 303 2568
510 309 2612
514 307 2595
519 305 2581
533 309 2611
545 311 2630
555 312 2641
564 313 2645
570 312 2633
577 312 2631
580 309 2608
591 310 2620
606 314 2652
602 308 2597
618 312 2633
626 312 2633
642 316 2667
642 313 2632
648 312 2625
646 307 2583
656 308 2589
649 301 2533
660 303 2544
669 303 2547
691 310 2601
694 307 2580
699 306 2571
704 305 2557
700 300 2515
704 298 2500
678 285 2383
672 279 2334
690 283 2370
714 290 2427
727 292 2443
756 301 2514
755 298 2486
760 297 2476
774 299 2494
768 294 2451
775 294 2447
782 294 2445
781 291 2417
787 290 2411
792 289 2402
795 288 2388
798 286 2374
790 281 2327
792 279 2310
790 276 2283
792 274 2267
794 272 2249
794 270 2228
794 267 2207
795 266 2190
797 264 2176
796 261 2153
800 261 2144
800 258 2124
805 258 2117
806 256 2102
804 253 2078
802 251 2054
804 249 2042
806 248 2029
806 246 2011
804 244 1988
809 243 1985
814 243 1979
812 240 1957
822 242 1965
824 240 1952
829 240 1948
838 241 1952
846 241 1956
853 241 1954
858 241 1950
871 243 1964
886 246 1982
916 252 2033
955 261 2103
987 268 2154
1044 281 2263
1050 281 2257
1078 286 2298
1100 290 2327
1107 290 2324
1118 291 2329
1123 290 2320
1117 287 2289
1140 291 2320
1146 290 2314
1148 289 2300
1150 288 2285
1122 279 2213
1127 278 2207
1138 279 2211
1144 279 2205
1150 279 2200
1154 278 2190
1147 274 2160
1132 269 2116
1133 268 2103
1136 267 2093
1134 265 2074
1129 262 2049
1133 261 2040
1133 260 2026
1125 256 1997
-495 121 858
-497 123 867
-512 127 901
-487 122 863
-491 123 877
-497 125 895
-478 121 866
-473 121 864
-484 124 890
-467 121 866
-464 120 866
-500 131 941
-794 207 1505
-1020 267 1948
-992 262 1910
-890 236 1725
-787 211 1539
-700 189 1379
-702 190 1393
-713 194 1426
-722 198 1455
-714 197 1451
-697 194 1427
-685 192 1414
-675 190 1405
-645 183 1352
-601 171 1269
-530 152 1129
-497 144 1067
-511 149 1106
-492 145 1075
-488 144 1073
-510 152 1131
-509 152 1138
-484 146 1090
-509 155 1157
-496 151 1135
-488 150 1128
-494 153 1151
-514 160 1207
-504 158 1195
-501 159 1197
-509 162 1228
-506 162 1230
-510 165 1251
-519 169 1282
-578 189 1442
-802 264 2016
-825 273 2091
-821 274 2100
-812 273 2094
-795 269 2069
-792 271 2081
-788 271 2088
-788 274 2108
-782 274 2111
-767 270 2088
-761 271 2093
-759 272 2106
-748 270 2094
-745 272 2105
-731 269 2087
-733 272 2111
-721 270 2098
-717 271 2106
-714 272 2119
-704 270 2108
-699 271 2113
-690 269 2106
-685 270 2114
-675 269 2104
-669 269 2106
-663 269 2110
-661 270 2124
-648 268 2104
-644 269 2113
-638 269 2117
-634 270 2126
-624 268 2115
-620 269 2124
-610 267 2111
-604 267 2113
-590 264 2090
-585 265 2096
-580 265 2099
-577 267 2114
-572 267 2117
-568 268 2127
-561 268 2128
-550 265 2112
-545 266 2116
-538 265 2114
-534 267 2126
-524 265 2113
-522 267 2129
-512 265 2116
-505 264 2112
-507 269 2151
-493 265 2118
-491 266 2135
-506 278 2230
-512 285 2290
-517 292 2344
-518 296 2382
-517 300 2410
-514 301 2427
-505 301 2421
-496 299 2413
-484 296 2391
-467 290 2340
-465 293 2366
-458 293 2365
-441 287 2318
-441 291 2351
-439 294 2378
-423 288 2332
-419 290 2348
-433 304 2468
-431 308 2496
-406 295 2396
-385 285 2313
-389 292 2375
-392 300 2440
-383 299 2428
-373 296 2411
-384 311 2532
-394 325 2648
-385 324 2639
-372 319 2601
-358 313 2554
-342 306 2493
-328 299 2444
-330 308 2514
-325 310 2534
-312 305 2489
-299 299 2441
-291 298 2437
-281 295 2413
-273 294 2407
-272 300 2454
-270 305 2502
-263 306 2507
-255 306 2505
-248 305 2503
-243 308 2531
-235 307 2519
-229 309 2540
-224 312 2566
-210 303 2488
-196 293 2404
-185 287 2357
-180 290 2381
-180 301 2472
-174 302 2488
-155 282 2320
-134 255 2095
-126 251 2063
-122 256 2102
-104 229 1884
-95 223 1833
-91 225 1850
-85 222 1829
-80 225 1849
-77 232 1908
-77 249 2049
-78 270 2225
-74 277 2289
-62 259 2134
-55 256 2113
-53 274 2266
-50 292 2414
-44 301 2487
-37 302 2500
-30 300 2479
-23 303 2502
-16 304 2516
-8 300 2477
-1 300 2482
5 298 2466
12 298 2467
19 301 2493
27 301 2492
34 299 2476
41 303 2507
48 300 2483
55 297 2461
63 301 2493
69 298 2469
77 299 2477
82 294 2434
90 297 2463
97 296 2449
105 297 2465
112 297 2458
120 300 2489
125 295 2445
134 298 2474
141 299 2483
148 299 2477
155 297 2461
161 295 2446
170 299 2479
177 298 2469
187 303 2509
196 306 2539
200 301 2493
208 301 2497
215 302 2503
222 301 2497
229 301 2495
238 303 2514
242 299 2479
251 301 2496
256 299 2476
266 302 2501
278 307 2542
285 306 2537
287 300 2489
298 304 2519
301 300 2483
310 302 2500
316 300 2489
323 300 2489
333 302 2503
340 302 2505
348 303 2507
358 305 2530
366 306 2531
372 305 2522
380 305 2523
385 303 2510
396 305 2528
398 302 2495
411 306 2529
420 307 2538
428 307 2542
436 308 2545
439 304 2516
444 303 2505
453 304 2510
459 303 2501
468 304 2513
476 304 2512
480 302 2494
489 303 2502
507 310 2557
503 303 2496
522 309 2552
532 311 2563
538 310 2554
554 315 2594
552 310 2551
560 310 2551
574 313 2578
584 314 2589
599 318 2620
602 316 2597
615 319 2621
625 320 2629
636 321 2637
630 314 2580
636 313 2574
638 311 2550
640 308 2527
646 307 2520
648 305 2496
659 306 2507
666 306 2505
686 311 2550
692 311 2543
697 310 2533
717 315 2574
711 309 2526
706 304 2479
711 302 2468
683 287 2345
658 274 2234
686 283 2304
711 290 2365
732 296 2409
752 301 2447
759 301 2445
759 298 2422
768 298 2423
774 298 2419
771 294 2386
779 294 2386
789 295 2392
791 293 2375
795 292 2364
796 290 2342
799 288 2328
795 284 2295
791 280 2262
798 281 2262
797 278 2237
798 276 2219
793 272 2184
798 271 2178
796 268 2151
800 267 2142
798 264 2118
799 262 2102
801 261 2089
804 260 2077
806 258 2065
804 256 2040
802 253 2017
807 253 2012
807 250 1994
806 248 1976
805 246 1956
807 245 1945
812 245 1939
818 245 1939
820 243 1925
826 243 1924
826 241 1908
825 240 1891
836 241 1900
848 243 1911
857 244 1916
866 244 1919
898 251 1975
934 260 2037
956 264 2070
1003 275 2155
1040 283 2216
1072 290 2267
1089 292 2285
1100 293 2289
1104 293 2280
1114 293 2283
1114 291 2266
1109 288 2237
1118 288 2238
1133 291 2252
1123 286 2213
1128 286 2208
1136 286 2206
1148 287 2212
1155 287 2209
1155 285 2192
1149 282 2164
1137 277 2126
1148 278 2130
1150 277 2118
1150 275 2102
1156 275 2097
1159 274 2087
1156 272 2066
1147 268 2035
-512 129 887
-494 125 863
-503 128 884
-496 127 878
-493 127 881
-477 123 859
-487 127 883
-489 128 893
-481 126 885
-493 130 914
-502 133 937
-499 133 938
-721 193 1367
-881 237 1682
-750 203 1442
-660 180 1279
-628 172 1227
-647 178 1273
-660 183 1309
-664 185 1328
-673 189 1355
-666 188 1352
-662 188 1354
-647 185 1334
-594 171 1235
-529 154 1108
-493 144 1042
-488 144 1039
-498 148 1069
-509 152 1101
-505 152 1102
-485 147 1067
-503 153 1116
-519 159 1159
-511 158 1153
-510 158 1159
-496 155 1136
-505 159 1166
-508 161 1184
-497 159 1167
-512 164 1212
-508 164 1213
-501 163 1207
-509 167 1235
-513 170 1256
-518 173 1281
-569 191 1418
-793 267 1994
-825 280 2091
-814 278 2081
-805 277 2078
-803 279 2091
-789 276 2072
-788 278 2087
-781 277 2087
-772 277 2083
-770 278 2096
-765 279 2103
-757 278 2099
-750 278 2100
-738 276 2087
-738 278 2105
-729 277 2100
-718 275 2089
-715 276 2099
-708 276 2101
-701 275 2098
-701 278 2119
-694 277 2118
-685 277 2113
-680 277 2119
-672 276 2115
-663 275 2109
-647 271 2080
-652 276 2115
-643 275 2110
-634 274 2104
-627 273 2101
-621 273 2102
-617 274 2114
-604 271 2092
-604 274 2113
-592 271 2096
-584 270 2090
-579 271 2096
-575 272 2107
-573 274 2122
-561 271 2103
-561 274 2126
-551 272 2114
-547 273 2125
-540 273 2122
-531 271 2113
-531 274 2138
-521 273 2126
-515 272 2126
-509 273 2129
-499 271 2117
-494 271 2123
-492 273 2139
-491 277 2167
-500 285 2234
-500 289 2267
-507 296 2327
-493 292 2297
-489 294 2311
-481 293 2307
-479 296 2331
-470 294 2318
-459 292 2299
-446 288 2269
-439 288 2268
-434 289 2279
-432 292 2306
-433 297 2345
-422 294 2323
-417 296 2338
-422 304 2406
-416 304 2410
-394 293 2321
-376 285 2258
-375 289 2292
-369 289 2294
-360 288 2286
-358 291 2311
-366 303 2408
-373 315 2505
-362 312 2480
-354 311 2475
-345 309 2461
-327 299 2384
-316 296 2355
-318 304 2424
-311 305 2429
-298 298 2380
-292 299 2385
-295 309 2469
-282 303 2417
-265 292 2332
-256 289 2313
-250 290 2318
-241 288 2300
-233 286 2287
-227 287 2299
-223 291 2328
-212 285 2281
-209 289 2319
-202 289 2320
-195 288 2310
-189 289 2316
-181 287 2303
-182 300 2408
-180 309 2479
-171 305 2449
-147 274 2200
-132 258 2071
-137 279 2241
-134 285 2294
-102 231 1857
-94 224 1801
-89 226 1817
-84 225 1808
-79 227 1828
-76 234 1879
-77 254 2042
-81 288 2322
-76 293 2361
-65 276 2220
-54 255 2053
-50 267 2156
-49 296 2383
-44 307 2478
-37 307 2475
-30 307 2477
-23 306 2474
-15 304 2458
-8 303 2446
-1 301 2429
5 302 2441
12 306 2468
19 305 2461
26 306 2472
33 304 2459
40 302 2439
47 303 2448
54 302 2442
62 304 2455
68 301 2431
76 302 2442
83 302 2444
90 301 2436
97 302 2443
104 303 2453
110 298 2412
116 297 2402
124 299 2422
130 298 2408
138 299 2422
147 303 2451
152 299 2417
160 301 2438
168 302 2447
174 300 2427
180 298 2415
190 303 2455
199 307 2485
204 303 2452
212 305 2466
218 303 2449
227 305 2466
232 302 2443
242 306 2476
252 309 2501
255 304 2463
262 303 2455
269 303 2455
279 306 2480
285 305 2471
291 304 2461
299 305 2468
306 305 2464
315 306 2476
321 305 2467
325 303 2447
339 308 2493
347 309 2499
355 310 2507
362 310 2504
370 310 2504
379 311 2514
377 304 2452
387 306 2471
392 304 2458
404 308 2487
410 307 2476
423 311 2513
424 306 2473
434 308 2487
442 309 2490
450 309 2492
449 304 2449
464 309 2488
471 308 2484
474 306 2465
480 305 2453
494 309 2488
503 310 2497
516 313 2521
532 319 2564
538 317 2554
543 316 2541
542 311 2500
559 316 2544
563 314 2526
577 318 2555
579 315 2532
588 316 2535
600 318 2552
607 318 2551
618 320 2564
610 312 2500
624 315 2525
640 319 2556
631 311 2487
629 306 2450
640 308 2463
646 307 2458
664 312 2496
670 311 2488
683 314 2510
694 316 2520
703 316 2524
715 318 2539
715 315 2512
719 313 2495
712 307 2446
710 303 2410
660 279 2217
639 267 2122
678 281 2230
713 292 2319
728 295 2344
745 299 2374
759 302 2393
766 302 2393
769 300 2377
773 299 2366
782 300 2371
779 296 2338
784 295 2329
789 294 2323
796 294 2319
801 293 2311
795 289 2273
796 287 2254
794 283 2228
795 281 2209
792 278 2180
796 277 2171
793 273 2143
796 272 2130
798 271 2118
796 268 2094
797 266 2077
800 265 2066
801 263 2050
802 261 2035
805 260 2024
805 258 2007
804 256 1988
803 254 1968
808 253 1962
805 250 1938
805 248 1921
810 248 1917
811 247 1905
814 245 1894
815 244 1881
820 244 1877
828 245 1881
832 244 1874
836 243 1868
847 245 1877
859 247 1889
868 247 1893
881 249 1905
929 261 1995
966 270 2058
996 276 2105
1034 284 2167
1060 290 2206
1079 293 2227
1090 294 2232
1103 296 2243
1095 291 2207
1106 292 2213
1133 298 2251
1116 291 2199
1128 293 2205
1139 294 2211
1147 294 2210
1151 293 2200
1157 292 2194
1154 290 2173
1150 287 2148
1153 286 2138
1156 285 2127
1162 285 2122
1172 286 2126
1171 284 2107
1176 283 2101
1183 283 2098
-495 127 858
-508 131 887
-497 129 875
-493 129 873
-502 132 896
-491 130 882
-489 130 886
-483 129 881
-482 130 887
-487 132 902
-467 127 871
-496 136 933
-618 169 1171
-638 176 1218
-603 167 1159
-593 166 1150
-588 165 1149
-588 166 1158
-600 171 1191
-611 175 1221
-615 177 1240
-613 177 1245
-589 172 1206
-528 155 1089
-493 146 1026
-487 145 1020
-477 143 1008
-506 152 1076
-477 145 1024
-492 150 1065
-501 154 1092
-496 154 1091
-514 160 1140
-511 160 1142
-501 158 1129
-501 159 1138
-497 159 1138
-506 163 1168
-501 162 1166
-493 161 1158
-522 172 1236
-503 167 1202
-511 170 1230
-509 171 1235
-531 179 1299
-518 177 1281
-576 197 1435
-799 275 2008
-810 281 2052
-812 284 2076
-803 283 2070
-791 281 2057
-784 280 2058
-781 282 2070
-775 282 2071
-773 283 2085
-773 285 2103
-752 280 2067
-750 282 2080
-741 280 2073
-738 282 2085
-729 281 2079
-726 282 2090
-723 283 2103
-712 281 2090
-706 281 2093
-696 280 2084
-692 281 2093
-679 278 2073
-679 280 2094
-675 281 2103
-663 279 2086
-658 279 2092
-651 279 2092
-647 280 2101
-642 281 2106
-627 277 2078
-633 282 2120
-622 280 2107
-612 278 2096
-606 278 2098
-599 278 2097
-600 281 2121
-588 278 2102
-577 276 2089
-578 279 2114
-571 279 2116
-566 280 2119
-553 276 2097
-553 279 2121
-549 280 2130
-540 279 2122
-533 279 2120
-523 277 2106
-522 280 2130
-514 278 2124
-505 277 2115
-500 278 2119
-497 279 2134
-483 275 2102
-487 281 2147
-488 285 2179
-486 287 2202
-481 288 2208
-477 290 2222
-473 291 2235
-467 291 2237
-462 293 2249
-450 289 2223
-443 288 2219
-440 291 2239
-434 291 2242
-428 291 2245
-428 296 2280
-415 292 2250
-413 294 2273
-406 295 2276
-412 303 2345
-408 305 2362
-385 294 2273
-377 292 2260
-370 292 2262
-360 289 2239
-350 287 2223
-346 288 2235
-353 299 2322
-360 311 2418
-345 304 2361
-323 291 2264
-317 291 2265
-305 286 2226
-304 291 2264
-300 293 2284
-304 305 2373
-295 302 2352
-282 296 2308
-279 299 2334
-271 298 2327
-257 290 2264
-244 283 2209
-240 286 2233
-233 285 2229
-226 284 2221
-223 288 2254
-216 287 2247
-209 287 2246
-202 286 2240
-197 289 2264
-187 284 2224
-181 283 2219
-180 292 2287
-185 311 2439
-185 323 2535
-171 311 2442
-147 280 2195
-139 277 2173
-150 311 2445
-131 287 2251
-100 233 1824
-93 229 1793
-86 224 1758
-82 226 1775
-78 230 1806
-75 236 1853
-77 261 2050
-80 292 2296
-76 301 2373
-66 286 2252
-54 263 2068
-49 270 2121
-48 299 2355
-44 315 2482
-37 318 2504
-30 321 2532
-23 318 2508
-15 315 2483
-8 313 2471
-1 310 2445
5 312 2462
12 311 2452
19 310 2444
27 315 2489
34 316 2494
41 314 2480
48 313 2474
55 312 2466
62 309 2443
69 309 2444
75 308 2433
82 306 2420
90 310 2447
97 311 2456
104 308 2434
110 306 2417
116 305 2407
124 305 2410
132 308 2438
140 310 2450
146 308 2438
152 306 2422
160 307 2427
166 306 2415
173 306 2423
181 307 2426
187 306 2422
195 307 2430
200 304 2405
209 307 2428
218 310 2450
223 307 2423
229 305 2411
238 307 2430
245 308 2431
254 310 2447
262 311 2462
264 305 2412
272 306 2417
281 308 2433
287 307 2423
293 305 2413
303 309 2441
309 308 2434
316 308 2429
319 304 2400
329 307 2421
340 310 2446
347 310 2446
356 312 2462
367 315 2483
370 311 2453
378 311 2457
386 313 2466
389 309 2439
396 309 2436
405 311 2448
410 309 2433
419 310 2441
425 309 2434
434 310 2443
441 310 2444
447 309 2437
452 308 2425
463 310 2441
472 311 2451
473 308 2419
488 312 2456
492 310 2439
509 317 2489
517 317 2490
524 316 2486
531 316 2484
532 313 2455
541 314 2461
552 316 2477
560 316 2480
571 318 2495
582 320 2508
586 318 2491
598 321 2511
606 321 2512
610 319 2497
618 319 2497
620 316 2475
629 317 2481
622 310 2422
625 308 2405
641 312 2436
651 313 2445
661 315 2455
678 319 2489
676 315 2454
690 318 2478
693 316 2458
710 320 2491
717 320 2488
726 321 2492
716 313 2430
710 307 2383
697 298 2314
655 277 2151
649 273 2111
703 292 2264
723 298 2304
748 305 2360
755 305 2356
766 306 2366
772 306 2363
768 301 2327
782 304 2346
782 301 2323
785 300 2309
790 299 2300
795 298 2293
799 297 2284
799 294 2262
797 291 2235
799 289 2219
799 287 2199
797 284 2173
798 282 2156
797 279 2134
797 277 2115
797 275 2095
798 273 2078
798 270 2060
800 269 2047
803 268 2036
801 265 2014
802 263 1998
800 261 1977
807 261 1975
805 258 1954
810 258 1949
803 254 1917
808 253 1912
806 251 1892
807 249 1879
808 248 1866
815 248 1865
817 247 1854
821 246 1848
819 244 1829
828 245 1835
834 245 1833
845 246 1841
857 248 1852
869 250 1863
889 254 1893
908 258 1917
951 268 1992
1002 281 2084
1003 279 2070
1026 283 2101
1043 286 2118
1084 296 2185
1088 295 2176
1101 296 2186
1108 296 2182
1123 298 2194
1128 298 2188
1146 300 2205
1151 300 2199
1160 301 2200
1156 298 2175
1161 297 2168
1159 295 2148
1160 293 2135
1163 292 2123
1171 292 2123
1174 291 2113
1182 291 2110
1189 292 2107
-509 134 881
-500 132 872
-501 133 881
-495 132 877
-494 133 881
-497 134 894
-484 131 876
-477 130 871
-475 131 873
-489 135 906
-487 135 909
-503 140 946
-580 162 1098
-606 171 1157
-593 168 1141
-594 169 1151
-585 168 1142
-566 164 1114
-560 163 1110
-560 164 1119
-545 161 1099
-521 154 1057
-494 147 1011
-488 147 1007
-483 146 1005
-495 151 1038
-497 152 1048
-504 155 1072
-493 153 1057
-501 156 1083
-500 157 1090
-506 160 1112
-491 156 1088
-509 163 1137
-494 159 1111
-479 156 1087
-524 171 1199
-512 169 1182
-517 171 1204
-498 166 1168
-524 176 1241
-511 173 1220
-506 173 1218
-545 187 1323
-509 176 1247
-515 179 1272
-566 198 1409
-792 279 1990
-806 286 2042
-805 288 2058
-795 287 2051
-791 287 2057
-784 287 2058
-781 288 2068
-772 287 2064
-761 285 2051
-764 288 2079
-747 285 2052
-738 283 2046
-737 285 2063
-735 287 2077
-730 287 2082
-722 287 2078
-711 285 2067
-707 286 2075
-702 286 2081
-696 286 2082
-696 289 2104
-683 286 2083
-681 288 2099
-670 285 2086
-664 286 2090
-650 282 2067
-654 287 2100
-641 284 2081
-637 285 2089
-632 285 2096
-619 282 2074
-612 282 2072
-609 283 2085
-605 284 2092
-600 284 2098
-596 286 2108
-586 284 2098
-578 283 2090
-578 286 2114
-565 282 2092
-563 285 2109
-556 284 2106
-544 281 2088
-541 283 2100
-535 283 2102
-526 281 2091
-526 284 2117
-514 281 2095
-510 282 2106
-504 283 2108
-497 282 2105
-491 282 2107
-491 286 2135
-486 286 2143
-488 291 2179
-478 289 2166
-474 291 2178
-464 288 2161
-458 288 2163
-453 289 2173
-450 291 2187
-441 290 2178
-437 291 2189
-435 294 2212
-424 291 2193
-420 292 2202
-415 293 2211
-407 292 2206
-404 295 2227
-399 296 2235
-406 306 2310
-401 307 2324
-378 295 2229
-352 279 2114
-353 285 2159
-342 281 2131
-333 279 2113
-322 275 2084
-335 291 2209
-335 297 2252
-323 292 2214
-316 291 2214
-303 285 2167
-299 287 2185
-289 283 2154
-291 291 2216
-280 287 2181
-278 292 2224
-268 288 2191
-264 290 2212
-255 287 2191
-248 286 2184
-242 287 2188
-234 285 2175
-230 287 2194
-223 287 2193
-219 289 2210
-211 288 2198
-203 286 2184
-198 288 2202
-191 286 2188
-184 286 2186
-180 288 2209
-179 297 2277
-185 319 2445
-185 331 2539
-171 318 2443
-152 296 2268
-148 302 2315
-155 330 2532
-123 276 2119
-94 223 1708
-91 228 1747
-86 229 1753
-81 228 1748
-76 229 1755
-74 240 1840
-77 267 2052
-80 296 2273
-76 307 2359
-66 293 2254
-55 272 2094
-50 277 2128
-48 303 2331
-44 325 2505
-38 329 2533
-31 333 2566
-23 329 2537
-16 331 2550
-8 330 2547
-1 327 2523
5 327 2520
12 326 2513
19 320 2469
27 325 2507
35 328 2535
42 328 2530
49 330 2548
56 327 2522
63 323 2495
70 323 2495
78 324 2501
84 321 2482
92 322 2488
99 324 2506
105 320 2475
112 318 2455
118 314 2428
125 315 2435
131 313 2418
141 320 2473
146 316 2440
152 313 2422
160 315 2432
169 319 2464
173 312 2410
183 318 2456
189 316 2444
194 313 2417
203 315 2435
212 318 2455
215 312 2409
225 317 2447
230 314 2425
239 316 2444
242 311 2402
251 314 2424
258 313 2416
260 307 2369
269 309 2388
280 314 2425
285 312 2406
292 311 2405
300 313 2416
306 312 2406
313 312 2407
319 310 2395
329 313 2417
336 313 2416
340 310 2395
353 316 2438
358 314 2423
368 316 2439
374 315 2429
382 316 2436
394 320 2464
397 317 2443
400 314 2417
410 316 2434
410 310 2390
419 312 2401
423 310 2384
432 311 2393
442 313 2409
448 312 2402
457 314 2413
468 316 2428
473 315 2417
482 315 2424
486 314 2409
492 313 2405
503 315 2421
508 314 2410
522 318 2441
534 321 2462
542 322 2466
546 320 2450
548 316 2424
559 318 2439
563 317 2426
569 316 2421
588 323 2468
595 322 2465
609 326 2494
610 322 2464
624 326 2489
623 321 2454
621 317 2418
628 317 2417
648 323 2462
650 320 2442
655 319 2431
663 319 2434
673 320 2440
675 318 2422
692 323 2456
704 325 2471
713 325 2472
717 324 2461
724 324 2457
724 320 2430
714 313 2370
706 306 2319
701 301 2278
672 286 2160
668 281 2127
704 294 2219
724 299 2258
737 302 2277
756 306 2312
767 308 2322
769 306 2305
773 305 2296
780 305 2292
786 304 2287
791 304 2281
794 302 2267
795 300 2250
800 299 2242
798 296 2214
805 296 2215
799 291 2178
800 289 2159
801 287 2142
799 284 2118
797 281 2095
796 278 2073
798 277 2059
800 275 2046
800 273 2029
799 270 2007
800 269 1993
801 267 1977
801 265 1962
806 265 1957
806 263 1940
807 261 1924
811 260 1919
802 255 1880
807 255 1877
809 254 1866
811 253 1855
815 252 1849
816 250 1835
819 250 1827
816 247 1807
830 250 1822
831 248 1810
836 248 1806
844 248 1809
846 248 1800
857 249 1809
886 255 1854
905 259 1879
930 265 1918
962 272 1967
977 274 1984
1002 279 2017
1034 287 2066
1087 299 2156
1109 303 2183
1117 304 2183
1134 306 2199
1134 304 2182
1142 305 2181
1146 304 2173
1147 302 2158
1150 301 2146
1153 300 2136
1156 299 2126
1159 298 2116
1173 300 2124
1181 300 2123
1183 299 2112
1201 302 2129
-517 139 894
-504 136 879
-496 134 871
-498 136 882
-495 136 882
-490 135 880
-497 138 899
-481 134 877
-478 134 877
-476 134 881
-470 133 876
-506 144 951
-571 164 1081
-599 173 1144
-610 177 1173
-606 177 1173
-572 168 1117
-542 160 1065
-523 155 1036
-510 153 1019
-487 147 980
-484 147 983
-487 149 996
-518 159 1068
-496 153 1030
-489 152 1024
-492 154 1038
-500 158 1065
-498 158 1067
-484 154 1046
-512 164 1116
-490 158 1078
-499 162 1106
-513 168 1145
-526 173 1184
-485 161 1102
-486 162 1112
-503 169 1160
-492 167 1144
-503 172 1181
-499 172 1182
-505 175 1205
-515 180 1240
-512 180 1242
-504 178 1235
-518 185 1280
-563 202 1402
-786 283 1972
-807 293 2044
-798 292 2040
-793 292 2043
-787 292 2046
-778 291 2042
-774 292 2050
-769 292 2054
-760 291 2050
-746 288 2030
-741 289 2036
-738 290 2046
-730 289 2043
-733 292 2070
-721 290 2055
-718 291 2066
-704 288 2046
-702 290 2060
-699 291 2070
-683 287 2042
-686 291 2073
-678 290 2068
-667 288 2055
-659 287 2051
-657 289 2066
-646 287 2052
-643 288 2063
-642 290 2082
-632 289 2073
-626 289 2073
-616 287 2064
-609 286 2061
-603 287 2065
-607 291 2101
-593 288 2075
-589 288 2083
-580 287 2075
-573 287 2073
-571 289 2089
-566 289 2094
-559 289 2095
-551 288 2087
-549 290 2107
-537 287 2084
-533 288 2096
-524 287 2085
-520 288 2094
-516 289 2104
-510 289 2107
-502 288 2100
-495 287 2098
-494 290 2118
-488 290 2122
-484 292 2133
-475 290 2123
-471 291 2133
-464 290 2129
-460 292 2142
-455 293 2148
-449 293 2154
-442 292 2148
-434 291 2143
-425 290 2131
-423 292 2151
-419 294 2167
-414 295 2175
-404 292 2154
-396 291 2144
-390 291 2148
-394 298 2204
-396 305 2257
-398 312 2305
-360 287 2126
-342 277 2051
-332 274 2031
-326 274 2030
-317 271 2008
-320 279 2068
-303 269 1998
-309 280 2076
-309 286 2122
-312 294 2181
-302 290 2157
-289 283 2107
-284 285 2116
-278 285 2124
-274 288 2140
-267 286 2133
-259 285 2120
-255 287 2140
-249 287 2142
-245 290 2161
-238 289 2153
-231 288 2148
-228 292 2181
-218 287 2146
-215 291 2172
-207 289 2158
-201 290 2166
-195 289 2160
-191 293 2191
-182 289 2161
-176 290 2170
-176 299 2242
-183 322 2414
-182 333 2500
-171 326 2446
-156 311 2332
-149 311 2333
-150 327 2455
-115 264 1977
-91 223 1668
-88 226 1691
-86 233 1747
-80 231 1732
-76 233 1749
-74 243 1826
-78 276 2074
-79 302 2273
-76 313 2354
-65 296 2229
-54 275 2066
-51 289 2177
-49 314 2365
-45 334 2513
-38 340 2561
-31 339 2553
-23 337 2539
-16 340 2561
-8 340 2565
-1 342 2582
5 341 2570
13 338 2553
20 335 2527
27 336 2534
35 335 2527
42 337 2544
49 336 2539
57 339 2556
65 341 2573
72 338 2549
79 339 2558
86 337 2543
93 334 2521
100 335 2529
107 332 2505
112 326 2465
119 327 2467
126 324 2447
134 326 2466
141 326 2466
147 323 2440
154 323 2440
161 324 2446
169 325 2458
177 326 2464
185 329 2483
192 328 2479
198 325 2457
206 327 2474
213 327 2468
219 326 2460
229 329 2483
236 329 2488
241 326 2464
247 324 2448
251 320 2417
258 320 2414
261 315 2380
270 317 2394
279 319 2412
285 318 2403
293 320 2416
297 316 2385
305 317 2396
312 318 2398
315 313 2362
324 315 2380
331 315 2378
341 318 2400
345 316 2379
353 317 2387
365 321 2417
374 322 2430
383 324 2445
387 321 2422
391 319 2403
403 323 2429
404 318 2397
407 315 2369
416 316 2381
419 313 2357
425 312 2351
434 314 2360
444 316 2377
456 320 2406
468 323 2429
470 319 2400
478 320 2407
482 318 2388
496 323 2423
503 322 2419
514 325 2439
522 326 2443
528 325 2436
534 324 2425
532 318 2384
539 318 2382
552 322 2410
563 324 2424
565 321 2401
580 325 2431
591 327 2449
599 328 2449
607 328 2451
620 331 2472
621 328 2447
629 328 2449
636 328 2447
645 329 2450
650 327 2439
645 322 2395
651 321 2387
658 321 2388
675 325 2419
686 327 2430
709 335 2486
718 335 2490
729 337 2499
732 335 2485
741 335 2487
738 331 2450
724 321 2378
718 315 2332
714 310 2295
703 303 2237
653 279 2057
657 277 2047
704 295 2173
722 299 2206
750 308 2268
755 307 2262
762 307 2261
774 309 2274
770 305 2241
777 305 2240
786 306 2245
789 304 2230
795 304 2227
799 303 2216
804 302 2211
802 299 2184
805 298 2174
805 295 2153
799 290 2118
802 289 2107
801 286 2084
801 284 2067
800 281 2045
800 279 2026
797 276 2003
803 276 2001
803 274 1981
803 272 1966
803 270 1949
806 269 1938
804 266 1917
806 264 1905
807 263 1893
808 261 1880
811 260 1870
808 258 1848
808 256 1832
813 255 1829
816 255 1821
816 253 1807
817 251 1793
830 253 1807
823 250 1778
827 249 1772
841 252 1788
843 251 1778
848 250 1774
866 254 1797
875 255 1802
893 258 1825
914 263 1853
929 265 1870
963 273 1923
1021 288 2024
1069 299 2104
1104 307 2156
1120 310 2171
1124 309 2162
1132 309 2160
1137 308 2154
1132 305 2128
1138 305 2124
1143 304 2116
1148 304 2109
1164 306 2123
1173 307 2124
1180 307 2120
1192 308 2126
1197 307 2120
-497 136 860
-492 136 858
-488 135 858
-498 139 882
-491 138 875
-487 137 875
-488 138 883
-477 136 870
-474 136 871
-483 139 895
-479 139 893
-500 146 939
-558 163 1057
-590 174 1126
-592 175 1138
-581 173 1126
-546 164 1066
-505 153 993
-488 148 966
-493 151 985
-509 157 1025
-485 150 984
-484 151 990
-499 156 1029
-484 153 1006
-498 158 1042
-513 164 1081
-491 158 1044
-500 162 1072
-484 158 1045
-507 166 1105
-488 161 1071
-503 167 1113
-505 169 1126
-491 165 1104
-483 164 1096
-501 171 1146
-526 181 1213
-513 177 1193
-505 176 1184
-507 178 1200
-515 182 1229
-524 187 1262
-502 180 1218
-538 194 1316
-519 189 1280
-566 207 1409
-778 286 1952
-797 295 2019
-800 299 2043
-790 297 2036
-786 298 2042
-771 294 2021
-777 299 2058
-755 293 2016
-745 291 2008
-739 291 2010
-736 293 2022
-727 291 2013
-732 296 2048
-724 295 2045
-716 294 2039
-710 294 2042
-708 296 2057
-695 293 2039
-687 292 2035
-682 293 2041
-678 294 2047
-666 291 2032
-661 291 2036
-662 294 2059
-653 293 2052
-644 292 2045
-638 292 2048
-634 293 2056
-629 294 2063
-617 291 2043
-611 291 2045
-603 290 2042
-603 293 2063
-597 293 2066
-584 290 2044
-581 291 2056
-578 292 2067
-567 290 2051
-562 290 2057
-560 292 2071
-551 291 2061
-545 291 2065
-540 291 2070
-532 291 2066
-526 290 2065
-523 292 2079
-516 292 2077
-510 292 2081
-508 294 2097
-501 293 2095
-494 293 2091
-488 293 2095
-481 292 2092
-478 294 2107
-476 297 2126
-463 293 2098
-458 293 2102
-449 292 2093
-450 296 2125
-447 298 2143
-437 296 2127
-433 297 2137
-423 294 2117
-419 296 2129
-413 296 2135
-407 296 2137
-404 298 2153
-396 297 2147
-390 298 2150
-386 299 2160
-392 308 2230
-396 317 2294
-367 299 2163
-331 275 1990
-323 273 1977
-316 272 1971
-311 273 1976
-306 273 1977
-306 278 2020
-294 272 1978
-295 279 2024
-299 288 2093
-293 288 2092
-291 292 2124
-281 289 2100
-278 291 2119
-270 289 2107
-261 286 2085
-260 291 2123
-254 292 2127
-246 290 2115
-243 293 2137
-235 291 2125
-231 295 2151
-223 292 2133
-216 290 2119
-210 290 2122
-203 290 2120
-197 290 2122
-191 289 2115
-184 288 2109
-181 294 2150
-173 291 2131
-174 302 2215
-181 326 2392
-181 339 2487
-170 332 2436
-153 313 2294
-144 307 2255
-140 312 2292
-106 250 1836
-91 227 1666
-88 231 1696
-84 234 1714
-78 231 1699
-74 234 1716
-73 247 1815
-76 273 2008
-77 301 2212
-74 313 2307
-64 297 2182
-54 281 2068
-50 292 2147
-48 319 2351
-44 337 2482
-37 340 2508
-30 339 2498
-23 342 2523
-15 340 2511
-8 342 2521
-1 343 2530
5 343 2529
13 344 2541
20 341 2516
27 336 2480
34 339 2501
42 339 2504
49 343 2531
57 344 2541
65 348 2574
72 346 2556
79 345 2545
86 342 2525
92 338 2499
99 338 2497
107 339 2505
113 336 2482
120 336 2486
128 338 2499
136 339 2504
142 336 2485
148 333 2461
155 333 2460
162 333 2460
173 340 2511
181 342 2527
190 345 2547
196 342 2527
202 339 2507
208 337 2492
214 336 2483
222 337 2488
229 337 2490
236 336 2487
244 337 2494
250 336 2480
254 332 2449
258 328 2420
263 324 2393
268 322 2381
278 326 2404
286 327 2417
295 329 2431
300 327 2414
304 323 2385
313 325 2401
320 326 2404
326 324 2394
331 323 2383
339 323 2383
346 324 2388
352 323 2379
364 327 2408
377 333 2452
381 330 2431
388 329 2426
395 329 2428
408 334 2458
415 334 2462
419 331 2440
420 327 2405
423 324 2381
428 321 2365
437 323 2378
443 322 2370
458 328 2413
468 330 2425
477 332 2439
479 328 2411
490 330 2427
492 327 2400
503 329 2418
514 332 2436
522 333 2442
527 331 2427
532 330 2418
538 329 2413
542 327 2394
554 330 2417
565 332 2433
577 335 2450
577 331 2419
591 335 2448
598 334 2445
602 332 2429
608 332 2425
618 333 2434
628 335 2443
644 339 2474
649 338 2466
647 333 2429
656 334 2432
661 333 2423
662 330 2400
667 329 2391
678 330 2402
684 330 2398
710 339 2460
726 343 2489
739 345 2506
737 341 2474
741 339 2458
733 332 2408
724 325 2352
716 318 2303
712 313 2264
710 310 2236
682 295 2126
644 275 1985
675 286 2061
720 302 2178
732 304 2192
761 314 2256
767 313 2254
769 311 2236
775 311 2231
781 310 2228
783 309 2212
786 307 2201
795 308 2206
798 307 2194
801 305 2181
805 304 2173
805 302 2152
808 300 2140
803 296 2107
804 294 2091
805 292 2076
801 288 2046
795 284 2014
800 283 2009
801 281 1993
804 280 1984
801 277 1959
803 276 1947
808 275 1942
802 271 1911
796 267 1882
808 269 1894
806 266 1872
808 265 1862
810 264 1852
810 262 1837
810 260 1821
813 259 1812
813 257 1798
819 257 1796
816 255 1776
820 254 1769
824 254 1765
823 252 1747
831 253 1752
836 252 1749
843 253 1748
850 253 1749
857 253 1750
872 256 1768
886 259 1782
909 263 1813
950 274 1881
1006 288 1977
1043 297 2036
1072 303 2076
1101 309 2116
1108 309 2113
1118 310 2117
1129 311 2122
1125 308 2097
1129 307 2090
1153 312 2118
1160 312 2115
1169 312 2115
1183 314 2125
1192 315 2125
1193 313 2112
-494 138 855
-500 141 872
-505 143 886
-491 140 869
-487 139 868
-489 141 878
-484 140 875
-496 144 905
-478 140 877
-485 143 897
-490 145 913
-494 147 927
-545 163 1031
-554 167 1056
-539 163 1035
-513 156 993
-497 152 969
-504 155 991
-484 150 959
-482 151 963
-496 156 998
-480 152 973
-462 147 945
-508 162 1045
-495 159 1028
-494 160 1033
-492 161 1038
-503 165 1070
-500 165 1071
-498 166 1076
-500 167 1088
-504 170 1108
-504 171 1116
-488 167 1088
-512 176 1151
-512 177 1162
-498 174 1140
-492 173 1134
-512 181 1190
-520 185 1220
-488 175 1154
-531 191 1266
-533 194 1282
-507 186 1230
-527 194 1290
-518 193 1279
-570 213 1418
-763 286 1914
-784 297 1985
-789 301 2014
-780 300 2010
-778 301 2021
-769 300 2017
-754 297 1996
-752 298 2009
-747 298 2012
-740 298 2013
-731 297 2008
-728 298 2016
-723 299 2023
-712 297 2011
-709 298 2021
-702 297 2020
-699 298 2029
-694 299 2034
-681 296 2016
-670 294 2005
-673 298 2032
-670 299 2045
-653 294 2012
-646 294 2010
-641 294 2015
-640 296 2032
-633 296 2030
-632 298 2049
-627 299 2053
-617 297 2042
-614 298 2056
-599 294 2026
-596 295 2037
-588 294 2033
-586 296 2049
-574 294 2030
-573 296 2050
-564 294 2039
-563 297 2059
-551 294 2040
-548 295 2050
-537 293 2035
-537 296 2060
-526 293 2042
-524 295 2058
-514 293 2045
-507 292 2040
-507 296 2067
-505 298 2084
-487 292 2038
-489 296 2070
-482 295 2066
-476 295 2068
-471 296 2076
-463 295 2070
-456 295 2067
-454 297 2084
-449 297 2089
-449 302 2120
-435 296 2085
-437 302 2126
-423 297 2089
-418 298 2097
-409 295 2081
-409 300 2115
-403 300 2116
-393 297 2095
-389 298 2105
-389 303 2143
-385 304 2154
-386 311 2200
-387 316 2239
-357 297 2103
-330 280 1982
-316 273 1933
-312 274 1945
-311 278 1976
-294 268 1901
-294 273 1936
-281 266 1892
-286 276 1963
-291 286 2035
-290 291 2073
-286 293 2085
-281 294 2097
-271 290 2065
-265 290 2066
-262 293 2090
-256 293 2091
-250 294 2097
-242 291 2076
-238 294 2101
-231 293 2091
-228 297 2121
-220 294 2101
-213 293 2093
-207 293 2095
-201 293 2096
-195 293 2097
-187 290 2080
-181 290 2077
-174 288 2065
-171 294 2109
-173 307 2206
-181 334 2395
-177 339 2436
-166 332 2384
-151 314 2252
-137 299 2145
-130 296 2129
-100 242 1735
-89 227 1625
-86 231 1655
-82 234 1679
-77 233 1674
-73 236 1698
-72 249 1789
-74 274 1973
-74 296 2128
-71 309 2225
-63 299 2156
-54 286 2063
-50 299 2154
-47 320 2305
-43 339 2447
-36 338 2439
-29 336 2422
-22 338 2438
-15 343 2476
-8 345 2490
-1 346 2496
5 346 2502
13 346 2502
20 344 2484
27 341 2465
34 343 2480
41 342 2468
49 346 2499
56 347 2506
62 341 2467
70 344 2485
77 341 2466
83 339 2454
91 342 2471
98 341 2469
106 344 2487
114 345 2492
121 344 2491
128 345 2496
135 345 2495
140 339 2455
145 333 2407
154 338 2447
162 341 2464
172 346 2501
181 348 2517
188 349 2522
194 345 2497
199 342 2475
207 344 2485
214 343 2481
222 344 2490
230 345 2493
233 339 2454
243 342 2475
247 339 2448
250 333 2407
254 329 2379
258 325 2349
267 327 2367
277 331 2393
285 332 2402
291 331 2393
297 331 2389
305 331 2393
315 335 2418
322 334 2413
330 335 2420
333 331 2391
339 330 2385
348 332 2396
353 331 2387
364 334 2409
371 334 2408
377 333 2401
382 331 2386
395 336 2422
407 340 2453
418 343 2474
422 341 2455
427 339 2443
430 336 2417
439 337 2429
442 334 2404
453 337 2427
462 338 2433
472 341 2450
482 342 2461
487 341 2451
493 340 2441
492 334 2403
499 334 2400
505 333 2391
515 335 2408
520 334 2395
532 337 2417
535 334 2397
544 336 2405
554 337 2416
564 339 2426
572 339 2427
579 339 2425
584 338 2416
593 339 2421
601 339 2425
612 341 2439
617 340 2429
627 341 2437
637 343 2447
644 343 2445
643 338 2413
653 340 2422
649 334 2377
658 335 2385
670 337 2401
675 336 2390
680 335 2382
695 339 2407
705 340 2416
720 344 2440
729 344 2444
735 344 2438
737 342 2421
722 331 2346
716 325 2302
715 321 2273
718 320 2260
706 311 2200
706 308 2176
688 298 2100
664 285 2006
697 296 2084
731 308 2167
741 309 2176
758 314 2204
766 314 2204
771 313 2200
776 313 2192
788 315 2206
783 310 2171
795 312 2184
799 311 2174
801 309 2160
801 307 2141
804 305 2129
807 304 2118
806 301 2096
809 300 2084
805 296 2056
804 293 2035
800 289 2008
801 288 1993
802 286 1978
801 283 1959
803 282 1947
805 280 1935
800 276 1907
800 274 1890
804 273 1883
803 271 1866
810 272 1866
809 269 1848
812 268 1840
810 266 1819
808 263 1801
808 262 1787
811 260 1778
818 261 1780
817 259 1762
819 258 1753
823 257 1748
825 256 1739
823 254 1720
832 255 1725
833 254 1714
835 252 1704
845 254 1710
853 254 1715
873 259 1741
886 261 1754
927 271 1821
956 278 1864
997 288 1929
1035 297 1987
1068 304 2036
1087 308 2056
1087 306 2041
1113 311 2074
1121 312 2073
1141 315 2095
1154 317 2103
1164 318 2105
1165 316 2092
1186 320 2115
1189 319 2104
-499 142 863
-493 142 859
-499 144 875
-501 145 886
-498 145 888
-489 143 877
-479 141 865
-473 140 861
-472 141 865
-487 146 900
-487 147 908
-499 151 936
-522 159 987
-507 156 966
-513 158 984
-488 152 944
-483 151 943
-488 153 958
-477 151 945
-499 159 996
-491 157 988
-490 158 993
-501 163 1024
-492 161 1012
-481 158 999
-492 163 1029
-482 161 1017
-501 168 1064
-501 169 1073
-494 168 1067
-528 180 1150
-494 170 1083
-501 174 1109
-502 175 1120
-486 170 1092
-510 180 1156
-519 184 1186
-479 172 1104
-500 180 1163
-500 181 1171
-527 193 1246
-501 184 1194
-497 184 1194
-523 195 1268
-507 191 1239
-518 196 1278
-557 213 1387
-757 290 1900
-768 296 1943
-778 303 1986
-774 304 1994
-771 305 2004
-762 303 1996
-758 304 2005
-751 304 2006
-747 304 2011
-735 302 1997
-729 302 1999
-714 298 1977
-720 303 2012
-708 301 1998
-705 302 2008
-688 298 1980
-683 298 1983
-684 301 2006
-684 303 2024
-674 302 2016
-665 300 2008
-661 301 2016
-648 298 1994
-644 299 2003
-642 301 2017
-630 298 2000
-632 302 2027
-625 301 2027
-613 298 2010
-608 299 2012
-597 296 1998
-597 299 2020
-588 298 2011
-585 299 2022
-579 299 2023
-572 299 2023
-567 299 2027
-563 300 2034
-552 297 2018
-546 297 2019
-539 296 2016
-536 298 2029
-531 299 2037
-521 296 2019
-516 297 2027
-511 298 2032
-505 297 2032
-498 297 2029
-496 299 2047
-490 299 2047
-482 298 2040
-478 299 2049
-473 300 2056
-461 296 2032
-458 298 2046
-449 296 2033
-449 300 2063
-439 297 2046
-431 296 2038
-435 303 2084
-425 300 2065
-416 298 2052
-408 297 2046
-404 298 2057
-399 298 2061
-390 296 2049
-385 297 2052
-378 296 2048
-379 301 2085
-375 303 2100
-381 313 2167
-381 318 2204
-352 299 2077
-327 283 1962
-308 271 1883
-299 269 1865
-288 264 1831
-289 269 1869
-286 271 1887
-279 270 1875
-275 271 1889
-286 288 2004
-284 292 2033
-280 293 2042
-273 292 2036
-269 294 2054
-261 292 2035
-256 293 2046
-250 293 2044
-244 292 2043
-238 293 2047
-239 301 2107
-229 296 2072
-223 296 2070
-214 292 2046
-208 292 2049
-202 291 2041
-197 293 2052
-194 297 2084
-184 292 2047
-181 297 2081
-171 290 2037
-166 292 2048
-171 310 2179
-179 336 2364
-175 343 2409
-164 333 2343
-146 310 2183
-132 294 2066
-121 283 1992
-95 234 1643
-87 227 1597
-86 235 1653
-80 234 1642
-76 234 1647
-73 240 1689
-73 256 1801
-72 271 1906
-72 292 2060
-68 303 2136
-62 303 2139
-53 289 2037
-50 304 2143
-47 324 2288
-43 342 2416
-36 343 2426
-29 342 2416
-21 340 2400
-15 340 2406
-8 345 2442
-1 347 2451
5 347 2455
13 348 2463
20 349 2466
27 347 2454
34 353 2498
41 348 2461
48 347 2456
55 346 2450
61 341 2415
69 343 2427
76 343 2429
83 345 2442
90 345 2442
97 345 2440
104 344 2437
111 344 2436
119 348 2462
126 345 2441
133 344 2438
139 342 2422
143 336 2377
151 339 2400
160 343 2430
169 346 2452
176 346 2453
182 343 2431
189 344 2435
196 344 2433
203 343 2428
211 345 2442
219 347 2455
225 345 2442
232 345 2444
238 343 2427
243 340 2405
244 331 2343
251 331 2345
256 329 2330
263 330 2337
276 337 2382
281 335 2367
288 335 2368
292 332 2346
300 333 2353
309 336 2373
319 338 2392
326 338 2389
332 337 2385
339 337 2381
343 334 2363
353 337 2380
357 335 2364
364 334 2361
374 337 2381
382 338 2389
392 341 2404
409 349 2463
415 348 2455
423 349 2463
429 348 2452
425 338 2386
430 338 2379
442 341 2403
451 343 2415
460 344 2420
469 345 2433
468 339 2389
472 337 2369
474 334 2347
478 331 2330
492 336 2365
500 337 2367
508 338 2372
523 343 2406
526 340 2387
539 344 2415
544 342 2402
554 344 2413
565 346 2428
571 346 2425
580 347 2430
586 346 2423
594 347 2428
599 345 2418
612 349 2439
618 348 2432
631 351 2451
631 347 2424
638 347 2420
643 346 2413
646 343 2394
652 342 2388
663 345 2402
666 343 2386
680 346 2407
680 342 2381
685 341 2373
702 346 2405
702 342 2378
718 346 2406
732 350 2429
736 348 2414
714 334 2317
704 327 2262
691 317 2197
698 318 2197
712 321 2217
711 317 2191
709 314 2164
715 313 2161
698 303 2088
661 284 1958
695 296 2037
726 307 2109
743 311 2139
760 315 2165
769 316 2173
775 316 2168
784 317 2173
786 315 2158
789 314 2147
796 314 2145
798 312 2131
804 312 2129
803 309 2105
807 308 2099
810 306 2086
809 304 2065
804 299 2035
804 297 2018
804 295 1999
803 292 1979
802 289 1960
801 287 1941
801 285 1924
803 283 1912
802 281 1893
803 279 1881
805 278 1869
812 278 1869
808 275 1845
810 274 1835
811 272 1821
810 269 1804
804 266 1777
814 267 1784
812 265 1766
811 262 1749
816 262 1745
818 261 1736
820 260 1726
823 259 1720
825 258 1710
828 257 1703
829 256 1691
836 256 1692
847 258 1700
846 256 1686
865 260 1711
878 262 1724
889 264 1731
912 269 1763
948 278 1819
972 283 1852
1001 290 1892
1013 291 1901
1036 296 1929
1087 309 2009
1127 318 2068
1141 320 2079
1161 324 2100
1164 323 2090
1172 323 2087
1187 325 2098
-503 146 869
-495 145 862
-506 149 887
-488 144 862
-501 149 891
-495 148 888
-503 151 909
-479 145 871
-478 145 876
-479 147 886
-501 154 933
-491 152 922
-495 154 935
-484 152 921
-468 148 898
-485 154 939
-478 152 931
-497 159 976
-483 156 956
-507 165 1012
-496 162 997
-487 160 987
-481 159 981
-510 170 1051
-500 168 1037
-506 170 1057
-489 166 1031
-499 170 1060
-503 173 1077
-499 173 1076
-490 171 1066
-505 177 1108
-497 175 1098
-492 175 1097
-504 180 1133
-492 177 1115
-499 181 1140
-512 187 1179
-493 181 1145
-495 183 1159
-521 194 1232
-499 188 1190
-516 195 1240
-539 205 1307
-516 198 1263
-517 200 1274
-557 217 1386
-749 293 1878
-768 303 1943
-766 304 1954
-761 304 1959
-759 306 1971
-762 309 1996
-748 306 1978
-743 306 1981
-739 308 1990
-724 304 1968
-714 302 1959
-711 303 1968
-709 305 1981
-710 308 2004
-701 306 1995
-687 303 1976
-673 299 1952
-675 303 1977
-673 305 1992
-669 305 1998
-658 303 1986
-653 304 1991
-639 300 1969
-644 305 2003
-630 301 1980
-629 303 1997
-624 304 2002
-621 305 2012
-617 306 2021
-607 304 2008
-594 301 1988
-585 299 1979
-584 301 1995
-579 302 2001
-579 305 2024
-563 300 1990
-556 299 1986
-562 305 2031
-553 304 2022
-549 305 2031
-538 302 2014
-534 303 2020
-524 301 2009
-520 302 2016
-513 301 2013
-511 304 2031
-504 303 2027
-497 303 2026
-492 303 2031
-487 304 2036
-481 304 2038
-476 304 2043
-469 303 2038
-459 300 2020
-451 299 2013
-444 298 2008
-442 301 2030
-441 304 2051
-433 303 2043
-425 302 2035
-416 300 2022
-412 301 2032
-400 296 2002
-395 297 2007
-393 300 2030
-390 302 2045
-383 301 2040
-372 297 2016
-365 296 2009
-369 304 2065
-369 309 2099
-369 314 2135
-353 307 2084
-324 286 1945
-309 278 1889
-298 273 1857
-298 278 1892
-287 272 1854
-283 274 1863
-278 274 1870
-288 290 1978
-283 291 1984
-284 297 2027
-275 294 2007
-269 293 2005
-263 294 2008
-259 296 2025
-253 296 2022
-243 291 1992
-243 297 2033
-236 296 2027
-231 297 2034
-227 299 2051
-216 293 2012
-212 296 2030
-206 295 2022
-200 294 2020
-196 297 2041
-189 296 2030
-183 296 2035
-175 293 2015
-171 295 2028
-165 295 2031
-166 308 2119
-171 329 2263
-170 340 2340
-161 334 2304
-141 306 2108
-130 295 2031
-115 275 1895
-93 236 1622
-86 229 1577
-85 237 1633
-79 235 1620
-76 239 1644
-71 239 1650
-70 253 1741
-72 276 1906
-70 294 2027
-67 303 2096
-61 306 2112
-53 294 2032
-50 310 2143
-46 326 2253
-41 335 2317
-35 342 2369
-28 341 2357
-21 337 2334
-14 336 2324
-7 340 2353
-1 346 2399
5 349 2420
13 353 2446
19 349 2421
27 351 2430
34 354 2451
41 354 2455
48 353 2448
55 352 2440
62 353 2445
69 349 2421
76 351 2435
83 353 2446
90 353 2446
97 349 2422
103 347 2404
110 347 2408
117 347 2407
124 346 2401
131 347 2405
138 346 2402
145 346 2400
151 344 2388
156 341 2368
165 345 2391
172 344 2387
179 344 2388
184 341 2365
192 344 2384
199 344 2383
206 343 2380
213 343 2380
220 344 2384
226 342 2375
231 339 2349
233 333 2305
237 328 2274
244 329 2280
250 328 2276
263 336 2329
273 341 2363
280 341 2361
283 336 2325
290 336 2326
298 337 2337
307 339 2349
313 339 2349
319 338 2342
328 340 2354
336 341 2361
344 342 2369
351 342 2367
357 342 2363
365 342 2365
373 343 2375
378 341 2361
386 343 2369
400 349 2411
406 348 2402
411 346 2388
419 346 2393
422 343 2369
428 342 2364
441 347 2395
450 348 2404
453 346 2385
462 347 2392
467 345 2381
470 342 2360
476 342 2356
480 339 2337
483 337 2318
491 338 2323
505 342 2355
521 348 2397
528 349 2397
530 345 2370
541 347 2387
544 345 2370
554 347 2381
557 344 2362
565 345 2368
574 346 2373
581 346 2370
590 347 2379
597 347 2378
608 349 2391
620 352 2408
620 348 2381
624 346 2365
624 342 2338
634 344 2348
646 346 2364
653 346 2362
662 347 2368
668 347 2363
673 345 2354
679 345 2351
690 347 2362
693 345 2347
699 344 2342
714 348 2367
711 344 2333
697 333 2260
688 326 2208
684 321 2174
697 324 2191
699 321 2175
705 321 2173
722 326 2203
724 324 2186
720 319 2153
723 317 2140
667 290 1954
641 277 1861
691 295 1987
722 306 2057
752 316 2123
769 320 2151
779 322 2159
779 319 2136
786 319 2137
792 319 2133
786 314 2098
798 316 2111
