VERSION 0.7
FIELDS x y z
SIZE 4 4 4
TYPE I I I
COUNT 1 1 1
WIDTH 3614
HEIGHT 1
VIEWPOINT 0.0 0.0 0.0 1.0 0.0 0.0 0.0
POINTS 3614
DATA ascii
151 353 1221
158 360 1245
160 357 1236
164 358 1239
168 357 1236
170 354 1223
174 356 1230
179 357 1235
182 357 1233
186 357 1232
189 356 1229
193 356 1228
198 359 1238
200 356 1229
202 353 1216
208 356 1228
212 357 1228
215 356 1225
220 358 1234
223 356 1226
227 357 1229
230 356 1226
234 357 1228
238 357 1228
244 360 1239
246 358 1228
248 355 1219
254 359 1231
258 359 1230
261 358 1227
264 357 1222
268 358 1226
271 356 1220
275 357 1221
280 359 1227
282 357 1220
287 357 1221
292 360 1229
295 359 1225
298 358 1221
305 361 1232
307 360 1228
309 358 1218
314 359 1223
316 357 1215
322 359 1221
327 361 1225
331 361 1226
333 359 1218
335 358 1214
339 358 1214
347 362 1228
351 363 1228
356 364 1232
359 362 1226
361 361 1219
364 360 1215
370 363 1223
372 361 1217
378 363 1222
384 365 1230
385 363 1220
389 363 1220
393 362 1218
398 364 1221
402 364 1223
408 366 1226
412 366 1226
416 367 1227
418 365 1220
421 364 1217
431 369 1233
437 371 1237
439 370 1232
442 368 1227
447 370 1231
451 370 1229
455 370 1228
458 369 1224
461 369 1222
464 368 1219
474 373 1233
476 371 1226
483 373 1233
486 373 1231
495 377 1241
498 376 1237
498 373 1227
503 374 1229
508 375 1231
507 371 1218
515 374 1225
522 376 1231
524 375 1226
525 373 1216
533 376 1225
535 374 1219
544 378 1229
548 378 1228
548 375 1218
559 380 1232
560 378 1223
568 381 1231
573 381 1231
575 380 1226
582 382 1230
589 384 1234
595 385 1238
605 389 1248
605 387 1239
610 387 1238
613 386 1234
620 388 1239
628 390 1244
627 388 1234
633 389 1235
643 392 1245
635 385 1219
638 384 1217
637 381 1205
642 382 1204
649 384 1209
650 381 1200
657 383 1204
666 386 1212
671 387 1212
677 388 1213
680 387 1209
681 385 1201
686 386 1201
699 391 1215
704 392 1215
705 390 1208
708 389 1203
-679 383 1135
-670 380 1129
-649 370 1102
-639 367 1094
-631 364 1088
-620 360 1077
-614 359 1074
-610 358 1075
-601 355 1068
-599 356 1073
-596 357 1075
-594 358 1080
-590 357 1080
-593 361 1095
-597 365 1110
-607 374 1138
-610 378 1153
-623 388 1185
-631 396 1210
-638 402 1233
-643 408 1253
-630 403 1239
-613 394 1214
-579 375 1155
-550 359 1106
-536 352 1088
-532 352 1088
-528 351 1089
-523 351 1088
-524 353 1097
-514 349 1087
-520 355 1108
-509 351 1095
-509 353 1102
-504 352 1101
-499 351 1099
-497 351 1103
-494 352 1107
-492 353 1112
-488 353 1112
-483 351 1109
-481 353 1114
-476 351 1112
-473 352 1117
-477 357 1134
-470 355 1128
-472 360 1144
-469 360 1146
-466 361 1150
-461 359 1147
-457 359 1147
-452 358 1145
-444 354 1135
-447 359 1153
-438 355 1139
-436 356 1144
-435 359 1154
-434 361 1163
-430 360 1161
-430 364 1174
-426 363 1172
-422 363 1174
-418 362 1173
-410 358 1162
-406 358 1163
-405 360 1171
-402 361 1175
-405 367 1196
-398 364 1185
-397 366 1194
-398 371 1210
-390 367 1199
-382 362 1186
-377 362 1184
-374 362 1186
-369 360 1182
-370 365 1198
-368 367 1204
-360 362 1191
-356 362 1191
-354 363 1197
-350 364 1199
-345 362 1195
-346 366 1210
-339 363 1200
-336 364 1203
-330 362 1197
-329 364 1206
-323 361 1198
-320 363 1204
-315 361 1198
-314 364 1211
-309 363 1207
-305 362 1206
-300 361 1201
-296 360 1200
-293 361 1204
-290 362 1206
-287 362 1207
-282 361 1206
-280 363 1214
-275 361 1209
-268 357 1194
-264 356 1194
-261 357 1195
-257 356 1194
-253 356 1195
-250 357 1197
-246 356 1196
-244 358 1205
-241 358 1206
-235 356 1197
-231 355 1196
-231 360 1211
-224 355 1195
-222 357 1205
-217 356 1201
-214 356 1202
-210 355 1199
-207 357 1205
-200 351 1188
-199 356 1203
-195 354 1198
-192 356 1205
-190 358 1212
-185 355 1204
-182 356 1207
-178 356 1206
-174 355 1203
-169 353 1199
-166 355 1205
-163 355 1205
-158 353 1199
-156 354 1205
-152 356 1209
-150 357 1216
-146 358 1217
-142 357 1215
-139 357 1216
-133 352 1200
-132 358 1219
-128 356 1215
-124 356 1212
-121 358 1222
-114 348 1187
-108 340 1162
-100 327 1116
-92 311 1062
-86 302 1031
-81 294 1003
-77 290 989
-72 285 971
-69 284 968
-65 278 949
-62 277 945
-59 277 946
-56 277 945
-53 276 944
-50 275 939
-47 275 939
-45 275 942
-42 275 940
-39 276 942
-37 279 955
-34 279 954
-32 283 967
-29 283 969
-26 287 984
-24 291 996
-21 299 1023
-19 313 1071
-17 327 1120
-14 336 1153
-11 348 1194
-8 353 1210
-4 353 1212
-1 351 1206
2 354 1216
5 354 1214
9 354 1216
13 354 1214
16 354 1214
20 353 1214
23 355 1217
27 356 1222
30 352 1210
34 354 1217
38 355 1219
42 355 1220
45 351 1206
49 356 1224
52 356 1222
56 354 1217
60 357 1225
63 354 1215
67 357 1225
71 356 1223
75 357 1225
78 358 1229
82 356 1223
85 357 1225
89 358 1228
92 355 1220
97 358 1228
99 355 1217
103 355 1218
107 357 1223
111 356 1222
114 356 1220
118 355 1217
122 359 1229
125 356 1221
130 359 1231
131 352 1204
136 357 1222
140 357 1222
144 356 1221
149 360 1233
152 358 1226
155 357 1222
158 357 1220
163 358 1224
166 358 1224
170 357 1221
173 356 1217
177 357 1220
181 357 1220
183 356 1214
187 355 1212
191 356 1216
195 358 1220
197 353 1204
201 355 1211
205 356 1213
210 357 1218
213 356 1212
219 360 1227
221 358 1218
224 356 1213
227 356 1211
230 355 1206
236 358 1217
240 359 1219
245 360 1223
245 355 1206
251 358 1214
255 358 1215
260 360 1222
262 358 1214
268 361 1222
268 357 1207
274 359 1215
277 359 1214
282 360 1216
285 359 1212
289 359 1213
295 362 1222
297 360 1216
299 358 1206
303 358 1207
307 359 1208
308 355 1197
316 361 1215
321 362 1216
322 359 1207
329 362 1217
336 366 1229
334 360 1209
337 360 1206
340 359 1202
346 361 1208
351 362 1211
354 362 1210
360 363 1215
365 365 1219
366 362 1208
372 365 1217
375 364 1211
379 364 1211
381 362 1204
383 361 1200
390 364 1208
394 364 1208
399 365 1209
403 365 1211
406 364 1207
411 365 1209
417 368 1216
418 365 1206
425 368 1215
433 372 1226
437 372 1225
443 373 1229
442 370 1216
450 373 1224
449 369 1212
456 372 1219
461 372 1220
467 374 1225
465 369 1208
474 374 1221
475 371 1212
481 373 1217
486 374 1217
491 374 1218
494 374 1216
503 378 1227
497 370 1201
509 376 1220
514 377 1221
512 373 1207
519 375 1211
522 375 1210
527 375 1210
531 376 1210
538 378 1214
539 375 1206
546 378 1212
550 377 1210
555 379 1212
559 379 1211
565 380 1214
568 379 1210
576 382 1217
584 385 1223
592 387 1231
598 388 1232
602 388 1231
607 389 1232
608 387 1224
612 387 1221
618 389 1225
620 387 1218
620 385 1209
625 385 1209
640 392 1228
633 385 1205
644 389 1216
644 387 1208
645 385 1200
648 384 1196
656 387 1201
662 388 1204
661 385 1193
659 381 1179
674 388 1198
680 389 1198
683 388 1195
687 388 1193
695 391 1199
700 391 1197
703 390 1194
-644 367 1076
-635 364 1069
-635 366 1076
-625 363 1068
-620 362 1067
-611 358 1059
-603 356 1054
-602 357 1060
-600 358 1065
-598 359 1069
-591 357 1064
-581 353 1055
-585 358 1071
-591 364 1091
-594 367 1104
-595 371 1115
-601 376 1135
-606 382 1153
-608 385 1166
-622 396 1201
-622 399 1211
-617 398 1211
-593 386 1174
-558 365 1114
-537 354 1081
-532 353 1079
-525 351 1074
-526 353 1083
-521 353 1082
-520 355 1090
-516 354 1090
-511 353 1088
-506 352 1087
-504 353 1092
-501 353 1093
-501 355 1102
-495 354 1100
-493 355 1104
-490 355 1106
-484 353 1101
-482 354 1107
-479 355 1110
-472 352 1102
-472 355 1113
-471 356 1119
-475 362 1139
-464 357 1122
-459 356 1121
-460 359 1132
-455 358 1130
-451 358 1131
-448 358 1133
-442 356 1129
-441 359 1138
-440 360 1144
-433 357 1135
-430 358 1139
-428 359 1145
-426 361 1150
-421 359 1147
-419 361 1154
-417 362 1160
-413 361 1158
-407 360 1154
-409 365 1171
-402 362 1163
-400 363 1168
-399 365 1176
-395 365 1176
-394 367 1185
-393 369 1193
-386 366 1184
-376 361 1168
-373 361 1168
-368 360 1168
-365 360 1168
-365 364 1183
-364 367 1192
-362 368 1196
-351 361 1174
-352 365 1190
-348 365 1191
-343 363 1185
-339 363 1186
-334 361 1181
-333 365 1194
-328 363 1188
-323 362 1185
-318 360 1180
-319 365 1198
-315 364 1196
-312 365 1200
-310 367 1208
-302 362 1191
-301 365 1202
-295 363 1196
-294 365 1205
-287 362 1194
-283 361 1192
-278 359 1188
-277 363 1199
-271 359 1188
-265 356 1179
-260 354 1174
-258 357 1183
-256 359 1190
-252 358 1187
-248 358 1188
-245 359 1192
-240 356 1185
-236 355 1181
-233 356 1185
-230 357 1190
-226 356 1186
-222 356 1188
-219 356 1189
-215 356 1188
-212 357 1191
-209 357 1194
-202 352 1176
-199 353 1180
-197 356 1190
-192 353 1182
-190 356 1193
-188 358 1199
-185 359 1203
-180 357 1198
-177 358 1201
-174 359 1205
-169 356 1197
-166 358 1203
-162 357 1201
-159 358 1205
-155 357 1200
-152 359 1208
-148 358 1205
-145 358 1204
-142 360 1211
-136 354 1194
-133 356 1201
-130 356 1199
-127 359 1211
-124 360 1214
-120 358 1208
-112 346 1168
-107 340 1147
-99 325 1097
-91 310 1046
-85 300 1011
-81 297 1002
-75 288 971
-72 287 969
-68 282 951
-65 280 946
-62 279 942
-58 277 935
-55 275 930
-53 277 935
-49 273 923
-47 275 930
-44 277 935
-41 275 930
-39 276 935
-36 279 945
-34 279 944
-31 283 958
-29 285 963
-26 286 968
-23 291 985
-21 297 1007
-19 311 1055
-17 328 1113
-14 335 1137
-11 344 1166
-8 355 1205
-4 353 1199
-1 356 1210
2 353 1198
5 355 1204
9 356 1207
13 356 1208
16 353 1198
20 353 1200
23 355 1205
27 356 1208
30 353 1200
34 352 1195
37 354 1202
41 354 1201
45 356 1209
48 356 1210
52 356 1211
55 355 1206
59 353 1198
62 352 1195
67 359 1218
70 357 1212
73 355 1206
78 359 1219
81 358 1215
84 355 1205
88 357 1211
92 358 1215
96 358 1214
99 358 1215
103 357 1210
107 358 1213
110 357 1212
114 357 1212
117 356 1206
122 359 1218
124 356 1208
128 357 1211
132 357 1212
136 358 1212
139 356 1207
142 356 1207
147 359 1215
150 358 1212
153 356 1207
156 356 1203
159 353 1196
165 358 1210
168 358 1210
173 360 1217
175 357 1207
179 357 1207
183 358 1210
187 359 1211
190 357 1207
193 356 1200
195 354 1194
200 355 1198
205 359 1210
209 359 1209
212 359 1209
215 357 1201
218 356 1198
222 357 1201
226 357 1202
231 359 1207
234 358 1202
236 356 1195
242 359 1205
245 358 1202
247 356 1196
254 360 1209
257 360 1206
261 360 1207
264 359 1204
267 358 1200
272 360 1206
275 359 1202
278 359 1200
282 359 1200
287 360 1204
289 358 1197
295 361 1205
297 360 1200
299 357 1191
304 359 1196
308 359 1196
311 359 1195
314 358 1190
319 360 1195
324 361 1200
328 362 1201
330 359 1193
335 361 1198
339 361 1196
346 365 1207
349 364 1205
354 365 1207
356 363 1200
359 362 1197
361 361 1191
367 364 1199
372 365 1202
374 363 1195
380 365 1201
384 365 1200
386 363 1194
390 364 1195
395 365 1198
399 365 1196
403 366 1198
409 368 1204
411 366 1197
416 367 1199
426 373 1217
426 369 1204
434 373 1214
434 370 1204
442 373 1213
445 373 1211
450 373 1211
451 371 1205
451 368 1194
455 368 1191
461 370 1197
465 370 1197
478 377 1218
477 373 1204
484 376 1212
486 375 1206
489 374 1202
493 374 1201
499 376 1206
504 377 1208
502 372 1192
513 377 1206
515 376 1203
521 378 1205
524 377 1202
524 375 1192
532 377 1200
536 377 1199
546 381 1210
548 380 1205
555 382 1209
552 377 1193
561 381 1204
568 383 1209
570 382 1202
582 387 1217
582 384 1207
583 383 1201
598 390 1221
605 392 1226
607 390 1220
605 387 1207
612 389 1211
619 390 1215
626 392 1220
629 392 1215
629 389 1205
634 390 1206
633 386 1194
637 386 1192
643 388 1195
648 388 1194
652 388 1193
648 384 1176
655 386 1181
655 383 1172
668 388 1185
667 385 1174
672 386 1175
677 386 1174
690 392 1188
690 390 1180
695 390 1180
-625 360 1043
-620 359 1042
-621 362 1052
-612 358 1044
-604 356 1039
-609 361 1055
-602 359 1052
-597 358 1051
-585 353 1038
-588 356 1050
-588 359 1059
-586 360 1063
-576 356 1053
-577 359 1064
-584 365 1085
-581 365 1087
-586 371 1105
-589 375 1119
-592 379 1135
-602 388 1162
-602 390 1172
-602 393 1181
-570 375 1128
-547 362 1091
-533 355 1070
-528 354 1070
-526 355 1075
-516 350 1061
-517 353 1073
-514 354 1075
-513 356 1083
-511 356 1086
-506 355 1084
-500 353 1081
-495 352 1079
-497 356 1093
-494 357 1096
-489 356 1094
-489 358 1102
-481 355 1094
-482 358 1105
-474 355 1098
-470 354 1097
-467 355 1099
-465 356 1105
-461 356 1106
-460 357 1111
-459 360 1120
-455 359 1120
-454 361 1127
-449 360 1124
-442 357 1118
-438 357 1119
-436 357 1121
-437 361 1135
-428 357 1122
-427 359 1132
-423 359 1132
-423 362 1141
-417 360 1137
-415 361 1141
-411 361 1142
-409 362 1147
-401 358 1137
-400 360 1144
-398 361 1148
-394 361 1148
-392 362 1154
-388 362 1154
-386 364 1161
-384 365 1167
-384 368 1178
-374 362 1158
-373 365 1168
-365 360 1155
-365 364 1167
-362 365 1172
-363 369 1186
-358 367 1182
-352 365 1177
-350 367 1184
-346 366 1181
-343 367 1184
-338 365 1181
-332 363 1174
-328 363 1173
-325 363 1176
-322 364 1180
-316 361 1170
-315 364 1181
-311 363 1181
-307 363 1181
-303 363 1180
-299 362 1180
-297 364 1188
-292 363 1183
-290 365 1190
-286 364 1189
-281 363 1185
-278 363 1187
-273 361 1179
-270 361 1183
-264 358 1172
-261 359 1177
-255 355 1165
-252 356 1169
-250 358 1177
-245 357 1172
-242 357 1173
-238 356 1171
-235 358 1177
-232 358 1178
-227 357 1175
-225 359 1184
-220 355 1172
-218 359 1185
-214 358 1182
-210 358 1181
-207 358 1182
-204 359 1187
-200 358 1185
-196 357 1182
-194 360 1192
-189 357 1184
-187 361 1196
-183 360 1193
-179 359 1192
-176 359 1193
-172 358 1188
-169 359 1193
-165 359 1194
-161 358 1190
-158 359 1193
-155 361 1201
-151 360 1198
-147 358 1194
-144 359 1195
-140 359 1197
-137 361 1203
-133 358 1195
-129 358 1194
-125 357 1192
-123 360 1203
-118 357 1193
-110 343 1147
-105 337 1127
-96 320 1068
-89 308 1028
-83 299 998
-79 293 979
-75 289 966
-71 286 956
-67 281 940
-64 280 936
-61 279 932
-58 280 935
-55 278 929
-53 282 942
-50 281 939
-46 276 922
-45 282 944
-41 276 923
-38 277 925
-36 279 933
-33 279 933
-31 283 949
-28 284 950
-26 288 966
-23 288 965
-21 297 996
-19 312 1047
-17 326 1094
-14 335 1126
-11 346 1161
-8 358 1201
-4 353 1185
-1 355 1191
2 356 1196
5 353 1184
9 356 1195
12 355 1194
16 354 1190
20 357 1199
23 353 1185
27 355 1192
30 355 1193
34 354 1191
37 354 1190
41 353 1187
45 357 1200
48 358 1201
51 354 1191
55 356 1195
59 358 1202
62 357 1198
66 356 1194
69 356 1196
73 357 1198
77 358 1201
80 354 1188
84 358 1201
87 355 1193
91 357 1200
94 355 1192
99 360 1208
101 355 1191
105 357 1197
109 356 1194
113 357 1199
116 356 1193
119 356 1194
123 357 1196
127 357 1198
131 358 1199
134 356 1194
138 358 1200
141 356 1192
144 355 1187
147 355 1188
153 359 1201
156 359 1200
160 360 1204
163 357 1195
166 356 1190
171 360 1204
174 358 1198
176 356 1189
180 355 1188
185 358 1197
189 359 1199
192 359 1199
196 359 1198
197 354 1181
202 357 1191
207 359 1199
210 358 1192
213 357 1190
219 362 1205
222 360 1197
225 359 1193
229 360 1198
232 359 1194
235 358 1190
239 358 1191
242 358 1189
248 361 1199
251 360 1196
254 359 1192
257 359 1189
263 361 1198
265 359 1190
269 360 1192
273 360 1193
277 361 1193
280 360 1191
286 363 1199
287 360 1189
291 360 1189
295 361 1190
299 361 1191
300 358 1181
307 362 1192
311 362 1192
314 362 1191
319 363 1194
325 365 1200
328 365 1198
329 362 1188
333 362 1187
338 364 1192
342 364 1193
343 362 1184
348 362 1185
352 363 1187
355 363 1184
360 364 1187
362 362 1181
367 363 1184
370 362 1179
377 366 1191
376 362 1176
383 364 1184
388 366 1187
389 363 1178
397 367 1189
399 366 1184
407 369 1196
407 366 1183
414 369 1192
420 371 1198
425 372 1201
427 371 1196
430 370 1190
439 375 1205
438 370 1190
444 372 1196
446 371 1190
446 368 1178
454 371 1189
460 373 1193
461 371 1186
468 373 1191
467 370 1179
479 376 1197
479 373 1187
485 375 1191
485 372 1180
490 373 1183
495 374 1184
498 373 1181
508 378 1195
510 376 1189
512 375 1184
517 376 1186
522 376 1185
527 377 1186
531 378 1187
536 378 1187
539 378 1183
544 379 1186
548 379 1184
554 380 1186
562 383 1193
568 384 1197
579 389 1211
581 387 1204
584 387 1201
585 385 1194
595 389 1204
603 392 1211
602 389 1200
608 390 1202
615 392 1206
611 386 1188
616 387 1188
617 385 1181
623 387 1184
631 390 1190
628 385 1175
635 387 1178
636 385 1171
645 388 1178
643 385 1166
648 385 1166
651 385 1163
653 384 1158
657 384 1156
664 385 1159
677 391 1173
674 386 1159
682 389 1164
684 387 1158
-614 357 1023
-614 359 1032
-604 355 1022
-604 358 1031
-602 358 1034
-599 358 1037
-597 359 1041
-590 357 1037
-587 358 1040
-586 359 1047
-579 357 1042
-580 360 1052
-575 359 1051
-577 362 1062
-579 366 1074
-580 368 1084
-581 371 1094
-587 377 1114
-590 382 1130
-595 387 1147
-590 387 1148
-585 385 1146
-560 372 1107
-534 357 1064
-529 356 1062
-522 353 1056
-524 357 1068
-519 356 1067
-516 357 1071
-514 357 1074
-510 357 1075
-503 354 1069
-502 356 1075
-496 354 1072
-495 356 1078
-493 357 1082
-486 355 1078
-487 357 1087
-479 355 1080
-477 355 1084
-477 358 1093
-475 359 1098
-469 357 1093
-463 355 1090
-464 359 1101
-459 358 1099
-460 361 1112
-453 358 1103
-454 362 1117
-447 359 1109
-445 360 1114
-443 361 1118
-438 360 1117
-432 358 1113
-428 358 1112
-428 360 1121
-422 359 1118
-420 360 1122
-418 361 1128
-413 360 1124
-410 360 1128
-408 361 1132
-401 358 1123
-400 361 1133
-394 358 1124
-393 361 1134
-389 361 1135
-386 361 1136
-385 363 1145
-383 365 1151
-378 363 1148
-377 365 1156
-374 366 1160
-367 363 1149
-363 362 1147
-362 364 1157
-360 366 1162
-356 366 1163
-351 364 1159
-349 366 1165
-344 365 1163
-349 373 1190
-342 370 1182
-332 362 1159
-327 361 1155
-325 363 1163
-323 365 1170
-314 359 1151
-313 362 1162
-310 362 1163
-308 363 1168
-304 363 1169
-301 364 1173
-296 362 1167
-295 365 1178
-289 363 1170
-286 363 1171
-283 363 1173
-280 364 1176
-275 362 1172
-273 364 1179
-267 361 1168
-261 357 1158
-257 358 1160
-255 359 1164
-253 362 1174
-247 358 1164
-244 359 1167
-241 360 1170
-236 357 1163
-233 358 1167
-229 358 1166
-226 358 1166
-224 360 1174
-220 359 1172
-215 357 1167
-212 358 1168
-210 360 1176
-204 356 1163
-202 359 1175
-198 358 1172
-195 360 1178
-192 359 1177
-187 357 1170
-184 359 1176
-180 357 1172
-177 358 1173
-174 359 1178
-170 358 1177
-165 356 1170
-163 359 1179
-160 359 1182
-155 357 1175
-154 362 1193
-149 358 1177
-146 360 1185
-144 364 1200
-141 364 1199
-136 362 1194
-133 364 1201
-128 359 1186
-125 360 1187
-122 362 1196
-117 359 1184
-109 343 1134
-103 337 1112
-95 321 1059
-88 309 1021
-83 301 994
-79 296 979
-74 291 960
-70 285 941
-66 282 931
-64 281 930
-61 280 925
-58 281 928
-57 290 960
-52 277 915
-48 274 907
-47 283 938
-42 267 883
-40 272 899
-38 277 918
-36 279 922
-33 281 930
-30 281 932
-28 285 945
-25 287 951
-23 293 970
-21 299 991
-19 311 1031
-17 327 1086
-14 337 1118
-11 347 1152
-8 355 1179
-4 356 1185
-1 353 1173
2 357 1187
5 355 1180
9 355 1179
12 357 1186
16 352 1168
19 356 1185
23 357 1188
27 357 1187
30 355 1181
34 357 1186
37 354 1178
40 355 1181
44 357 1187
48 356 1184
51 356 1184
55 358 1189
58 356 1182
62 359 1193
65 356 1183
69 357 1186
73 357 1188
76 357 1187
79 356 1182
84 360 1195
87 357 1184
90 357 1186
95 360 1197
98 358 1189
101 356 1184
105 359 1193
108 359 1190
111 357 1186
115 358 1190
120 361 1197
122 357 1184
126 359 1190
130 360 1193
133 358 1187
137 358 1187
139 354 1174
143 356 1179
147 357 1184
151 358 1184
155 358 1187
159 359 1190
163 361 1194
166 360 1191
168 356 1178
172 357 1179
176 359 1186
181 361 1192
184 361 1193
187 360 1188
190 359 1185
194 359 1184
196 355 1172
201 358 1181
204 357 1179
209 360 1186
210 355 1170
216 359 1184
221 362 1192
222 358 1177
226 359 1181
231 361 1187
233 358 1176
236 358 1176
240 358 1176
245 360 1182
250 363 1190
252 359 1179
257 361 1185
260 361 1182
264 361 1183
268 362 1185
272 363 1189
273 360 1177
277 360 1178
282 361 1181
285 361 1179
287 359 1173
291 360 1174
294 358 1169
299 360 1173
305 363 1181
307 361 1174
311 361 1175
317 365 1186
318 362 1175
324 363 1181
327 363 1178
331 363 1179
332 361 1170
336 362 1172
340 361 1170
347 365 1181
348 363 1172
354 365 1180
358 365 1178
359 362 1168
362 362 1167
369 365 1175
371 364 1171
377 365 1176
380 365 1172
383 365 1171
385 363 1165
391 366 1173
395 366 1172
400 367 1175
401 364 1165
409 368 1176
410 366 1169
421 372 1189
423 370 1181
428 372 1184
434 374 1189
434 371 1179
437 370 1175
445 374 1185
447 372 1179
447 369 1168
457 374 1183
458 372 1175
463 373 1177
469 374 1181
475 376 1186
477 375 1181
479 374 1176
485 376 1180
488 375 1177
493 376 1178
494 374 1170
501 376 1175
502 374 1168
508 376 1172
515 378 1178
521 380 1182
522 378 1175
527 379 1176
533 380 1179
537 380 1177
538 378 1171
546 381 1178
547 379 1170
553 381 1174
563 385 1185
569 386 1189
574 387 1188
576 386 1184
586 390 1195
589 389 1190
603 396 1209
602 392 1198
599 388 1182
606 390 1187
607 388 1180
611 388 1177
617 390 1181
628 394 1192
629 392 1185
628 389 1173
628 386 1164
634 388 1166
643 391 1175
643 389 1166
646 388 1162
647 386 1154
652 387 1154
656 387 1154
657 385 1145
674 392 1166
675 391 1160
675 389 1151
683 391 1156
-613 360 1020
-610 360 1023
-608 361 1028
-604 361 1030
-592 356 1016
-597 361 1032
-591 359 1030
-586 358 1029
-590 363 1043
-577 357 1029
-573 357 1029
-572 358 1036
-572 361 1045
-570 361 1048
-575 367 1066
-572 367 1068
-567 366 1068
-579 376 1099
-575 376 1099
-578 380 1114
-583 385 1132
-574 382 1124
-554 371 1094
-528 356 1051
-521 354 1044
-515 352 1042
-516 355 1051
-510 353 1048
-510 356 1057
-510 358 1066
-506 357 1065
-503 358 1069
-501 359 1074
-495 357 1070
-490 356 1067
-489 358 1074
-482 355 1067
-484 359 1080
-477 357 1074
-472 355 1071
-470 356 1076
-467 357 1080
-465 358 1084
-459 356 1079
-455 355 1078
-453 357 1085
-449 356 1084
-451 360 1098
-449 362 1104
-447 362 1107
-438 358 1096
-437 360 1104
-431 358 1097
-430 360 1106
-427 360 1108
-422 359 1104
-418 359 1105
-417 361 1113
-410 358 1104
-410 361 1116
-410 363 1125
-401 358 1110
-399 360 1116
-394 359 1115
-394 362 1126
-389 361 1122
-389 364 1133
-383 361 1125
-381 363 1131
-377 362 1132
-376 364 1139
-374 366 1146
-370 366 1145
-363 363 1137
-359 361 1134
-356 363 1139
-356 365 1149
-350 363 1142
-346 363 1144
-347 368 1159
-343 367 1157
-344 372 1173
-338 369 1166
-330 364 1152
-323 360 1140
-323 364 1155
-318 363 1151
-316 365 1157
-311 363 1154
-307 362 1151
-303 361 1149
-302 364 1158
-298 364 1160
-293 362 1152
-290 363 1159
-287 363 1158
-285 365 1165
-280 364 1162
-274 360 1152
-273 364 1164
-267 360 1153
-263 360 1152
-261 361 1157
-257 360 1156
-251 358 1148
-249 359 1154
-244 357 1148
-242 359 1156
-238 358 1152
-235 359 1156
-233 361 1164
-228 359 1158
-223 357 1152
-221 359 1159
-219 362 1169
-213 357 1154
-210 358 1159
-206 357 1155
-203 358 1159
-201 360 1166
-198 362 1171
-193 359 1165
-189 359 1163
-186 359 1164
-182 357 1159
-180 361 1171
-175 359 1165
-171 358 1162
-168 358 1164
-166 361 1173
-162 360 1172
-159 360 1171
-155 361 1175
-152 361 1176
-150 364 1185
-145 361 1175
-142 361 1179
-138 360 1175
-135 362 1181
-131 361 1179
-128 363 1185
-125 365 1192
-121 362 1184
-116 357 1167
-109 346 1132
-101 334 1090
-92 314 1027
-86 305 997
-82 301 982
-77 294 961
-74 292 954
-70 287 938
-66 284 928
-62 276 903
-60 282 924
-58 286 936
-55 281 919
-50 273 892
-49 279 914
-47 282 922
-43 277 906
-41 279 914
-38 281 921
-36 282 924
-33 281 921
-30 283 927
-28 284 932
-25 287 942
-23 291 953
-20 299 980
-18 311 1020
-16 323 1062
-14 339 1113
-11 344 1132
-8 355 1166
-4 354 1164
-1 354 1165
2 356 1172
5 355 1169
9 356 1169
12 355 1169
16 356 1171
19 356 1170
23 353 1160
26 354 1164
30 357 1176
33 358 1178
37 356 1171
41 359 1182
44 359 1180
47 358 1178
51 357 1173
54 357 1175
58 358 1178
61 355 1166
65 357 1172
68 357 1172
72 356 1170
76 359 1179
79 357 1173
83 359 1179
86 358 1178
89 358 1175
93 357 1173
96 356 1170
100 359 1178
104 360 1183
107 357 1174
111 358 1177
114 358 1175
117 357 1172
122 359 1178
124 357 1172
128 356 1169
132 358 1175
135 357 1172
139 357 1172
142 358 1175
146 358 1174
149 358 1172
153 359 1175
157 359 1176
161 360 1179
164 359 1176
166 356 1166
171 359 1174
173 356 1163
178 359 1174
181 358 1171
186 361 1181
189 359 1174
192 359 1173
194 356 1163
200 360 1176
203 359 1171
205 356 1162
210 358 1168
213 358 1168
217 359 1171
224 364 1185
224 359 1168
228 360 1170
232 360 1170
235 359 1167
239 360 1169
242 360 1169
244 357 1159
250 361 1171
254 361 1172
256 359 1164
258 357 1158
265 362 1172
267 359 1164
271 360 1166
273 358 1159
280 362 1172
285 364 1175
287 363 1172
289 360 1162
293 361 1165
296 360 1159
300 361 1163
305 362 1167
307 361 1160
310 360 1157
315 361 1161
320 364 1168
322 361 1158
327 363 1164
332 364 1168
337 366 1172
336 361 1156
338 359 1150
344 362 1158
347 361 1153
353 364 1163
359 366 1167
361 364 1162
366 366 1167
367 363 1156
372 365 1161
375 364 1156
380 365 1160
383 365 1158
388 366 1160
395 369 1170
396 367 1163
398 365 1156
403 367 1159
413 372 1174
419 375 1182
422 374 1179
422 370 1167
426 371 1167
431 372 1170
436 373 1171
439 372 1169
444 373 1171
445 371 1164
450 372 1165
457 375 1172
457 372 1162
464 374 1168
470 376 1173
470 373 1162
473 372 1159
482 377 1172
481 373 1159
487 375 1162
492 376 1165
497 377 1167
502 378 1168
502 375 1157
509 377 1164
512 377 1160
518 379 1165
522 379 1164
527 379 1164
527 377 1155
534 379 1160
539 380 1162
543 380 1161
551 383 1169
556 384 1169
561 385 1170
565 385 1169
569 385 1168
577 387 1174
580 387 1171
587 389 1175
590 388 1172
596 390 1174
599 389 1172
607 392 1179
610 392 1176
608 388 1162
622 394 1180
620 390 1167
626 391 1168
625 388 1157
626 387 1150
633 389 1155
635 388 1150
636 386 1142
643 387 1145
645 386 1140
648 386 1137
657 389 1144
652 384 1128
665 389 1142
661 385 1126
670 387 1132
-605 359 1007
-602 359 1009
-599 360 1012
-597 360 1016
-592 359 1014
-585 357 1011
-586 360 1021
-577 356 1012
-583 362 1030
-575 359 1024
-569 357 1021
-563 356 1018
-566 360 1031
-568 363 1043
-571 367 1057
-562 364 1049
-564 368 1061
-562 369 1065
-569 375 1087
-578 384 1114
-575 384 1116
-560 376 1095
-544 368 1073
-526 359 1046
-520 356 1042
-514 355 1038
-513 356 1045
-512 358 1051
-509 358 1053
-506 359 1056
-504 360 1060
-499 359 1059
-495 358 1058
-490 357 1057
-485 356 1055
-479 354 1051
-478 356 1057
-476 356 1061
-478 360 1074
-474 360 1075
-469 359 1073
-464 358 1070
-460 358 1072
-458 358 1076
-454 358 1075
-452 359 1081
-450 360 1086
-447 361 1088
-449 364 1101
-439 359 1087
-437 360 1091
-435 362 1097
-430 361 1094
-426 360 1094
-425 362 1102
-420 361 1098
-418 362 1103
-410 359 1094
-412 363 1108
-407 361 1105
-400 359 1099
-396 358 1096
-396 361 1107
-392 361 1108
-389 361 1109
-388 363 1116
-384 362 1116
-378 360 1111
-377 362 1118
-372 361 1116
-370 363 1122
-367 363 1125
-365 365 1131
-361 364 1130
-358 364 1131
-353 363 1127
-351 364 1132
-347 364 1133
-346 366 1142
-342 366 1141
-342 369 1152
-339 370 1156
-340 375 1171
-328 366 1145
-321 362 1132
-316 361 1130
-315 363 1138
-311 362 1137
-307 361 1135
-304 363 1140
-299 361 1135
-298 364 1145
-293 361 1138
-292 364 1148
-288 364 1147
-284 363 1146
-281 364 1149
-276 362 1145
-275 365 1154
-271 364 1154
-265 361 1144
-262 361 1145
-257 359 1140
-254 360 1142
-251 360 1144
-246 358 1139
-242 357 1137
-241 361 1149
-235 358 1140
-231 357 1137
-228 357 1139
-225 359 1144
-222 360 1147
-219 360 1149
-215 358 1145
-213 360 1152
-208 359 1149
-205 359 1149
-200 357 1142
-199 361 1156
-194 357 1145
-191 358 1148
-188 359 1153
-184 360 1154
-182 362 1162
-180 365 1171
-175 362 1162
-170 359 1155
-167 360 1157
-165 363 1167
-160 359 1155
-158 362 1164
-154 361 1164
-151 362 1167
-148 363 1170
-146 366 1182
-141 363 1170
-137 361 1165
-134 363 1171
-130 363 1171
-127 364 1175
-123 362 1171
-120 364 1175
-116 361 1166
-108 347 1123
-100 332 1075
-91 314 1015
-85 304 982
-81 301 974
-77 296 957
-73 292 943
-69 286 925
-66 285 924
-63 285 923
-62 294 953
-58 289 935
-53 278 899
-51 281 911
-48 279 903
-46 280 906
-43 281 909
-38 268 869
-36 271 880
-35 281 910
-33 282 916
-30 283 919
-28 287 930
-25 291 944
-23 294 955
-20 300 975
-18 310 1008
-16 326 1060
-13 338 1098
-11 346 1126
-7 356 1160
-4 359 1168
-1 355 1155
2 355 1156
5 354 1151
9 357 1160
12 356 1159
16 355 1157
19 356 1159
23 358 1164
26 361 1175
30 358 1166
33 358 1165
37 359 1168
40 359 1169
43 355 1156
47 359 1168
50 358 1164
54 356 1160
57 358 1164
61 357 1162
65 359 1169
68 360 1171
71 358 1166
74 356 1157
79 360 1171
82 357 1161
86 360 1169
89 359 1167
92 357 1162
95 357 1160
99 358 1164
103 359 1166
106 357 1161
110 359 1166
113 359 1165
117 359 1166
121 360 1168
124 360 1169
128 360 1167
131 360 1169
134 358 1163
137 356 1156
142 359 1166
145 360 1167
147 357 1156
152 359 1164
156 359 1165
160 362 1173
162 359 1164
166 359 1164
169 358 1159
173 359 1161
177 359 1163
181 362 1171
184 359 1162
189 363 1174
192 362 1169
195 361 1165
198 359 1160
202 360 1164
205 360 1161
207 358 1155
213 361 1164
215 360 1159
220 362 1165
222 360 1158
227 361 1163
230 360 1160
234 361 1160
236 359 1155
239 359 1152
243 359 1153
248 361 1158
255 366 1174
256 362 1163
261 364 1168
261 360 1154
266 361 1158
270 362 1160
274 362 1159
278 363 1162
280 361 1155
284 362 1157
286 360 1149
291 362 1156
295 363 1157
295 358 1140
301 361 1150
306 363 1156
311 364 1160
313 362 1152
314 360 1144
320 362 1150
326 365 1160
329 364 1156
331 363 1150
336 364 1155
339 364 1152
343 364 1152
346 364 1151
349 363 1145
356 367 1158
359 366 1156
363 367 1156
369 369 1161
372 368 1158
374 366 1152
374 363 1142
383 368 1156
388 370 1160
389 367 1150
397 371 1162
399 369 1156
404 371 1160
405 368 1151
413 373 1164
412 368 1149
419 372 1158
424 372 1159
427 372 1156
431 372 1156
433 371 1152
437 371 1151
441 372 1151
445 371 1150
451 373 1154
457 375 1160
463 377 1164
462 373 1152
467 374 1153
467 372 1143
474 374 1150
475 372 1142
488 379 1163
486 375 1148
490 375 1147
496 377 1152
503 380 1160
504 377 1150
509 378 1153
516 381 1158
519 380 1157
521 379 1149
527 380 1154
534 383 1159
536 381 1153
537 380 1147
544 382 1153
549 383 1153
556 385 1158
559 384 1156
568 388 1165
564 382 1146
576 388 1161
577 386 1155
584 388 1159
585 386 1152
593 389 1158
598 390 1160
601 389 1155
605 389 1154
611 391 1158
607 386 1141
616 389 1149
619 389 1146
626 390 1148
630 391 1147
631 389 1140
635 389 1138
639 389 1137
646 391 1141
643 387 1127
646 386 1124
654 389 1130
659 389 1129
657 386 1118
664 388 1120
-606 363 1007
-600 361 1004
-596 361 1006
-589 359 1001
-589 361 1009
-587 362 1013
-579 359 1007
-581 362 1018
-574 360 1013
-576 363 1024
-570 362 1023
-566 361 1023
-570 366 1038
-567 366 1040
-566 368 1047
-558 365 1040
-557 367 1047
-554 367 1050
-566 377 1080
-570 382 1096
-568 383 1101
-556 378 1087
-536 366 1055
-520 358 1033
-515 357 1032
-513 357 1035
-514 361 1046
-505 356 1035
-506 360 1046
-502 359 1047
-501 361 1053
-499 362 1057
-491 359 1049
-486 358 1048
-483 358 1051
-481 359 1053
-475 357 1049
-474 358 1056
-473 360 1062
-467 358 1059
-464 358 1060
-462 360 1066
-457 359 1064
-452 357 1061
-448 357 1060
-446 358 1066
-443 358 1068
-441 359 1072
-440 361 1080
-434 359 1073
-433 361 1082
-430 361 1083
-425 360 1082
-421 359 1080
-416 358 1079
-416 361 1088
-409 358 1079
-407 359 1085
-404 359 1086
-403 362 1094
-396 358 1086
-395 360 1092
-391 360 1093
-387 359 1092
-386 362 1101
-385 364 1109
-381 363 1106
-378 364 1110
-371 360 1101
-370 363 1110
-370 366 1119
-365 364 1116
-362 365 1118
-358 364 1118
-354 364 1117
-350 364 1118
-348 365 1122
-345 365 1125
-341 365 1124
-340 367 1133
-339 369 1141
-335 370 1143
-336 375 1160
-324 364 1129
-319 363 1125
-314 362 1122
-314 365 1134
-309 364 1130
-305 363 1128
-302 363 1130
-298 363 1131
-295 363 1132
-290 362 1129
-289 365 1139
-284 363 1133
-280 362 1132
-277 362 1132
-274 363 1136
-272 365 1143
-266 361 1132
-264 363 1139
-260 362 1136
-256 361 1133
-250 359 1127
-248 360 1133
-243 358 1126
-242 361 1136
-237 359 1131
-237 364 1148
-231 360 1134
-227 359 1134
-224 360 1135
-222 363 1145
-218 361 1141
-215 362 1144
-210 359 1137
-208 361 1144
-203 359 1136
-199 358 1135
-197 360 1141
-192 359 1137
-190 361 1146
-186 359 1140
-184 363 1151
-181 363 1154
-177 362 1152
-174 362 1151
-171 364 1157
-167 363 1157
-163 361 1150
-160 363 1157
-156 361 1151
-154 364 1159
-150 364 1162
-147 365 1163
-144 365 1164
-139 363 1158
-137 364 1164
-132 362 1158
-128 361 1153
-126 364 1162
-123 364 1166
-120 366 1170
-113 355 1135
-106 345 1105
-98 331 1059
-90 313 1001
-85 305 975
-80 300 960
-76 296 947
-72 290 927
-69 288 922
-66 287 918
-63 286 915
-61 289 924
-56 280 896
-54 282 902
-51 283 908
-49 283 908
-46 283 906
-43 283 906
-39 277 888
-37 281 900
-35 283 907
-32 285 913
-30 284 912
-27 286 918
-25 290 931
-22 293 942
-20 297 955
-18 312 1004
-16 325 1045
-13 340 1095
-10 344 1108
-7 355 1144
-4 355 1143
-1 357 1148
2 357 1148
5 357 1148
9 357 1149
12 359 1156
16 360 1158
19 357 1148
22 355 1145
26 359 1156
29 356 1148
33 356 1147
36 358 1153
40 356 1146
43 356 1146
47 359 1157
50 359 1156
54 358 1154
57 358 1154
60 356 1148
64 359 1156
68 360 1161
70 357 1149
74 358 1154
78 359 1156
82 361 1164
85 362 1164
88 358 1151
91 356 1147
96 361 1163
99 360 1158
101 357 1148
105 358 1152
109 359 1154
113 359 1156
117 361 1161
119 360 1156
123 361 1159
127 362 1163
130 361 1158
133 358 1151
137 359 1152
140 358 1149
143 358 1149
147 358 1149
149 356 1143
155 361 1157
156 357 1143
160 358 1147
165 360 1153
167 358 1148
172 360 1152
176 362 1159
180 363 1161
182 360 1153
187 363 1161
189 360 1153
193 361 1153
197 362 1156
200 360 1150
204 361 1153
207 361 1151
210 360 1149
215 363 1158
217 361 1150
222 362 1153
224 360 1145
228 361 1149
231 360 1147
234 359 1144
238 359 1143
243 363 1153
244 358 1139
249 361 1146
251 359 1141
255 359 1140
260 362 1148
263 361 1145
267 361 1144
271 362 1146
274 361 1143
277 361 1142
280 360 1138
286 363 1147
286 360 1136
293 363 1146
295 362 1142
298 361 1138
303 363 1144
309 366 1152
310 362 1140
314 363 1141
319 365 1148
319 360 1132
324 363 1139
329 364 1142
332 364 1141
334 362 1134
338 362 1133
342 363 1135
347 365 1140
351 365 1141
356 367 1145
361 368 1147
362 365 1137
368 367 1144
370 366 1138
375 368 1144
376 365 1134
381 366 1137
386 368 1142
391 369 1143
395 369 1143
396 367 1135
405 372 1151
408 372 1148
414 374 1154
415 371 1144
420 372 1147
422 371 1142
431 375 1154
428 370 1137
432 371 1137
437 372 1140
442 373 1141
448 375 1147
447 371 1134
459 378 1154
454 370 1130
459 372 1133
463 372 1134
473 377 1147
477 377 1146
478 375 1139
484 377 1143
487 377 1140
490 376 1137
491 374 1129
497 376 1133
506 380 1145
506 377 1134
511 378 1136
516 379 1138
519 378 1135
525 380 1137
530 381 1141
532 380 1134
541 383 1144
548 385 1149
547 382 1138
551 382 1137
559 385 1144
564 386 1145
569 387 1147
577 390 1154
578 388 1145
582 388 1145
583 386 1137
596 393 1154
597 390 1147
598 389 1141
608 392 1149
608 390 1141
611 390 1137
620 393 1145
624 393 1144
622 389 1131
629 391 1135
630 390 1129
639 393 1136
640 391 1130
643 391 1126
642 388 1116
644 386 1110
648 386 1109
653 387 1109
660 389 1113
-598 362 993
-596 362 997
-591 362 997
-593 365 1008
-591 366 1012
-587 365 1013
-580 363 1007
-575 362 1007
-573 363 1010
-570 363 1014
-566 363 1015
-567 366 1024
-563 365 1025
-561 366 1029
-556 365 1028
-555 367 1034
-555 368 1041
-559 374 1057
-559 376 1066
-564 382 1085
-561 382 1086
-558 382 1089
-534 368 1051
-518 360 1027
-511 358 1023
-509 359 1027
-504 357 1025
-500 357 1025
-502 360 1037
-500 362 1042
-497 361 1044
-492 360 1041
-489 361 1044
-482 358 1038
-479 358 1040
-479 360 1048
-474 359 1046
-467 356 1039
-466 358 1045
-463 359 1048
-463 361 1058
-463 364 1066
-456 361 1061
-448 358 1051
-449 361 1061
-443 359 1058
-437 356 1052
-434 357 1054
-433 359 1060
-434 363 1074
-429 361 1071
-426 362 1074
-421 360 1069
-419 361 1075
-412 358 1067
-413 362 1080
-408 361 1077
-404 360 1075
-401 360 1078
-399 361 1082
-395 361 1083
-385 355 1066
-387 360 1082
-383 359 1079
-379 359 1079
-380 363 1093
-373 359 1083
-372 361 1092
-371 363 1099
-367 363 1100
-364 364 1102
-362 365 1106
-355 362 1097
-355 365 1109
-350 363 1104
-348 365 1111
-340 360 1097
-341 364 1110
-339 366 1116
-337 368 1124
-333 367 1120
-331 369 1128
-323 363 1111
-321 365 1118
-318 365 1120
-312 362 1112
-308 362 1113
-305 362 1114
-304 365 1124
-298 362 1115
-297 365 1125
-294 365 1126
-290 364 1124
-291 370 1142
-285 367 1134
-279 364 1127
-277 365 1130
-272 364 1128
-269 365 1131
-265 364 1128
-262 364 1129
-258 363 1129
-253 362 1123
-248 359 1115
-247 362 1125
-244 363 1131
-238 358 1116
-236 362 1127
-232 360 1124
-229 360 1124
-227 363 1133
-223 362 1130
-218 359 1122
-215 360 1127
-213 362 1132
-209 360 1129
-204 359 1125
-201 359 1126
-200 363 1139
-195 360 1129
-191 359 1125
-189 363 1139
-186 363 1140
-181 361 1133
-178 362 1137
-175 362 1139
-172 363 1141
-170 364 1147
-166 363 1144
-162 363 1145
-157 360 1135
-154 360 1135
-152 364 1149
-149 365 1153
-146 365 1153
-142 365 1153
-139 366 1156
-135 363 1147
-131 362 1145
-129 366 1157
-125 364 1151
-121 364 1151
-118 364 1151
-112 356 1126
-105 344 1088
-96 326 1031
-89 313 992
-83 304 963
-79 298 945
-75 294 931
-71 291 920
-62 266 841
-66 291 922
-64 292 927
-57 277 879
-56 282 894
-53 283 897
-50 278 881
-48 284 901
-44 276 876
-42 281 892
-40 285 906
-38 286 907
-35 287 913
-31 279 886
-30 286 909
-27 288 915
-24 289 920
-22 291 926
-20 299 949
-18 313 994
-15 324 1030
-13 337 1074
-10 347 1106
-7 355 1130
-4 356 1134
0 357 1139
2 358 1140
5 355 1132
9 357 1138
12 356 1135
15 356 1134
19 357 1139
22 353 1126
26 358 1141
29 359 1144
32 356 1135
36 357 1137
39 357 1139
43 361 1150
46 358 1141
49 356 1136
53 361 1150
57 360 1147
60 357 1137
64 360 1149
67 359 1143
70 357 1138
74 358 1142
78 361 1150
80 359 1142
84 359 1143
88 361 1151
91 360 1147
94 360 1146
97 358 1140
102 361 1148
105 359 1144
107 357 1137
112 360 1147
114 357 1137
119 361 1149
122 359 1141
125 359 1142
128 359 1140
133 361 1147
136 361 1146
140 362 1149
142 359 1140
147 361 1147
149 359 1138
153 361 1145
157 360 1144
160 360 1141
164 363 1150
167 361 1144
170 361 1143
173 358 1133
177 360 1139
180 360 1140
185 362 1145
188 362 1144
191 361 1141
195 361 1141
198 361 1141
201 359 1136
206 362 1144
207 358 1131
213 363 1145
215 359 1134
220 362 1143
222 360 1134
226 361 1138
230 362 1140
230 357 1125
237 362 1141
241 363 1144
242 360 1131
247 362 1137
249 360 1130
254 362 1137
259 364 1142
260 361 1132
266 364 1142
270 364 1140
272 362 1133
275 362 1133
279 362 1132
283 363 1136
286 362 1131
289 361 1129
292 362 1130
296 362 1129
299 362 1127
306 365 1138
310 366 1140
312 364 1132
314 362 1127
319 365 1133
323 365 1135
328 366 1138
331 366 1136
335 367 1137
334 362 1121
345 369 1143
343 364 1126
346 363 1122
351 364 1126
357 367 1133
362 369 1137
362 365 1125
367 367 1129
372 368 1132
375 367 1129
377 366 1123
384 369 1133
390 371 1139
391 370 1133
398 373 1142
401 372 1137
404 372 1136
407 371 1133
413 373 1138
412 369 1124
424 376 1146
421 370 1127
427 373 1133
430 372 1130
437 375 1138
435 371 1123
441 372 1126
449 376 1138
451 374 1132
455 375 1133
454 371 1120
462 375 1130
467 376 1132
472 377 1133
476 377 1133
481 378 1134
482 377 1128
484 375 1122
491 377 1128
493 376 1123
500 378 1129
506 380 1133
509 380 1131
508 376 1119
515 379 1125
518 379 1122
521 378 1120
533 384 1135
538 385 1138
538 382 1127
544 384 1132
551 386 1136
556 387 1138
563 389 1142
566 389 1139
565 386 1129
576 390 1140
577 388 1133
585 392 1141
586 389 1133
586 387 1125
598 392 1138
599 391 1132
603 391 1131
605 390 1126
612 392 1130
618 393 1131
617 390 1122
619 389 1117
623 389 1115
631 392 1121
635 392 1119
638 391 1115
642 391 1115
636 385 1096
637 384 1090
653 391 1107
657 391 1106
-595 363 986
-591 363 988
-592 365 997
-594 369 1007
-590 369 1009
-585 368 1008
-577 365 1002
-572 364 1000
-569 364 1004
-566 364 1004
-565 365 1011
-561 365 1012
-561 367 1019
-559 368 1024
-553 366 1021
-551 367 1024
-550 369 1031
-554 374 1048
-559 380 1066
-561 383 1077
-560 385 1084
-551 381 1075
-529 369 1041
-517 362 1024
-507 358 1012
-507 360 1020
-501 358 1017
-500 360 1024
-498 361 1028
-498 364 1037
-494 363 1037
-491 363 1038
-487 363 1039
-480 360 1033
-479 361 1038
-474 360 1037
-469 359 1035
-465 359 1034
-461 358 1035
-457 358 1034
-461 363 1053
-466 370 1074
-465 371 1079
-450 362 1054
-442 359 1045
-440 359 1048
-437 360 1052
-434 361 1054
-431 361 1055
-429 362 1060
-427 363 1065
-426 365 1073
-420 363 1067
-414 360 1061
-408 358 1056
-408 361 1065
-404 360 1064
-403 362 1071
-399 362 1071
-393 360 1066
-389 359 1064
-387 360 1070
-381 358 1064
-380 360 1070
-378 361 1076
-375 362 1078
-374 364 1086
-372 365 1090
-368 365 1091
-364 364 1089
-361 364 1090
-356 363 1088
-354 364 1092
-351 364 1094
-349 366 1100
-341 361 1088
-340 363 1096
-336 363 1096
-335 365 1101
-331 364 1101
-330 367 1111
-325 365 1105
-322 366 1110
-317 364 1105
-316 367 1114
-310 364 1106
-307 364 1108
-302 362 1101
-300 364 1108
-299 367 1119
-294 365 1114
-291 365 1114
-286 364 1110
-285 366 1119
-279 363 1111
-276 363 1111
-272 362 1110
-271 365 1119
-267 364 1118
-262 364 1116
-262 367 1128
-255 363 1114
-251 362 1112
-248 363 1116
-243 360 1109
-241 361 1113
-237 361 1112
-234 362 1117
-230 361 1114
-225 358 1107
-223 360 1113
-220 361 1116
-216 359 1110
-212 359 1111
-209 358 1109
-206 360 1115
-204 362 1123
-199 359 1113
-196 360 1116
-192 358 1112
-190 360 1119
-187 362 1125
-183 361 1122
-181 363 1130
-176 361 1123
-173 361 1125
-170 361 1125
-169 366 1140
-163 361 1126
-160 362 1129
-157 364 1135
-154 364 1135
-151 364 1136
-147 363 1135
-143 361 1127
-140 363 1136
-137 363 1136
-134 364 1139
-129 361 1128
-126 362 1133
-123 363 1137
-120 364 1142
-118 367 1152
-110 355 1111
-103 343 1074
-95 326 1021
-88 312 976
-83 305 955
-79 300 939
-74 294 920
-72 294 923
-67 285 894
-63 282 884
-60 280 877
-59 287 900
-57 290 911
-53 282 884
-51 287 899
-49 294 924
-44 280 879
-41 273 857
-41 291 914
-37 284 891
-34 285 896
-31 279 877
-30 292 919
-27 289 908
-24 289 910
-22 296 930
-20 300 944
-17 311 978
-15 325 1023
-13 339 1068
-10 349 1100
-7 357 1126
-4 358 1129
0 357 1125
2 359 1132
5 357 1127
9 359 1132
12 355 1121
15 356 1122
19 356 1124
22 357 1128
26 358 1128
29 358 1131
33 361 1137
36 359 1134
39 359 1134
42 358 1131
46 359 1132
49 357 1127
53 361 1139
56 358 1130
60 360 1137
63 360 1134
66 357 1126
70 363 1144
73 359 1132
76 359 1131
80 359 1131
83 358 1130
86 358 1127
90 358 1129
94 360 1135
97 359 1130
101 362 1139
104 361 1137
107 360 1134
111 361 1138
113 357 1125
118 360 1134
121 361 1138
125 362 1138
127 358 1128
131 360 1131
135 360 1133
139 362 1138
142 362 1137
146 362 1139
149 361 1135
152 362 1138
155 361 1134
159 362 1136
163 363 1138
166 361 1132
169 361 1132
172 361 1131
177 363 1137
179 360 1130
181 357 1117
187 363 1138
189 359 1125
193 361 1130
197 363 1136
200 360 1127
203 361 1128
207 362 1130
211 362 1131
213 359 1123
218 363 1134
219 359 1119
225 363 1133
228 362 1130
230 360 1123
234 361 1125
238 362 1126
240 360 1119
246 363 1129
249 363 1129
253 363 1128
255 362 1124
259 362 1125
263 363 1125
268 366 1134
270 363 1126
273 362 1122
276 361 1119
280 363 1123
281 360 1113
285 361 1115
291 363 1122
294 363 1121
299 364 1125
300 362 1117
305 363 1119
309 365 1123
312 364 1120
319 368 1131
318 362 1114
324 366 1124
326 364 1118
333 367 1127
335 366 1122
339 367 1123
341 365 1116
347 367 1123
347 364 1114
353 367 1120
358 368 1125
359 366 1116
364 367 1120
366 366 1114
372 368 1121
373 366 1111
380 369 1121
382 368 1115
387 369 1119
391 370 1120
397 372 1126
398 369 1116
404 371 1122
408 372 1122
408 369 1113
417 374 1126
419 372 1120
424 374 1124
426 373 1119
432 374 1122
437 375 1126
440 375 1124
440 372 1114
443 371 1110
449 373 1115
455 375 1120
457 374 1116
459 373 1110
464 374 1112
472 377 1121
474 376 1116
475 374 1109
483 378 1118
486 377 1115
491 378 1118
494 378 1114
494 375 1106
502 379 1114
505 378 1110
513 381 1119
520 384 1125
516 378 1107
521 379 1109
530 383 1120
531 381 1112
540 385 1121
543 384 1118
554 390 1132
555 387 1124
555 385 1116
561 387 1120
569 389 1125
567 386 1113
576 389 1121
581 390 1123
587 392 1125
592 392 1126
592 390 1117
598 391 1119
604 393 1123
606 392 1118
611 392 1118
611 390 1108
613 389 1104
626 395 1119
623 390 1105
626 390 1101
633 392 1106
635 391 1101
630 385 1084
638 388 1089
643 389 1090
651 392 1096
-594 366 985
-592 367 988
-594 370 999
-587 368 995
-586 369 1001
-582 369 1001
-576 368 1000
-572 367 1000
-569 367 1002
-563 366 1000
-560 366 1001
-558 367 1006
-553 366 1004
-551 366 1009
-551 368 1016
-550 370 1022
-554 375 1038
-546 372 1031
-554 380 1054
-550 379 1054
-553 384 1070
-547 382 1066
-538 378 1057
-514 364 1018
-503 358 1004
-503 361 1013
-495 357 1004
-497 361 1016
-495 362 1021
-494 364 1028
-490 364 1028
-487 364 1030
-483 363 1028
-479 363 1030
-473 360 1025
-468 359 1023
-465 359 1024
-462 360 1027
-454 356 1018
-456 360 1030
-461 367 1051
-473 379 1088
-450 363 1044
-444 361 1039
-443 363 1047
-436 360 1038
-429 357 1030
-434 363 1051
-430 363 1052
-429 365 1058
-426 365 1060
-418 362 1051
-416 363 1056
-412 362 1056
-408 361 1054
-403 360 1051
-401 361 1055
-395 358 1049
-396 363 1064
-392 362 1063
-389 362 1063
-385 362 1064
-383 363 1068
-379 362 1068
-377 363 1072
-372 362 1067
-370 363 1073
-367 364 1076
-364 364 1077
-362 365 1082
-357 363 1077
-353 363 1079
-351 365 1084
-348 365 1085
-346 366 1090
-342 365 1088
-338 365 1089
-336 366 1092
-332 365 1091
-331 368 1102
-325 365 1093
-321 364 1091
-316 363 1089
-316 366 1099
-311 365 1096
-308 365 1098
-305 365 1098
-298 361 1087
-297 364 1098
-294 364 1099
-290 363 1095
-290 368 1111
-286 366 1107
-283 367 1111
-278 365 1106
-275 365 1106
-270 363 1102
-268 365 1108
-265 366 1111
-259 363 1102
-257 365 1109
-254 364 1107
-249 363 1104
-245 361 1100
-240 359 1095
-238 360 1099
-234 359 1096
-232 361 1103
-227 360 1099
-224 360 1100
-221 360 1101
-217 359 1098
-215 361 1105
-211 361 1106
-207 359 1101
-204 360 1104
-203 363 1114
-199 362 1112
-195 361 1108
-192 361 1111
-187 359 1104
-185 362 1113
-181 361 1111
-180 364 1121
-176 363 1117
-172 362 1116
-168 362 1115
-166 363 1121
-162 362 1117
-158 361 1115
-155 362 1118
-152 362 1118
-148 362 1117
-145 362 1118
-142 364 1125
-138 362 1120
-135 363 1125
-133 364 1129
-128 361 1118
-125 362 1122
-123 365 1131
-120 366 1136
-115 361 1120
-109 355 1101
-101 339 1052
-94 325 1008
-87 311 966
-82 303 941
-77 297 921
-74 295 915
-70 290 899
-69 298 926
-64 287 890
-61 287 892
-57 282 876
-54 279 866
-51 276 859
-50 283 881
-46 277 859
-45 284 884
-42 283 880
-38 275 856
-37 289 899
-34 281 874
-32 288 895
-30 295 920
-26 286 891
-24 290 903
-21 293 912
-19 298 927
-17 312 971
-15 324 1009
-13 336 1047
-10 346 1080
-7 355 1109
-4 357 1114
0 360 1125
2 358 1119
5 357 1114
9 356 1113
12 358 1117
15 356 1111
19 356 1113
22 359 1122
25 356 1112
29 356 1113
32 358 1119
35 358 1118
39 359 1120
42 361 1127
45 356 1112
49 360 1124
52 360 1125
55 358 1118
59 360 1125
63 363 1134
66 359 1121
69 360 1124
73 361 1126
75 358 1116
79 359 1119
83 362 1130
86 361 1127
90 361 1127
92 358 1115
96 359 1119
99 358 1117
103 360 1122
107 361 1125
110 362 1128
113 360 1120
116 360 1121
120 361 1123
124 361 1125
127 360 1122
129 359 1117
134 362 1126
137 362 1126
140 359 1118
144 361 1124
147 361 1122
151 362 1125
154 362 1124
157 361 1121
162 364 1131
163 359 1114
167 359 1115
171 361 1122
175 363 1125
179 364 1130
181 360 1117
185 362 1123
189 362 1123
192 362 1121
194 360 1113
199 363 1124
200 359 1111
205 361 1117
208 361 1115
212 362 1120
216 362 1120
218 361 1114
221 360 1112
226 363 1119
228 360 1111
234 364 1124
238 365 1124
240 362 1116
245 366 1127
249 366 1126
250 363 1116
253 361 1111
255 361 1108
261 363 1115
263 362 1112
268 364 1116
270 362 1110
276 366 1121
276 361 1105
281 363 1111
286 364 1115
291 367 1123
294 366 1118
296 364 1112
298 363 1107
305 367 1119
303 361 1099
309 364 1109
316 368 1120
317 365 1111
321 365 1111
324 366 1110
330 367 1115
331 365 1108
335 366 1110
340 367 1112
342 366 1109
346 366 1108
352 369 1114
352 366 1104
358 368 1110
360 367 1105
366 369 1113
366 366 1101
370 366 1101
378 370 1114
381 370 1112
381 367 1101
388 370 1109
388 367 1099
392 367 1099
397 369 1102
407 375 1119
407 371 1108
412 372 1110
412 369 1100
418 372 1108
423 373 1110
428 374 1112
430 373 1107
437 376 1114
438 374 1107
445 377 1114
442 371 1098
448 373 1102
454 375 1106
458 376 1107
459 374 1100
464 374 1101
470 377 1106
473 376 1103
478 377 1106
