VERSION 0.7
FIELDS x y z
SIZE 4 4 4
TYPE I I I
COUNT 1 1 1
WIDTH 4136
HEIGHT 1
VIEWPOINT 0.0 0.0 0.0 1.0 0.0 0.0 0.0
POINTS 4136
DATA ascii
0 0 0
0 0 0
0 0 0
0 0 0
0 0 0
0 0 0
0 0 0
0 0 0
0 0 0
0 0 0
0 0 0
0 0 0
0 0 0
0 0 0
0 0 0
19 -33 1428
0 0 0
0 0 0
0 0 0
0 0 0
0 0 0
0 0 0
0 0 0
0 0 0
0 0 0
0 0 0
0 0 0
151 -78 3232
0 0 0
155 -71 2942
180 -79 3245
190 -79 3258
197 -78 3213
207 -78 3230
221 -80 3308
233 -81 3345
239 -80 3293
248 -80 3281
261 -81 3325
279 -84 3434
0 0 0
0 0 0
369 -101 4102
0 0 0
0 0 0
0 0 0
293 -71 2876
275 -64 2625
287 -65 2663
287 -63 2589
297 -64 2618
308 -65 2644
316 -65 2650
322 -65 2633
330 -65 2635
345 -66 2690
339 -64 2584
357 -66 2663
368 -67 2688
374 -66 2676
386 -67 2700
395 -67 2710
401 -67 2697
409 -67 2699
418 -68 2705
426 -68 2704
436 -68 2719
437 -67 2671
450 -68 2705
448 -66 2646
448 -65 2598
454 -65 2589
463 -65 2599
471 -66 2600
471 -64 2556
475 -64 2538
496 -66 2610
481 -63 2486
449 -58 2288
388 -49 1945
365 -45 1801
365 -45 1773
360 -43 1722
351 -41 1654
0 0 0
0 0 0
0 0 0
0 0 0
0 0 0
0 0 0
0 0 0
104 -9 428
128 -12 523
0 0 0
0 0 0
0 0 0
0 0 0
0 0 0
38 -2 133
11 0 28
1280 -129 4875
1270 -126 4780
1281 -126 4764
0 0 0
0 0 0
0 0 0
0 0 0
0 0 0
0 0 0
0 0 0
0 0 0
0 0 0
0 0 0
0 0 0
0 0 0
0 0 0
0 0 0
0 0 0
0 0 0
0 0 0
0 0 0
0 0 0
0 0 0
0 0 0
0 0 0
0 0 0
0 0 0
0 0 0
0 0 0
0 0 0
0 0 0
1043 -79 2876
1058 -79 2890
1065 -79 2885
1071 -79 2874
1083 -80 2880
1085 -79 2859
1078 -78 2815
1087 -78 2814
1086 -77 2787
1084 -77 2758
1075 -76 2710
1083 -76 2706
1087 -75 2694
1084 -75 2663
1097 -75 2671
1098 -75 2652
1082 -73 2591
1094 -73 2597
1094 -73 2577
1096 -72 2559
1094 -72 2534
1099 -72 2525
1105 -72 2518
1108 -71 2502
1107 -71 2481
1100 -70 2445
1110 -70 2446
1097 -69 2399
1113 -70 2415
1107 -69 2383
1120 -69 2392
1112 -68 2356
1099 -67 2310
1109 -67 2314
1097 -66 2269
1060 -63 2175
1063 -63 2165
1058 -63 2138
1051 -62 2107
1049 -61 2087
1053 -61 2080
1061 -61 2080
1058 -61 2058
1055 -60 2036
1064 -60 2038
1065 -60 2025
1062 -60 2004
1069 -60 2002
1069 -59 1986
1065 -59 1965
1067 -59 1953
1074 -59 1953
1075 -58 1939
1067 -58 1911
-479 -15 835
-484 -15 850
-480 -15 850
-469 -15 835
-474 -15 851
-465 -15 841
-476 -16 869
-478 -16 878
-471 -16 872
-495 -17 923
-495 -17 929
-548 -19 1036
-990 -36 1887
-1093 -40 2097
-1087 -40 2103
-1083 -40 2110
-1075 -40 2111
-1068 -41 2113
-1054 -40 2102
-1048 -40 2106
-1039 -40 2104
-1033 -40 2108
-1021 -40 2099
-1017 -40 2108
-1006 -40 2101
-1002 -40 2110
-997 -40 2116
-989 -40 2114
-981 -40 2114
-969 -40 2107
-964 -40 2111
-957 -40 2113
-951 -40 2116
-934 -40 2096
-917 -40 2073
-909 -40 2074
-903 -40 2077
-903 -40 2092
-882 -39 2063
-881 -40 2076
-881 -40 2093
-868 -40 2081
-860 -40 2079
-855 -40 2085
-844 -40 2075
-847 -40 2101
-828 -39 2071
-809 -39 2040
-797 -39 2029
-796 -39 2044
-804 -40 2081
-800 -40 2090
-794 -40 2093
-788 -40 2096
-779 -40 2090
-770 -40 2086
-764 -40 2088
-760 -40 2097
-743 -39 2067
-737 -40 2070
-732 -40 2075
-726 -40 2077
-726 -40 2097
-719 -40 2098
-715 -40 2105
-711 -40 2114
-704 -40 2113
-691 -40 2094
-694 -41 2127
-685 -41 2120
-682 -41 2131
-671 -41 2118
-650 -40 2074
-640 -40 2063
-639 -40 2080
-634 -40 2086
-629 -40 2090
-628 -40 2108
-623 -41 2114
-619 -41 2124
-612 -41 2124
-600 -40 2104
-598 -41 2120
-592 -41 2123
-585 -41 2121
-577 -41 2116
-568 -41 2106
-564 -41 2116
-559 -41 2123
-554 -41 2127
-545 -41 2118
-537 -41 2114
-530 -41 2110
-528 -41 2131
-519 -41 2119
-510 -41 2111
-506 -41 2121
-498 -41 2112
-492 -41 2117
-485 -41 2111
-471 -40 2078
-460 -40 2058
-469 -41 2127
-435 -39 2003
-457 -41 2131
0 0 0
0 0 0
0 0 0
0 0 0
0 0 0
0 0 0
0 0 0
-7 0 50
-40 -3 225
-1 1 17
-889 -98 4881
-853 -96 4760
-845 -96 4797
-863 -100 4978
-848 -100 4977
-834 -100 4984
-821 -101 4995
-803 -100 4972
-788 -100 4972
-775 -101 4982
1 1 1
-3 0 38
-9 0 79
-4 0 43
-4 0 49
-3 0 43
-1 0 27
-8 0 77
-3 0 41
-6 0 66
-19 -2 173
-32 -4 283
-41 -6 370
-38 -5 353
-38 -6 359
-37 -6 359
-59 -10 583
-54 -9 545
-56 -10 587
-66 -13 703
-63 -13 698
-48 -10 550
-39 -8 468
-42 -9 525
-49 -11 621
-41 -10 551
-38 -9 525
-37 -9 534
-44 -12 656
-40 -11 625
-38 -11 614
-54 -17 901
-49 -16 869
-50 -18 928
0 0 0
-175 -71 3440
-160 -69 3347
-146 -67 3253
0 0 0
0 0 0
0 0 0
0 0 0
-28 -19 1002
-21 -16 844
-18 -16 837
-18 -18 935
-18 -20 1036
-12 -17 883
-10 -19 958
-8 -18 947
-5 -19 993
-2 -17 862
0 -18 947
2 -19 990
5 -17 901
8 -17 895
10 -17 857
13 -18 932
15 -17 871
20 -20 996
24 -21 1049
25 -19 979
29 -20 1012
31 -19 986
34 -20 1007
36 -19 972
34 -16 832
44 -21 1037
44 -19 961
0 0 0
0 0 0
0 0 0
0 0 0
0 0 0
0 0 0
0 0 0
0 0 0
228 -70 3269
239 -71 3293
257 -73 3395
262 -72 3334
0 0 0
0 0 0
347 -86 3988
0 0 0
357 -84 3847
0 0 0
0 0 0
302 -64 2963
283 -58 2701
279 -56 2592
291 -57 2628
293 -56 2576
302 -56 2593
313 -57 2618
318 -57 2603
326 -57 2599
337 -57 2626
340 -57 2596
350 -57 2611
364 -58 2659
370 -58 2642
381 -58 2665
387 -58 2652
393 -58 2644
398 -58 2626
405 -58 2621
414 -58 2626
424 -58 2641
427 -58 2611
421 -56 2528
433 -57 2556
431 -55 2500
437 -55 2492
439 -55 2460
446 -55 2461
456 -55 2471
456 -54 2435
452 -53 2372
434 -50 2246
414 -47 2108
373 -41 1867
348 -38 1712
356 -38 1729
350 -37 1675
315 -33 1484
0 0 0
0 0 0
0 0 0
0 0 0
0 0 0
0 0 0
114 -9 478
0 0 0
140 -12 575
0 0 0
0 0 0
0 0 0
110 -8 426
0 0 0
18 0 56
18 0 56
1289 -115 4907
1277 -113 4807
1275 -112 4742
0 0 0
0 0 0
0 0 0
0 0 0
0 0 0
0 0 0
1042 -85 3580
1056 -85 3591
1052 -84 3538
1052 -83 3501
0 0 0
0 0 0
0 0 0
0 0 0
0 0 0
0 0 0
0 0 0
0 0 0
0 0 0
0 0 0
0 0 0
0 0 0
0 0 0
0 0 0
0 0 0
0 0 0
0 0 0
0 0 0
1057 -71 2914
1055 -70 2881
1065 -71 2883
1075 -71 2885
1085 -71 2884
1091 -71 2874
1075 -69 2806
1085 -69 2808
1080 -69 2772
1078 -68 2743
1073 -67 2705
1094 -68 2733
1086 -67 2690
1096 -67 2693
1087 -66 2648
1079 -65 2607
1087 -65 2603
1091 -65 2590
1093 -65 2573
1090 -64 2546
1094 -64 2532
1093 -64 2510
1102 -64 2511
1108 -64 2503
1098 -63 2461
1105 -63 2456
1113 -63 2454
1109 -62 2426
1113 -62 2415
1096 -61 2359
1113 -61 2376
1105 -60 2341
1098 -60 2308
1115 -60 2324
1107 -59 2291
1058 -56 2171
1054 -56 2147
1054 -56 2131
1051 -55 2108
1054 -55 2097
1063 -55 2098
1054 -54 2065
1059 -54 2060
1060 -54 2046
1053 -53 2016
1056 -53 2007
1060 -53 1999
1065 -53 1994
1064 -53 1978
1070 -53 1974
1068 -52 1955
1068 -52 1942
1069 -52 1929
1069 -52 1914
-487 -12 849
-486 -13 854
-477 -12 845
-479 -13 854
-464 -12 833
-468 -12 847
-472 -13 860
-470 -13 864
-475 -13 879
-473 -13 883
-467 -13 878
-558 -16 1057
-999 -30 1904
-1092 -34 2097
-1086 -34 2101
-1083 -34 2111
-1074 -34 2110
-1066 -34 2109
-1055 -34 2103
-1047 -34 2104
-1039 -34 2105
-1032 -34 2107
-1026 -34 2111
-1019 -34 2112
-1010 -34 2110
-1001 -34 2108
-993 -34 2107
-986 -34 2108
-976 -34 2105
-971 -34 2111
-962 -34 2106
-956 -34 2112
-947 -34 2108
-946 -34 2123
-911 -33 2060
-910 -33 2076
-910 -33 2092
-893 -33 2069
-893 -33 2088
-886 -33 2088
-875 -33 2080
-875 -34 2097
-861 -33 2081
-854 -33 2081
-853 -34 2097
-845 -34 2096
-833 -33 2083
-813 -33 2051
-792 -32 2017
-796 -33 2044
-810 -34 2097
-801 -34 2092
-793 -34 2091
-785 -34 2088
-776 -33 2082
-777 -34 2105
-769 -34 2101
-760 -34 2095
-741 -33 2062
-736 -33 2067
-738 -34 2094
-727 -33 2081
-724 -34 2094
-723 -34 2110
-710 -34 2092
-712 -34 2116
-706 -34 2120
-694 -34 2105
-685 -34 2098
-684 -34 2115
-681 -34 2128
-664 -34 2097
-646 -33 2059
-644 -34 2076
-643 -34 2092
-633 -34 2082
-637 -34 2117
-627 -34 2104
-621 -34 2109
-616 -34 2115
-609 -34 2112
-599 -34 2100
-599 -35 2126
-592 -35 2122
-581 -34 2107
-579 -35 2126
-571 -35 2118
-568 -35 2132
-562 -35 2136
-553 -35 2125
-545 -35 2119
-539 -35 2122
-530 -35 2113
-527 -35 2126
-518 -35 2114
-511 -35 2116
-506 -35 2121
-499 -35 2119
-489 -35 2102
-484 -35 2109
-453 -33 2001
-441 -32 1972
-449 -34 2039
-457 -35 2102
-461 -35 2149
0 0 0
0 0 0
0 0 0
0 0 0
0 0 0
-960 -83 4875
-945 -83 4871
-935 -84 4896
-922 -84 4901
-907 -84 4897
-891 -84 4893
-845 -81 4716
-779 -76 4423
-861 -85 4969
-848 -86 4977
-828 -85 4949
-819 -86 4982
-803 -86 4973
-788 -86 4971
-772 -86 4964
-758 -86 4969
-745 -86 4978
-730 -86 4972
-719 -87 4999
-705 -87 5005
-691 -87 5012
-674 -87 4992
-662 -87 5010
-645 -87 4989
-633 -87 5010
-618 -87 5006
-603 -88 5009
-590 -88 5023
-577 -88 5034
1 1 8
-548 -88 5033
-533 -88 5029
0 1 15
2 1 -3
0 1 20
-476 -89 5051
-460 -89 5033
-445 -89 5026
-430 -89 5019
-417 -89 5040
-403 -89 5046
-387 -89 5030
-373 -89 5039
-360 -90 5050
2 1 -4
-330 -90 5041
-3 0 95
-27 -7 495
0 0 0
0 0 0
0 0 0
-161 -60 3373
-145 -57 3222
-126 -53 2999
0 0 0
0 0 0
0 0 0
-26 -15 928
-18 -12 739
-13 -10 639
-12 -10 662
-14 -14 862
-11 -14 847
-7 -11 684
-5 -12 747
0 0 0
-2 -16 960
0 -13 820
2 -13 791
5 -15 907
7 -13 821
10 -15 903
13 -15 911
15 -14 859
18 -15 906
18 -13 773
22 -14 830
25 -15 876
28 -15 891
30 -15 884
34 -15 916
35 -14 864
33 -12 750
0 0 0
0 0 0
0 0 0
0 0 0
0 0 0
0 0 0
0 0 0
0 0 0
0 0 0
0 0 0
0 0 0
251 -62 3325
259 -61 3295
0 0 0
0 0 0
0 0 0
0 0 0
0 0 0
0 0 0
0 0 0
323 -60 3175
278 -50 2656
276 -48 2564
288 -49 2599
295 -49 2592
303 -49 2597
308 -48 2574
327 -50 2673
333 -50 2656
335 -49 2615
342 -49 2609
349 -49 2602
359 -50 2622
364 -49 2604
379 -50 2653
357 -46 2444
307 -39 2057
285 -35 1869
296 -36 1906
315 -38 1993
337 -40 2097
329 -38 2008
295 -33 1768
292 -32 1718
291 -32 1684
282 -30 1603
296 -31 1653
294 -30 1612
312 -32 1688
344 -35 1833
340 -34 1784
332 -33 1712
315 -30 1597
297 -28 1481
300 -28 1474
296 -27 1436
288 -26 1375
246 -22 1154
249 -22 1155
199 -17 903
230 -19 1032
0 0 0
0 0 0
0 0 0
97 -6 402
0 0 0
95 -6 384
76 -4 301
0 0 0
123 -8 485
0 0 0
0 0 0
0 0 0
8 1 18
1279 -100 4869
1274 -99 4795
1265 -97 4705
0 0 0
0 0 0
0 0 0
0 0 0
0 0 0
1040 -75 3613
1030 -73 3538
1046 -74 3556
1039 -72 3494
1046 -72 3480
1097 -75 3613
0 0 0
0 0 0
0 0 0
0 0 0
0 0 0
0 0 0
0 0 0
0 0 0
0 0 0
0 0 0
0 0 0
0 0 0
0 0 0
0 0 0
0 0 0
0 0 0
0 0 0
1054 -62 2907
1060 -62 2896
1062 -62 2874
1073 -62 2878
1082 -62 2877
1069 -61 2816
1072 -61 2801
1086 -61 2810
1082 -60 2776
1075 -59 2733
1069 -59 2694
1078 -59 2695
1096 -59 2716
1085 -58 2666
1088 -58 2650
1087 -58 2626
1086 -57 2599
1093 -57 2596
1098 -57 2585
1094 -57 2555
1104 -57 2556
1095 -56 2514
1101 -56 2508
1110 -56 2508
1099 -55 2463
1096 -55 2437
1108 -55 2444
1103 -54 2413
1108 -54 2404
1109 -54 2388
1104 -53 2357
1110 -53 2352
1110 -53 2333
1111 -53 2316
1100 -52 2277
1066 -50 2189
1061 -49 2160
1058 -49 2139
1056 -49 2118
1058 -48 2106
1064 -48 2101
1055 -48 2068
1058 -48 2058
1060 -47 2045
1060 -47 2030
1059 -47 2014
1068 -47 2015
1063 -47 1990
1070 -47 1989
1069 -46 1972
1068 -46 1955
1068 -46 1940
1070 -46 1930
1073 -46 1921
-485 -10 845
-482 -10 847
-486 -10 859
-486 -10 867
-466 -10 837
-461 -10 834
-469 -10 856
-478 -10 878
-468 -10 865
-481 -10 896
-470 -10 883
-628 -14 1189
-1022 -25 1948
-1091 -27 2095
-1085 -27 2100
-1083 -27 2111
-1073 -27 2108
-1066 -27 2109
-1059 -27 2113
-1050 -27 2110
-1042 -27 2110
-1032 -27 2106
-1028 -27 2114
-1019 -27 2112
-1009 -27 2107
-1003 -27 2113
-994 -27 2111
-987 -27 2112
-978 -27 2110
-972 -27 2113
-967 -27 2118
-960 -27 2120
-953 -27 2120
-939 -27 2107
-912 -27 2063
-911 -27 2078
-908 -27 2087
-902 -27 2091
-889 -27 2077
-885 -27 2086
-878 -27 2088
-880 -27 2110
-865 -27 2092
-852 -27 2078
-855 -27 2102
-845 -27 2096
-820 -27 2052
-802 -26 2023
-797 -26 2028
-801 -27 2057
-809 -27 2095
-800 -27 2091
-792 -27 2088
-789 -27 2099
-786 -28 2111
-779 -28 2111
-770 -27 2104
-757 -27 2088
-738 -27 2056
-741 -27 2082
-738 -27 2092
-719 -27 2059
-721 -27 2084
-720 -28 2102
-716 -28 2109
-710 -28 2111
-704 -28 2114
-697 -28 2115
-688 -28 2107
-680 -28 2105
-677 -28 2116
-663 -28 2094
-646 -27 2061
-639 -27 2057
-645 -28 2099
-642 -28 2110
-632 -28 2099
-627 -28 2107
-620 -28 2105
-620 -28 2128
-612 -28 2123
-603 -28 2117
-595 -28 2112
-588 -28 2110
-580 -28 2104
-572 -28 2099
-569 -28 2112
-566 -28 2124
-558 -28 2120
-550 -28 2115
-547 -29 2128
-540 -28 2125
-533 -28 2122
-526 -29 2124
-518 -28 2115
-512 -29 2119
-507 -29 2125
-501 -29 2126
-490 -28 2108
-484 -28 2107
-450 -27 1987
-469 -28 2100
-433 -26 1966
-451 -28 2074
0 0 0
0 0 0
0 0 0
0 0 0
0 0 0
-992 -70 4958
-956 -69 4851
-947 -69 4882
-931 -69 4875
-916 -69 4870
-904 -69 4883
-885 -69 4860
-855 -68 4775
-799 -65 4538
-852 -70 4918
-841 -71 4942
-827 -71 4944
-812 -71 4939
-798 -71 4945
-786 -71 4958
-769 -71 4942
-756 -71 4957
-743 -72 4965
-727 -72 4958
-714 -72 4967
-697 -72 4946
-684 -72 4962
-671 -72 4970
-655 -72 4960
-641 -72 4965
-625 -72 4949
-613 -72 4971
-597 -72 4955
-583 -72 4957
-569 -73 4963
-556 -73 4978
-541 -73 4970
-525 -73 4962
-513 -73 4982
-497 -73 4970
-481 -73 4950
-469 -73 4975
-453 -73 4961
-441 -74 4978
-425 -73 4963
-410 -73 4950
-397 -74 4971
-382 -74 4962
-367 -74 4956
-354 -74 4969
-339 -74 4970
-325 -74 4973
-311 -74 4977
2 1 1
0 0 0
0 0 0
0 0 0
0 0 0
-123 -40 2751
-123 -43 2925
-102 -39 2629
0 0 0
0 0 0
0 0 0
0 0 0
0 0 0
0 0 0
0 0 0
0 0 0
0 0 0
0 0 0
0 0 0
-1 -11 802
0 0 0
0 0 0
0 0 0
0 0 0
10 -12 899
0 0 0
17 -15 1040
0 0 0
17 -10 739
22 -11 828
0 0 0
26 -11 800
28 -11 811
29 -10 771
0 0 0
0 0 0
0 0 0
0 0 0
0 0 0
0 0 0
0 0 0
0 0 0
0 0 0
0 0 0
0 0 0
0 0 0
225 -48 3090
222 -46 2936
248 -50 3161
0 0 0
0 0 0
0 0 0
0 0 0
0 0 0
0 0 0
0 0 0
330 -52 3244
282 -43 2691
278 -41 2579
287 -41 2589
293 -41 2578
311 -42 2669
340 -45 2848
341 -45 2791
341 -43 2721
336 -42 2619
335 -41 2555
344 -41 2562
350 -41 2555
350 -40 2503
351 -39 2455
236 -25 1612
163 -16 1083
158 -16 1032
164 -16 1049
166 -16 1043
170 -16 1043
172 -16 1037
171 -15 1015
175 -15 1021
185 -16 1064
184 -16 1039
191 -16 1058
190 -16 1036
194 -16 1041
201 -16 1061
201 -16 1046
210 -17 1074
207 -16 1044
212 -16 1053
217 -16 1060
219 -16 1057
220 -16 1046
212 -15 995
198 -14 911
215 -15 977
220 -15 988
212 -15 940
225 -15 985
179 -12 768
0 0 0
130 -8 539
175 -11 722
0 0 0
116 -6 461
0 0 0
0 0 0
0 0 0
112 -6 424
1265 -85 4875
1284 -86 4888
1274 -84 4795
1304 -86 4852
24 0 75
0 0 0
0 0 0
0 0 0
0 0 0
1028 -63 3572
1037 -63 3562
1040 -63 3535
1038 -62 3489
1055 -62 3511
1054 -62 3470
0 0 0
0 0 0
0 0 0
0 0 0
0 0 0
0 0 0
0 0 0
0 0 0
0 0 0
0 0 0
0 0 0
0 0 0
0 0 0
0 0 0
0 0 0
0 0 0
0 0 0
1044 -53 2877
1057 -53 2889
1064 -53 2879
1077 -53 2889
1079 -53 2867
1070 -52 2819
1073 -52 2802
1084 -52 2807
1072 -51 2751
1084 -52 2757
1109 -52 2797
1071 -50 2677
1090 -51 2701
1097 -51 2695
1067 -49 2598
1074 -49 2592
1087 -49 2603
1091 -49 2590
1069 -48 2516
1095 -49 2558
1080 -48 2501
1081 -47 2482
1084 -47 2470
1098 -48 2480
1106 -48 2477
1103 -47 2452
1084 -46 2390
1105 -47 2416
1112 -47 2412
1106 -46 2382
1105 -46 2359
1108 -46 2348
1100 -45 2312
1111 -46 2318
1100 -45 2277
1061 -43 2178
1048 -42 2135
1055 -42 2132
1048 -42 2102
1062 -42 2114
1061 -42 2095
1057 -41 2071
1056 -41 2053
1058 -41 2042
1057 -41 2024
1067 -41 2029
1064 -41 2008
1061 -40 1986
1072 -40 1993
1066 -40 1967
1069 -40 1958
1068 -40 1941
1073 -40 1936
1075 -40 1925
-487 -7 850
-494 -7 867
-483 -7 854
-487 -7 868
-482 -7 866
-481 -7 870
-475 -7 865
-481 -7 883
-496 -8 919
-496 -8 925
-576 -9 1081
-985 -18 1863
-1094 -20 2086
-1093 -20 2098
-1091 -20 2111
-1079 -20 2105
-1070 -20 2101
-1064 -20 2107
-1056 -20 2107
-1053 -21 2117
-1043 -20 2112
-1033 -20 2108
-1023 -20 2104
-1019 -21 2113
-1011 -21 2112
-1001 -21 2108
-993 -21 2109
-986 -21 2109
-975 -21 2103
-971 -21 2111
-962 -21 2107
-957 -21 2113
-953 -21 2122
-939 -21 2108
-921 -20 2085
-905 -20 2063
-908 -20 2089
-901 -21 2090
-886 -20 2073
-877 -20 2067
-878 -21 2088
-872 -21 2092
-865 -21 2092
-859 -21 2095
-847 -21 2082
-844 -21 2093
-817 -20 2044
-801 -20 2021
-794 -20 2022
-813 -21 2086
-813 -21 2106
-800 -21 2091
-795 -21 2097
-791 -21 2103
-786 -21 2109
-773 -21 2094
-771 -21 2108
-756 -21 2086
-746 -21 2077
-746 -21 2097
-730 -21 2071
-726 -21 2079
-724 -21 2093
-725 -21 2115
-718 -21 2116
-707 -21 2102
-704 -21 2115
-695 -21 2109
-688 -21 2108
-683 -21 2113
-677 -22 2114
-661 -21 2087
-645 -21 2058
-645 -21 2079
-643 -21 2095
-630 -21 2074
-635 -22 2112
-631 -22 2120
-625 -22 2121
-610 -22 2096
-610 -22 2115
-602 -22 2112
-596 -22 2114
-587 -22 2105
-583 -22 2116
-570 -22 2091
-574 -22 2129
-565 -22 2123
-562 -22 2136
-550 -22 2114
-545 -22 2120
-537 -22 2114
-531 -22 2118
-530 -22 2138
-522 -22 2131
-512 -22 2119
-508 -22 2127
-500 -22 2121
-491 -22 2111
-482 -22 2100
-422 -19 1863
-462 -22 2069
-473 -23 2147
-461 -23 2119
0 0 0
0 0 0
0 0 0
0 0 0
0 0 0
-990 -56 4950
-962 -55 4886
-948 -55 4888
-934 -55 4888
-916 -55 4874
-905 -55 4892
-889 -55 4881
-863 -55 4818
-836 -54 4747
-850 -56 4910
-839 -56 4927
-826 -56 4936
-812 -56 4940
-799 -57 4948
-784 -57 4949
-770 -57 4949
-754 -57 4945
-740 -57 4944
-725 -57 4945
-712 -57 4954
-698 -57 4955
-685 -57 4964
-670 -58 4962
-653 -57 4942
-639 -58 4950
-626 -58 4963
-612 -58 4960
-596 -58 4953
-581 -58 4949
-569 -58 4965
-554 -58 4961
-540 -58 4965
-525 -58 4962
-510 -58 4953
-496 -59 4959
-483 -59 4971
-468 -59 4959
-453 -59 4959
-438 -59 4950
-424 -59 4953
-410 -59 4957
-396 -59 4956
-381 -59 4952
-367 -59 4961
-352 -59 4951
-338 -59 4953
-325 -60 4968
-310 -60 4964
1 1 14
0 0 0
0 0 0
0 0 0
0 0 0
0 0 0
-117 -33 2794
-113 -35 2908
0 0 0
0 0 0
0 0 0
0 0 0
0 0 0
0 0 0
0 0 0
0 0 0
0 0 0
0 0 0
0 0 0
0 0 0
0 0 0
0 0 0
0 0 0
0 0 0
0 0 0
0 0 0
0 0 0
0 0 0
0 0 0
0 0 0
0 0 0
0 0 0
0 0 0
0 0 0
0 0 0
0 0 0
0 0 0
0 0 0
0 0 0
0 0 0
0 0 0
0 0 0
0 0 0
0 0 0
0 0 0
0 0 0
0 0 0
198 -33 2610
217 -35 2751
193 -30 2365
0 0 0
0 0 0
0 0 0
0 0 0
0 0 0
0 0 0
0 0 0
285 -35 2720
275 -33 2549
289 -34 2608
298 -34 2626
322 -36 2762
345 -38 2893
356 -38 2909
336 -35 2684
335 -34 2611
340 -34 2594
319 -31 2377
370 -36 2700
0 0 0
276 -25 1927
166 -14 1126
147 -12 972
148 -12 963
153 -12 978
152 -11 948
158 -12 971
160 -12 965
170 -12 1009
165 -12 964
174 -12 1000
175 -12 983
179 -12 992
178 -12 972
184 -12 988
191 -12 1007
190 -12 985
199 -13 1017
197 -12 995
203 -13 1006
204 -12 1000
206 -12 994
208 -12 988
209 -12 981
207 -12 957
210 -12 957
210 -12 944
203 -11 899
218 -12 950
192 -10 826
181 -9 765
130 -6 539
0 0 0
142 -7 577
0 0 0
0 0 0
0 0 0
0 0 0
94 -3 353
21 0 66
1277 -71 4863
1302 -72 4901
1310 -72 4875
1298 -70 4772
0 0 0
0 0 0
0 0 0
0 0 0
1042 -53 3618
1040 -53 3572
1037 -52 3525
1022 -51 3435
1036 -51 3445
1050 -51 3457
0 0 0
0 0 0
0 0 0
0 0 0
0 0 0
0 0 0
0 0 0
0 0 0
0 0 0
0 0 0
0 0 0
0 0 0
0 0 0
0 0 0
0 0 0
0 0 0
0 0 0
1049 -44 2893
1062 -45 2901
1064 -44 2879
1078 -45 2893
1065 -44 2832
1064 -43 2803
1087 -44 2839
1057 -43 2735
1021 -41 2618
1081 -43 2749
1067 -42 2690
1060 -42 2648
1067 -42 2643
1073 -42 2635
1072 -41 2611
1087 -42 2626
1067 -40 2554
1077 -41 2556
1093 -41 2574
1077 -40 2514
1089 -40 2522
1080 -40 2480
1095 -40 2495
1084 -39 2448
1078 -39 2416
1082 -39 2405
1101 -39 2427
1096 -39 2397
1107 -39 2402
1097 -39 2362
1096 -38 2341
1105 -38 2340
1106 -38 2324
1094 -38 2281
1091 -37 2257
1063 -36 2181
1054 -36 2147
1047 -35 2116
1049 -35 2104
1052 -35 2093
1055 -35 2083
1053 -35 2064
1055 -34 2052
1062 -35 2049
1061 -34 2032
1060 -34 2016
1061 -34 2001
1066 -34 1996
1067 -34 1982
1066 -34 1966
1068 -34 1956
1068 -33 1942
1071 -33 1932
1069 -33 1914
-514 -5 896
-497 -4 873
-488 -4 865
-491 -4 876
-489 -4 879
-487 -4 882
-467 -4 851
-475 -4 873
-499 -5 923
-506 -5 944
-636 -7 1195
-1078 -13 2040
-1101 -14 2099
-1099 -14 2110
-1084 -14 2098
-1080 -14 2106
-1073 -14 2108
-1067 -14 2112
-1057 -14 2109
-1049 -14 2109
-1038 -14 2102
-1035 -14 2114
-1026 -14 2111
-1021 -14 2116
-1008 -14 2106
-1000 -14 2106
-993 -14 2109
-987 -14 2111
-977 -14 2106
-972 -14 2114
-963 -14 2110
-956 -14 2112
-952 -14 2119
-939 -14 2107
-915 -14 2071
-911 -14 2079
-906 -14 2084
-900 -14 2088
-896 -14 2096
-891 -14 2101
-878 -14 2087
-864 -14 2072
-863 -14 2087
-861 -14 2099
-855 -14 2102
-844 -14 2092
-827 -14 2068
-813 -14 2052
-818 -14 2081
-816 -14 2096
-812 -15 2104
-804 -15 2102
-800 -15 2109
-790 -15 2101
-781 -15 2096
-769 -15 2083
-767 -15 2096
-762 -15 2102
-739 -14 2057
-728 -14 2047
-734 -15 2081
-722 -15 2068
-725 -15 2095
-718 -15 2096
-709 -15 2088
-706 -15 2099
-700 -15 2103
-697 -15 2113
-694 -15 2126
-688 -15 2128
-676 -15 2114
-664 -15 2095
-649 -15 2069
-646 -15 2080
-642 -15 2091
-635 -15 2090
-633 -15 2104
-630 -15 2117
-619 -15 2101
-620 -16 2129
-614 -16 2130
-601 -15 2109
-596 -16 2116
-591 -16 2119
-582 -16 2111
-575 -16 2112
-570 -16 2115
-564 -16 2120
-558 -16 2121
-551 -16 2120
-544 -16 2116
-538 -16 2118
-533 -16 2125
-529 -16 2134
-522 -16 2134
-512 -16 2120
-507 -16 2123
-501 -16 2127
-494 -16 2126
-483 -16 2104
-428 -14 1891
-443 -15 1984
-484 -17 2194
-454 -16 2087
-508 -18 2368
-440 -16 2084
0 0 0
0 0 0
0 0 0
-974 -41 4870
-962 -41 4883
-949 -41 4895
-930 -41 4871
-919 -41 4886
-904 -41 4887
-888 -41 4878
-860 -40 4803
-841 -40 4776
-848 -41 4899
-835 -42 4909
-822 -42 4915
-808 -42 4917
-796 -42 4934
-783 -42 4943
-766 -42 4929
-751 -42 4926
-740 -43 4949
-723 -43 4932
-711 -43 4944
-699 -43 4967
-683 -43 4956
-671 -43 4969
-653 -43 4945
-637 -43 4936
-624 -43 4943
-611 -43 4959
-595 -43 4946
-582 -44 4956
-569 -44 4964
-552 -44 4945
-539 -44 4956
-526 -44 4968
-511 -44 4968
-497 -44 4969
-481 -44 4952
-469 -45 4974
-452 -44 4949
-439 -45 4960
-425 -45 4963
-409 -45 4952
-395 -45 4946
-381 -45 4956
-367 -45 4956
-352 -45 4950
-338 -45 4959
-324 -45 4955
-310 -45 4964
-298 -46 5004
0 0 0
0 0 0
0 0 0
0 0 0
0 0 0
-108 -23 2592
-111 -26 2835
0 0 0
0 0 0
0 0 0
0 0 0
0 0 0
0 0 0
0 0 0
0 0 0
0 0 0
0 0 0
0 0 0
0 0 0
0 0 0
0 0 0
0 0 0
0 0 0
0 0 0
0 0 0
0 0 0
0 0 0
0 0 0
0 0 0
0 0 0
0 0 0
0 0 0
0 0 0
0 0 0
0 0 0
0 0 0
0 0 0
0 0 0
0 0 0
0 0 0
0 0 0
0 0 0
0 0 0
0 0 0
0 0 0
0 0 0
0 0 0
0 0 0
193 -23 2363
0 0 0
155 -17 1766
0 0 0
0 0 0
0 0 0
0 0 0
0 0 0
0 0 0
270 -25 2504
288 -26 2604
300 -27 2641
335 -29 2876
352 -30 2947
364 -30 2977
338 -27 2694
335 -27 2613
0 0 0
0 0 0
0 0 0
0 0 0
0 0 0
158 -10 1068
146 -9 966
147 -9 957
152 -9 967
155 -9 973
155 -9 951
158 -9 951
162 -9 961
165 -9 964
169 -9 966
172 -9 970
177 -9 982
179 -9 976
184 -9 988
181 -9 955
186 -9 968
196 -10 1003
194 -9 978
201 -10 998
210 -10 1027
211 -10 1016
204 -9 967
209 -9 978
208 -9 962
211 -9 959
215 -9 963
211 -9 933
214 -9 936
194 -8 834
158 -6 669
112 -3 461
155 -6 637
109 -3 437
0 0 0
0 0 0
0 0 0
108 -3 411
134 -4 509
13 1 35
1259 -56 4794
15 0 43
1306 -57 4857
64 -1 222
0 0 0
0 0 0
0 0 0
0 0 0
0 0 0
1040 -42 3572
1037 -42 3525
1029 -41 3458
1046 -41 3479
1048 -41 3448
0 0 0
0 0 0
0 0 0
0 0 0
0 0 0
0 0 0
0 0 0
0 0 0
0 0 0
0 0 0
0 0 0
0 0 0
0 0 0
0 0 0
0 0 0
0 0 0
0 0 0
1039 -35 2865
1058 -36 2891
1064 -36 2880
1082 -36 2903
1081 -36 2874
1064 -35 2803
1046 -34 2732
1114 -36 2884
1061 -34 2721
1068 -34 2715
1034 -33 2605
1096 -35 2739
1039 -33 2573
1014 -31 2489
1075 -33 2619
1043 -32 2518
1036 -32 2480
1092 -33 2593
1047 -32 2464
1045 -31 2438
1083 -32 2508
1088 -32 2499
1048 -31 2386
1088 -32 2457
1056 -31 2367
1101 -32 2447
1110 -32 2448
1072 -31 2345
1094 -31 2373
1078 -31 2320
1094 -31 2336
1096 -31 2322
1106 -31 2324
1102 -31 2297
1090 -30 2256
1054 -29 2164
1051 -29 2141
1048 -28 2119
1052 -28 2109
1057 -28 2103
1052 -28 2078
1064 -28 2084
1056 -28 2054
1059 -28 2044
1059 -28 2028
1059 -28 2014
1063 -28 2005
1057 -27 1980
1060 -27 1969
1059 -27 1953
1064 -27 1948
1070 -27 1946
1072 -27 1934
1066 -27 1909
-504 -2 879
-499 -2 877
-496 -2 878
-480 -1 855
-483 -2 868
-484 -2 876
-473 -2 863
-476 -2 874
-471 -2 872
-490 -2 913
-645 -3 1211
-1087 -7 2057
-1105 -7 2107
-1097 -7 2107
-1091 -7 2111
-1081 -7 2108
-1072 -7 2107
-1065 -7 2110
-1056 -7 2107
-1047 -7 2106
-1041 -7 2110
-1034 -7 2111
-1026 -7 2110
-1017 -7 2110
-1011 -7 2112
-1003 -7 2113
-992 -7 2106
-984 -7 2106
-977 -7 2108
-969 -7 2107
-963 -7 2110
-958 -8 2116
-955 -8 2126
-942 -8 2115
-920 -8 2081
-908 -7 2071
-895 -7 2060
-896 -8 2077
-893 -8 2090
-887 -8 2092
-870 -8 2068
-868 -8 2083
-864 -8 2090
-857 -8 2090
-855 -8 2104
-846 -8 2100
-831 -8 2078
-818 -8 2065
-833 -8 2120
-815 -8 2092
-806 -8 2089
-796 -8 2081
-793 -8 2092
-783 -8 2083
-777 -8 2086
-773 -8 2095
-766 -8 2095
-764 -8 2107
-743 -8 2070
-740 -8 2080
-733 -8 2079
-729 -8 2086
-715 -8 2067
-718 -9 2097
-717 -9 2113
-707 -9 2102
-705 -9 2118
-694 -9 2106
-693 -9 2123
-687 -9 2127
-672 -9 2102
-664 -9 2098
-649 -9 2069
-645 -9 2078
-644 -9 2098
-628 -9 2067
-638 -9 2120
-628 -9 2111
-624 -9 2118
-617 -9 2119
-609 -9 2115
-600 -9 2105
-598 -9 2121
-589 -9 2113
-576 -9 2092
-576 -9 2115
-572 -9 2123
-565 -10 2124
-560 -10 2127
-552 -10 2122
-543 -10 2115
-542 -10 2134
-531 -10 2115
-528 -10 2132
-518 -10 2118
-513 -10 2123
-505 -10 2117
-504 -10 2141
-497 -10 2138
-478 -10 2082
-423 -9 1870
-453 -10 2030
-465 -10 2110
-443 -10 2040
-439 -10 2051
-452 -10 2138
-452 -10 2171
0 0 0
0 0 0
-972 -26 4864
-965 -27 4902
-944 -26 4866
-930 -27 4870
-915 -27 4868
-902 -27 4876
-884 -27 4857
-860 -26 4805
-841 -26 4774
-848 -27 4895
-837 -27 4916
-824 -28 4929
-808 -28 4921
-796 -28 4935
-780 -28 4926
-766 -28 4931
-752 -28 4932
-739 -28 4938
-726 -28 4954
-713 -28 4960
-697 -29 4952
-686 -29 4975
-670 -29 4969
-656 -29 4971
-641 -29 4962
-626 -29 4960
-611 -29 4960
-596 -29 4956
-582 -29 4955
-568 -29 4963
-554 -30 4966
-540 -30 4968
-525 -30 4960
-510 -30 4952
-496 -30 4955
-482 -30 4965
-467 -30 4952
-452 -30 4949
-439 -30 4963
-425 -30 4968
-410 -30 4959
-395 -30 4950
-381 -31 4956
-366 -31 4942
-353 -31 4958
-338 -31 4960
-323 -31 4943
-310 -31 4969
-302 -32 5060
0 0 0
0 0 0
0 0 0
-92 -11 1957
-53 -6 1225
-72 -10 1743
0 0 0
0 0 0
0 0 0
0 0 0
0 0 0
0 0 0
0 0 0
0 0 0
-32 -12 2065
0 0 0
0 0 0
0 0 0
0 0 0
0 0 0
0 0 0
0 0 0
0 0 0
0 0 0
0 0 0
0 0 0
0 0 0
0 0 0
0 0 0
0 0 0
0 0 0
0 0 0
0 0 0
0 0 0
0 0 0
0 0 0
0 0 0
0 0 0
0 0 0
0 0 0
0 0 0
0 0 0
0 0 0
0 0 0
0 0 0
0 0 0
174 -15 2289
0 0 0
157 -13 1909
0 0 0
173 -13 1965
137 -10 1498
146 -10 1557
134 -9 1377
143 -9 1428
156 -10 1512
0 0 0
256 -17 2374
275 -18 2485
287 -18 2525
352 -22 3025
339 -21 2835
359 -21 2938
343 -20 2739
330 -19 2574
323 -18 2457
0 0 0
0 0 0
0 0 0
0 0 0
158 -7 1070
143 -6 949
147 -6 956
151 -6 964
150 -6 939
159 -6 978
159 -6 959
166 -6 983
165 -6 959
168 -6 963
175 -6 988
176 -6 975
180 -6 981
187 -7 1003
190 -7 1003
190 -6 989
198 -7 1014
197 -7 993
204 -7 1014
206 -7 1008
206 -7 994
207 -7 981
212 -7 992
214 -7 986
210 -6 956
211 -6 947
219 -7 968
215 -6 939
179 -5 770
160 -4 675
0 0 0
0 0 0
0 0 0
127 -3 507
0 0 0
111 -2 428
135 -3 520
130 -2 494
31 0 105
19 0 57
1279 -42 4814
52 0 178
0 0 0
0 0 0
0 0 0
0 0 0
0 0 0
0 0 0
0 0 0
1026 -31 3488
1025 -30 3446
1042 -31 3467
1073 -31 3533
0 0 0
0 0 0
0 0 0
0 0 0
0 0 0
0 0 0
0 0 0
0 0 0
0 0 0
0 0 0
0 0 0
0 0 0
0 0 0
0 0 0
0 0 0
0 0 0
988 -25 2748
1048 -27 2888
1059 -27 2893
1070 -27 2896
1072 -27 2876
1088 -27 2892
1076 -27 2835
1112 -28 2903
1071 -26 2770
1093 -27 2804
1090 -26 2771
1051 -25 2648
1100 -26 2750
1059 -25 2623
1081 -26 2655
1081 -25 2631
1101 -26 2659
1066 -25 2553
1013 -23 2405
1125 -26 2649
1066 -24 2488
1030 -23 2385
990 -22 2272
1111 -25 2530
1029 -23 2324
1068 -24 2393
1052 -23 2338
1041 -23 2294
1052 -23 2301
1036 -22 2246
1092 -24 2351
1075 -23 2296
1088 -23 2305
1110 -24 2333
1086 -23 2265
1070 -23 2213
1056 -22 2168
1058 -22 2155
1062 -22 2146
1066 -22 2138
1068 -22 2126
1072 -22 2117
1060 -22 2077
1063 -22 2068
1062 -21 2050
1068 -22 2046
1067 -21 2028
1065 -21 2009
1063 -21 1990
1056 -21 1963
1062 -21 1959
1064 -21 1948
1069 -21 1944
1067 -21 1925
1072 -21 1920
-512 0 893
-508 0 894
-488 0 864
-500 0 891
-488 0 877
-481 0 871
-481 0 877
-477 0 877
-477 0 883
-511 0 953
-647 0 1215
-1086 0 2054
-1101 0 2098
-1097 0 2108
-1093 0 2116
-1080 0 2107
-1076 0 2114
-1066 0 2110
-1057 0 2109
-1048 0 2106
-1042 -1 2111
-1036 -1 2115
-1027 -1 2113
-1015 -1 2105
-1009 -1 2108
-1003 -1 2113
-995 -1 2113
-986 -1 2110
-976 -1 2106
-971 -1 2111
-963 -1 2110
-958 -1 2117
-954 -1 2125
-939 -1 2107
-912 -1 2064
-916 -1 2091
-897 -1 2065
-894 -1 2074
-893 -1 2088
-885 -1 2087
-878 -1 2089
-875 -1 2097
-860 -1 2079
-862 -1 2101
-851 -1 2093
-840 -2 2084
-831 -2 2079
-824 -2 2079
-821 -2 2091
-813 -2 2087
-815 -2 2111
-811 -2 2120
-795 -2 2096
-792 -2 2107
-786 -2 2111
-770 -2 2086
-765 -2 2092
-758 -2 2091
-750 -2 2089
-738 -2 2074
-739 -2 2097
-710 -2 2034
-727 -2 2103
-721 -2 2103
-713 -2 2102
-713 -2 2122
-699 -2 2101
-697 -2 2116
-691 -2 2118
-683 -3 2113
-675 -3 2112
-667 -3 2105
-646 -3 2062
-645 -3 2080
-641 -3 2087
-641 -3 2109
-631 -3 2099
-632 -3 2125
-623 -3 2116
-619 -3 2124
-610 -3 2119
-605 -3 2122
-593 -3 2103
-590 -3 2116
-576 -3 2090
-575 -3 2109
-569 -3 2112
-559 -3 2101
-561 -3 2131
-551 -3 2118
-544 -3 2116
-534 -3 2103
-532 -3 2122
-527 -3 2126
-519 -4 2121
-511 -4 2114
-505 -4 2116
-497 -4 2112
-494 -4 2124
-481 -4 2097
-462 -4 2042
-473 -4 2119
-476 -4 2162
-456 -4 2097
-467 -4 2177
-459 -4 2174
-458 -4 2199
0 0 0
0 0 0
-987 -12 4937
-962 -12 4888
-943 -12 4865
-930 -12 4869
-916 -12 4872
-901 -13 4873
-885 -13 4864
-858 -12 4790
-829 -12 4707
-850 -13 4908
-843 -13 4956
-828 -13 4951
-813 -13 4951
-799 -14 4955
-786 -14 4964
-768 -14 4943
-757 -14 4962
-739 -14 4944
-727 -14 4956
-714 -14 4969
-701 -14 4979
-687 -14 4982
-671 -14 4972
-658 -15 4985
-641 -15 4964
-630 -15 4994
-614 -15 4979
-599 -15 4981
-583 -15 4965
-574 -15 5012
-560 -15 5013
-541 -15 4977
-525 -15 4963
-511 -15 4966
-497 -16 4969
-481 -16 4959
-468 -16 4968
-454 -16 4968
-440 -16 4980
-425 -16 4972
-409 -16 4948
-394 -16 4946
-380 -16 4944
-366 -16 4951
-352 -16 4945
-337 -17 4945
-324 -17 4956
-310 -17 4971
-7 0 159
-90 -4 1617
-80 -4 1527
-95 -5 1902
0 0 0
-51 -3 1182
-38 -2 956
-35 -2 951
-42 -3 1205
-42 -3 1303
-36 -3 1254
-43 -5 1620
-48 -6 1999
-36 -5 1718
-37 -6 2005
-28 -6 1844
-24 -6 1919
-17 -6 1815
-13 -6 1928
-6 -5 1735
-1 -5 1746
3 -5 1771
8 -5 1741
13 -6 1795
19 -6 1878
24 -6 1865
27 -5 1690
31 -5 1637
37 -5 1712
43 -6 1753
50 -6 1819
56 -6 1841
56 -6 1694
57 -5 1564
78 -7 2020
75 -6 1790
76 -6 1708
0 0 0
96 -7 1905
0 0 0
0 0 0
0 0 0
0 0 0
0 0 0
0 0 0
165 -9 2353
173 -9 2371
177 -9 2324
171 -8 2162
167 -8 2038
170 -8 1999
165 -7 1880
140 -5 1536
143 -5 1519
156 -6 1606
146 -5 1464
129 -4 1251
128 -4 1200
162 -5 1490
212 -8 1905
0 0 0
0 0 0
0 0 0
306 -11 2500
0 0 0
0 0 0
348 -12 2655
0 0 0
0 0 0
0 0 0
0 0 0
0 0 0
151 -3 999
152 -3 989
149 -3 951
153 -3 957
157 -3 964
163 -3 986
170 -3 1008
169 -3 987
170 -3 976
173 -3 977
177 -3 983
199 -4 1084
215 -4 1153
237 -5 1255
245 -5 1278
268 -6 1377
246 -5 1243
222 -4 1103
217 -4 1061
219 -4 1057
208 -4 986
200 -3 936
204 -3 943
204 -3 929
209 -3 938
211 -3 934
214 -3 933
191 -3 820
140 -1 591
0 0 0
110 -1 448
0 0 0
130 -1 520
0 0 0
54 0 203
0 0 0
109 -1 411
51 0 182
1279 -28 4869
1280 -28 4817
32 0 106
54 0 185
0 0 0
0 0 0
0 0 0
0 0 0
0 0 0
0 0 0
0 0 0
1041 -20 3499
1052 -21 3499
0 0 0
0 0 0
0 0 0
0 0 0
0 0 0
0 0 0
0 0 0
0 0 0
0 0 0
0 0 0
0 0 0
994 -18 2928
1026 -18 2992
0 0 0
0 0 0
0 0 0
0 0 0
957 -16 2661
1034 -18 2851
1061 -18 2897
1069 -18 2894
1078 -18 2891
1082 -18 2875
1088 -18 2865
1077 -18 2812
1084 -18 2804
1105 -18 2834
1077 -18 2740
1073 -18 2705
1078 -18 2694
1103 -18 2732
1086 -18 2667
1090 -18 2654
1054 -17 2545
1083 -17 2592
1110 -18 2636
1057 -17 2487
1087 -17 2538
1073 -17 2485
1078 -17 2475
1055 -16 2402
1073 -16 2423
1036 -16 2321
1082 -16 2405
1060 -16 2337
1051 -16 2298
1080 -16 2344
1033 -15 2223
1041 -15 2223
1036 -15 2195
1041 -15 2188
1095 -16 2283
1088 -16 2250
1076 -16 2208
1065 -15 2169
1077 -16 2177
1080 -16 2166
1086 -16 2162
1084 -16 2141
1071 -15 2098
1069 -15 2079
1070 -15 2065
1071 -15 2051
1067 -15 2029
1065 -15 2010
1066 -15 1995
1068 -15 1986
1070 -15 1973
1068 -15 1956
1072 -15 1948
1069 -15 1929
1068 -15 1912
-490 3 855
-501 3 881
-496 3 878
-493 3 879
-488 3 877
-484 3 877
-484 3 882
-481 3 883
-477 3 883
-504 3 941
-649 4 1219
-1086 5 2055
-1104 6 2104
-1093 5 2100
-1090 5 2110
-1082 5 2110
-1074 5 2110
-1067 5 2112
-1055 5 2106
-1050 5 2111
-1039 5 2104
-1035 5 2114
-1026 5 2111
-1019 5 2113
-1011 5 2113
-1005 5 2116
-996 5 2114
-986 5 2111
-979 5 2111
-969 5 2106
-964 5 2113
-956 5 2113
-950 5 2117
-941 4 2113
-914 4 2068
-904 4 2062
-907 4 2088
-899 4 2084
-884 4 2068
-893 4 2105
-882 4 2098
-873 4 2093
-864 4 2090
-859 4 2096
-847 4 2083
-840 4 2083
-834 4 2088
-827 4 2087
-816 4 2078
-820 4 2106
-810 4 2100
-796 4 2082
-796 4 2099
-779 3 2074
-780 3 2096
-776 3 2104
-767 3 2099
-764 3 2110
-738 3 2056
-736 3 2069
-735 3 2085
-714 3 2046
-718 3 2078
-724 3 2113
-711 3 2096
-711 3 2115
-699 3 2100
-700 3 2124
-685 3 2100
-681 3 2108
-674 3 2106
-665 3 2099
-646 3 2062
-650 3 2095
-642 3 2092
-637 3 2095
-630 2 2096
-631 2 2122
-619 2 2104
-616 2 2114
-608 2 2112
-603 2 2118
-595 2 2112
-591 2 2122
-583 2 2117
-572 2 2099
-571 2 2122
-563 2 2113
-560 2 2129
-552 2 2123
-542 2 2110
-539 2 2124
-533 2 2127
-525 2 2118
-518 2 2119
-511 2 2115
-507 2 2127
-500 2 2123
-491 2 2111
-490 2 2135
-487 1 2152
-475 1 2125
-443 1 2013
-453 1 2086
-462 1 2155
-469 1 2219
0 0 0
0 0 0
0 0 0
0 0 0
1 1 0
-939 1 4842
-927 1 4855
-909 1 4837
-901 1 4872
-883 1 4854
-861 0 4812
-821 0 4661
-859 0 4963
2 1 -1
-834 0 4989
-1 1 20
-5 1 45
-5 1 45
-777 0 4998
1 1 1
-1 1 26
1 1 2
0 1 12
0 1 17
-3 1 41
-2 1 37
-3 1 40
-1 1 28
-4 1 51
-13 1 127
-8 1 90
-12 1 121
-17 1 169
-20 1 201
-8 1 103
0 1 17
-517 -1 5022
-497 -1 4971
-484 -1 4985
-472 -1 5009
0 1 30
-4 1 81
-430 -2 5030
-410 -2 4964
-394 -2 4937
-379 -2 4936
-365 -2 4936
-352 -2 4951
-338 -2 4959
-324 -2 4968
1 1 22
-45 0 802
-77 0 1406
-85 0 1620
-92 0 1836
0 0 0
-40 0 938
-39 0 986
-34 0 918
0 0 0
-33 0 1062
-40 0 1385
-44 0 1661
-39 0 1653
-37 0 1770
-31 0 1728
-27 0 1757
-22 0 1756
-16 0 1728
-11 0 1733
-5 0 1531
-1 0 1623
3 0 1558
7 0 1624
12 0 1635
16 0 1551
21 0 1627
28 0 1741
30 0 1560
35 0 1594
40 0 1632
41 0 1474
50 -1 1643
54 -1 1630
58 0 1591
62 0 1576
69 -1 1634
70 -1 1553
70 0 1462
80 -1 1581
91 -1 1710
97 -1 1730
0 0 0
0 0 0
0 0 0
0 0 0
0 0 0
153 -2 2087
162 -2 2123
164 -2 2071
169 -2 2056
161 -2 1896
160 -2 1813
136 -1 1491
153 -1 1628
137 -1 1413
158 -1 1586
142 -1 1380
139 -1 1308
133 -1 1215
129 0 1153
138 -1 1198
119 0 1003
0 0 0
0 0 0
0 0 0
0 0 0
0 0 0
0 0 0
0 0 0
0 0 0
0 0 0
0 0 0
191 -1 1274
154 0 1003
156 0 994
162 0 1013
166 0 1020
173 -1 1047
197 -1 1169
189 -1 1104
183 -1 1052
178 -1 1001
177 -1 978
202 -1 1100
296 -2 1597
389 -3 2073
401 -4 2102
402 -4 2076
393 -3 1996
301 -2 1502
258 -1 1266
256 -1 1238
232 -1 1104
198 -1 927
210 -1 967
205 -1 934
190 0 851
199 -1 881
198 -1 863
182 0 783
144 0 607
172 0 719
115 0 470
0 0 0
0 0 0
0 0 0
0 0 0
89 0 335
152 0 581
61 0 220
6 1 7
25 1 79
64 0 224
89 0 314
0 0 0
0 0 0
0 0 0
0 0 0
0 0 0
0 0 0
0 0 0
0 0 0
0 0 0
0 0 0
0 0 0
0 0 0
0 0 0
0 0 0
0 0 0
0 0 0
0 0 0
0 0 0
0 0 0
1040 -10 3094
1044 -10 3074
1040 -9 3034
1012 -9 2923
0 0 0
0 0 0
0 0 0
955 -8 2656
1050 -9 2895
1058 -9 2891
1067 -10 2887
1076 -10 2886
1082 -10 2876
1094 -10 2881
1082 -10 2824
1088 -10 2817
1091 -10 2798
1070 -9 2720
1064 -9 2681
1078 -9 2693
1093 -9 2708
1084 -9 2661
1082 -9 2636
1084 -9 2617
1092 -9 2615
1084 -9 2573
1081 -9 2546
1083 -9 2527
1105 -9 2560
1096 -9 2516
1088 -9 2477
1086 -9 2453
1088 -9 2437
1082 -9 2406
1097 -9 2419
1093 -9 2391
1090 -9 2366
1099 -9 2364
1086 -9 2318
1055 -9 2235
1102 -9 2316
1097 -9 2288
1091 -9 2258
1097 -9 2251
1092 -9 2224
1075 -9 2173
1090 -9 2185
1095 -9 2179
1099 -9 2170
1097 -9 2150
1094 -9 2127
1092 -9 2109
1090 -9 2088
1098 -9 2087
1087 -9 2050
1090 -9 2042
1073 -8 1994
1083 -9 1998
1074 -8 1966
1072 -8 1948
1077 -8 1943
1073 -8 1921
-503 6 879
-501 6 881
-492 6 871
-497 6 887
-491 6 882
-486 6 881
-474 6 865
-480 6 881
-475 6 879
-496 6 926
-652 8 1224
-1086 12 2055
-1106 12 2109
-1092 12 2099
-1088 12 2105
-1081 12 2108
-1073 12 2109
-1066 12 2111
-1055 12 2104
-1050 12 2110
-1041 12 2110
-1033 12 2110
-1024 12 2106
-1021 12 2117
-1009 12 2109
-1003 11 2113
-995 11 2112
-985 11 2108
-979 11 2112
-970 11 2108
-962 11 2109
-955 11 2111
-952 11 2120
-937 11 2103
-918 11 2077
-915 11 2089
-904 11 2081
-891 11 2067
-895 11 2095
-884 11 2085
-873 10 2077
-870 10 2087
-864 10 2089
-856 10 2088
-853 10 2099
-842 10 2090
-842 10 2106
-823 10 2078
-825 10 2101
-813 10 2089
-811 10 2101
-806 10 2106
-792 10 2088
-788 10 2097
-782 10 2100
-780 10 2115
-769 10 2102
-758 10 2093
-749 10 2086
-733 9 2060
-732 9 2078
-727 9 2082
-715 9 2069
-716 9 2091
-718 9 2116
-709 9 2111
-708 9 2126
-695 9 2109
-686 9 2103
-682 9 2110
-674 9 2108
-665 9 2099
-649 9 2070
-650 9 2096
-639 9 2080
-635 9 2088
-633 9 2104
-631 9 2120
-624 9 2121
-619 9 2126
-608 9 2112
-601 9 2110
-597 9 2120
-585 8 2100
-585 8 2123
-574 8 2108
-571 8 2121
-561 8 2107
-558 8 2119
-550 8 2116
-549 8 2136
-540 8 2128
-529 8 2111
-528 8 2131
-519 8 2121
-515 8 2133
-505 8 2119
-500 8 2125
-492 8 2118
-486 8 2121
-489 8 2162
-493 8 2206
-511 8 2318
-507 8 2331
-485 8 2264
-521 9 2465
-501 8 2403
0 0 0
0 0 0
0 0 0
0 0 0
0 0 0
-923 15 4837
-914 15 4864
-895 15 4837
-880 15 4836
-843 14 4708
-780 13 4430
-861 15 4977
-11 1 79
-2 1 27
-15 1 108
-11 1 85
2 1 -4
-3 1 33
0 1 8
-2 1 31
-8 1 73
-6 1 59
-5 1 50
1 1 7
-8 1 80
-7 1 70
-7 1 73
-15 1 142
-44 2 375
-47 2 409
-39 2 355
-45 2 412
-41 2 389
-39 2 383
-24 2 253
-1 1 38
-496 12 4958
-483 12 4976
-474 12 5036
-49 2 569
-62 3 724
-22 2 293
-413 12 4998
-395 11 4951
-381 11 4955
-366 11 4945
-354 11 4987
-341 11 4995
2 1 -1
-42 2 714
-68 3 1180
-78 4 1412
-84 4 1604
-91 5 1832
0 0 0
-32 2 778
-30 2 777
-28 2 778
-20 2 618
-28 3 898
-38 3 1327
-39 4 1490
-39 4 1649
-32 4 1556
-29 4 1604
-22 3 1463
-17 3 1408
-14 4 1564
-10 4 1562
-5 3 1486
-1 4 1661
3 3 1560
7 3 1406
12 4 1659
15 3 1480
22 3 1678
26 3 1612
29 3 1544
32 3 1452
36 3 1428
45 3 1622
45 3 1466
47 3 1415
56 3 1542
56 3 1435
66 3 1576
65 3 1450
74 3 1541
75 3 1475
83 3 1556
94 3 1672
96 3 1624
111 3 1789
0 0 0
0 0 0
0 0 0
151 3 2054
147 3 1925
149 3 1883
150 3 1820
152 3 1781
142 3 1611
146 3 1598
144 2 1531
144 2 1478
127 2 1270
123 2 1192
120 2 1129
120 2 1094
119 2 1057
108 2 929
92 2 770
120 2 984
99 2 788
0 0 0
0 0 0
0 0 0
0 0 0
0 0 0
0 0 0
0 0 0
0 0 0
198 2 1322
173 2 1127
159 2 1013
158 1 989
157 1 962
220 2 1336
274 2 1635
230 2 1346
189 1 1081
172 1 971
182 1 1009
218 1 1189
328 2 1773
436 2 2324
436 2 2290
455 2 2350
450 1 2289
415 1 2080
243 1 1192
264 1 1275
240 1 1143
184 1 858
197 1 906
206 1 936
203 1 909
202 1 892
165 1 716
172 1 738
195 1 828
146 1 608
158 1 649
121 1 489
144 1 577
0 0 0
73 1 278
89 1 338
52 1 187
13 1 35
6 1 8
14 1 38
0 0 0
84 1 296
0 0 0
0 0 0
0 0 0
0 0 0
0 0 0
0 0 0
0 0 0
0 0 0
0 0 0
0 0 0
0 0 0
0 0 0
0 0 0
0 0 0
0 0 0
0 0 0
0 0 0
0 0 0
0 0 0
1066 0 3170
1054 0 3104
1070 0 3121
1060 0 3062
0 0 0
0 0 0
0 0 0
994 0 2765
1056 -1 2911
1058 -1 2890
1068 -1 2891
1082 -1 2903
1081 -1 2874
1088 -1 2866
1084 -1 2830
1084 -1 2805
1073 -1 2752
1080 -1 2747
1070 -1 2696
1096 -1 2739
1078 -1 2671
1078 -1 2647
1087 -1 2647
1086 -1 2622
1080 -1 2585
1093 -1 2595
1095 -1 2578
1090 -1 2544
1101 -1 2548
1101 -2 2529
1096 -2 2497
1105 -2 2496
1109 -2 2484
1089 -2 2419
1098 -2 2420
1101 -2 2407
1088 -2 2360
1108 -2 2384
1095 -2 2337
1083 -2 2293
1077 -2 2263
1111 -2 2317
1107 -2 2290
1107 -2 2272
1101 -2 2243
1090 -2 2203
1092 -2 2190
1100 -2 2190
1107 -2 2187
1102 -2 2160
1101 -2 2142
1107 -2 2136
1098 -2 2104
1111 -2 2113
1103 -2 2082
1107 -2 2073
1105 -2 2053
1099 -2 2027
1089 -2 1994
1094 -2 1989
1086 -2 1960
1084 -2 1942
-502 9 877
-488 9 858
-494 9 875
-489 9 873
-495 9 890
-481 9 871
-472 9 860
-477 9 876
-493 9 913
-515 9 960
-648 11 1218
-1092 19 2067
-1098 19 2094
-1097 19 2107
-1091 19 2113
-1082 19 2111
-1072 19 2106
-1068 19 2116
-1060 19 2115
-1050 18 2111
-1043 18 2114
-1037 18 2117
-1027 18 2113
-1017 18 2109
-1011 18 2114
-1003 18 2112
-991 18 2103
-987 18 2113
-979 18 2112
-974 18 2119
-965 18 2116
-960 18 2120
-953 18 2121
-932 17 2093
-924 17 2091
-909 17 2074
-911 17 2097
-883 17 2048
-892 17 2086
-883 17 2084
-875 17 2081
-880 17 2110
-869 17 2102
-857 17 2089
-855 17 2103
-840 17 2083
-840 17 2103
-822 16 2076
-826 17 2104
-812 16 2087
-811 16 2102
-803 16 2099
-794 16 2094
-787 16 2094
-781 16 2097
-774 16 2097
-771 16 2108
-756 16 2085
-747 16 2081
-734 16 2064
-733 16 2080
-723 16 2071
-720 16 2081
-720 16 2102
-714 16 2106
-709 16 2111
-702 16 2109
-703 16 2135
-687 15 2104
-687 16 2125
-672 15 2100
-665 15 2100
-646 15 2060
-648 15 2090
-643 15 2094
-637 15 2098
-630 15 2096
-627 15 2108
-621 15 2109
-616 15 2116
-608 15 2111
-604 15 2120
-594 15 2107
-588 15 2111
-585 15 2123
-578 15 2121
-569 15 2115
-565 15 2124
-555 14 2110
-553 15 2128
-546 14 2124
-537 14 2117
-532 14 2121
-528 14 2132
-521 14 2128
-513 14 2124
-505 14 2118
-497 14 2112
-494 14 2125
-491 14 2140
-496 14 2193
-535 16 2396
-608 18 2756
-614 18 2823
-599 18 2794
-593 18 2804
-598 18 2871
-614 19 2988
-619 19 3057
-607 19 3042
-606 19 3081
-612 19 3160
-678 22 3557
-672 22 3578
-674 22 3647
-676 22 3721
-618 21 3458
-595 20 3387
-616 21 3566
-614 21 3614
-611 22 3661
-577 21 3519
-564 21 3501
-553 20 3495
-555 21 3579
-567 22 3725
-555 21 3717
-597 23 4080
-582 23 4054
-573 23 4075
-565 23 4107
-568 24 4212
-583 25 4421
-581 25 4509
-585 26 4644
0 0 0
0 0 0
0 0 0
-28 2 268
-37 3 357
-52 4 504
0 0 0
-507 26 4929
-490 26 4900
-476 26 4907
-466 26 4953
0 0 0
0 0 0
0 0 0
-415 26 5023
-398 26 4999
-383 26 4981
-368 26 4977
-357 26 5020
-19 3 315
-49 5 786
-70 7 1160
-71 7 1233
-70 7 1271
-77 8 1467
0 0 0
0 0 0
-27 4 658
-15 3 414
-19 4 543
0 0 0
0 0 0
-29 6 1030
-33 7 1282
-35 8 1504
-30 8 1476
-23 7 1320
-25 9 1663
-22 9 1784
-13 8 1475
-8 7 1291
-3 6 1210
0 7 1400
3 7 1409
7 7 1370
11 7 1451
14 7 1365
19 7 1415
23 7 1426
28 7 1469
30 7 1367
34 7 1352
38 7 1371
45 7 1478
49 7 1459
50 7 1360
58 7 1467
63 7 1501
72 8 1594
71 7 1483
70 7 1382
74 7 1372
86 7 1526
80 6 1343
0 0 0
0 0 0
0 0 0
0 0 0
153 9 2084
145 8 1892
0 0 0
132 7 1595
154 8 1810
141 7 1594
126 6 1383
153 7 1625
134 6 1374
131 6 1306
130 6 1253
126 5 1186
123 5 1126
112 5 990
90 4 772
92 4 771
100 4 817
93 4 742
95 4 743
105 4 803
94 4 697
134 5 987
0 0 0
0 0 0
0 0 0
0 0 0
203 6 1353
165 5 1074
159 4 1016
146 4 914
175 5 1075
243 6 1476
280 7 1671
0 0 0
193 5 1105
181 4 1017
187 4 1034
210 5 1145
308 6 1661
366 7 1950
413 8 2165
431 8 2225
455 8 2313
359 7 1793
239 5 1172
0 0 0
0 0 0
184 4 860
181 4 834
164 3 741
185 4 829
181 3 796
194 4 846
205 4 881
194 3 822
171 3 714
0 0 0
158 3 642
176 3 709
178 3 707
116 2 449
116 2 444
84 2 313
16 1 47
20 1 60
1303 14 4901
51 2 176
0 0 0
0 0 0
0 0 0
0 0 0
0 0 0
0 0 0
0 0 0
1019 10 3460
1028 10 3456
1038 10 3451
0 0 0
0 0 0
0 0 0
0 0 0
0 0 0
0 0 0
0 0 0
0 0 0
0 0 0
1086 8 3262
1058 8 3147
1053 8 3101
1059 8 3088
1060 8 3062
0 0 0
0 0 0
0 0 0
962 7 2675
1047 7 2885
1062 7 2900
1070 7 2896
1077 7 2890
1079 7 2868
1092 7 2876
1084 7 2829
1085 7 2807
1090 6 2796
1092 6 2775
1097 6 2764
1085 6 2710
1078 6 2669
1079 6 2649
1087 6 2647
1104 6 2666
1091 6 2611
1091 6 2591
1090 6 2567
1102 5 2574
1095 5 2535
1103 5 2532
1101 5 2508
1097 5 2477
1101 5 2467
1097 5 2438
1116 5 2461
1105 5 2416
1100 5 2386
1111 5 2391
1103 5 2354
1094 4 2317
1106 4 2323
1105 4 2304
1108 4 2293
1107 4 2271
1114 4 2268
1096 4 2215
1102 4 2209
1100 4 2188
1105 4 2183
1107 4 2170
1112 4 2162
1105 4 2132
1117 4 2139
1107 4 2104
1111 4 2097
1111 3 2080
1113 3 2068
1109 3 2046
1104 3 2022
1099 3 1997
1100 3 1985
1101 3 1971
-503 12 877
-490 12 861
-506 12 896
-495 12 884
-483 11 867
-486 12 880
-480 12 876
-483 12 888
-484 12 897
-531 13 990
-646 15 1214
-1086 25 2056
-1104 26 2105
-1097 26 2107
-1087 25 2103
-1077 25 2101
-1075 25 2112
-1064 25 2106
-1060 25 2114
-1047 25 2106
-1044 25 2116
-1033 25 2109
-1025 25 2110
-1020 25 2116
-1009 25 2109
-1004 25 2116
-990 25 2102
-986 25 2109
-980 24 2113
-975 24 2119
-966 24 2118
-959 24 2119
-950 24 2116
-942 24 2116
-920 24 2083
-914 24 2085
-901 23 2073
-888 23 2061
-887 23 2075
-887 23 2093
-885 24 2105
-878 23 2105
-870 23 2104
-863 23 2106
-843 23 2073
-838 23 2079
-835 23 2090
-831 23 2098
-817 23 2081
-810 23 2080
-806 23 2089
-798 23 2087
-798 23 2104
-787 23 2094
-782 23 2101
-775 23 2101
-766 22 2094
-760 22 2097
-746 22 2077
-731 22 2056
-735 22 2086
-725 22 2078
-718 22 2077
-721 22 2104
-714 22 2104
-703 22 2092
-706 22 2120
-693 22 2103
-690 22 2115
-686 22 2123
-675 22 2111
-661 21 2088
-650 21 2075
-647 21 2085
-644 21 2099
-637 21 2097
-630 21 2095
-624 21 2097
-627 21 2130
-617 21 2120
-610 21 2116
-602 21 2115
-600 21 2131
-591 21 2123
-584 21 2121
-578 21 2123
-570 21 2116
-564 21 2119
-561 21 2131
-551 21 2120
-543 21 2115
-539 21 2122
-532 21 2124
-522 20 2110
-516 20 2109
-511 20 2117
-508 20 2132
-501 20 2127
-498 20 2142
-498 21 2172
-526 22 2323
-613 26 2741
-654 28 2965
-653 28 3003
-654 28 3048
-650 28 3074
-645 28 3094
-640 29 3114
-633 29 3128
-628 29 3148
-615 28 3130
-610 29 3151
-606 29 3181
-599 29 3194
-595 29 3224
-582 29 3205
-571 29 3196
-562 29 3196
-554 29 3209
-546 29 3215
-538 29 3227
-526 28 3211
-518 28 3220
-508 28 3217
-500 28 3226
-490 28 3220
-483 28 3237
-475 28 3244
-464 28 3239
-454 28 3234
-447 28 3248
-437 28 3246
-429 28 3257
-419 28 3257
-408 28 3247
-396 27 3224
-386 27 3217
-379 27 3234
-371 27 3247
-360 27 3236
-349 27 3221
-342 27 3249
-339 28 3309
-343 29 3440
-335 29 3459
-312 28 3325
-291 27 3199
-281 26 3192
-272 26 3196
-267 27 3242
-307 32 3867
-383 40 4982
-368 40 4986
0 1 31
-55 8 850
-59 8 935
-66 10 1100
-61 9 1059
-55 9 1018
-62 10 1202
0 0 0
0 0 0
-14 4 369
-5 3 200
-2 2 139
0 0 0
0 0 0
0 0 0
0 0 0
0 0 0
0 0 0
0 0 0
0 0 0
0 0 0
-13 12 1461
-8 11 1388
-4 11 1409
0 12 1445
3 10 1264
6 11 1332
10 10 1276
13 10 1168
17 10 1275
22 11 1349
25 10 1285
32 11 1436
35 11 1381
40 11 1446
40 10 1293
47 11 1401
49 11 1348
60 12 1521
54 10 1268
0 0 0
0 0 0
68 10 1342
81 12 1509
0 0 0
89 11 1493
0 0 0
0 0 0
0 0 0
0 0 0
0 0 0
0 0 0
160 15 2018
0 0 0
134 12 1572
125 11 1409
124 10 1353
127 10 1344
130 10 1333
128 10 1276
121 9 1170
113 8 1058
126 9 1147
90 6 797
91 6 778
88 6 733
87 6 710
83 5 657
92 6 714
76 5 576
81 5 595
73 4 523
94 5 665
0 0 0
0 0 0
0 0 0
0 0 0
140 7 906
154 7 981
154 7 962
168 8 1032
208 9 1263
263 11 1568
0 0 0
221 9 1273
213 8 1204
212 8 1175
259 10 1420
0 0 0
0 0 0
0 0 0
380 13 1961
409 14 2078
0 0 0
0 0 0
255 8 1232
240 8 1141
173 6 807
199 7 919
213 7 969
167 5 745
172 6 758
175 6 761
163 5 698
161 5 679
163 5 678
188 6 776
112 4 449
0 0 0
113 4 441
141 4 549
94 3 356
38 2 135
7 1 11
1287 29 4900
20 1 61
46 2 156
22 1 67
0 0 0
0 0 0
0 0 0
0 0 0
0 0 0
1033 21 3547
1015 20 3449
1035 20 3479
1031 20 3427
1060 20 3489
0 0 0
0 0 0
0 0 0
0 0 0
0 0 0
0 0 0
0 0 0
0 0 0
1043 18 3130
1053 18 3131
1057 17 3113
1069 17 3119
1063 17 3072
0 0 0
0 0 0
0 0 0
994 15 2763
1048 16 2889
1060 16 2896
1071 16 2900
1076 16 2887
1078 16 2864
1106 16 2913
1077 15 2810
1079 15 2793
1058 15 2713
1085 15 2757
1078 15 2716
1092 15 2729
1077 14 2667
1083 14 2660
1096 14 2667
1091 14 2635
1084 14 2596
1090 14 2587
1096 13 2579
1093 13 2550
1098 13 2543
1116 13 2563
1108 13 2523
1105 13 2496
1109 13 2485
1107 13 2460
1103 12 2432
1108 12 2422
1102 12 2391
1106 12 2379
1112 12 2374
1113 12 2358
1102 12 2315
1112 12 2319
1110 12 2295
1111 11 2280
1109 11 2258
1095 11 2213
1105 11 2216
1105 11 2198
1110 11 2191
1117 11 2188
1112 11 2162
1121 11 2164
1110 10 2126
1114 10 2118
1117 10 2108
1123 10 2103
1120 10 2082
1113 10 2053
1116 10 2044
1119 10 2034
1125 10 2030
1110 10 1988
-496 14 866
-498 15 876
-497 15 881
-500 15 892
-498 15 895
-490 15 888
-481 14 878
-466 14 857
-493 15 912
-493 15 920
-644 19 1211
-1091 32 2064
-1102 32 2102
-1096 32 2105
-1087 32 2105
-1080 32 2107
-1072 32 2107
-1064 32 2107
-1057 32 2109
-1050 32 2111
-1042 32 2112
-1034 32 2112
-1025 32 2110
-1017 31 2109
-1011 31 2114
-1002 31 2111
-994 31 2110
-987 31 2112
-980 31 2113
-971 31 2112
-967 31 2121
-959 31 2118
-950 31 2117
-938 31 2105
-920 30 2083
-910 30 2076
-894 30 2057
-885 30 2054
-899 30 2102
-875 30 2065
-875 30 2082
-873 30 2093
-866 30 2094
-854 29 2084
-841 29 2070
-835 29 2071
-834 29 2086
-835 30 2108
-827 29 2107
-813 29 2088
-816 29 2115
-800 29 2093
-793 29 2092
-789 29 2100
-780 29 2095
-776 29 2104
-768 29 2100
-759 29 2094
-744 28 2073
-737 28 2071
-731 28 2076
-729 28 2090
-716 28 2072
-720 28 2104
-717 28 2112
-707 28 2106
-701 28 2107
-695 28 2110
-695 28 2130
-682 28 2111
-676 28 2113
-663 28 2094
-652 28 2080
-650 28 2096
-644 28 2097
-629 27 2070
-631 27 2098
-629 28 2115
-622 28 2114
