VERSION 0.7
FIELDS x y z
SIZE 4 4 4
TYPE I I I
COUNT 1 1 1
WIDTH 3626
HEIGHT 1
VIEWPOINT 0.0 0.0 0.0 1.0 0.0 0.0 0.0
POINTS 3626
DATA ascii
199 -898 3097
209 -901 3108
218 -900 3105
226 -898 3097
234 -892 3076
246 -903 3113
259 -916 3155
266 -909 3131
277 -915 3150
291 -930 3201
296 -916 3154
306 -916 3150
311 -904 3107
320 -905 3111
333 -914 3142
341 -910 3125
354 -921 3165
364 -923 3170
375 -925 3176
380 -915 3138
391 -920 3157
399 -916 3140
406 -912 3124
422 -926 3172
0 0 0
421 -883 3024
431 -885 3029
446 -898 3070
451 -891 3045
469 -907 3098
479 -908 3102
481 -895 3057
454 -828 2825
354 -632 2157
273 -478 1630
204 -349 1189
194 -327 1113
196 -324 1102
200 -324 1104
201 -321 1092
205 -322 1094
205 -317 1077
210 -319 1085
217 -325 1104
221 -326 1107
228 -331 1124
227 -325 1103
232 -328 1110
235 -328 1111
238 -327 1105
235 -319 1079
234 -312 1056
241 -317 1072
246 -320 1080
248 -319 1075
255 -323 1089
231 -289 973
133 -162 547
52 -59 200
85 -99 335
67 -76 255
70 -79 267
58 -63 213
49 -52 175
47 -50 168
1233 -1400 4681
31 -30 101
28 -26 88
1270 -1394 4651
0 0 0
0 0 0
0 0 0
0 0 0
0 0 0
0 0 0
0 0 0
0 0 0
0 0 0
0 0 0
0 0 0
0 0 0
0 0 0
0 0 0
0 0 0
0 0 0
0 0 0
0 0 0
0 0 0
0 0 0
0 0 0
0 0 0
0 0 0
0 0 0
0 0 0
0 0 0
0 0 0
0 0 0
1041 -863 2804
1064 -875 2839
1086 -886 2872
1096 -887 2872
1087 -872 2821
1097 -874 2822
1106 -874 2819
1093 -856 2760
1096 -852 2742
1106 -853 2742
1103 -844 2710
1088 -826 2650
1096 -826 2646
1099 -822 2631
1066 -791 2528
1067 -786 2508
1059 -774 2469
1074 -779 2482
1074 -774 2461
1096 -784 2489
1128 -801 2541
1110 -783 2480
1106 -775 2450
1113 -774 2444
1102 -761 2400
1119 -767 2417
1111 -757 2380
1109 -750 2356
1114 -748 2347
1117 -745 2334
1115 -739 2311
1125 -741 2313
1125 -736 2295
1125 -731 2276
1121 -724 2250
1098 -704 2186
1114 -710 2199
1110 -703 2174
1105 -695 2148
1117 -698 2154
1120 -696 2143
1124 -694 2133
1123 -689 2114
1131 -689 2113
1124 -681 2084
1139 -686 2096
1135 -679 2072
1147 -683 2078
1138 -673 2046
1135 -668 2025
1144 -669 2025
1143 -664 2008
1145 -662 1997
1141 -656 1975
1143 -653 1963
-744 -398 1235
-563 -303 942
-497 -269 838
-488 -266 828
-488 -267 834
-489 -269 842
-480 -266 833
-472 -263 826
-475 -267 838
-462 -261 820
-465 -264 833
-466 -266 841
-475 -273 862
-476 -275 871
-491 -285 905
-473 -277 879
-481 -283 901
-568 -337 1073
-1023 -610 1946
-1078 -647 2067
-1069 -646 2066
-1057 -642 2058
-1050 -643 2062
-1042 -642 2063
-1039 -644 2072
-1028 -642 2068
-1021 -641 2069
-1017 -643 2078
-1001 -637 2062
-994 -637 2064
-985 -636 2062
-978 -636 2065
-945 -618 2010
-958 -631 2055
-960 -637 2077
-955 -638 2083
-945 -636 2078
-930 -631 2063
-912 -622 2038
-900 -619 2030
-898 -622 2042
-880 -614 2019
-876 -616 2027
-859 -608 2004
-862 -615 2029
-853 -613 2026
-846 -613 2027
-848 -619 2047
-831 -611 2025
-833 -618 2048
-821 -614 2037
-818 -616 2046
-785 -596 1983
-750 -574 1912
-775 -598 1994
-767 -596 1989
-747 -585 1955
-747 -591 1975
-760 -606 2028
-762 -613 2052
-745 -604 2026
-735 -602 2019
-731 -603 2027
-724 -603 2027
-717 -602 2026
-717 -607 2044
-709 -606 2042
-696 -600 2024
-695 -605 2042
-688 -605 2043
-686 -608 2057
-676 -605 2048
-669 -604 2046
-670 -611 2070
-663 -610 2070
-653 -608 2063
-644 -605 2054
-635 -602 2046
-626 -600 2042
-626 -605 2061
-612 -598 2039
-603 -596 2031
-603 -602 2054
-600 -605 2065
-591 -603 2058
-578 -595 2035
-572 -596 2039
-571 -602 2060
-569 -606 2075
-563 -606 2077
-554 -604 2070
-550 -606 2080
-542 -604 2073
-538 -607 2084
-527 -602 2068
-519 -599 2060
-516 -603 2075
-504 -597 2054
-501 -601 2070
-495 -601 2072
-491 -604 2083
-482 -601 2073
-479 -604 2086
-491 -628 2168
-532 -690 2382
-551 -723 2500
-526 -700 2421
-496 -670 2318
0 0 0
-624 -867 3001
0 0 0
-843 -1204 4172
-784 -1137 3941
-775 -1141 3956
-808 -1210 4195
-806 -1225 4252
-791 -1221 4238
-780 -1225 4252
-770 -1229 4269
-746 -1210 4205
-712 -1175 4085
0 0 0
0 0 0
-581 -1012 3522
-570 -1012 3520
-556 -1005 3500
-552 -1016 3539
-693 -1300 4527
-3 -9 34
-704 -1374 4787
-657 -1310 4565
-668 -1358 4736
-661 -1375 4795
-649 -1378 4806
-627 -1361 4750
-611 -1358 4741
-603 -1372 4790
-584 -1360 4749
-3 -14 51
-1 -8 28
-4 -17 61
-14 -42 148
-522 -1383 4834
-486 -1324 4629
-449 -1261 4409
-425 -1230 4301
-415 -1237 4325
-404 -1244 4349
-392 -1248 4364
-381 -1254 4387
-369 -1255 4391
-355 -1253 4383
-345 -1263 4419
-332 -1263 4419
-320 -1267 4434
-303 -1255 4392
-282 -1220 4271
-225 -1021 3576
-190 -907 3176
-170 -854 2992
-158 -835 2925
-143 -805 2818
-136 -810 2837
-127 -806 2824
-121 -822 2880
-111 -810 2837
-103 -815 2856
-96 -825 2889
-88 -830 2906
-78 -822 2879
-70 -819 2868
-62 -823 2883
-48 -746 2611
0 0 0
0 0 0
0 0 0
-20 -848 2967
-11 -876 3068
-2 -866 3033
6 -861 3013
15 -895 3133
24 -861 3013
33 -872 3051
41 -845 2958
50 -858 3000
59 -853 2984
69 -865 3026
77 -859 3005
85 -851 2977
91 -825 2884
101 -835 2918
110 -837 2924
120 -848 2964
130 -859 3001
139 -859 3000
153 -889 3104
161 -884 3086
171 -885 3089
178 -878 3063
188 -879 3065
198 -885 3086
205 -874 3048
217 -888 3097
226 -888 3095
239 -902 3143
246 -892 3107
255 -893 3111
266 -899 3132
275 -897 3123
285 -900 3131
290 -887 3087
301 -894 3108
316 -909 3160
324 -905 3147
332 -902 3134
343 -906 3148
349 -898 3120
364 -912 3167
365 -893 3097
383 -913 3165
390 -908 3148
400 -910 3154
406 -902 3125
429 -930 3222
0 0 0
400 -830 2873
440 -895 3095
446 -889 3074
457 -892 3083
468 -896 3094
470 -881 3044
470 -866 2988
464 -837 2889
392 -695 2395
0 0 0
226 -383 1319
182 -303 1044
200 -327 1125
198 -318 1096
201 -317 1092
200 -310 1067
205 -314 1081
213 -321 1103
219 -325 1117
222 -325 1114
219 -315 1079
224 -318 1089
227 -317 1085
235 -324 1109
238 -324 1108
235 -315 1078
245 -324 1106
232 -302 1032
231 -298 1016
260 -331 1129
255 -320 1090
221 -273 930
154 -186 634
74 -85 292
72 -82 281
58 -64 220
56 -62 210
62 -67 228
51 -55 186
53 -56 189
0 0 0
0 0 0
42 -42 143
23 -21 71
0 0 0
0 0 0
0 0 0
0 0 0
0 0 0
0 0 0
0 0 0
0 0 0
0 0 0
0 0 0
0 0 0
0 0 0
0 0 0
0 0 0
0 0 0
0 0 0
0 0 0
0 0 0
0 0 0
0 0 0
0 0 0
0 0 0
0 0 0
0 0 0
0 0 0
0 0 0
0 0 0
0 0 0
1065 -874 2871
1065 -867 2846
1075 -868 2845
1085 -869 2845
1096 -871 2848
1099 -865 2827
1081 -845 2756
1085 -842 2743
1094 -842 2741
1105 -843 2741
1051 -796 2584
1106 -831 2696
1071 -799 2588
1047 -775 2506
1085 -797 2577
1086 -792 2557
1058 -766 2468
1113 -799 2573
1101 -786 2525
1095 -775 2489
1100 -773 2479
1093 -763 2444
1104 -765 2446
1104 -760 2426
1119 -765 2440
1109 -753 2398
1109 -747 2376
1110 -743 2361
1114 -741 2349
1108 -732 2318
1106 -726 2295
1092 -712 2248
1092 -707 2228
1103 -709 2233
1116 -713 2241
1093 -694 2177
1092 -688 2157
1106 -693 2169
1108 -690 2155
1117 -691 2157
1121 -690 2147
1125 -687 2137
1132 -688 2135
1127 -680 2108
1128 -677 2094
1134 -676 2088
1138 -675 2080
1143 -673 2072
1144 -670 2058
1138 -662 2032
1144 -662 2028
1143 -657 2010
1147 -656 2002
1145 -651 1983
1129 -638 1941
-752 -398 1250
-539 -287 903
-489 -262 825
-486 -262 826
-482 -261 825
-485 -264 837
-484 -265 841
-477 -263 835
-471 -261 830
-472 -264 840
-470 -264 842
-464 -262 838
-455 -259 829
-472 -270 866
-484 -279 895
-478 -277 889
-483 -281 906
-594 -348 1122
-1051 -620 2001
-1074 -638 2061
-1067 -638 2064
-1058 -637 2064
-1049 -635 2061
-1044 -636 2068
-1038 -637 2072
-1030 -636 2073
-1022 -636 2074
-1016 -635 2077
-1003 -632 2068
-997 -632 2071
-987 -630 2068
-978 -629 2065
-953 -617 2030
-958 -625 2058
-962 -631 2082
-950 -628 2074
-945 -629 2081
-933 -626 2071
-913 -617 2044
-900 -612 2031
-888 -608 2020
-886 -611 2033
-884 -615 2047
-866 -607 2023
-859 -606 2023
-852 -606 2025
-849 -608 2034
-838 -606 2027
-832 -606 2029
-832 -611 2048
-819 -606 2034
-813 -606 2037
-796 -598 2011
-769 -582 1961
-774 -591 1992
-775 -596 2012
-730 -567 1914
-749 -586 1982
-766 -604 2044
-761 -606 2052
-742 -595 2018
-728 -589 1999
-726 -593 2013
-724 -596 2028
-720 -599 2037
-706 -592 2016
-700 -592 2019
-705 -602 2053
-689 -593 2026
-681 -592 2022
-680 -596 2040
-674 -597 2042
-674 -602 2063
-674 -608 2086
-661 -602 2065
-652 -600 2058
-638 -593 2036
-633 -594 2042
-630 -597 2054
-619 -592 2039
-613 -593 2043
-608 -594 2048
-599 -592 2043
-601 -600 2070
-587 -592 2046
-578 -589 2036
-573 -590 2042
-580 -605 2092
-567 -597 2069
-559 -596 2067
-555 -598 2074
-550 -600 2081
-541 -597 2072
-535 -597 2075
-526 -594 2064
-521 -596 2072
-513 -594 2068
-510 -598 2081
-499 -592 2063
-496 -596 2077
-496 -603 2103
-481 -592 2067
-479 -599 2090
-475 -601 2098
-494 -633 2212
-496 -645 2254
-473 -624 2181
0 0 0
0 0 0
0 0 0
-874 -1218 4263
-858 -1213 4250
-829 -1191 4174
-806 -1176 4121
-815 -1207 4233
-800 -1204 4223
-794 -1213 4257
-778 -1209 4246
-759 -1199 4211
-727 -1167 4100
-681 -1113 3914
0 0 0
0 0 0
-601 -1036 3646
-570 -1000 3519
-559 -1000 3519
-560 -1021 3595
-722 -1340 4720
-17 -36 127
-688 -1329 4685
-656 -1293 4559
-680 -1370 4829
-663 -1364 4811
-642 -1351 4765
-7 -21 76
-1 -7 25
-603 -1358 4793
-591 -1363 4813
-7 -22 79
-10 -31 109
-7 -24 87
1 -2 10
-518 -1361 4808
-482 -1300 4596
-444 -1234 4361
-423 -1213 4287
-410 -1211 4281
-399 -1217 4303
-388 -1221 4320
-377 -1226 4335
-366 -1233 4361
-354 -1235 4369
-339 -1229 4348
-326 -1230 4353
-316 -1239 4384
-302 -1237 4378
-289 -1237 4377
-277 -1242 4395
-279 -1310 4635
0 0 0
-88 -470 1663
-85 -479 1696
-84 -503 1783
-74 -473 1677
-68 -463 1641
-61 -450 1596
-59 -469 1663
-57 -493 1746
-54 -512 1815
-54 -567 2008
-43 -518 1833
-37 -507 1797
-29 -474 1680
-20 -399 1415
0 0 0
0 0 0
0 0 0
0 0 0
-4 -1182 4182
0 0 0
0 0 0
0 0 0
0 0 0
0 0 0
0 0 0
48 -687 2430
0 0 0
63 -693 2449
74 -732 2589
0 0 0
0 0 0
0 0 0
0 0 0
122 -796 2811
133 -813 2873
146 -837 2955
152 -821 2899
159 -816 2881
173 -841 2968
177 -821 2896
190 -838 2955
199 -840 2960
209 -848 2988
222 -864 3044
224 -835 2944
238 -853 3007
252 -873 3074
259 -865 3047
272 -877 3089
279 -873 3073
289 -874 3076
300 -880 3096
309 -881 3098
320 -886 3114
328 -882 3097
334 -873 3066
352 -896 3145
365 -904 3174
369 -893 3133
378 -890 3123
394 -908 3182
399 -897 3144
402 -884 3096
388 -832 2914
0 0 0
445 -915 3200
433 -871 3046
442 -871 3047
449 -867 3029
457 -866 3026
457 -849 2966
447 -814 2840
367 -655 2286
354 -620 2162
256 -439 1531
205 -343 1197
230 -379 1320
218 -354 1231
223 -355 1237
228 -357 1241
226 -348 1211
232 -353 1226
227 -339 1176
224 -329 1144
227 -329 1142
232 -331 1149
225 -315 1093
243 -337 1166
245 -334 1158
247 -332 1150
242 -321 1111
236 -309 1069
238 -308 1062
241 -307 1059
250 -314 1085
231 -286 987
239 -293 1009
0 0 0
67 -76 264
66 -74 256
66 -73 253
79 -87 300
41 -42 146
47 -49 169
50 -51 177
0 0 0
1249 -1373 4691
43 -42 146
47 -46 157
0 0 0
0 0 0
0 0 0
0 0 0
0 0 0
0 0 0
0 0 0
0 0 0
0 0 0
0 0 0
0 0 0
0 0 0
0 0 0
0 0 0
0 0 0
0 0 0
0 0 0
0 0 0
0 0 0
0 0 0
0 0 0
0 0 0
0 0 0
0 0 0
0 0 0
0 0 0
0 0 0
0 0 0
1053 -855 2841
1068 -861 2856
1076 -860 2849
1084 -859 2845
1093 -859 2841
1098 -856 2828
1109 -858 2829
1096 -841 2771
1024 -779 2565
1078 -814 2677
1095 -821 2695
1070 -796 2610
1075 -794 2600
1093 -800 2619
1112 -809 2642
1117 -806 2631
1081 -774 2524
1093 -777 2531
1098 -775 2520
1115 -781 2537
1110 -772 2504
1107 -765 2477
1097 -752 2433
1115 -760 2454
1111 -752 2424
1124 -755 2432
1113 -742 2388
1110 -735 2361
1108 -729 2338
1120 -732 2345
1084 -704 2250
1079 -696 2221
1104 -707 2255
1099 -700 2228
1118 -707 2248
1113 -699 2220
1115 -696 2206
1111 -689 2179
1118 -689 2177
1114 -682 2152
1122 -683 2151
1127 -682 2144
1132 -681 2136
1129 -674 2113
1133 -673 2104
1138 -672 2098
1141 -670 2088
1138 -663 2065
1141 -661 2055
1134 -653 2027
1142 -654 2025
1137 -647 2001
1153 -653 2014
1131 -636 1960
1132 -634 1948
-733 -384 1219
-517 -273 867
-500 -265 844
-494 -263 841
-492 -264 843
-488 -263 842
-489 -266 851
-477 -260 836
-472 -259 834
-476 -263 848
-462 -257 828
-464 -260 839
-452 -254 823
-469 -266 861
-484 -276 895
-486 -279 906
-481 -277 904
-626 -363 1184
-1068 -624 2036
-1072 -630 2060
-1071 -634 2075
-1061 -631 2070
-1051 -629 2067
-1042 -629 2067
-1035 -628 2068
-1029 -629 2073
-1019 -626 2068
-1015 -628 2078
-1004 -626 2072
-995 -624 2069
-985 -622 2065
-972 -618 2054
-953 -611 2032
-962 -621 2067
-958 -622 2075
-951 -622 2078
-941 -620 2073
-936 -621 2080
-906 -606 2030
-897 -604 2027
-892 -605 2033
-887 -606 2038
-870 -599 2016
-869 -602 2031
-858 -599 2022
-852 -600 2026
-850 -603 2038
-841 -601 2035
-831 -598 2028
-836 -607 2058
-818 -598 2033
-815 -601 2042
-787 -585 1991
-752 -563 1919
-787 -594 2027
-767 -584 1993
-726 -558 1906
-758 -587 2008
-764 -596 2041
-759 -597 2046
-738 -586 2011
-726 -581 1996
-704 -569 1955
-713 -581 1999
-724 -596 2050
-707 -586 2020
-697 -583 2010
-704 -594 2051
-694 -591 2042
-682 -587 2028
-684 -594 2054
-677 -594 2055
-682 -603 2091
-670 -599 2075
-665 -600 2082
-651 -593 2058
-644 -593 2059
-632 -587 2041
-626 -587 2043
-625 -593 2064
-615 -589 2052
-612 -592 2065
-608 -594 2074
-599 -591 2065
-591 -590 2060
-584 -589 2061
-569 -580 2031
-573 -591 2070
-567 -591 2072
-556 -586 2054
-552 -589 2066
-547 -591 2073
-539 -588 2065
-530 -586 2059
-528 -590 2073
-521 -590 2075
-512 -586 2063
-507 -587 2068
-503 -591 2082
-496 -590 2080
-494 -595 2100
-484 -590 2082
-478 -591 2088
-469 -588 2076
-428 -543 1919
-426 -549 1939
-418 -546 1932
0 0 0
0 0 0
0 0 0
-881 -1214 4300
-853 -1194 4229
-824 -1171 4150
-805 -1161 4116
-810 -1187 4211
-800 -1190 4224
-775 -1172 4160
-777 -1194 4240
-747 -1168 4148
-694 -1103 3921
-612 -989 3517
0 0 0
-1 -4 17
-596 -1016 3615
-568 -986 3510
-560 -991 3528
-583 -1052 3746
0 -4 17
-8 -18 67
-705 -1347 4802
-679 -1325 4722
-1 -8 29
-3 -11 41
0 -5 18
-1 -7 27
-4 -14 50
-3 -11 42
0 -4 15
-4 -16 59
-4 -16 58
-10 -31 113
-3 -14 53
-7 -24 88
-497 -1327 4742
-460 -1264 4520
-425 -1204 4306
-409 -1196 4276
-396 -1194 4271
-383 -1194 4271
-372 -1199 4289
-360 -1202 4299
-349 -1206 4317
-337 -1209 4326
-324 -1209 4325
-312 -1211 4332
-299 -1209 4329
-288 -1220 4366
-278 -1233 4415
-274 -1273 4558
-38 -199 713
-67 -357 1280
-64 -360 1288
-61 -367 1314
-57 -363 1300
-53 -363 1301
-48 -355 1273
-47 -380 1361
-44 -387 1385
-40 -386 1385
-35 -377 1352
-32 -393 1408
-27 -378 1356
-22 -360 1290
-19 -377 1350
-13 -332 1188
-8 -287 1028
-33 -1313 4698
-18 -1258 4502
-4 -1248 4466
8 -1254 4488
21 -1260 4508
36 -1305 4669
14 -315 1129
19 -352 1261
23 -368 1316
30 -406 1451
33 -392 1402
36 -379 1358
42 -396 1418
44 -373 1335
49 -390 1394
57 -414 1481
58 -393 1404
67 -424 1514
86 -514 1835
93 -525 1876
99 -523 1867
105 -527 1881
104 -497 1775
121 -551 1968
135 -585 2087
146 -607 2165
164 -654 2330
175 -669 2387
191 -702 2503
206 -729 2598
213 -727 2591
224 -739 2630
246 -786 2797
264 -814 2898
277 -828 2944
287 -833 2962
300 -845 3006
306 -836 2970
314 -833 2961
331 -855 3038
338 -851 3020
349 -856 3038
351 -840 2980
372 -868 3078
383 -872 3090
388 -864 3062
403 -875 3101
0 0 0
0 0 0
413 -841 2975
433 -861 3047
446 -870 3076
446 -852 3012
448 -839 2962
428 -786 2776
336 -604 2132
346 -610 2151
263 -455 1604
226 -383 1350
218 -362 1275
231 -377 1329
223 -358 1259
226 -357 1257
252 -391 1376
247 -378 1329
237 -356 1250
247 -366 1284
233 -339 1192
246 -353 1240
242 -342 1198
244 -339 1188
252 -345 1210
234 -316 1106
251 -335 1171
258 -339 1184
235 -304 1062
220 -280 979
244 -308 1074
212 -263 916
238 -292 1020
0 0 0
0 0 0
64 -71 249
67 -75 261
65 -71 248
66 -72 250
54 -57 199
51 -53 184
29 -28 97
23 -21 73
0 0 0
1262 -1358 4687
1278 -1360 4692
0 0 0
0 0 0
0 0 0
0 0 0
0 0 0
0 0 0
0 0 0
0 0 0
0 0 0
0 0 0
0 0 0
0 0 0
0 0 0
0 0 0
0 0 0
0 0 0
0 0 0
0 0 0
0 0 0
0 0 0
0 0 0
0 0 0
0 0 0
0 0 0
0 0 0
0 0 0
0 0 0
0 0 0
1033 -830 2789
1072 -855 2869
1082 -855 2867
1084 -850 2847
1095 -852 2850
1080 -833 2784
1101 -843 2812
1050 -797 2656
1089 -820 2730
1105 -826 2747
1079 -801 2659
1066 -784 2601
1066 -779 2580
1105 -801 2652
1081 -778 2571
1088 -777 2566
1089 -772 2546
1106 -778 2562
1106 -773 2541
1109 -769 2526
1112 -766 2512
1115 -762 2496
1111 -754 2466
1116 -752 2458
1110 -743 2424
1107 -736 2397
1098 -725 2357
1097 -719 2337
1084 -706 2289
1075 -695 2252
1083 -696 2251
1096 -700 2259
1093 -693 2235
1098 -692 2227
1122 -702 2256
1108 -689 2210
1101 -680 2180
1112 -682 2184
1116 -680 2174
1116 -676 2158
1124 -677 2157
1123 -672 2137
1137 -676 2148
1139 -673 2134
1134 -666 2108
1131 -661 2087
1139 -661 2086
1134 -654 2060
1134 -650 2044
1133 -646 2027
1137 -645 2019
1130 -637 1991
1142 -640 1997
1130 -629 1961
1145 -634 1972
-689 -357 1148
-503 -262 844
-506 -265 855
-494 -261 841
-488 -259 838
-488 -261 844
-485 -260 844
-473 -255 830
-477 -259 843
-475 -259 845
-463 -254 831
-454 -251 821
-473 -263 862
-463 -259 851
-471 -265 872
-477 -270 890
-492 -281 925
-675 -387 1278
-1072 -619 2046
-1075 -625 2067
-1065 -623 2064
-1056 -622 2063
-1052 -623 2071
-1043 -622 2069
-1033 -620 2067
-1028 -622 2073
-1022 -622 2077
-1011 -619 2070
-1005 -620 2076
-996 -618 2074
-984 -615 2065
-966 -608 2045
-952 -604 2032
-961 -613 2066
-957 -615 2076
-952 -616 2081
-943 -614 2079
-933 -612 2074
-906 -599 2032
-907 -604 2051
-891 -598 2031
-881 -595 2026
-878 -598 2036
-870 -597 2036
-869 -600 2050
-839 -584 1997
-841 -590 2019
-840 -594 2034
-836 -596 2044
-825 -593 2035
-820 -593 2038
-808 -590 2028
-790 -581 1999
-756 -560 1931
-767 -573 1976
-754 -568 1962
-748 -569 1965
-751 -575 1989
-759 -587 2031
-753 -587 2034
-752 -590 2048
-722 -572 1986
-721 -576 2004
-724 -584 2031
-725 -589 2053
-713 -585 2038
-697 -577 2012
-689 -576 2011
-682 -575 2010
-690 -588 2054
-677 -581 2034
-682 -591 2069
-674 -589 2066
-670 -592 2075
-660 -589 2067
-652 -588 2064
-635 -578 2032
-630 -579 2037
-632 -587 2065
-621 -582 2050
-614 -581 2049
-609 -583 2056
-607 -587 2071
-601 -587 2075
-587 -580 2050
-580 -579 2048
-573 -578 2047
-577 -589 2084
-575 -593 2101
-561 -586 2077
-553 -584 2070
-549 -586 2081
-538 -582 2066
-525 -574 2040
-531 -588 2090
-523 -586 2083
-516 -585 2083
-508 -583 2076
-505 -586 2089
-495 -583 2078
-492 -586 2092
-479 -578 2065
-477 -584 2085
-471 -583 2084
-441 -554 1978
-423 -538 1925
-358 -463 1657
0 0 0
0 0 0
-851 -1144 4097
-863 -1177 4216
-836 -1158 4151
-820 -1153 4133
-803 -1146 4111
-806 -1168 4191
-793 -1168 4191
-798 -1194 4288
-781 -1189 4269
-757 -1171 4207
-676 -1063 3822
-615 -984 3538
-20 -36 130
-807 -1336 4805
-589 -994 3578
-568 -977 3517
-562 -985 3546
-628 -1121 4037
-737 -1339 4824
-7 -17 64
-698 -1320 4760
-680 -1312 4732
-13 -31 112
-21 -46 169
-14 -35 126
-15 -37 134
-15 -38 140
-14 -37 135
-8 -23 84
-13 -36 130
-1 -9 34
-4 -15 56
-1 -10 38
-5 -18 67
-508 -1343 4856
-482 -1313 4746
-451 -1264 4570
-418 -1208 4370
-397 -1186 4288
-383 -1182 4275
-371 -1183 4279
-358 -1180 4271
-344 -1178 4264
-331 -1177 4260
-320 -1183 4281
-308 -1186 4291
-297 -1192 4314
-287 -1203 4356
-277 -1213 4392
-266 -1224 4431
-35 -182 661
-63 -332 1203
-63 -352 1274
-58 -347 1259
-52 -330 1196
-52 -352 1275
-45 -333 1208
-43 -346 1254
-40 -347 1256
-38 -361 1307
-35 -374 1356
-33 -392 1420
-26 -356 1291
-23 -377 1368
-18 -362 1313
-14 -358 1298
-6 -235 852
-32 -1276 4619
-18 -1249 4521
-4 -1225 4432
8 -1233 4462
21 -1248 4514
35 -1285 4651
13 -292 1058
20 -382 1384
25 -388 1403
28 -380 1377
33 -382 1383
37 -379 1372
39 -360 1304
43 -368 1332
45 -350 1266
52 -375 1356
55 -370 1337
60 -372 1345
65 -383 1383
67 -370 1337
73 -378 1365
81 -397 1434
87 -408 1472
93 -416 1503
95 -403 1456
97 -395 1426
104 -406 1464
109 -407 1470
109 -391 1409
122 -425 1532
127 -424 1529
129 -416 1499
139 -436 1571
0 0 0
158 -462 1665
185 -528 1899
0 0 0
175 -471 1693
219 -573 2058
0 0 0
231 -572 2056
257 -623 2236
270 -636 2284
339 -782 2804
379 -854 3064
388 -853 3059
414 -890 3187
0 0 0
0 0 0
377 -758 2713
425 -836 2991
432 -834 2982
431 -815 2914
414 -767 2740
335 -607 2170
312 -554 1977
280 -488 1742
237 -404 1443
233 -390 1391
218 -358 1277
214 -345 1229
218 -345 1229
226 -353 1257
228 -350 1247
241 -364 1293
232 -345 1228
222 -325 1154
227 -326 1159
246 -349 1239
236 -329 1169
237 -326 1157
251 -340 1206
254 -340 1203
258 -340 1202
237 -308 1091
221 -283 999
241 -304 1075
252 -314 1110
0 0 0
0 0 0
0 0 0
0 0 0
103 -117 414
86 -96 340
69 -76 267
54 -57 200
54 -57 200
45 -45 161
22 -19 69
66 -68 238
48 -47 166
22 -19 67
1275 -1342 4682
0 0 0
0 0 0
0 0 0
0 0 0
0 0 0
0 0 0
0 0 0
0 0 0
0 0 0
0 0 0
0 0 0
0 0 0
0 0 0
0 0 0
0 0 0
0 0 0
0 0 0
0 0 0
0 0 0
0 0 0
0 0 0
0 0 0
0 0 0
0 0 0
0 0 0
0 0 0
0 0 0
0 0 0
1041 -828 2813
1070 -844 2865
1070 -837 2837
1081 -838 2840
1087 -837 2830
1101 -841 2841
1097 -831 2803
1119 -841 2835
1110 -828 2788
1068 -790 2656
1089 -799 2685
1069 -779 2612
1094 -791 2650
1100 -789 2641
1098 -782 2614
1106 -781 2609
1096 -769 2564
1096 -763 2540
1105 -764 2541
1095 -752 2497
1114 -759 2518
1109 -750 2484
1116 -750 2480
1093 -729 2408
1099 -728 2402
1078 -709 2335
1077 -704 2315
1093 -709 2329
1109 -715 2345
1095 -701 2296
1064 -676 2213
1103 -696 2275
1104 -692 2259
1112 -693 2257
1127 -698 2269
1114 -685 2226
1112 -680 2203
1100 -668 2163
1110 -670 2164
1113 -667 2153
1121 -668 2152
1127 -667 2146
1129 -664 2133
1138 -666 2134
1144 -665 2129
1135 -656 2095
1139 -654 2088
1131 -646 2057
1136 -645 2049
1128 -637 2021
1123 -630 1995
1137 -634 2005
1122 -622 1963
1132 -624 1966
1124 -616 1937
-614 -315 1024
-530 -273 890
-491 -255 831
-484 -252 824
-485 -254 833
-495 -261 857
-472 -250 822
-471 -251 827
-467 -251 827
-465 -251 829
-463 -252 831
-468 -256 848
-474 -261 865
-480 -266 883
-480 -267 889
-467 -262 872
-504 -284 948
-749 -425 1419
-1080 -617 2062
-1072 -616 2063
-1065 -617 2067
-1054 -614 2062
-1051 -616 2072
-1040 -614 2066
-1034 -614 2071
-1025 -613 2069
-1016 -611 2066
-1008 -611 2067
-1001 -611 2069
-994 -611 2072
-987 -610 2073
-971 -604 2056
-953 -597 2035
-959 -606 2065
-958 -609 2080
-947 -606 2073
-945 -609 2085
-924 -600 2057
-916 -599 2056
-902 -594 2040
-889 -590 2028
-879 -588 2023
-876 -590 2034
-870 -590 2037
-861 -589 2034
-854 -588 2034
-848 -588 2037
-847 -592 2052
-832 -587 2035
-825 -586 2036
-817 -585 2032
-801 -578 2011
-784 -570 1986
-744 -545 1902
-750 -555 1936
-764 -569 1989
-742 -558 1951
-764 -579 2025
-771 -589 2065
-753 -580 2035
-742 -576 2023
-714 -559 1966
-702 -555 1952
-726 -579 2037
-719 -578 2037
-711 -577 2036
-712 -584 2059
-695 -575 2030
-689 -575 2031
-688 -579 2050
-681 -578 2048
-668 -573 2029
-671 -581 2061
-669 -585 2076
-659 -582 2066
-654 -583 2071
-632 -569 2022
-625 -568 2021
-630 -578 2059
-624 -579 2062
-617 -578 2060
-608 -575 2053
-602 -576 2056
-597 -577 2062
-592 -578 2068
-587 -579 2073
-573 -573 2050
-572 -578 2070
-564 -576 2064
-556 -574 2059
-557 -581 2086
-548 -579 2080
-540 -577 2075
-535 -579 2081
-527 -577 2076
-520 -576 2072
-509 -571 2057
-509 -578 2083
-499 -573 2067
-494 -575 2075
-490 -578 2085
-479 -572 2067
-478 -579 2090
-484 -593 2145
-362 -450 1629
-388 -489 1770
0 0 0
0 0 0
0 0 0
-869 -1156 4186
-861 -1163 4213
-832 -1140 4133
-819 -1139 4131
-799 -1128 4092
-801 -1149 4171
-799 -1164 4227
-816 -1207 4385
-814 -1224 4447
-760 -1162 4224
-687 -1068 3885
-602 -953 3466
-14 -25 93
-791 -1296 4715
-593 -990 3604
-566 -963 3506
-564 -977 3558
-687 -1212 4416
-4 -11 42
-11 -24 89
-707 -1323 4823
2 0 -3
-16 -35 129
-17 -38 142
-14 -33 122
-20 -46 171
-17 -40 148
-28 -66 243
-18 -46 171
-11 -32 118
-6 -19 71
-4 -16 61
0 -3 12
-2 -11 43
-3 -15 55
1 -2 10
-473 -1311 4795
-452 -1293 4730
-423 -1249 4571
-395 -1205 4411
-373 -1176 4304
-354 -1155 4228
-341 -1156 4231
-330 -1159 4244
-318 -1161 4251
-307 -1168 4277
-295 -1172 4290
-285 -1180 4322
-276 -1197 4382
-280 -1276 4672
-49 -246 903
-60 -313 1148
-56 -313 1147
-54 -318 1165
-50 -315 1156
-47 -317 1163
-42 -306 1123
-40 -318 1167
-39 -336 1231
-33 -316 1160
-29 -310 1137
-27 -326 1197
-23 -320 1175
-19 -317 1162
-16 -323 1183
-13 -324 1189
-6 -248 911
-33 -1321 4835
-18 -1242 4546
-4 -1238 4532
8 -1250 4574
22 -1251 4579
37 -1320 4830
12 -264 968
18 -330 1207
23 -354 1297
25 -330 1208
29 -332 1214
35 -358 1312
36 -334 1223
41 -342 1250
47 -357 1308
49 -350 1280
54 -354 1296
58 -358 1310
64 -372 1360
68 -370 1351
71 -364 1332
76 -368 1345
82 -381 1392
88 -389 1420
93 -393 1436
92 -371 1353
102 -395 1440
99 -367 1340
110 -391 1428
110 -375 1369
115 -381 1388
119 -380 1384
119 -366 1335
129 -384 1398
121 -349 1272
139 -390 1421
132 -359 1307
159 -422 1534
0 0 0
0 0 0
0 0 0
0 0 0
0 0 0
348 -795 2883
379 -846 3067
391 -852 3088
399 -848 3075
0 0 0
0 0 0
0 0 0
411 -801 2900
408 -778 2813
392 -732 2648
323 -591 2135
296 -531 1918
272 -478 1725
246 -423 1526
215 -363 1309
228 -378 1364
202 -328 1182
203 -324 1168
207 -324 1167
213 -328 1181
218 -331 1191
220 -328 1181
221 -325 1167
220 -318 1141
213 -303 1090
221 -309 1109
227 -314 1127
228 -311 1114
252 -338 1210
246 -325 1164
245 -319 1143
235 -302 1081
241 -306 1094
236 -295 1055
247 -304 1087
235 -285 1019
0 0 0
0 0 0
0 0 0
88 -98 351
72 -79 282
91 -100 357
60 -64 227
77 -81 290
35 -34 121
34 -33 117
0 0 0
0 0 0
1270 -1337 4723
22 -19 68
0 0 0
0 0 0
0 0 0
0 0 0
0 0 0
0 0 0
0 0 0
0 0 0
0 0 0
0 0 0
0 0 0
0 0 0
0 0 0
0 0 0
0 0 0
0 0 0
0 0 0
0 0 0
0 0 0
0 0 0
0 0 0
0 0 0
0 0 0
0 0 0
0 0 0
0 0 0
0 0 0
0 0 0
1061 -835 2870
1061 -828 2843
1076 -833 2856
1080 -829 2841
1102 -839 2872
1062 -802 2740
1096 -821 2804
1079 -802 2735
1090 -804 2738
1100 -805 2739
1104 -801 2723
1104 -796 2701
1106 -791 2680
1093 -776 2627
1099 -774 2617
1111 -776 2622
1120 -777 2622
1114 -767 2585
1101 -753 2532
1103 -748 2515
1081 -728 2444
1083 -725 2428
1074 -714 2388
1109 -731 2444
1064 -697 2327
1055 -686 2288
1098 -709 2361
1048 -672 2235
1089 -694 2305
1094 -693 2296
1118 -703 2328
1115 -697 2303
1116 -693 2286
1110 -685 2256
1125 -689 2266
1118 -681 2235
1112 -673 2206
1117 -671 2197
1109 -662 2165
1116 -662 2162
1124 -663 2159
1124 -659 2144
1137 -662 2152
1134 -656 2129
1131 -650 2106
1133 -648 2095
1132 -643 2076
1124 -635 2046
1134 -637 2049
1122 -626 2011
1114 -618 1981
1126 -621 1987
1120 -614 1962
1134 -618 1971
1130 -612 1949
-562 -285 937
-496 -253 833
-495 -254 838
-488 -252 832
-494 -256 849
-470 -245 815
-471 -247 821
-476 -251 837
-460 -244 814
-477 -255 851
-468 -252 842
-455 -246 825
-461 -251 842
-474 -260 873
-465 -256 862
-487 -270 911
-516 -288 973
-815 -458 1546
-1078 -609 2061
-1068 -608 2059
-1065 -610 2069
-1055 -608 2064
-1049 -608 2069
-1041 -607 2070
-1034 -607 2071
-1024 -606 2068
-1016 -605 2069
-1013 -607 2079
-1002 -605 2074
-990 -601 2065
-980 -599 2060
-969 -597 2054
-952 -591 2036
-959 -599 2067
-956 -601 2078
-953 -603 2087
-945 -602 2086
-930 -597 2072
-912 -590 2049
-890 -580 2016
-887 -582 2027
-883 -584 2034
-883 -588 2051
-866 -581 2030
-859 -581 2030
-853 -581 2034
-847 -582 2038
-837 -579 2029
-834 -582 2042
-824 -579 2034
-816 -578 2034
-802 -572 2016
-785 -564 1990
-730 -530 1869
-766 -560 1978
-744 -549 1940
-730 -542 1919
-758 -568 2011
-765 -578 2049
-757 -577 2047
-740 -569 2020
-713 -553 1966
-705 -552 1963
-728 -574 2045
-726 -578 2059
-720 -578 2063
-697 -565 2016
-692 -566 2022
-692 -571 2040
-689 -574 2055
-678 -570 2042
-677 -574 2059
-675 -578 2073
-664 -574 2062
-660 -576 2070
-655 -577 2076
-644 -573 2063
-631 -567 2042
-624 -566 2041
-620 -569 2052
-615 -570 2058
-612 -573 2068
-603 -570 2060
-601 -574 2077
-590 -570 2063
-587 -574 2078
-580 -573 2075
-572 -571 2071
-567 -573 2077
-562 -574 2081
-555 -573 2081
-544 -569 2066
-541 -572 2078
-534 -571 2077
-529 -572 2082
-521 -571 2079
-508 -563 2052
-508 -570 2079
-499 -568 2070
-496 -571 2084
-491 -572 2090
-484 -572 2089
-477 -571 2088
-437 -530 1939
-400 -492 1801
-382 -477 1744
-370 -468 1713
0 0 0
0 0 0
-899 -1184 4337
-852 -1137 4169
-823 -1115 4090
-819 -1127 4135
-812 -1134 4164
-807 -1145 4206
0 0 0
0 0 0
0 0 0
0 0 0
-630 -970 3567
0 0 0
-9 -18 69
-798 -1293 4760
-597 -987 3633
-567 -954 3513
-568 -973 3584
-686 -1197 4411
-7 -17 65
-7 -16 62
-701 -1299 4790
0 -4 16
-18 -40 148
-20 -45 167
-19 -44 163
-19 -45 167
-18 -42 158
-12 -30 114
-20 -49 181
-8 -23 87
-8 -25 94
-1 -8 33
-2 -10 40
0 -5 19
-1 -8 31
-1 -8 33
0 -8 33
-465 -1315 4867
-446 -1302 4819
-424 -1278 4732
-396 -1236 4577
-364 -1176 4354
-343 -1150 4258
-328 -1140 4223
-318 -1149 4257
-306 -1153 4269
-296 -1163 4308
-292 -1199 4439
-293 -1257 4657
-4 -30 114
-41 -208 772
-56 -290 1074
-54 -298 1105
-54 -313 1162
-49 -308 1142
-46 -310 1150
-42 -305 1132
-40 -312 1156
-37 -314 1166
-32 -309 1145
-29 -307 1140
-24 -295 1093
-24 -335 1241
-20 -318 1179
-15 -308 1142
-12 -315 1169
-8 -292 1084
-2 -207 767
0 -204 757
0 0 0
0 0 0
0 0 0
9 -252 936
14 -309 1146
18 -319 1182
21 -321 1189
24 -313 1159
28 -320 1184
33 -330 1222
35 -313 1158
38 -316 1169
44 -335 1241
46 -317 1175
51 -328 1214
55 -334 1237
60 -342 1267
60 -320 1182
64 -325 1202
72 -344 1271
78 -357 1318
80 -347 1283
83 -344 1272
93 -368 1361
93 -355 1310
96 -351 1294
99 -348 1283
105 -357 1316
108 -352 1300
112 -352 1299
118 -359 1322
120 -354 1306
129 -370 1363
123 -341 1255
135 -364 1341
131 -342 1259
159 -406 1493
0 0 0
0 0 0
0 0 0
0 0 0
379 -856 3143
385 -849 3114
393 -845 3100
402 -845 3097
0 0 0
0 0 0
0 0 0
384 -740 2708
358 -675 2471
302 -557 2039
290 -523 1914
277 -490 1792
245 -425 1552
247 -420 1532
211 -351 1281
196 -319 1165
186 -297 1085
186 -294 1071
191 -296 1081
197 -300 1094
200 -300 1091
203 -299 1087
205 -298 1083
213 -304 1104
214 -301 1092
214 -296 1076
223 -305 1106
229 -308 1117
227 -301 1090
230 -300 1088
240 -309 1120
229 -291 1054
242 -303 1097
239 -296 1070
248 -303 1093
253 -304 1099
224 -266 960
0 0 0
0 0 0
83 -92 332
61 -65 236
91 -98 354
87 -93 334
0 0 0
21 -18 67
0 0 0
0 0 0
0 0 0
1269 -1321 4721
49 -46 164
0 0 0
0 0 0
0 0 0
0 0 0
0 0 0
0 0 0
0 0 0
0 0 0
0 0 0
0 0 0
0 0 0
0 0 0
0 0 0
0 0 0
0 0 0
0 0 0
0 0 0
0 0 0
0 0 0
0 0 0
0 0 0
0 0 0
0 0 0
0 0 0
0 0 0
0 0 0
0 0 0
0 0 0
1056 -822 2859
1063 -820 2849
1081 -828 2871
1081 -821 2845
1084 -817 2827
1075 -803 2777
1088 -807 2786
1092 -803 2770
1109 -809 2789
1114 -806 2775
1100 -790 2716
1092 -779 2673
1091 -772 2647
1112 -781 2675
1086 -757 2589
1099 -760 2597
1128 -774 2643
1082 -737 2513
1076 -727 2476
1085 -728 2476
1071 -714 2424
1080 -715 2423
1082 -711 2408
1081 -705 2385
1099 -712 2404
1113 -717 2417
1095 -700 2358
1100 -698 2348
1103 -696 2336
1113 -697 2337
1119 -696 2331
1116 -690 2305
1123 -690 2303
1122 -684 2280
1126 -683 2272
1115 -671 2231
1127 -674 2237
1115 -663 2195
1115 -659 2179
1114 -654 2160
1121 -654 2157
1125 -652 2147
1138 -656 2155
1135 -650 2132
1128 -642 2102
1136 -642 2101
1121 -630 2058
1118 -625 2036
1114 -619 2013
1118 -617 2005
1104 -606 1964
1117 -609 1973
1120 -607 1963
1127 -608 1961
1131 -606 1953
-521 -261 870
-489 -247 823
-490 -249 831
-481 -246 822
-485 -249 835
-475 -245 824
-484 -251 844
-483 -252 849
-469 -247 832
-474 -251 847
-455 -242 819
-463 -247 839
-467 -251 853
-465 -252 857
-470 -256 872
-483 -265 904
-525 -290 990
-891 -495 1693
-1079 -603 2065
-1071 -603 2066
-1066 -603 2072
-1056 -602 2069
-1046 -600 2064
-1038 -599 2066
-1033 -600 2072
-1024 -599 2071
-1015 -598 2069
-1011 -599 2076
-1003 -598 2076
-990 -595 2067
-983 -595 2069
-964 -587 2045
-962 -590 2058
-960 -593 2071
-956 -595 2079
-947 -593 2077
-941 -594 2081
-930 -591 2074
-907 -580 2038
-890 -574 2018
-894 -580 2044
-881 -576 2030
-875 -577 2036
-874 -580 2050
-858 -574 2030
-851 -574 2031
-849 -576 2043
-833 -570 2023
-833 -574 2039
-822 -571 2032
-819 -574 2042
-790 -558 1988
-769 -547 1951
-778 -558 1993
-772 -559 1997
-773 -564 2017
-742 -546 1954
-767 -568 2038
-763 -570 2046
-757 -570 2048
-731 -556 1997
-700 -536 1930
-716 -554 1994
-723 -564 2033
-725 -571 2058
-714 -567 2046
-705 -565 2042
-702 -568 2053
-692 -565 2043
-684 -563 2041
-684 -568 2060
-673 -565 2050
-671 -568 2063
-668 -571 2076
-656 -567 2060
-652 -568 2068
-640 -563 2051
-636 -566 2062
-628 -564 2056
-622 -564 2058
-615 -564 2058
-606 -561 2051
-603 -565 2064
-598 -565 2068
-593 -566 2074
-584 -564 2068
-574 -560 2054
-572 -565 2071
-564 -563 2067
-562 -568 2085
-552 -564 2073
-549 -568 2087
-535 -559 2058
-537 -568 2091
-527 -564 2076
-519 -563 2073
-512 -562 2071
-510 -566 2087
-500 -562 2076
-497 -565 2088
-491 -566 2091
-482 -564 2083
-469 -555 2054
-443 -532 1968
-405 -493 1824
-380 -469 1737
-398 -497 1842
-405 -514 1905
0 0 0
0 0 0
0 0 0
0 0 0
0 0 0
0 0 0
0 0 0
0 0 0
0 0 0
0 0 0
0 0 0
0 0 0
0 0 0
-12 -22 85
-769 -1233 4592
-588 -960 3577
-563 -937 3493
-557 -945 3522
-635 -1096 4089
-58 -106 397
-47 -89 333
0 -3 12
-9 -21 82
-20 -42 159
-13 -30 113
-20 -45 169
-14 -33 125
-22 -51 194
-9 -23 90
-14 -36 137
-17 -43 162
-14 -38 146
-3 -12 46
-6 -20 77
-2 -11 44
-4 -18 68
-5 -21 79
1 -1 6
-456 -1277 4780
-423 -1220 4570
-391 -1167 4371
-354 -1093 4093
-316 -1011 3787
-291 -966 3618
-285 -982 3680
-292 -1045 3915
-323 -1201 4501
-17 -76 286
-2 -21 80
1 -2 11
-1 -16 61
-12 -69 262
-49 -253 951
-58 -314 1180
-58 -336 1260
-52 -319 1198
-46 -305 1147
-48 -339 1271
-42 -328 1230
-38 -322 1208
-34 -323 1212
-33 -345 1294
-29 -342 1282
-23 -320 1200
-21 -336 1261
-16 -315 1183
-13 -329 1236
-8 -294 1104
-4 -253 950
0 0 0
0 0 0
0 0 0
7 -309 1160
10 -294 1102
14 -306 1146
18 -323 1212
22 -333 1247
26 -325 1220
29 -329 1233
34 -334 1252
38 -340 1274
38 -310 1163
43 -324 1215
47 -326 1221
51 -325 1215
54 -323 1210
58 -324 1212
63 -335 1255
64 -318 1188
68 -322 1203
72 -322 1205
75 -321 1202
80 -328 1227
82 -322 1202
87 -326 1217
88 -319 1190
98 -339 1265
93 -311 1163
104 -335 1252
104 -323 1207
106 -317 1183
116 -339 1264
115 -324 1209
118 -322 1199
119 -316 1179
129 -333 1240
0 0 0
0 0 0
0 0 0
0 0 0
382 -875 3249
375 -836 3105
379 -827 3070
383 -816 3027
384 -798 2958
360 -732 2714
0 0 0
314 -609 2258
338 -643 2381
284 -528 1953
286 -521 1927
264 -471 1743
270 -473 1749
264 -453 1676
246 -414 1530
245 -404 1494
192 -310 1147
186 -295 1089
183 -285 1053
189 -289 1067
193 -291 1071
198 -293 1080
202 -294 1083
205 -295 1085
210 -296 1089
208 -290 1065
216 -296 1088
220 -297 1091
219 -290 1066
224 -294 1077
231 -298 1093
234 -299 1094
236 -297 1087
230 -285 1043
239 -292 1069
239 -289 1055
248 -295 1076
228 -267 975
243 -282 1029
0 0 0
0 0 0
0 0 0
72 -76 279
0 0 0
0 0 0
0 0 0
0 0 0
0 0 0
0 0 0
62 -59 216
22 -18 67
47 -43 157
0 0 0
0 0 0
0 0 0
0 0 0
0 0 0
0 0 0
0 0 0
0 0 0
0 0 0
0 0 0
0 0 0
0 0 0
0 0 0
0 0 0
0 0 0
0 0 0
0 0 0
0 0 0
0 0 0
0 0 0
0 0 0
1064 -862 3053
1079 -867 3066
0 0 0
0 0 0
0 0 0
0 0 0
1017 -783 2753
1064 -812 2854
1074 -813 2855
1103 -828 2905
1079 -804 2816
1097 -811 2836
1107 -812 2836
1089 -792 2763
1095 -790 2756
1109 -794 2764
1091 -775 2695
1097 -774 2688
1101 -770 2673
1097 -762 2639
1094 -754 2610
1102 -754 2607
1073 -729 2516
1068 -720 2482
1081 -723 2490
1119 -743 2557
1089 -718 2466
1079 -706 2423
1088 -707 2423
1079 -697 2383
1091 -699 2389
1085 -691 2356
1127 -712 2427
1104 -693 2359
1116 -696 2364
1117 -692 2347
1125 -693 2346
1122 -686 2320
1115 -677 2288
1124 -678 2286
1121 -672 2263
1129 -672 2261
1117 -661 2219
1121 -659 2210
1110 -648 2170
1111 -645 2155
1122 -647 2160
1118 -641 2136
1125 -641 2132
1125 -637 2115
1114 -627 2078
1113 -623 2060
1109 -617 2038
1121 -619 2043
1115 -612 2017
1107 -605 1987
1122 -609 1998
1129 -610 1997
1130 -606 1983
1130 -603 1967
1135 -602 1962
-520 -258 869
-499 -249 841
-500 -251 848
-491 -248 839
-473 -240 814
-482 -246 837
-476 -244 831
-477 -246 840
-473 -246 840
-469 -245 839
-463 -244 835
-471 -249 855
-462 -246 845
-483 -259 890
-493 -266 916
-504 -273 944
-540 -294 1018
-955 -525 1816
-1080 -597 2069
-1071 -596 2067
-1068 -598 2077
-1057 -595 2072
-1048 -594 2072
-1042 -595 2076
-1031 -592 2070
-1024 -592 2072
-1017 -592 2075
-1007 -590 2070
-999 -590 2072
-988 -587 2064
-977 -584 2058
-959 -577 2037
-953 -578 2041
-955 -583 2062
-958 -589 2086
-946 -586 2077
-939 -586 2078
-925 -581 2065
-897 -568 2019
-896 -571 2033
-891 -572 2038
-879 -568 2028
-868 -565 2019
-865 -568 2032
-858 -568 2033
-846 -564 2020
-840 -564 2024
-834 -564 2026
-834 -569 2045
-824 -566 2039
-814 -564 2032
-807 -563 2031
-770 -542 1957
-764 -542 1960
-779 -557 2015
-764 -551 1994
-759 -552 2000
-757 -555 2013
-758 -560 2034
-748 -558 2026
-738 -555 2018
-709 -538 1958
-710 -543 1979
-722 -557 2033
-719 -560 2043
-700 -549 2007
-689 -546 1995
-694 -555 2030
-693 -559 2047
-691 -563 2064
-675 -555 2036
-667 -553 2032
-670 -561 2061
-667 -564 2075
-656 -560 2061
-646 -557 2050
-637 -555 2044
-634 -557 2056
-627 -556 2053
-623 -559 2063
-612 -555 2050
-608 -557 2060
-598 -553 2047
-597 -558 2066
-591 -558 2068
-583 -557 2064
-576 -556 2064
-570 -556 2065
-567 -560 2080
-558 -557 2070
-553 -558 2076
-547 -559 2081
-539 -558 2076
-531 -556 2070
-524 -555 2067
-522 -559 2084
-513 -556 2076
-503 -552 2060
-500 -556 2077
-497 -559 2089
-487 -556 2077
-483 -558 2086
-475 -556 2080
-484 -573 2147
-525 -631 2361
-490 -598 2239
-448 -553 2074
-434 -544 2038
0 0 0
-399 -514 1930
0 0 0
0 0 0
0 0 0
0 0 0
0 0 0
0 0 0
0 0 0
0 0 0
0 0 0
0 0 0
0 0 0
0 0 0
-646 -1025 3863
-585 -945 3564
-563 -926 3492
-555 -930 3510
0 0 0
-135 -238 900
0 0 0
-11 -25 95
-36 -71 270
-44 -87 329
-54 -108 411
-61 -124 472
-37 -79 300
-41 -90 341
-44 -97 369
-41 -93 353
-42 -98 373
-35 -86 326
-56 -136 517
-70 -173 658
-82 -207 784
-73 -190 722
0 0 0
-334 -898 3402
-321 -889 3370
-308 -882 3341
-297 -880 3335
-288 -881 3340
-277 -879 3332
-269 -882 3345
-261 -889 3372
-249 -885 3354
-253 -936 3547
0 0 0
-20 -90 343
-1 -17 66
-1 -15 59
-5 -38 145
-36 -189 720
-62 -332 1259
-59 -337 1280
-55 -336 1277
-50 -324 1232
-48 -336 1276
-42 -319 1213
-39 -323 1227
-36 -333 1264
-35 -354 1343
-29 -338 1285
-27 -354 1346
-21 -327 1240
-17 -328 1245
-13 -328 1244
-8 -293 1112
0 0 0
0 0 0
1 -259 984
0 0 0
7 -286 1084
11 -302 1147
15 -340 1289
19 -340 1289
23 -340 1289
28 -359 1363
30 -337 1278
36 -360 1365
37 -329 1249
42 -343 1301
47 -345 1307
48 -327 1239
55 -351 1331
57 -337 1276
61 -338 1279
65 -342 1295
68 -335 1267
73 -344 1303
73 -324 1226
83 -351 1327
81 -329 1245
85 -330 1247
93 -346 1308
95 -340 1283
99 -338 1279
98 -325 1226
106 -338 1275
105 -322 1217
111 -329 1241
113 -327 1232
113 -313 1182
114 -307 1159
129 -339 1280
0 0 0
0 0 0
0 0 0
0 0 0
0 0 0
0 0 0
368 -814 3056
375 -807 3031
360 -756 2839
343 -704 2643
316 -634 2379
334 -655 2457
325 -625 2342
306 -575 2155
266 -489 1831
262 -471 1763
269 -474 1775
271 -469 1753
266 -452 1690
264 -440 1645
219 -357 1335
188 -300 1122
184 -289 1079
187 -288 1076
187 -283 1055
194 -288 1075
198 -290 1080
200 -288 1074
205 -291 1083
208 -291 1083
214 -295 1096
215 -292 1085
216 -288 1071
225 -296 1099
227 -294 1092
229 -292 1084
237 -299 1108
235 -293 1084
238 -292 1080
244 -295 1092
239 -285 1055
244 -287 1062
234 -272 1006
220 -251 928
228 -258 951
0 0 0
149 -163 601
0 0 0
0 0 0
0 0 0
0 0 0
0 0 0
0 0 0
71 -69 256
40 -36 134
52 -48 176
0 0 0
0 0 0
0 0 0
0 0 0
0 0 0
0 0 0
0 0 0
0 0 0
0 0 0
0 0 0
0 0 0
0 0 0
0 0 0
0 0 0
0 0 0
0 0 0
0 0 0
0 0 0
0 0 0
0 0 0
1038 -847 3039
1080 -873 3132
1077 -864 3094
1070 -851 3043
1067 -840 3004
0 0 0
0 0 0
0 0 0
1066 -811 2888
1076 -812 2888
1077 -806 2864
1086 -806 2861
1095 -807 2860
1087 -794 2812
1091 -791 2796
1109 -798 2818
1099 -784 2766
1108 -784 2764
1095 -769 2706
1075 -749 2634
1103 -763 2680
1095 -752 2638
1099 -749 2624
1098 -742 2597
1114 -748 2614
1081 -720 2514
1052 -696 2424
1138 -747 2601
1110 -724 2517
1073 -695 2412
1090 -701 2430
1095 -699 2420
1105 -700 2421
1115 -702 2424
1109 -693 2390
1104 -686 2361
1110 -685 2353
1120 -686 2356
1121 -682 2339
1128 -682 2336
1120 -673 2300
1122 -669 2285
1128 -669 2280
1117 -658 2238
1129 -661 2245
1110 -645 2190
1110 -641 2171
1112 -638 2158
1111 -634 2140
1120 -635 2140
1121 -632 2127
1111 -622 2090
1125 -626 2100
1131 -626 2096
1125 -619 2068
1116 -610 2036
1130 -614 2046
1130 -611 2031
1134 -609 2022
1143 -610 2022
1140 -605 2002
1138 -601 1984
1138 -597 1968
-533 -261 892
-500 -246 842
-501 -248 851
-489 -244 836
-481 -241 829
-477 -241 829
-475 -241 831
-472 -241 832
-474 -244 843
-464 -240 831
-472 -245 851
-462 -242 839
-465 -244 851
-489 -259 903
-475 -253 884
-500 -268 938
-560 -302 1057
-998 -542 1898
-1076 -588 2063
-1070 -588 2067
-1064 -589 2072
-1052 -586 2065
-1050 -589 2078
-1036 -585 2066
-1031 -585 2071
-1023 -585 2072
-1015 -584 2072
-1005 -582 2068
-998 -582 2070
-989 -581 2068
-980 -580 2066
-959 -571 2038
-954 -572 2045
-962 -581 2078
-953 -579 2075
-947 -580 2081
-937 -578 2075
-915 -568 2044
-901 -564 2029
-892 -562 2025
-884 -561 2025
-880 -563 2033
-882 -568 2055
-867 -563 2038
-857 -560 2030
-854 -563 2042
-835 -554 2012
-843 -564 2050
-828 -558 2032
-830 -564 2054
-814 -558 2034
-793 -547 1999
-758 -527 1927
-768 -539 1972
-772 -546 1999
-764 -545 1997
-761 -547 2008
-758 -549 2018
-761 -556 2045
-745 -549 2019
-726 -540 1988
-710 -532 1961
-719 -544 2007
-720 -549 2027
-724 -557 2058
-706 -548 2028
-692 -542 2006
-700 -553 2049
-695 -554 2056
-693 -558 2070
-680 -553 2052
-669 -549 2040
-665 -551 2049
-664 -555 2065
-655 -553 2061
-646 -551 2052
-640 -551 2056
-631 -549 2048
-626 -550 2053
-619 -549 2051
-618 -554 2071
-605 -548 2051
-603 -552 2066
-593 -548 2055
-586 -548 2053
-576 -544 2042
-579 -553 2076
-572 -552 2074
-566 -553 2079
-559 -552 2076
-552 -551 2074
-545 -550 2073
-545 -557 2099
-537 -555 2094
-528 -553 2086
-518 -549 2070
-513 -550 2077
-510 -553 2091
-502 -551 2084
-493 -549 2076
-486 -548 2075
-478 -547 2069
-478 -554 2097
-548 -642 2432
-618 -734 2780
-591 -712 2698
-544 -665 2521
-444 -550 2088
-423 -531 2018
-408 -521 1979
0 0 0
0 0 0
0 0 0
0 0 0
0 0 0
0 0 0
0 0 0
0 0 0
0 0 0
0 0 0
0 0 0
0 0 0
-644 -1011 3856
-575 -918 3505
-563 -916 3497
-551 -914 3491
0 0 0
-119 -208 796
-122 -217 832
-702 -1258 4806
0 0 0
-66 -126 485
-46 -91 350
-54 -109 417
-57 -118 453
-53 -113 433
-39 -85 328
-46 -104 400
-36 -84 323
-44 -103 398
-80 -189 727
-117 -281 1078
0 0 0
0 0 0
0 0 0
-325 -865 3316
-317 -869 3331
-305 -864 3314
-296 -867 3323
-287 -868 3329
-276 -865 3319
-269 -875 3356
-260 -876 3361
-253 -886 3398
-246 -900 3452
0 0 0
-32 -137 528
-6 -35 137
0 -9 37
-1 -18 73
-39 -199 764
-57 -305 1172
-59 -333 1278
-52 -312 1199
-48 -313 1203
-50 -347 1333
-46 -345 1324
-40 -327 1258
-37 -336 1291
-33 -332 1276
-29 -334 1284
-27 -354 1360
-21 -325 1250
-18 -342 1312
-15 -349 1340
-8 -273 1049
-5 -272 1046
-1 -257 987
0 -312 1197
4 -301 1158
8 -318 1223
11 -319 1225
16 -352 1353
19 -329 1263
24 -350 1345
28 -358 1373
33 -369 1415
37 -362 1387
41 -359 1375
44 -351 1347
48 -352 1349
50 -338 1295
57 -359 1378
64 -376 1439
69 -379 1452
71 -371 1421
74 -361 1381
78 -361 1382
81 -358 1371
86 -362 1386
92 -370 1414
95 -364 1393
103 -378 1447
102 -362 1384
108 -367 1404
107 -349 1335
111 -349 1333
108 -328 1253
117 -343 1310
107 -304 1162
0 0 0
0 0 0
0 0 0
0 0 0
0 0 0
0 0 0
0 0 0
0 0 0
0 0 0
353 -769 2925
365 -777 2954
324 -673 2556
320 -650 2467
331 -657 2496
332 -644 2443
339 -644 2442
324 -602 2283
277 -503 1908
268 -477 1808
279 -488 1847
279 -478 1809
287 -482 1825
256 -421 1595
218 -351 1328
184 -291 1100
183 -283 1069
184 -280 1057
188 -282 1063
190 -280 1057
199 -287 1085
201 -287 1081
206 -288 1087
207 -286 1077
210 -286 1077
213 -285 1073
218 -287 1079
225 -292 1099
225 -288 1082
232 -293 1100
229 -285 1068
232 -285 1069
230 -278 1043
240 -287 1075
237 -280 1048
240 -279 1044
240 -275 1030
219 -248 928
194 -216 806
183 -201 749
0 0 0
86 -89 334
0 0 0
0 0 0
0 0 0
0 0 0
75 -73 272
62 -59 221
73 -69 257
55 -50 187
63 -58 215
0 0 0
0 0 0
0 0 0
0 0 0
0 0 0
0 0 0
1081 -988 3631
1092 -988 3627
1109 -994 3645
0 0 0
0 0 0
0 0 0
0 0 0
0 0 0
0 0 0
0 0 0
0 0 0
0 0 0
0 0 0
1045 -843 3062
1070 -856 3104
1085 -860 3119
1088 -855 3096
1082 -843 3048
0 0 0
0 0 0
0 0 0
1042 -785 2826
1070 -799 2875
1077 -798 2868
1082 -795 2854
1092 -796 2853
1090 -788 2823
1086 -779 2787
1110 -790 2822
1119 -790 2820
1099 -770 2745
1099 -763 2719
1089 -751 2670
1092 -747 2655
1076 -731 2593
1109 -747 2648
1137 -761 2693
1102 -732 2588
1059 -697 2463
1123 -735 2592
1096 -712 2507
1104 -712 2505
1118 -716 2514
1093 -695 2437
1113 -703 2462
1114 -699 2444
1108 -690 2410
1127 -697 2431
1112 -683 2380
1112 -678 2360
1119 -678 2355
1112 -669 2321
1114 -666 2308
1122 -666 2305
1113 -657 2268
1124 -659 2272
1122 -653 2250
1122 -649 2231
1104 -635 2178
1112 -635 2178
1112 -631 2160
1115 -629 2149
1120 -628 2143
1124 -626 2134
1127 -624 2123
1123 -618 2098
1123 -614 2082
1128 -613 2075
1137 -615 2077
1130 -607 2047
1143 -611 2056
1136 -603 2028
1130 -596 2001
1141 -599 2006
1150 -600 2006
1142 -592 1977
-556 -269 930
-503 -245 848
-494 -242 839
-486 -239 831
-493 -244 851
-479 -239 832
-482 -242 843
-476 -240 840
-469 -238 835
-470 -240 842
-456 -234 823
-463 -240 843
-482 -251 883
-468 -245 865
-471 -248 877
-465 -246 872
-578 -308 1092
-1038 -557 1977
-1078 -582 2068
-1070 -582 2070
-1063 -582 2073
-1058 -583 2078
-1045 -579 2068
-1038 -579 2071
-1029 -578 2070
-1022 -577 2071
-1015 -578 2074
-1008 -578 2077
-998 -575 2072
-989 -574 2070
-982 -574 2072
-956 -563 2034
-961 -569 2060
-961 -573 2078
-955 -574 2083
-948 -574 2085
-938 -572 2079
-917 -563 2048
-906 -560 2043
-898 -559 2041
-888 -557 2036
-882 -557 2038
-871 -555 2032
-870 -558 2045
-862 -557 2045
-856 -557 2047
-839 -550 2024
-842 -557 2050
-823 -548 2020
-824 -554 2043
-810 -548 2023
-803 -548 2026
-775 -533 1972
-774 -537 1987
-770 -538 1996
-761 -537 1991
-767 -545 2023
-758 -543 2018
-763 -551 2052
-753 -549 2044
-735 -540 2014
-709 -526 1962
-725 -542 2025
-725 -547 2044
-712 -542 2027
-708 -544 2036
-694 -538 2015
-699 -547 2049
-692 -546 2049
-683 -544 2043
-682 -548 2060
-668 -542 2038
-658 -539 2028
-656 -542 2042
-661 -552 2079
-641 -540 2039
-638 -543 2051
-631 -543 2051
-624 -542 2049
-620 -544 2058
-611 -542 2051
-605 -542 2052
-601 -543 2060
-597 -545 2069
-588 -543 2063
-578 -539 2049
-577 -545 2070
-570 -544 2070
-565 -546 2077
-558 -545 2076
-552 -545 2078
-544 -543 2072
-543 -548 2091
-533 -545 2080
-525 -543 2075
-519 -543 2075
-512 -543 2074
-504 -541 2068
-495 -538 2059
-493 -542 2075
-490 -546 2091
-479 -541 2074
-488 -559 2142
-573 -664 2546
-660 -775 2973
-635 -756 2901
-566 -683 2622
-485 -594 2282
-421 -524 2013
-405 -510 1963
0 0 0
0 0 0
0 0 0
0 0 0
0 0 0
0 0 0
0 0 0
0 0 0
0 0 0
0 0 0
0 0 0
0 0 0
-628 -975 3764
-578 -913 3525
-563 -907 3503
-555 -910 3515
0 0 0
-124 -214 830
-134 -236 913
0 0 0
-65 -121 469
-58 -111 432
-53 -104 406
-34 -70 271
-62 -127 495
-50 -106 412
-46 -100 389
-35 -79 308
-38 -87 338
-39 -91 353
-81 -190 737
-98 -235 912
-117 -287 1114
0 0 0
0 0 0
-326 -859 3332
-315 -856 3321
-305 -855 3319
-296 -857 3327
-286 -856 3322
-276 -856 3325
-269 -864 3356
-260 -869 3373
-251 -869 3375
-241 -870 3377
0 0 0
-45 -185 722
-16 -77 303
0 -10 40
-3 -26 101
-34 -176 687
-56 -294 1142
-54 -300 1169
-49 -292 1138
-47 -305 1185
-47 -325 1264
-46 -344 1338
-40 -324 1261
-41 -369 1433
-32 -326 1268
-30 -342 1328
-27 -348 1354
-22 -340 1320
-18 -335 1303
-15 -345 1341
-8 -283 1100
0 0 0
-1 -267 1038
1 -235 915
4 -303 1177
7 -255 993
12 -330 1281
16 -352 1366
20 -351 1362
25 -368 1430
28 -348 1353
31 -339 1316
35 -341 1325
41 -358 1390
45 -353 1371
50 -360 1397
54 -360 1397
57 -356 1380
61 -357 1385
61 -330 1282
71 -362 1404
75 -362 1404
76 -351 1359
84 -365 1416
92 -382 1480
94 -373 1445
94 -358 1385
97 -354 1371
99 -346 1338
105 -351 1358
113 -367 1420
116 -363 1403
111 -335 1294
0 0 0
0 0 0
0 0 0
0 0 0
0 0 0
0 0 0
0 0 0
0 0 0
0 0 0
0 0 0
0 0 0
362 -782 3007
334 -704 2706
311 -639 2457
320 -643 2470
321 -630 2420
329 -631 2422
338 -634 2434
335 -616 2365
309 -556 2135
280 -493 1889
295 -508 1949
304 -515 1974
301 -500 1915
278 -452 1731
227 -362 1385
184 -287 1099
182 -278 1064
184 -276 1057
190 -281 1073
191 -278 1061
194 -278 1062
199 -280 1068
202 -280 1069
205 -280 1067
208 -280 1067
211 -279 1064
218 -284 1083
220 -282 1073
226 -286 1088
228 -284 1080
230 -284 1077
235 -285 1081
240 -288 1092
231 -273 1034
224 -260 986
240 -276 1045
247 -281 1061
230 -258 975
210 -232 877
178 -193 730
0 0 0
0 0 0
143 -149 561
0 0 0
0 0 0
0 0 0
0 0 0
122 -119 449
25 -20 78
32 -27 102
101 -94 355
78 -71 267
0 0 0
0 0 0
0 0 0
0 0 0
0 0 0
1055 -953 3546
1059 -948 3522
1072 -950 3526
0 0 0
0 0 0
0 0 0
0 0 0
0 0 0
0 0 0
0 0 0
0 0 0
0 0 0
0 0 0
1090 -870 3197
1083 -856 3145
1083 -849 3114
1082 -841 3081
1091 -840 3076
0 0 0
0 0 0
0 0 0
1048 -780 2845
1074 -793 2887
1070 -783 2850
1083 -786 2858
1079 -777 2822
1096 -783 2839
1085 -769 2785
1102 -775 2803
1072 -748 2701
