VERSION 0.7
FIELDS x y z
SIZE 4 4 4
TYPE I I I
COUNT 1 1 1
WIDTH 3779
HEIGHT 1
VIEWPOINT 0.0 0.0 0.0 1.0 0.0 0.0 0.0
POINTS 3779
DATA ascii
422 374 1040
425 374 1039
431 376 1043
432 374 1037
438 377 1042
444 379 1048
445 377 1040
453 380 1049
452 377 1038
460 380 1047
462 380 1044
463 378 1037
472 382 1047
468 376 1029
481 384 1049
482 381 1042
487 383 1046
493 385 1048
491 381 1037
495 381 1035
501 383 1041
504 383 1039
513 387 1049
511 383 1034
519 386 1042
521 385 1039
526 386 1039
531 387 1042
533 386 1037
535 385 1033
545 390 1045
547 389 1040
540 382 1019
557 391 1042
557 388 1033
564 391 1038
566 390 1034
570 390 1033
577 393 1039
581 393 1037
581 391 1030
594 397 1045
593 394 1036
598 395 1036
596 391 1024
603 393 1029
605 393 1025
612 395 1029
619 397 1032
-590 387 969
-577 381 955
-572 380 954
-560 374 942
-543 365 920
-546 369 932
-538 365 925
-534 365 926
-537 369 939
-531 367 935
-532 370 944
-525 367 938
-521 367 939
-520 368 945
-515 367 942
-511 367 943
-511 369 950
-510 370 956
-511 373 966
-511 376 974
-508 376 975
-502 374 972
-500 375 975
-490 369 963
-484 368 960
-481 367 960
-476 366 959
-473 366 961
-465 363 952
-461 362 951
-458 362 954
-457 364 959
-455 364 962
-452 364 964
-451 366 971
-447 366 971
-441 363 965
-439 364 969
-435 364 969
-430 362 965
-436 369 987
-437 374 999
-445 383 1026
-457 396 1063
-429 375 1007
-421 371 997
-413 366 985
-408 364 982
-405 364 983
-397 361 975
-397 363 982
-395 365 988
-391 363 985
-389 365 991
-385 363 988
-381 363 988
-377 362 986
-378 366 999
-376 367 1003
-371 365 999
-369 366 1002
-366 366 1004
-360 364 998
-361 368 1011
-355 364 1002
-350 363 999
-349 365 1005
-348 368 1014
-342 364 1006
-338 363 1004
-337 366 1013
-331 363 1005
-329 365 1010
-330 368 1021
-327 368 1023
-323 368 1022
-321 369 1026
-316 367 1021
-312 367 1022
-311 368 1027
-308 369 1030
-303 367 1027
-298 365 1021
-295 365 1022
-294 368 1030
-293 370 1037
-287 366 1028
-284 367 1030
-280 366 1030
-277 366 1031
-276 368 1037
-274 371 1045
-270 369 1040
-266 369 1040
-263 368 1040
-259 368 1039
-254 365 1031
-253 368 1042
-249 367 1040
-246 367 1039
-243 367 1041
-238 365 1034
-234 364 1033
-233 366 1040
-226 361 1026
-224 362 1031
-221 363 1033
-218 363 1034
-215 363 1035
-211 361 1029
-208 363 1035
-205 361 1031
-201 360 1028
-199 363 1038
-195 361 1033
-194 365 1045
-191 365 1044
-185 360 1032
-183 362 1036
-180 362 1037
-177 362 1040
-175 365 1047
-171 363 1041
-167 362 1038
-165 363 1044
-162 364 1046
-159 366 1051
-155 364 1047
-153 365 1049
-149 365 1050
-147 365 1052
-144 366 1055
-139 363 1046
-136 362 1046
-133 364 1050
-130 363 1049
-127 364 1053
-124 364 1052
-120 363 1049
-118 366 1059
-115 365 1055
-111 363 1049
-104 351 1016
-97 338 979
-89 320 925
-84 312 902
-77 297 860
-76 303 876
-71 293 849
-69 294 850
-66 295 854
-62 287 830
-60 290 841
-58 293 849
-53 282 817
-51 281 813
-49 283 820
-46 284 824
-43 279 809
-41 284 823
-38 281 815
-36 284 823
-34 285 828
-33 294 853
-30 291 845
-26 282 819
-24 280 811
-22 292 848
-22 315 915
-18 302 877
-16 309 899
-14 327 950
-12 338 984
-9 344 1000
-6 354 1031
-3 362 1054
0 361 1051
2 359 1044
5 363 1056
9 361 1052
12 362 1055
15 360 1050
18 361 1053
21 359 1047
24 357 1041
27 358 1043
31 362 1055
34 361 1051
37 362 1055
40 361 1050
44 363 1057
47 362 1054
50 364 1059
53 361 1051
56 360 1048
59 363 1056
62 361 1051
65 359 1045
69 363 1057
72 360 1047
75 362 1055
78 362 1055
82 362 1055
85 363 1056
89 365 1063
92 366 1064
94 363 1055
98 365 1061
101 364 1058
104 363 1055
107 363 1056
111 366 1062
114 363 1054
117 363 1054
120 363 1055
124 364 1058
126 363 1053
130 363 1054
135 368 1068
136 364 1056
140 365 1060
143 364 1057
145 362 1048
149 365 1057
154 367 1064
156 365 1056
158 363 1050
162 364 1054
166 365 1057
168 363 1050
172 365 1056
176 367 1060
178 363 1050
182 366 1057
186 366 1057
187 363 1046
192 365 1054
194 364 1049
196 361 1041
202 366 1055
205 366 1054
208 365 1052
210 363 1046
215 367 1056
217 364 1047
219 363 1042
225 367 1054
227 365 1049
229 363 1043
232 364 1044
237 366 1050
242 368 1056
244 366 1049
246 365 1045
251 367 1051
253 365 1044
257 366 1047
260 366 1047
264 367 1048
265 365 1040
270 366 1045
273 367 1045
275 364 1038
280 368 1047
284 368 1047
287 368 1047
290 368 1045
294 368 1045
297 367 1042
301 369 1046
303 367 1041
309 371 1049
309 367 1039
313 368 1040
318 369 1043
321 370 1043
325 370 1045
325 367 1034
330 369 1038
335 371 1044
339 371 1043
342 371 1043
343 368 1034
349 371 1040
352 371 1040
354 370 1035
360 372 1041
362 371 1036
368 373 1043
371 373 1041
374 373 1041
378 374 1040
378 371 1031
385 375 1041
390 375 1043
391 374 1038
398 377 1044
397 373 1034
399 372 1030
408 377 1042
406 372 1027
412 374 1033
421 380 1047
421 377 1037
425 377 1037
427 376 1034
431 376 1033
432 375 1026
438 377 1031
445 380 1039
449 380 1039
452 380 1037
453 378 1030
459 380 1034
465 382 1039
463 378 1026
469 380 1030
472 380 1028
478 382 1034
482 382 1033
489 385 1039
491 384 1035
492 382 1028
498 384 1032
504 387 1038
503 383 1026
511 386 1033
515 387 1035
520 388 1035
520 386 1028
522 384 1023
531 389 1033
527 383 1016
535 387 1024
538 386 1021
543 387 1023
552 391 1031
553 389 1025
558 390 1026
561 390 1025
570 394 1032
571 392 1027
573 391 1023
577 391 1021
582 393 1023
593 397 1033
598 398 1034
594 394 1020
598 394 1019
601 393 1017
604 393 1013
607 392 1010
-588 389 965
-578 385 956
-576 386 960
-559 376 938
-543 368 920
-540 368 920
-539 370 927
-534 368 925
-534 371 933
-529 369 930
-526 369 932
-522 369 932
-517 367 931
-513 366 930
-511 367 934
-508 368 937
-510 371 947
-505 370 945
-504 372 951
-509 377 968
-507 379 973
-500 376 967
-500 378 974
-494 376 970
-488 374 966
-480 370 959
-469 364 945
-470 367 953
-460 362 942
-462 366 954
-456 363 948
-457 367 958
-451 364 953
-450 366 959
-446 366 959
-442 365 959
-440 366 962
-432 361 952
-434 366 965
-433 367 971
-431 369 976
-449 387 1025
-455 394 1047
-452 395 1049
-445 392 1043
-420 372 992
-411 367 979
-406 366 977
-401 364 974
-399 365 978
-395 365 977
-394 367 983
-387 363 975
-387 366 985
-384 365 984
-380 365 984
-378 366 988
-376 367 992
-371 365 988
-369 366 992
-366 367 994
-363 366 994
-358 365 992
-355 365 992
-353 366 995
-350 366 999
-345 364 993
-342 365 996
-342 368 1006
-337 365 1000
-335 367 1005
-331 366 1004
-327 365 1002
-326 368 1010
-324 369 1015
-317 364 1003
-317 368 1015
-311 364 1004
-309 366 1009
-306 367 1013
-307 371 1025
-303 371 1026
-299 369 1022
-293 366 1014
-293 369 1024
-290 370 1027
-287 370 1027
-281 366 1019
-279 368 1025
-277 369 1029
-274 370 1031
-270 368 1027
-266 367 1024
-262 366 1023
-260 368 1029
-258 369 1031
-253 367 1028
-250 367 1027
-247 368 1031
-244 368 1032
-240 366 1028
-237 366 1028
-233 365 1027
-229 363 1022
-226 364 1024
-224 366 1031
-220 364 1027
-217 364 1026
-215 366 1032
-209 362 1023
-206 362 1023
-205 365 1032
-202 365 1033
-198 364 1031
-193 361 1023
-190 362 1024
-188 362 1027
-184 361 1023
-181 361 1024
-179 363 1030
-175 363 1030
-171 360 1024
-170 364 1034
-167 365 1038
-164 365 1038
-162 367 1045
-157 365 1038
-154 365 1039
-151 363 1036
-148 365 1041
-146 367 1046
-142 366 1043
-139 365 1042
-136 367 1047
-132 363 1038
-129 363 1039
-127 366 1047
-123 366 1047
-119 363 1040
-116 364 1042
-116 372 1065
-110 363 1040
-103 352 1008
-95 334 957
-88 319 913
-83 313 897
-79 308 884
-75 300 859
-72 301 864
-65 280 802
-66 295 847
-58 271 778
-60 294 842
-58 295 845
-54 287 822
-51 287 825
-47 275 788
-45 278 798
-42 276 793
-40 279 800
-39 285 818
-37 290 832
-33 279 800
-30 276 793
-30 299 858
-28 300 861
-24 290 835
-22 295 850
-21 309 889
-18 303 872
-15 309 890
-14 325 937
-11 338 974
-9 348 1003
-6 356 1027
-3 362 1043
0 361 1042
2 360 1038
5 360 1038
9 362 1046
12 360 1038
15 362 1046
18 362 1044
21 360 1038
24 360 1039
27 359 1036
30 360 1038
34 364 1049
37 361 1041
40 360 1039
43 362 1044
46 362 1044
49 361 1041
52 361 1042
56 361 1042
59 362 1044
62 362 1045
65 364 1049
69 365 1053
72 365 1053
75 363 1047
78 366 1055
81 364 1048
84 361 1040
88 364 1050
91 365 1051
94 363 1046
97 364 1048
100 363 1045
103 363 1047
107 364 1048
110 364 1047
113 363 1044
116 362 1042
119 364 1048
122 363 1045
125 363 1043
129 365 1050
131 361 1038
135 364 1046
138 363 1043
142 365 1048
145 366 1050
148 364 1045
151 363 1041
155 367 1053
157 363 1042
161 365 1046
164 365 1046
169 368 1055
171 366 1047
174 366 1047
177 365 1045
180 365 1044
184 366 1046
188 367 1049
189 364 1042
193 366 1045
196 365 1042
201 367 1049
203 365 1042
206 366 1044
208 364 1038
213 366 1044
216 367 1045
219 366 1041
224 369 1050
227 368 1047
229 366 1041
232 366 1039
235 365 1037
238 366 1038
241 365 1035
245 366 1038
248 366 1036
252 368 1042
255 367 1038
256 364 1031
261 366 1035
265 368 1038
268 367 1036
273 369 1042
276 369 1042
278 368 1036
282 369 1039
285 368 1037
288 369 1037
292 369 1039
293 367 1030
299 370 1038
300 367 1031
306 370 1039
306 366 1026
310 367 1028
316 370 1036
319 371 1036
319 366 1023
323 367 1025
330 372 1038
331 369 1028
335 370 1029
339 371 1032
341 370 1027
346 372 1032
351 373 1034
351 369 1024
355 371 1027
357 369 1022
363 372 1030
368 373 1031
369 371 1024
374 373 1029
378 374 1031
381 374 1029
385 374 1029
387 373 1024
391 373 1025
396 375 1029
398 374 1024
404 377 1030
407 377 1030
410 376 1027
416 378 1031
418 377 1027
423 379 1031
428 380 1033
427 377 1023
433 379 1028
438 380 1029
441 380 1027
442 378 1022
446 378 1022
451 380 1024
452 378 1019
459 381 1024
463 382 1026
463 379 1016
468 380 1020
473 381 1020
478 383 1024
482 383 1024
487 385 1026
492 386 1028
494 384 1023
496 383 1018
504 387 1027
503 384 1017
508 385 1019
515 388 1024
514 384 1014
519 385 1015
526 388 1021
527 387 1016
532 387 1016
535 387 1013
539 388 1014
546 390 1019
545 387 1009
553 390 1016
557 390 1015
559 389 1011
565 391 1014
570 393 1016
573 392 1013
580 395 1018
583 394 1014
582 391 1005
588 393 1009
595 395 1012
602 397 1016
603 396 1010
610 398 1015
-571 381 936
-563 378 930
-564 381 939
-557 379 935
-542 371 917
-538 370 917
-537 371 922
-531 369 918
-523 366 912
-525 369 922
-523 371 926
-518 369 925
-516 370 928
-512 369 928
-504 366 921
-508 371 935
-503 369 933
-501 370 937
-507 377 956
-503 376 956
-508 382 972
-503 381 970
-500 382 974
-493 378 967
-485 375 960
-477 371 951
-469 367 943
-464 366 940
-460 365 940
-452 361 932
-455 366 945
-451 365 945
-448 366 947
-445 365 948
-439 363 942
-439 365 950
-436 366 953
-431 364 950
-432 367 960
-429 367 961
-427 368 965
-429 373 979
-454 397 1045
-449 396 1041
-451 401 1056
-419 375 989
-408 368 971
-403 366 968
-399 365 967
-393 363 961
-395 368 977
-390 366 973
-387 366 973
-382 364 969
-380 365 973
-374 363 968
-372 364 972
-373 367 982
-369 367 982
-366 366 982
-359 363 975
-360 367 987
-358 368 991
-350 363 978
-349 365 983
-345 364 982
-343 365 986
-340 366 990
-338 367 993
-338 370 1002
-331 366 992
-331 370 1004
-324 365 993
-324 368 1002
-320 368 1001
-317 367 1001
-313 367 1001
-310 367 1001
-306 366 1000
-305 368 1006
-302 369 1009
-298 367 1007
-296 369 1013
-293 369 1012
-290 369 1015
-288 370 1017
-281 366 1006
-280 368 1013
-277 368 1015
-273 367 1012
-273 372 1026
-268 368 1018
-265 369 1021
-261 369 1020
-259 369 1022
-253 365 1012
-252 369 1023
-247 366 1015
-244 366 1017
-243 369 1027
-240 369 1027
-236 368 1023
-232 367 1022
-228 365 1018
-224 365 1016
-220 362 1010
-218 364 1016
-214 362 1012
-212 365 1019
-210 366 1023
-207 367 1027
-202 363 1017
-200 365 1024
-195 363 1017
-192 362 1014
-189 362 1016
-187 365 1025
-183 363 1020
-181 364 1024
-178 364 1024
-174 364 1023
-171 363 1023
-168 364 1025
-166 365 1028
-163 366 1032
-159 365 1029
-156 364 1027
-152 362 1021
-150 365 1029
-148 366 1035
-144 365 1030
-140 364 1029
-137 362 1025
-134 364 1030
-131 365 1033
-128 365 1033
-126 366 1038
-123 367 1039
-119 365 1035
-115 364 1033
-113 368 1043
-107 358 1014
-102 350 993
-93 331 939
-87 319 905
-82 310 881
-80 315 894
-75 305 866
-73 306 869
-67 293 832
-63 285 809
-60 285 810
-59 290 823
-55 284 806
-54 290 824
-50 281 800
-48 285 811
-47 290 826
-42 280 796
-43 296 843
-39 287 817
-35 281 800
-34 289 824
-31 288 820
-30 298 850
-26 282 804
-24 287 817
-22 293 834
-19 283 806
-18 303 863
-15 310 885
-14 326 929
-11 338 964
-9 351 1003
-6 358 1023
-3 362 1034
0 360 1030
2 359 1026
5 364 1040
9 363 1037
12 362 1034
15 362 1034
18 364 1040
21 360 1030
24 361 1031
27 363 1037
30 364 1041
34 363 1038
37 365 1042
40 362 1035
43 361 1032
46 363 1037
49 360 1029
52 361 1031
55 362 1036
59 363 1037
62 364 1040
65 363 1038
68 365 1043
71 362 1035
74 363 1036
77 364 1039
81 366 1045
83 363 1035
87 364 1038
90 365 1041
93 363 1037
96 362 1031
100 365 1040
103 364 1038
107 367 1047
109 364 1037
111 361 1028
115 363 1034
118 364 1037
121 363 1033
124 363 1033
128 365 1039
130 363 1032
134 365 1038
137 365 1038
141 365 1037
145 367 1042
148 367 1044
150 365 1038
154 366 1039
157 366 1039
160 366 1038
163 366 1038
166 366 1038
170 366 1038
171 363 1028
175 363 1030
179 366 1037
182 366 1037
186 366 1036
187 362 1025
191 365 1033
194 364 1030
197 365 1030
201 366 1034
204 364 1029
208 366 1034
212 368 1037
213 365 1028
217 366 1032
221 367 1034
224 366 1031
227 367 1032
228 364 1023
233 366 1029
235 364 1023
239 365 1026
245 370 1038
247 368 1032
250 368 1031
252 366 1026
255 366 1026
259 367 1026
263 367 1027
268 370 1035
270 369 1030
273 368 1028
275 367 1024
281 371 1035
281 367 1022
285 367 1022
289 369 1027
292 368 1023
296 369 1026
300 370 1029
303 370 1027
304 367 1019
310 370 1027
312 369 1022
315 369 1021
319 369 1021
325 372 1029
327 371 1025
328 369 1019
332 370 1020
334 369 1015
339 370 1019
341 369 1015
347 372 1023
350 372 1021
354 372 1022
354 369 1011
360 372 1019
365 374 1022
367 372 1017
371 373 1019
376 375 1024
380 376 1026
381 374 1018
384 374 1016
385 371 1009
391 374 1015
395 375 1016
400 376 1019
400 373 1010
406 375 1015
412 378 1022
417 380 1024
422 381 1028
425 381 1026
430 382 1028
427 377 1013
431 378 1013
439 381 1022
437 377 1009
443 379 1014
447 380 1014
453 382 1020
455 381 1016
459 381 1015
463 382 1016
462 378 1004
468 381 1009
474 383 1013
480 385 1019
480 383 1010
480 380 1001
490 385 1013
496 387 1018
497 385 1011
503 387 1015
507 387 1015
509 386 1011
511 385 1007
513 385 1003
518 386 1004
527 390 1014
521 383 994
530 387 1004
536 389 1006
540 389 1006
541 388 1001
547 389 1004
548 388 998
556 391 1004
559 391 1003
564 392 1004
568 392 1003
576 395 1010
578 394 1005
579 392 999
587 396 1005
588 394 1000
593 395 1000
598 396 1001
598 394 994
-561 378 919
-559 379 922
-555 378 924
-545 373 913
-538 371 909
-539 374 918
-530 370 909
-530 372 915
-522 368 909
-519 368 911
-520 371 919
-512 368 912
-514 371 923
-510 371 923
-501 367 914
-501 369 922
-501 371 928
-497 371 929
-499 374 940
-496 375 942
-496 376 948
-499 382 963
-499 384 970
-492 381 965
-490 382 969
-484 379 963
-471 372 945
-461 366 933
-459 367 936
-450 363 927
-449 364 931
-446 364 934
-445 366 940
-443 367 942
-438 365 939
-436 366 943
-432 365 943
-431 367 948
-428 367 950
-426 368 955
-424 369 958
-429 376 977
-444 392 1021
-451 401 1046
-422 378 987
-414 374 976
-409 372 974
-402 368 965
-397 367 961
-395 368 965
-393 369 969
-390 369 972
-382 364 960
-380 365 963
-376 365 963
-374 365 966
-372 367 972
-368 366 969
-367 368 977
-360 364 966
-358 365 970
-357 367 978
-353 366 975
-349 365 974
-345 364 973
-342 364 974
-342 367 982
-339 367 984
-335 366 982
-331 366 983
-330 368 990
-327 368 991
-324 368 990
-322 370 997
-319 369 996
-315 368 994
-312 368 994
-307 367 992
-305 367 995
-302 368 997
-298 367 994
-297 369 1003
-296 371 1009
-292 370 1007
-288 370 1007
-285 370 1008
-279 366 999
-279 370 1010
-274 368 1004
-272 369 1009
-267 367 1002
-264 367 1004
-263 369 1010
-259 368 1009
-256 369 1011
-253 368 1011
-249 367 1008
-247 369 1014
-242 367 1009
-240 367 1011
-238 369 1017
-234 368 1014
-229 366 1008
-225 364 1004
-223 365 1008
-219 365 1007
-217 365 1010
-213 364 1007
-210 364 1007
-206 362 1004
-204 364 1010
-201 365 1013
-197 363 1008
-195 365 1013
-191 364 1011
-188 364 1011
-186 365 1014
-183 365 1016
-179 363 1010
-176 365 1016
-172 361 1007
-171 366 1021
-167 365 1017
-163 363 1013
-160 363 1014
-158 364 1018
-154 364 1016
-152 365 1021
-149 365 1022
-144 362 1013
-142 364 1020
-139 364 1021
-136 363 1017
-133 365 1022
-129 363 1018
-126 362 1015
-125 367 1030
-120 363 1018
-117 361 1015
-114 364 1024
-112 367 1032
-107 360 1011
-100 347 976
-92 331 931
-86 317 892
-80 306 861
-78 309 869
-76 312 878
-66 282 792
-68 300 843
-67 305 858
-60 288 809
-58 289 814
-54 281 791
-53 287 807
-50 283 796
-48 286 804
-45 282 794
-41 273 768
-41 287 809
-38 283 797
-36 291 821
-33 282 795
-32 300 846
-30 302 853
-25 281 793
-25 297 839
-22 301 851
-19 289 816
-18 308 871
-15 309 873
-13 320 904
-11 337 953
-9 347 983
-6 356 1009
-3 362 1026
0 362 1024
2 364 1031
5 362 1023
8 363 1028
11 360 1019
15 360 1019
18 362 1025
21 363 1026
24 357 1012
27 361 1022
30 362 1024
33 363 1027
36 361 1021
39 361 1021
43 365 1032
45 361 1023
49 367 1039
52 364 1031
55 362 1023
58 360 1018
61 364 1031
64 364 1029
68 364 1031
71 364 1029
74 365 1031
77 363 1027
80 365 1032
83 363 1027
86 362 1024
89 364 1029
93 365 1032
96 365 1030
99 366 1034
102 365 1031
105 365 1030
108 365 1029
111 365 1030
115 365 1030
118 365 1030
120 363 1025
124 365 1030
129 369 1042
130 365 1028
134 366 1033
136 365 1028
140 365 1028
145 370 1041
146 366 1030
149 365 1027
154 369 1039
155 366 1028
159 366 1029
162 367 1033
165 366 1029
167 363 1020
170 363 1019
175 366 1029
177 365 1025
182 368 1031
184 366 1025
188 368 1031
191 367 1028
194 367 1027
196 366 1024
200 366 1024
202 365 1022
206 367 1026
209 366 1024
212 366 1023
216 367 1025
218 365 1019
221 366 1020
224 365 1018
229 368 1025
231 366 1021
236 369 1026
237 365 1016
241 366 1018
244 366 1017
248 367 1020
253 370 1028
253 366 1016
256 366 1014
261 369 1022
267 373 1032
269 370 1024
272 370 1023
274 368 1018
278 369 1021
280 368 1015
282 367 1012
289 371 1023
291 370 1020
293 369 1015
297 369 1016
302 371 1021
305 372 1022
307 371 1017
312 372 1021
311 368 1008
316 369 1011
321 372 1018
325 372 1018
327 371 1013
329 370 1010
335 373 1017
337 372 1014
343 375 1021
344 372 1014
348 372 1013
353 374 1017
357 375 1019
358 374 1013
364 376 1019
365 374 1011
369 374 1012
372 374 1010
379 378 1020
376 372 1003
382 374 1009
386 376 1011
389 375 1008
393 376 1009
396 376 1009
402 379 1015
405 378 1011
407 376 1007
409 376 1004
415 378 1008
415 375 1000
421 378 1006
427 380 1011
430 380 1009
431 378 1003
437 380 1007
441 381 1009
444 380 1006
449 382 1009
453 382 1008
458 384 1013
461 384 1009
461 381 1002
468 384 1007
468 381 1000
473 382 1001
476 382 1000
481 384 1003
483 383 999
492 387 1008
493 385 1002
497 386 1002
500 385 1000
501 384 994
507 386 997
510 386 996
512 385 992
517 385 993
519 385 989
524 386 992
530 388 994
536 390 998
536 387 990
546 392 1000
544 388 989
551 390 994
553 390 991
560 392 994
565 394 997
570 395 998
569 391 988
577 395 994
583 396 997
581 392 986
587 395 989
593 396 991
597 396 990
-551 374 901
-549 375 905
-546 375 907
-542 375 907
-542 377 914
-534 374 908
-529 372 905
-522 370 902
-520 370 904
-516 370 905
-513 370 906
-508 368 904
-508 370 911
-502 368 908
-500 369 912
-498 370 915
-501 374 927
-491 369 916
-493 373 928
-494 376 937
-496 380 948
-498 384 960
-494 383 959
-489 382 958
-489 384 964
-484 383 963
-471 375 945
-462 371 935
-455 367 928
-448 364 921
-445 365 923
-441 363 921
-443 368 934
-439 367 934
-435 366 932
-433 367 936
-431 368 941
-429 369 944
-428 370 949
-425 370 950
-425 373 960
-422 373 960
-450 400 1033
-442 397 1024
-444 401 1037
-423 385 998
-407 374 968
-399 369 957
-396 369 959
-396 372 969
-389 368 958
-383 366 953
-380 366 955
-377 366 956
-376 368 963
-373 368 964
-371 369 967
-364 365 957
-364 368 967
-361 367 967
-357 367 966
-354 367 968
-349 366 965
-346 365 964
-343 365 966
-342 367 972
-340 368 976
-337 369 978
-333 367 976
-329 367 974
-327 367 978
-322 365 973
-319 366 976
-317 367 980
-317 370 989
-314 370 991
-309 368 985
-305 367 984
-303 368 988
-302 370 994
-297 369 991
-295 370 995
-294 373 1004
-292 374 1008
-286 370 998
-284 371 1001
-277 367 991
-276 369 997
-272 368 996
-270 369 999
-265 368 995
-262 367 996
-261 369 1002
-256 367 997
-253 367 996
-251 369 1002
-249 371 1010
-243 366 996
-241 367 1000
-239 370 1009
-237 370 1010
-230 364 994
-227 364 996
-224 365 999
-221 365 999
-217 364 997
-215 365 1000
-212 365 1001
-208 364 997
-206 366 1003
-202 365 1002
-199 364 1000
-196 364 1001
-193 364 1000
-188 362 995
-187 365 1004
-183 362 997
-180 364 1002
-178 365 1006
-174 363 1002
-171 364 1005
-168 363 1003
-166 365 1009
-162 364 1006
-159 362 1003
-157 365 1011
-154 366 1013
-150 364 1008
-147 365 1010
-144 364 1008
-141 363 1007
-137 361 1002
-133 360 1000
-132 364 1010
-128 361 1004
-125 363 1009
-123 365 1014
-119 364 1011
-116 363 1010
-114 366 1018
-112 368 1025
-105 358 997
-98 345 960
-91 328 914
-84 315 877
-79 304 846
-75 301 839
-74 305 850
-66 284 790
-68 301 840
-63 290 807
-64 305 850
-58 291 810
-56 294 821
-52 283 789
-46 267 743
-47 284 792
-45 286 797
-41 279 779
-41 294 821
-36 278 775
-34 277 772
-32 281 785
-30 285 797
-28 285 795
-27 295 825
-24 290 809
-21 292 816
-19 293 819
-18 312 874
-15 309 865
-13 324 907
-11 338 945
-8 344 963
-6 358 1004
-3 362 1015
0 361 1013
2 360 1010
5 363 1017
8 363 1017
11 362 1015
15 364 1021
18 365 1023
21 365 1023
24 365 1024
27 364 1020
30 362 1016
33 363 1019
36 360 1010
39 363 1019
42 364 1020
45 363 1018
48 362 1016
51 362 1015
55 365 1024
57 362 1015
61 363 1019
63 361 1010
67 366 1026
70 365 1024
73 366 1024
76 363 1017
79 363 1018
83 365 1023
85 364 1018
89 364 1019
92 366 1024
95 366 1025
99 367 1027
101 365 1020
104 365 1022
108 367 1026
110 364 1017
114 367 1027
118 368 1027
120 365 1020
123 366 1023
126 365 1020
129 365 1018
132 365 1018
135 365 1018
139 366 1021
142 367 1024
144 365 1017
147 363 1012
152 368 1027
154 366 1019
158 367 1022
160 365 1017
164 368 1024
167 366 1018
170 367 1021
173 367 1020
177 368 1024
178 364 1011
182 366 1017
185 365 1013
190 368 1021
192 366 1015
194 364 1011
198 366 1015
202 368 1019
204 366 1014
206 363 1006
210 365 1010
215 369 1020
217 366 1011
220 366 1012
224 368 1016
226 366 1011
230 367 1011
232 365 1008
234 364 1004
240 369 1016
242 366 1007
247 370 1018
248 366 1007
252 367 1009
256 368 1011
259 369 1012
261 367 1008
266 369 1012
268 368 1008
271 368 1008
276 370 1014
279 370 1011
281 369 1008
286 370 1012
287 368 1005
292 370 1010
295 370 1007
299 371 1010
300 369 1004
304 370 1006
308 370 1005
311 370 1005
315 372 1008
319 372 1009
323 374 1012
325 372 1007
328 372 1007
332 372 1005
333 370 998
339 373 1006
340 371 1000
345 373 1004
350 375 1008
353 374 1005
359 377 1013
360 375 1007
365 377 1012
368 377 1010
372 378 1011
377 379 1014
376 375 1000
378 374 997
384 377 1005
383 372 991
392 378 1005
389 372 989
398 378 1003
401 377 1000
403 376 996
408 378 999
410 377 996
414 378 997
420 380 1002
425 382 1006
425 379 997
429 379 996
432 379 995
436 380 996
440 380 995
443 380 993
448 381 996
452 382 996
456 383 998
457 381 992
464 384 997
466 383 994
468 382 989
472 382 990
484 389 1007
486 389 1004
487 387 997
490 386 994
493 386 992
494 384 987
499 385 989
504 387 990
506 386 987
509 386 985
513 386 985
519 388 987
524 389 989
526 388 985
529 388 982
530 387 978
538 390 985
542 390 983
548 392 987
549 391 982
549 388 974
556 391 980
564 394 986
572 397 992
567 391 976
578 396 987
579 395 981
581 394 978
588 396 981
587 393 973
-536 368 876
-540 372 889
-541 375 897
-531 370 887
-532 373 896
-525 370 890
-519 369 888
-519 371 896
-520 373 903
-512 370 896
-510 370 899
-508 371 903
-506 372 906
-503 372 909
-499 371 908
-499 373 915
-496 374 917
-492 373 918
-494 377 929
-490 376 928
-493 381 941
-491 382 944
-486 380 943
-490 386 959
-489 387 963
-489 390 971
-472 379 946
-458 370 925
-450 366 917
-450 368 923
-444 367 920
-441 366 921
-439 367 924
-436 368 926
-433 368 928
-431 368 930
-427 367 929
-428 371 940
-420 367 930
-421 370 941
-419 371 944
-421 375 957
-442 397 1014
-442 400 1023
-445 406 1039
-423 389 996
-404 374 960
-393 367 943
-395 371 955
-391 371 955
-391 374 964
-384 370 954
-379 368 952
-375 366 948
-373 368 953
-367 365 947
-366 367 952
-361 365 950
-361 368 957
-355 365 950
-353 366 955
-350 366 956
-348 367 960
-346 368 963
-340 365 957
-338 366 961
-337 368 967
-336 370 974
-332 370 972
-326 367 966
-323 366 965
-320 367 968
-318 368 971
-316 368 974
-314 370 980
-310 369 978
-309 371 983
-303 368 976
-299 367 975
-299 370 984
-295 369 983
-296 374 997
-293 375 999
-290 375 1001
-281 367 980
-277 366 978
-277 370 989
-273 369 987
-270 368 986
-267 369 989
-261 365 979
-261 369 990
-257 367 987
-254 368 989
-252 369 994
-249 370 996
-245 368 992
-244 370 999
-241 370 999
-238 370 1001
-234 369 998
-230 368 996
-228 369 999
-223 367 994
-220 367 994
-216 365 990
-213 366 992
-210 365 990
-206 364 988
-204 365 991
-201 366 996
-198 366 997
-195 366 997
-192 366 996
-188 363 990
-185 363 990
-182 365 996
-180 366 999
-176 363 993
-173 365 997
-171 367 1003
-166 363 992
-165 366 1002
-160 362 992
-158 365 999
-155 365 1001
-152 364 999
-148 363 996
-145 363 997
-142 363 996
-140 364 1000
-136 364 999
-133 363 998
-131 364 1002
-127 362 995
-125 365 1006
-122 365 1005
-119 367 1010
-115 364 1003
-113 365 1007
-110 367 1011
-104 358 988
-98 345 952
-89 326 898
-82 309 853
-80 313 862
-73 294 812
-73 303 836
-70 302 835
-64 288 793
-62 289 799
-59 286 790
-57 290 800
-55 291 803
-51 282 778
-49 283 781
-47 285 788
-45 290 801
-43 293 811
-38 278 767
-37 286 790
-35 286 791
-34 295 816
-29 280 774
-28 290 804
-26 290 803
-24 292 810
-21 289 800
-19 301 833
-17 309 856
-15 310 859
-13 319 886
-11 333 924
-8 346 961
-6 356 988
-3 364 1012
0 361 1003
2 363 1008
5 362 1006
8 362 1006
11 363 1009
15 364 1012
18 362 1007
21 364 1011
24 363 1007
27 361 1003
30 363 1010
33 360 1001
36 363 1009
39 364 1011
42 364 1012
45 363 1008
48 365 1015
51 364 1010
54 364 1012
57 363 1007
60 364 1012
63 360 999
67 366 1016
70 365 1013
73 364 1010
76 364 1010
79 364 1010
82 366 1014
85 363 1008
89 367 1018
91 363 1007
94 365 1011
98 367 1017
101 369 1022
103 364 1008
106 363 1007
109 364 1009
113 365 1012
116 365 1011
119 366 1013
122 365 1011
125 365 1009
129 367 1015
131 365 1008
135 366 1012
137 365 1010
142 369 1019
143 364 1005
146 365 1008
151 368 1017
155 370 1021
156 365 1007
158 363 1001
162 366 1010
166 367 1011
169 366 1009
172 367 1012
174 365 1004
178 367 1010
180 364 1000
184 365 1004
188 368 1011
190 366 1007
194 367 1007
197 368 1009
200 366 1005
202 365 1002
206 368 1008
209 367 1007
212 366 1003
216 368 1007
219 368 1007
222 368 1006
225 367 1002
228 367 1003
231 367 1001
231 362 989
236 366 997
240 367 1000
243 367 1000
247 368 1001
251 369 1005
254 369 1005
257 369 1003
261 369 1003
264 370 1003
265 367 995
269 368 998
271 367 994
276 369 1001
280 370 1001
284 371 1003
286 370 999
289 369 997
293 370 1000
295 370 998
300 371 1000
304 373 1004
308 373 1005
307 369 992
314 373 1003
317 373 1002
320 372 999
322 372 996
325 372 996
327 370 991
332 372 995
336 373 995
340 374 999
340 371 989
347 374 998
350 374 996
355 376 1000
358 376 1000
362 377 1002
363 374 993
368 376 998
372 378 1000
372 374 989
377 376 994
379 375 989
385 377 995
389 378 996
391 377 992
393 376 987
397 377 990
400 377 988
403 376 986
405 375 982
410 377 985
415 379 990
419 379 990
421 378 985
426 380 988
432 382 994
434 381 989
436 380 986
442 382 990
446 383 991
446 380 982
454 384 991
455 383 986
460 384 988
459 380 977
464 382 981
470 384 985
476 386 989
478 385 984
482 386 985
487 387 988
489 386 983
489 384 976
500 389 988
499 386 980
501 385 975
506 387 978
508 385 973
514 387 976
517 387 974
524 390 980
524 388 973
528 388 973
530 387 969
535 388 970
539 389 970
545 390 972
547 390 969
557 394 979
558 393 973
559 391 969
567 394 974
573 396 978
569 391 962
577 394 969
580 394 967
590 398 976
-530 366 865
-526 366 865
-527 368 873
-523 368 873
-525 372 884
-522 372 886
-514 368 879
-514 370 885
-511 370 887
-509 371 890
-508 372 895
-504 371 894
-502 372 898
-500 373 902
-500 375 908
-494 373 905
-499 379 922
-499 382 930
-499 384 937
-493 381 932
-486 378 926
-485 380 932
-489 386 947
-491 390 959
-487 389 958
-483 388 958
-471 382 943
-457 372 921
-451 370 918
-446 369 915
-437 363 903
-437 366 911
-436 368 918
-429 364 909
-431 369 923
-427 368 920
-427 371 929
-423 370 928
-420 370 930
-415 368 925
-419 374 943
-415 373 942
-413 375 947
-439 401 1015
-438 402 1020
-432 400 1016
-403 376 956
-397 374 951
-390 370 943
-389 372 949
-389 375 957
-384 373 953
-378 370 948
-374 369 947
-370 368 945
-367 368 945
-364 368 947
-360 367 945
-354 364 939
-355 368 950
-350 366 947
-350 370 956
-345 367 950
-339 364 943
-337 365 946
-338 370 961
-332 366 952
-332 369 960
-328 368 960
-324 367 959
-322 369 963
-320 370 966
-316 368 963
-313 368 965
-309 367 963
-309 371 972
-306 371 974
-301 369 970
-300 371 975
-298 372 981
-296 373 983
-294 374 988
-290 373 986
-286 373 985
-282 371 982
-277 369 978
-274 369 978
-269 366 972
-267 368 977
-265 368 979
-261 367 976
-258 368 979
-255 368 981
-254 371 988
-248 367 978
-246 368 983
-244 370 987
-242 370 990
-238 370 989
-235 369 988
-230 367 983
-228 368 986
-224 367 983
-220 365 979
-218 367 984
-215 366 982
-211 365 982
-210 368 989
-205 365 982
-203 367 989
-200 367 989
-197 366 987
-193 365 984
-191 366 988
-187 365 986
-184 366 989
-181 366 989
-178 365 988
-175 365 987
-171 364 985
-168 364 986
-166 366 991
-163 365 989
-160 364 988
-157 364 989
-153 363 985
-150 363 987
-148 366 994
-145 365 992
-141 362 984
-139 365 993
-135 362 987
-133 364 993
-130 366 996
-126 364 991
-123 364 993
-121 366 997
-117 364 994
-115 365 996
-113 369 1008
-109 368 1005
-104 358 979
-96 343 936
-88 324 886
-82 313 855
-81 317 865
-75 303 829
-73 306 837
-67 294 804
-65 295 807
-62 294 803
-58 283 774
-58 297 812
-52 276 755
-50 280 766
-47 277 758
-46 284 778
-42 275 752
-42 287 787
-39 286 783
-37 284 779
-32 270 738
-31 277 758
-30 283 777
-28 290 796
-25 280 769
-23 289 792
-21 289 792
-18 292 802
-17 309 848
-15 311 855
-13 320 879
-10 333 916
-8 345 949
-5 355 975
-3 363 998
0 362 996
2 363 999
5 362 996
8 360 992
11 363 998
14 365 1003
18 365 1006
21 364 1002
23 361 994
27 363 999
30 364 1001
33 364 1001
36 364 1001
39 363 1000
42 364 1002
45 362 997
48 366 1007
51 364 1003
54 363 998
57 362 996
60 366 1006
63 365 1004
66 364 1000
70 367 1009
72 365 1003
75 366 1006
79 368 1011
81 364 999
84 363 999
87 365 1003
90 364 999
94 367 1007
97 367 1007
100 366 1004
103 365 1003
107 368 1011
109 366 1003
113 367 1008
115 365 1001
119 368 1010
121 365 1000
124 365 1000
127 366 1003
131 367 1006
135 369 1012
136 366 1002
140 366 1003
143 366 1001
146 367 1004
148 364 997
152 366 1001
156 368 1005
159 368 1004
162 368 1005
164 365 996
167 366 1000
170 365 995
174 367 1002
177 368 1004
180 368 1003
182 366 996
186 367 999
187 363 988
191 365 993
196 368 1000
198 367 998
201 367 997
206 369 1002
208 367 997
210 366 995
215 369 1001
218 369 1001
221 368 998
223 367 994
225 366 991
229 367 992
233 368 995
236 368 994
239 369 996
243 369 995
246 369 996
249 370 997
252 369 994
255 369 994
258 369 993
262 370 996
264 369 991
268 370 993
273 372 998
275 371 996
277 370 991
281 370 991
283 369 988
287 370 990
293 374 1000
294 372 993
295 369 985
300 371 990
307 375 1000
307 371 989
312 373 994
313 372 989
315 370 983
320 372 987
322 371 985
327 373 988
329 371 983
334 374 990
336 373 985
340 374 987
343 374 987
348 375 989
351 375 989
356 377 993
356 374 984
362 377 991
365 376 988
366 375 983
372 377 987
372 374 978
377 376 983
381 376 983
382 374 976
386 376 979
393 379 987
393 376 978
397 377 980
403 380 985
405 379 982
408 379 981
412 379 981
413 377 973
417 378 975
425 382 985
428 382 984
431 382 982
434 381 979
437 381 977
443 383 982
446 383 981
449 383 979
450 382 974
455 383 977
457 381 971
459 381 968
466 384 975
469 384 973
474 385 976
480 387 980
485 389 983
485 386 975
489 386 973
492 387 972
499 390 979
502 389 976
504 388 972
508 389 972
512 389 972
518 391 976
516 387 964
517 386 959
524 388 964
528 389 963
533 390 966
531 386 954
540 391 963
549 394 971
549 392 964
551 391 960
564 398 975
562 394 964
566 394 963
567 393 959
575 396 964
577 396 961
581 395 959
-528 368 860
-523 367 859
-521 367 862
-521 369 868
-520 371 873
-521 374 883
-518 374 884
-513 372 882
-512 374 887
-504 370 881
-498 368 876
-495 368 877
-491 367 878
-489 368 880
-490 371 890
-492 375 900
-490 376 904
-492 379 915
-496 384 929
-495 387 936
-488 383 930
-489 387 939
-487 388 943
-487 390 950
-481 388 946
-477 387 946
-468 382 935
-456 375 918
-449 371 912
-445 371 911
-436 366 900
-439 371 914
-432 368 908
-429 367 908
-428 369 913
-427 371 920
-423 370 919
-420 370 920
-420 372 927
-417 372 929
-416 375 936
-409 371 928
-411 375 940
-421 387 972
-423 392 985
-423 395 994
-399 375 945
-399 379 954
-388 371 935
-389 375 948
-384 373 944
-383 375 950
-376 371 942
-372 370 940
-365 366 931
-366 370 942
-359 366 932
-359 369 942
-353 366 935
-350 366 937
-348 367 940
-346 369 945
-343 368 945
-337 365 938
-336 366 942
-332 366 941
-330 367 946
-328 368 949
-328 372 959
-323 369 953
-320 369 956
-319 371 961
-313 368 955
-312 370 961
-307 368 957
-307 372 966
-303 370 963
-301 371 968
-298 372 969
-294 371 968
-293 373 974
-290 373 975
-287 373 976
-283 372 974
-280 372 976
-277 371 974
-272 369 968
-269 370 971
-266 369 969
-263 369 970
-260 370 974
-257 369 974
-255 371 979
-250 368 971
-248 370 977
-244 368 973
-241 368 973
-239 370 978
-237 372 985
-232 368 976
-229 368 977
-228 371 984
-225 371 985
-220 367 976
-215 364 969
-212 364 969
-212 369 983
-207 366 976
-203 365 974
-201 366 977
-199 368 982
-195 367 981
-192 367 980
-189 366 979
-187 367 983
-183 366 979
-180 367 982
-178 367 984
-173 365 978
-171 365 980
-167 364 977
-165 366 982
-162 366 984
-158 363 977
-154 362 973
-153 366 984
-150 365 983
-146 363 978
-143 363 978
-139 362 976
-137 363 978
-134 364 981
-131 364 982
-129 366 988
-126 365 987
-123 367 992
-120 366 988
-116 363 980
-114 365 988
-113 372 1007
-108 365 989
-102 355 960
-94 339 918
-88 328 887
-76 293 792
-81 319 864
-73 300 811
-73 310 839
-69 302 817
-66 301 816
-63 297 805
-59 293 794
-57 292 790
-54 293 794
-50 282 765
-48 285 773
-46 287 778
-43 280 760
-41 287 779
-38 283 767
-37 291 789
-33 279 756
-34 299 813
-29 280 760
-27 285 775
-24 282 766
-24 299 812
-21 294 800
-19 303 825
-16 300 815
-15 313 852
-13 323 878
-10 333 906
-8 350 953
-6 360 981
-3 364 992
0 365 994
2 367 1000
5 365 995
8 364 992
11 363 989
14 364 992
17 364 994
20 364 994
23 362 986
27 366 998
29 363 989
32 364 994
35 364 993
38 364 992
41 363 991
45 365 994
47 363 991
50 364 991
53 364 993
57 368 1004
59 364 992
63 367 1000
65 363 988
69 365 995
72 366 998
75 367 1000
78 365 994
81 365 993
84 368 1002
87 366 995
90 365 995
93 367 1000
97 369 1005
99 366 995
102 366 995
105 365 993
108 367 997
111 367 997
114 366 995
117 365 992
121 367 998
123 366 994
126 365 991
129 365 991
133 368 998
137 369 1003
139 367 996
142 366 993
145 366 993
149 368 998
151 368 996
154 367 995
158 369 999
160 367 993
164 369 997
165 364 985
169 366 989
173 369 996
176 367 992
180 369 998
181 365 986
185 368 992
187 365 985
191 367 989
194 368 993
197 367 988
201 369 994
202 365 982
206 367 988
210 369 993
213 368 990
215 366 983
218 366 983
222 369 991
225 368 986
228 368 987
233 371 993
235 369 989
237 368 984
242 371 993
244 369 987
249 372 994
249 368 983
255 371 990
257 370 987
259 368 982
263 370 985
266 370 983
270 371 987
272 369 982
276 371 986
278 369 980
282 371 984
285 370 981
288 371 982
292 371 982
296 373 986
298 371 981
303 373 986
305 372 982
310 375 987
311 372 979
316 374 985
317 372 978
322 374 984
326 375 984
327 372 977
333 376 985
334 373 978
339 376 983
341 374 979
344 375 979
349 376 981
353 377 982
353 374 974
358 376 978
360 375 974
366 378 981
368 377 978
369 374 970
375 377 976
378 377 975
380 375 970
385 377 974
390 380 979
389 375 967
396 379 977
397 377 968
402 379 973
408 381 978
409 379 972
412 379 970
417 381 974
421 382 974
426 383 978
427 381 970
432 383 974
436 383 974
437 382 969
444 385 976
446 384 973
450 385 973
452 384 969
455 384 968
457 382 963
464 386 970
467 385 968
476 390 979
474 386 966
480 388 971
484 388 971
488 389 970
488 387 963
488 384 956
494 386 960
497 386 958
506 391 968
511 392 969
509 388 958
515 389 960
515 387 953
523 391 960
523 388 953
530 391 958
531 389 952
539 393 960
536 389 948
541 390 949
550 393 956
554 394 957
558 395 956
567 399 964
566 396 956
569 395 953
573 396 952
575 395 949
-526 369 856
-523 370 859
-524 372 866
-514 368 857
-516 371 866
-514 372 870
-516 375 879
-508 372 873
-511 376 885
-504 373 880
-497 370 873
-488 366 864
-483 364 863
-480 364 864
-481 367 872
-480 369 877
-480 371 885
-476 370 884
-475 372 890
-482 379 909
-480 380 912
-476 380 913
-477 383 922
-475 384 926
-474 385 932
-468 383 927
-462 380 922
-449 373 905
-443 370 900
-438 368 897
-436 369 899
-429 366 893
-429 368 901
-430 371 909
-429 373 915
-421 369 906
-422 372 916
-420 373 919
-415 371 916
-413 373 921
-407 370 914
-405 370 917
-405 373 926
-404 375 931
-402 376 934
-397 374 932
-394 374 932
-392 375 937
-390 376 941
-389 378 945
-383 375 941
-382 377 947
-376 374 940
-368 369 929
-362 366 923
-360 367 926
-357 367 926
-355 368 931
-352 368 931
-348 367 929
-348 370 938
-342 367 932
-338 365 929
-336 367 934
-334 367 936
-331 368 938
-329 369 943
-326 369 943
-324 369 945
-319 367 940
-319 371 951
-318 373 957
-312 370 950
-310 371 953
-309 373 961
-305 373 960
-300 370 953
-299 372 959
-295 371 959
-290 369 954
-288 369 956
-286 371 960
-284 373 966
-281 372 965
-277 371 964
-274 371 964
-270 369 960
-268 371 965
-265 370 965
-260 369 961
-257 369 962
-255 369 964
-252 369 966
-248 369 964
-246 370 967
-243 369 967
-242 372 975
-238 371 974
-233 368 966
-230 369 968
-226 367 964
-225 370 972
-221 368 969
-217 366 965
-215 367 967
-212 368 969
-208 365 964
-204 364 962
-202 365 964
-200 368 972
-197 367 970
-195 368 975
-191 368 974
-187 365 967
-184 365 969
-180 363 963
-178 366 971
-175 364 967
-171 364 966
-169 366 973
-167 366 974
-164 367 977
-161 367 977
-157 364 969
-155 366 976
-152 366 976
-149 367 979
-145 364 971
-143 366 978
-140 366 976
-136 365 975
-133 363 971
-130 364 973
-127 363 970
-125 365 978
-121 364 974
-118 364 975
-116 365 978
-114 369 989
-110 367 985
-105 360 965
-99 350 939
-93 336 902
-86 323 867
-82 318 852
-79 315 845
-76 313 839
-72 307 823
-67 300 804
-65 300 806
-61 293 787
-57 285 765
-56 290 778
-55 297 799
-48 276 741
-48 284 764
-43 272 730
-43 283 760
-43 296 797
-39 286 770
-37 293 789
-33 277 745
-32 287 773
-29 287 772
-26 280 753
-25 288 774
-23 290 780
-19 280 754
-19 300 808
-16 301 811
-14 313 844
-12 320 863
-10 335 904
-8 349 942
-5 361 976
-3 365 985
0 363 980
2 364 984
5 364 982
8 365 985
11 364 983
14 363 980
17 364 983
20 364 983
23 366 988
26 362 978
29 364 983
32 365 987
35 363 981
38 365 986
41 363 981
44 363 981
47 365 987
50 364 983
53 365 986
56 367 991
59 365 985
62 365 985
65 365 986
68 363 980
71 366 987
74 365 986
77 364 982
80 366 987
83 365 986
86 363 978
90 368 992
93 368 993
96 368 992
99 367 989
101 365 985
104 366 985
107 366 986
110 366 987
114 367 988
116 366 984
120 367 987
123 368 990
126 368 991
128 366 984
132 367 987
134 365 981
138 368 988
140 365 982
143 366 983
147 368 989
150 368 987
153 368 988
155 366 982
160 369 990
163 369 990
165 368 986
168 367 984
171 368 985
174 368 984
178 370 989
181 368 984
183 367 982
188 370 990
189 367 981
194 371 989
196 369 985
199 369 984
203 370 987
204 367 979
207 367 977
211 369 981
215 370 984
217 368 978
221 369 981
223 369 979
226 368 978
231 371 985
231 366 972
237 371 984
239 370 979
243 371 982
245 369 977
249 371 982
252 371 980
254 370 976
258 370 977
263 373 983
264 370 976
268 371 977
273 375 987
274 371 977
277 371 977
280 372 976
281 369 968
286 371 972
289 371 972
294 373 978
296 371 972
298 371 970
303 373 975
306 373 975
310 374 976
315 377 983
316 374 973
318 373 971
320 371 965
326 374 973
329 374 971
333 376 974
336 376 974
340 376 975
342 375 970
345 374 968
351 379 978
350 374 965
354 375 967
359 376 969
363 377 970
364 376 966
368 376 965
371 377 966
373 375 960
377 376 963
382 378 967
384 376 961
387 377 961
393 379 967
396 379 965
400 380 967
401 378 961
408 381 967
406 377 955
414 381 966
418 382 967
422 382 966
423 381 960
428 383 964
433 384 966
434 382 960
441 386 969
440 382 958
444 383 959
448 383 959
450 383 956
458 386 964
463 388 966
467 389 967
474 392 973
473 388 964
476 388 962
480 388 961
479 385 952
481 384 947
487 386 952
491 387 951
496 388 953
497 387 949
505 391 957
506 388 950
513 391 955
512 388 947
520 392 953
517 387 941
527 392 952
527 389 944
531 390 944
538 393 949
538 391 942
548 395 952
545 391 939
547 390 937
553 392 940
557 392 938
569 398 951
569 396 944
577 400 951
-530 376 862
-523 373 856
-517 371 854
-515 371 857
-512 371 859
-513 374 867
-511 375 869
-507 374 869
-506 376 875
-499 373 869
-495 372 869
-488 369 863
-483 367 862
-482 368 865
-476 366 862
-473 366 864
-467 364 860
-467 366 867
-466 368 872
-462 367 870
-464 371 881
-462 372 885
-462 374 891
-461 375 897
-461 378 904
-458 378 907
-452 376 902
-446 373 898
-441 371 894
-436 369 891
-433 369 892
-429 369 893
-429 371 899
-427 372 903
-424 372 904
-422 373 908
-419 373 909
-418 374 913
-415 374 915
-410 373 913
-406 372 911
-401 370 909
-402 373 917
-396 371 913
-399 376 928
-395 375 926
-389 372 919
-387 373 923
-384 373 925
-386 378 937
-382 377 936
-375 373 927
-373 374 931
-367 371 925
-362 369 922
-359 369 923
-356 369 922
-356 372 931
-349 368 924
-346 368 924
-343 368 924
-343 371 933
-339 370 932
-334 368 927
-332 368 929
-330 369 933
-328 371 939
-324 370 936
-322 370 939
-318 369 937
-316 371 942
-313 370 941
-310 370 943
-305 368 936
-304 370 943
-301 371 946
-297 369 942
-297 373 954
-294 373 954
-288 369 945
-285 369 945
-284 372 954
-281 371 954
-278 372 956
-276 373 959
-272 371 955
-269 371 956
-264 368 950
-261 368 950
-261 372 962
-255 368 951
-251 367 950
-248 367 951
-246 369 956
-245 371 961
-242 372 964
-237 368 956
-237 372 968
-232 370 961
-228 368 959
-226 369 960
-221 366 953
-220 369 962
-216 367 957
-213 367 958
-211 369 965
-207 368 962
-204 367 960
-201 367 960
-198 367 961
-196 369 966
-192 367 962
-190 368 967
-185 364 956
-181 362 952
-180 366 962
-176 365 960
-174 367 965
-172 367 967
-168 367 966
-164 364 960
-162 366 964
-159 366 966
-157 367 969
-153 364 962
-150 365 965
-147 366 966
-145 367 970
-141 365 967
-138 364 963
-134 363 961
-131 361 955
-129 363 962
-127 366 970
-123 365 967
-121 365 969
-117 362 961
-114 362 961
-113 370 982
-110 368 977
-104 360 957
-98 350 929
-92 337 896
-85 323 859
-79 308 818
-76 308 819
-75 314 835
-70 301 800
-69 307 817
-66 307 817
-61 295 784
-58 294 781
-57 301 800
-54 296 789
-49 284 757
-47 285 759
-46 293 782
-43 287 765
-39 276 736
-38 282 751
-36 287 766
-34 290 773
-31 281 750
-29 284 757
-27 285 759
-27 313 835
-23 299 799
-21 301 802
-18 298 796
-16 295 787
-14 307 820
-12 318 851
-10 337 900
-8 353 943
-5 361 967
-2 364 974
0 363 972
2 365 977
5 364 973
8 363 972
11 364 975
14 365 978
17 368 985
20 368 985
23 363 972
26 366 981
29 365 977
32 365 976
35 367 983
38 363 971
41 367 984
44 366 979
47 365 976
50 368 984
53 366 980
56 366 978
59 367 981
62 364 975
65 366 978
68 366 980
71 367 980
73 365 975
76 364 973
80 369 986
82 364 974
85 365 976
89 366 978
91 365 975
95 367 981
97 365 974
101 366 979
103 364 972
107 367 981
110 366 977
112 366 977
115 365 975
119 368 983
122 367 978
125 368 981
127 365 972
131 367 977
134 367 978
137 368 979
140 367 978
143 368 978
146 367 976
149 367 977
152 369 980
155 368 978
158 367 975
161 367 974
164 369 979
166 366 971
170 367 974
174 370 981
176 368 975
181 371 983
182 368 975
186 370 980
190 371 982
192 370 979
194 367 971
198 369 976
201 370 977
203 368 971
207 369 973
210 369 975
214 370 977
216 369 972
219 369 971
221 368 969
224 368 968
227 368 968
232 371 975
233 368 967
237 370 970
241 370 971
246 373 978
245 367 963
250 371 970
254 371 972
255 369 966
259 371 970
264 373 976
266 371 969
268 370 966
271 370 965
275 371 966
278 371 967
281 371 964
283 371 963
286 370 960
290 371 962
296 375 973
298 373 968
299 371 962
305 374 968
308 375 970
311 374 966
312 372 962
317 374 965
318 372 960
324 375 967
327 375 965
331 377 968
335 377 968
337 376 965
340 376 965
342 374 959
349 379 969
347 373 954
353 376 961
356 377 961
360 378 962
362 376 957
365 376 956
366 374 951
373 378 961
375 377 957
380 378 959
383 379 958
386 379 958
390 380 959
392 378 954
395 379 954
399 379 953
401 378 950
406 380 954
412 382 959
413 380 953
416 381 952
422 383 957
425 383 956
428 383 955
429 381 948
432 381 947
439 384 955
442 384 953
447 386 956
454 388 961
452 384 950
460 389 959
464 389 960
466 388 956
470 389 956
474 389 956
476 389 953
479 388 950
482 388 949
487 389 950
488 388 945
492 388 945
496 389 944
500 390 946
501 388 940
500 385 931
509 389 939
512 389 937
516 390 938
524 393 945
525 391 939
528 391 937
534 393 940
535 392 936
540 393 936
541 391 932
553 398 945
554 396 939
551 392 928
561 396 937
559 392 926
568 397 935
-522 373 847
-519 373 849
-519 375 856
-509 370 847
-509 372 852
-503 370 848
-504 373 856
-501 372 858
-496 371 857
-494 372 860
-491 372 861
-485 370 858
-481 369 857
-475 366 853
-474 368 858
-473 369 863
-469 369 863
-466 368 863
-464 369 866
-463 371 872
-460 371 874
-463 375 885
-457 373 882
-456 375 887
-455 376 891
-456 380 902
-453 380 903
-448 377 899
-443 376 897
-437 373 893
-432 372 890
-432 374 897
-430 375 900
-421 369 888
-422 373 898
-420 374 902
-417 374 904
-420 379 916
-416 378 916
-406 372 903
-406 374 909
-400 372 905
-400 374 911
-399 376 918
-397 378 922
-392 375 918
-392 378 926
-385 374 917
-381 374 918
-381 376 925
-377 376 925
-373 374 923
-372 376 927
-366 373 922
-363 373 922
-355 368 911
-354 370 916
-350 369 915
-346 368 914
-344 368 916
-341 368 917
-339 369 920
-335 368 919
-333 369 923
-330 369 923
-328 370 927
-322 367 921
-322 371 930
-320 371 931
-314 368 925
-313 370 932
-311 371 934
-306 369 929
-303 369 931
-304 373 943
-301 373 944
-299 375 950
-295 373 945
-292 373 946
-286 370 938
-285 372 945
-283 373 950
-279 372 947
-277 373 951
-272 371 945
-268 369 942
-265 369 941
-264 371 948
-260 370 948
-256 369 944
-254 370 948
-250 368 944
-249 371 953
-244 368 944
-243 371 953
-239 370 952
-235 369 948
-234 371 954
-230 369 950
-228 370 954
-224 369 953
-219 366 945
-219 371 958
-214 367 949
-211 367 950
-208 367 949
-205 367 951
-202 367 951
-199 366 950
-196 367 953
-193 366 950
-190 366 950
-188 368 956
-184 366 953
-181 365 951
-178 365 950
-175 366 953
-172 365 953
-168 363 947
-166 365 951
-164 366 957
-161 367 959
-158 366 957
-155 366 957
-151 364 952
-149 365 955
-146 365 955
-144 367 962
-140 365 957
-137 364 955
-134 365 956
-131 363 954
-128 365 957
-126 365 960
-123 366 962
-119 362 953
-117 365 961
-113 363 954
-112 368 969
-108 367 965
-103 359 945
-98 350 922
-90 333 877
-83 317 835
-80 315 828
-75 305 802
-73 309 813
-71 310 818
-66 298 785
-64 299 787
-60 292 771
-58 296 780
-55 291 767
-52 290 764
-51 293 774
-47 288 759
-44 280 739
-42 280 739
-39 278 734
-37 278 733
-35 280 740
-34 288 762
-31 283 746
-29 286 756
-27 292 771
-24 280 740
-22 283 747
-20 294 777
-18 298 789
-17 315 835
-14 308 816
-12 318 841
-10 332 879
-8 348 921
-5 359 952
-2 366 970
0 365 968
2 362 960
5 366 970
8 363 962
11 365 968
14 363 964
17 366 971
20 366 972
23 366 971
26 366 971
29 365 969
32 366 970
35 364 967
38 365 969
41 367 975
43 364 966
47 367 974
50 368 975
52 365 967
55 366 969
58 366 971
61 364 966
64 365 968
68 367 974
70 365 967
74 369 977
76 366 971
79 365 968
83 368 976
85 368 974
87 364 963
91 367 971
94 367 971
98 369 978
