VERSION 0.7
FIELDS x y z
SIZE 4 4 4
TYPE I I I
COUNT 1 1 1
WIDTH 3438
HEIGHT 1
VIEWPOINT 0.0 0.0 0.0 1.0 0.0 0.0 0.0
POINTS 3438
DATA ascii
-22 -1098 3106
-13 -1107 3130
-4 -1097 3102
5 -1086 3072
14 -1103 3118
23 -1089 3079
32 -1083 3062
42 -1082 3060
50 -1075 3038
59 -1067 3016
63 -978 2764
73 -1000 2825
82 -1009 2850
88 -982 2773
94 -954 2695
101 -945 2669
109 -950 2681
114 -922 2603
122 -926 2615
144 -1024 2890
151 -1014 2862
158 -1007 2840
179 -1084 3056
191 -1099 3100
208 -1140 3213
215 -1128 3180
226 -1133 3192
236 -1133 3192
247 -1142 3215
259 -1152 3242
266 -1140 3207
278 -1149 3234
285 -1140 3205
295 -1141 3210
309 -1156 3251
320 -1160 3260
326 -1149 3227
339 -1159 3256
348 -1157 3248
357 -1154 3240
364 -1146 3214
378 -1157 3245
389 -1162 3258
397 -1157 3244
406 -1155 3235
418 -1162 3254
417 -1131 3165
437 -1159 3243
0 0 0
435 -1104 3087
460 -1143 3196
473 -1152 3217
478 -1141 3186
486 -1137 3172
500 -1146 3198
507 -1140 3178
521 -1150 3206
526 -1140 3176
543 -1155 3215
548 -1146 3189
558 -1146 3186
569 -1149 3195
581 -1152 3202
590 -1151 3196
599 -1150 3192
612 -1157 3208
621 -1155 3202
630 -1154 3196
639 -1153 3193
649 -1154 3193
652 -1141 3155
647 -1116 3084
645 -1096 3029
625 -1047 2890
611 -1009 2784
617 -1005 2770
570 -916 2524
584 -926 2549
568 -888 2445
559 -862 2372
0 0 0
0 0 0
0 0 0
0 0 0
0 0 0
0 0 0
0 0 0
114 -155 424
115 -154 421
0 0 0
49 -62 168
43 -52 142
20 -21 56
0 0 0
0 0 0
0 0 0
0 0 0
0 0 0
0 0 0
0 0 0
0 0 0
0 0 0
0 0 0
0 0 0
0 0 0
0 0 0
0 0 0
0 0 0
0 0 0
0 0 0
0 0 0
0 0 0
1091 -1180 3155
1078 -1155 3085
1089 -1156 3086
1098 -1156 3081
0 0 0
0 0 0
0 0 0
1018 -1035 2747
1058 -1067 2827
1078 -1078 2854
1079 -1070 2830
1085 -1066 2817
1090 -1063 2804
1093 -1057 2786
1107 -1062 2797
1095 -1042 2740
1123 -1060 2785
1092 -1022 2682
1102 -1025 2684
1101 -1015 2657
1091 -998 2608
1091 -991 2586
1107 -998 2601
1095 -979 2549
1112 -987 2566
1107 -975 2532
1060 -927 2403
1091 -947 2452
1082 -933 2411
1079 -924 2385
1059 -900 2321
1107 -934 2404
1118 -937 2408
1108 -922 2367
1094 -904 2318
1121 -920 2355
1123 -915 2339
1116 -903 2305
1113 -895 2280
1122 -896 2279
1126 -893 2270
1117 -880 2232
1115 -873 2211
1107 -861 2177
1110 -857 2165
1117 -858 2163
1110 -847 2131
1118 -847 2130
1131 -851 2136
1119 -837 2097
1120 -833 2084
1139 -842 2101
1129 -829 2066
1132 -826 2056
1145 -831 2063
1152 -831 2059
1142 -819 2026
1144 -815 2014
1146 -812 2002
1140 -802 1975
1136 -795 1955
1139 -793 1944
1144 -792 1938
1139 -784 1916
-704 -456 1142
-705 -459 1152
-688 -451 1133
-652 -430 1082
-512 -339 855
-487 -325 820
-492 -330 835
-492 -332 841
-478 -324 823
-481 -329 836
-476 -327 833
-467 -323 824
-460 -320 818
-467 -327 837
-468 -330 845
-466 -330 848
-487 -347 894
-462 -332 854
-458 -330 852
-502 -365 942
-767 -560 1450
-1071 -787 2041
-1068 -791 2052
-1061 -790 2054
-1056 -792 2062
-1049 -791 2063
-1035 -786 2053
-1032 -789 2064
-1026 -790 2067
-1016 -787 2064
-1006 -785 2061
-999 -785 2064
-989 -783 2061
-977 -778 2052
-954 -765 2020
-960 -776 2051
-955 -777 2057
-949 -777 2060
-942 -777 2062
-937 -779 2070
-919 -769 2047
-888 -749 1994
-886 -753 2008
-884 -756 2019
-873 -753 2013
-873 -758 2029
-856 -749 2008
-856 -755 2026
-847 -753 2022
-840 -753 2024
-836 -755 2033
-822 -748 2016
-815 -747 2016
-802 -742 2003
-786 -733 1981
-779 -732 1981
-774 -734 1987
-770 -736 1996
-762 -734 1993
-755 -734 1994
-753 -738 2008
-753 -745 2027
-747 -744 2028
-722 -726 1981
-725 -735 2007
-721 -738 2016
-716 -740 2024
-704 -734 2009
-698 -734 2012
-690 -732 2009
-680 -729 2000
-676 -731 2009
-683 -745 2049
-671 -740 2036
-654 -727 2004
-657 -738 2034
-653 -741 2044
-648 -742 2049
-634 -734 2027
-633 -740 2047
-617 -729 2017
-615 -733 2031
-614 -741 2053
-610 -743 2060
-608 -749 2078
-603 -750 2083
-589 -741 2060
-577 -734 2043
-574 -739 2056
-568 -739 2058
-560 -737 2055
-557 -742 2068
-550 -741 2068
-545 -742 2073
-535 -737 2060
-527 -735 2055
-520 -734 2053
-521 -744 2083
-510 -738 2068
-503 -737 2067
-499 -740 2076
-493 -742 2081
-486 -740 2078
-478 -738 2072
-479 -749 2104
-501 -795 2234
-585 -939 2642
-585 -954 2684
-615 -1017 2862
-613 -1027 2893
-635 -1080 3043
-621 -1071 3021
-598 -1047 2954
-589 -1048 2959
-610 -1102 3111
-642 -1178 3328
-712 -1327 3749
-684 -1296 3663
0 0 0
0 0 0
0 0 0
0 0 0
0 0 0
0 0 0
0 0 0
-535 -1167 3309
-552 -1227 3479
-553 -1252 3553
-579 -1336 3793
-600 -1412 4009
-591 -1420 4034
-579 -1422 4038
-568 -1423 4043
-553 -1417 4026
-541 -1418 4032
-525 -1407 4002
-513 -1406 4000
-502 -1410 4011
-488 -1406 4001
-476 -1407 4004
-464 -1407 4005
-453 -1409 4012
-439 -1403 3996
-428 -1405 4004
-414 -1399 3985
-405 -1411 4022
-405 -1455 4146
-420 -1556 4435
-1 -13 37
-6 -34 98
-2 -21 59
-386 -1638 4671
-255 -1125 3211
-237 -1087 3102
-226 -1081 3086
-214 -1070 3053
-206 -1075 3067
-197 -1074 3064
-189 -1082 3088
-180 -1081 3087
-169 -1075 3069
-160 -1077 3075
-151 -1074 3065
-141 -1067 3047
-134 -1090 3112
-124 -1080 3085
-115 -1084 3096
-105 -1080 3084
-97 -1093 3120
-88 -1095 3126
-79 -1099 3138
-69 -1087 3105
-60 -1089 3110
-50 -1083 3094
-41 -1081 3088
-31 -1087 3105
-22 -1093 3122
-13 -1085 3096
-4 -1091 3115
5 -1080 3082
14 -1084 3093
23 -1079 3081
33 -1079 3078
42 -1072 3058
51 -1069 3050
60 -1067 3043
66 -1021 2914
73 -994 2836
82 -998 2846
92 -1021 2910
99 -997 2842
108 -1008 2874
118 -1016 2896
125 -1007 2869
135 -1017 2897
142 -1003 2858
153 -1022 2911
164 -1032 2938
186 -1114 3172
193 -1101 3134
204 -1110 3157
215 -1118 3180
227 -1130 3213
236 -1124 3195
245 -1124 3195
256 -1127 3203
265 -1127 3202
274 -1124 3192
282 -1115 3167
297 -1137 3228
307 -1140 3236
316 -1135 3221
322 -1122 3183
333 -1130 3203
341 -1123 3183
356 -1141 3233
367 -1145 3242
375 -1140 3228
389 -1152 3260
395 -1141 3229
401 -1130 3195
412 -1134 3205
421 -1132 3199
423 -1111 3139
443 -1139 3217
434 -1092 3082
461 -1136 3205
468 -1129 3183
474 -1121 3160
493 -1142 3216
497 -1129 3180
505 -1127 3171
519 -1135 3192
528 -1135 3192
542 -1142 3210
553 -1146 3218
565 -1150 3230
571 -1143 3207
581 -1142 3204
591 -1144 3208
602 -1146 3210
609 -1141 3194
616 -1137 3181
629 -1142 3194
639 -1143 3195
656 -1156 3229
646 -1121 3131
645 -1103 3079
645 -1086 3029
645 -1072 2987
616 -1009 2811
594 -959 2670
598 -953 2650
567 -890 2475
595 -923 2564
546 -835 2318
0 0 0
0 0 0
0 0 0
0 0 0
0 0 0
0 0 0
0 0 0
0 0 0
0 0 0
108 -142 392
73 -93 257
14 -13 36
13 -12 32
0 0 0
0 0 0
0 0 0
0 0 0
0 0 0
0 0 0
0 0 0
0 0 0
0 0 0
0 0 0
0 0 0
0 0 0
0 0 0
0 0 0
0 0 0
0 0 0
0 0 0
0 0 0
0 0 0
1081 -1159 3130
1082 -1150 3102
1079 -1136 3061
1089 -1137 3059
0 0 0
0 0 0
0 0 0
0 0 0
1045 -1045 2796
1080 -1070 2862
1070 -1051 2808
1070 -1043 2782
1073 -1037 2763
1086 -1041 2771
1101 -1047 2783
1091 -1029 2732
1107 -1036 2747
1093 -1015 2688
1099 -1012 2677
1103 -1008 2664
1095 -993 2621
1100 -990 2610
1078 -964 2536
1098 -974 2560
1118 -984 2584
1080 -944 2474
1082 -938 2457
1091 -939 2455
1101 -941 2457
1097 -931 2428
1103 -930 2420
1104 -924 2401
1111 -923 2396
1110 -915 2373
1108 -908 2350
1113 -905 2340
1118 -903 2332
1128 -905 2333
1107 -882 2271
1122 -888 2283
1109 -872 2238
1110 -867 2222
1097 -851 2177
1096 -845 2157
1107 -848 2161
1108 -844 2147
1117 -845 2147
1118 -840 2132
1128 -842 2134
1125 -835 2112
1126 -830 2096
1125 -825 2079
1137 -828 2083
1137 -823 2068
1131 -814 2041
1140 -815 2042
1144 -813 2032
1143 -807 2014
1132 -795 1980
1145 -799 1987
1125 -781 1938
1143 -789 1953
1138 -780 1929
1147 -782 1931
-742 -476 1205
-735 -475 1202
-727 -473 1199
-651 -425 1081
-501 -329 838
-494 -327 834
-493 -328 838
-484 -324 830
-483 -325 833
-475 -321 826
-473 -322 829
-468 -321 827
-460 -317 819
-466 -323 835
-454 -317 821
-465 -327 847
-483 -341 886
-485 -345 896
-477 -341 889
-514 -370 965
-861 -624 1631
-1069 -779 2040
-1069 -784 2056
-1060 -782 2054
-1052 -782 2057
-1045 -782 2059
-1036 -780 2057
-1028 -779 2058
-1024 -781 2066
-1012 -778 2059
-1007 -779 2067
-994 -774 2056
-991 -777 2067
-981 -774 2062
-950 -755 2014
-953 -763 2037
-958 -772 2064
-950 -772 2065
-946 -774 2074
-937 -772 2072
-914 -758 2037
-891 -745 2003
-881 -742 1998
-888 -754 2033
-874 -747 2016
-867 -747 2018
-859 -746 2018
-852 -745 2018
-837 -738 2001
-834 -740 2010
-831 -744 2023
-823 -743 2021
-814 -740 2017
-809 -742 2023
-792 -732 1998
-758 -707 1931
-770 -723 1979
-767 -726 1989
-750 -717 1964
-754 -726 1992
-751 -729 2003
-747 -732 2011
-739 -731 2010
-703 -700 1929
-702 -707 1948
-717 -728 2009
-707 -724 1999
-706 -729 2016
-705 -735 2035
-691 -727 2013
-686 -728 2018
-677 -726 2013
-672 -727 2019
-659 -720 2001
-656 -724 2013
-654 -728 2026
-656 -737 2054
-646 -734 2046
-639 -733 2045
-630 -730 2039
-624 -730 2040
-615 -727 2034
-610 -729 2041
-605 -730 2045
-600 -733 2054
-595 -735 2061
-588 -734 2059
-578 -729 2046
-565 -720 2024
-563 -726 2043
-559 -729 2051
-556 -733 2065
-552 -737 2077
-539 -728 2054
-535 -731 2062
-533 -737 2081
-521 -729 2060
-517 -733 2072
-511 -733 2074
-502 -729 2064
-496 -730 2067
-490 -730 2068
-485 -733 2077
-479 -733 2080
-489 -758 2151
-512 -804 2283
-577 -919 2610
-581 -939 2669
-605 -991 2818
-606 -1008 2866
-616 -1038 2954
-615 -1053 2997
-615 -1067 3040
-592 -1045 2977
-607 -1087 3099
-633 -1152 3285
-656 -1212 3459
-611 -1147 3274
0 0 0
0 0 0
0 0 0
0 0 0
0 0 0
0 0 0
0 0 0
0 0 0
-549 -1208 3460
-549 -1233 3531
-571 -1307 3744
-605 -1412 4046
-594 -1416 4060
-576 -1402 4022
-566 -1407 4036
-553 -1405 4031
-541 -1406 4037
-530 -1408 4044
-518 -1408 4042
-508 -1416 4066
-495 -1413 4061
-485 -1419 4078
-469 -1409 4049
-460 -1418 4075
-450 -1427 4104
-436 -1421 4086
-426 -1428 4107
-413 -1426 4102
-415 -1478 4254
-437 -1604 4615
-21 -90 259
-6 -33 95
-403 -1634 4703
0 0 0
-250 -1093 3149
-237 -1077 3103
-231 -1093 3149
-221 -1094 3152
-209 -1080 3112
-196 -1060 3055
-190 -1077 3102
-178 -1060 3054
-169 -1065 3069
-164 -1091 3144
-154 -1087 3135
-141 -1062 3062
-135 -1084 3126
-125 -1077 3105
-115 -1079 3109
-107 -1083 3123
-96 -1074 3097
-88 -1084 3126
-77 -1066 3073
-69 -1075 3101
-59 -1066 3073
-50 -1076 3101
-40 -1066 3072
-31 -1080 3113
-22 -1076 3101
-13 -1081 3116
-3 -1075 3097
5 -1061 3056
14 -1066 3073
23 -1073 3092
33 -1071 3085
42 -1066 3071
51 -1063 3063
60 -1056 3042
68 -1039 2993
75 -1016 2926
84 -1022 2943
92 -1010 2908
101 -1010 2906
111 -1028 2958
121 -1035 2978
127 -1010 2904
137 -1017 2925
147 -1032 2967
157 -1037 2981
168 -1050 3017
183 -1087 3124
195 -1100 3162
203 -1091 3135
213 -1095 3144
221 -1088 3122
234 -1106 3175
242 -1096 3147
252 -1101 3158
262 -1102 3159
270 -1096 3141
277 -1087 3115
286 -1087 3116
296 -1089 3119
307 -1093 3131
317 -1095 3135
329 -1106 3166
337 -1098 3143
343 -1090 3117
360 -1111 3178
367 -1106 3160
373 -1095 3127
386 -1104 3153
398 -1111 3172
409 -1116 3186
406 -1082 3086
415 -1081 3084
423 -1078 3074
434 -1083 3085
446 -1088 3099
466 -1115 3176
480 -1125 3201
479 -1099 3127
499 -1125 3197
504 -1113 3162
519 -1125 3195
529 -1125 3195
542 -1134 3217
544 -1117 3167
562 -1134 3216
573 -1137 3222
575 -1121 3174
587 -1126 3186
598 -1128 3192
615 -1142 3230
616 -1126 3182
631 -1137 3210
639 -1133 3199
647 -1130 3187
643 -1106 3118
651 -1104 3111
630 -1053 2964
651 -1072 3015
625 -1015 2853
588 -940 2643
588 -929 2608
598 -932 2616
671 -1032 2894
0 0 0
0 0 0
0 0 0
0 0 0
0 0 0
0 0 0
0 0 0
150 -204 568
176 -237 662
0 0 0
94 -122 340
67 -84 234
66 -82 228
1253 -1631 4526
0 0 0
0 0 0
0 0 0
0 0 0
0 0 0
0 0 0
0 0 0
0 0 0
0 0 0
0 0 0
0 0 0
0 0 0
0 0 0
0 0 0
0 0 0
0 0 0
0 0 0
0 0 0
0 0 0
1035 -1100 2998
1072 -1129 3074
1081 -1129 3070
1071 -1108 3011
0 0 0
0 0 0
0 0 0
0 0 0
1038 -1029 2779
1064 -1045 2822
1081 -1053 2840
1082 -1046 2816
1103 -1057 2843
1063 -1011 2716
1104 -1041 2795
1080 -1010 2708
1104 -1025 2744
1094 -1008 2694
1110 -1014 2709
1100 -997 2659
1086 -977 2602
1084 -968 2575
1066 -944 2508
1022 -898 2384
1064 -928 2459
1072 -928 2456
1087 -934 2470
1111 -948 2503
1107 -938 2474
1097 -923 2430
1102 -920 2420
1100 -912 2394
1103 -909 2382
1117 -913 2391
1115 -906 2368
1102 -888 2319
1111 -890 2319
1109 -882 2295
1123 -887 2306
1107 -869 2254
1097 -855 2216
1102 -853 2207
1111 -855 2208
1102 -843 2173
1106 -840 2162
1111 -838 2155
1118 -838 2151
1124 -837 2145
1128 -835 2136
1133 -834 2129
1129 -825 2104
1138 -827 2105
1139 -822 2090
1141 -819 2078
1132 -808 2046
1135 -804 2033
1134 -799 2017
1138 -797 2008
1128 -786 1976
1133 -784 1968
1142 -786 1970
1134 -776 1941
1124 -765 1909
1118 -756 1884
-751 -478 1222
-740 -474 1212
-730 -470 1206
-620 -401 1030
-510 -333 855
-489 -321 826
-492 -324 837
-488 -324 837
-487 -325 840
-485 -326 845
-463 -313 813
-469 -319 829
-478 -326 851
-463 -318 830
-460 -319 833
-453 -316 827
-474 -332 871
-469 -330 868
-458 -325 856
-532 -380 1001
-941 -676 1784
-1073 -775 2050
-1070 -778 2061
-1059 -775 2055
-1053 -776 2060
-1046 -775 2062
-1035 -773 2058
-1026 -771 2057
-1023 -774 2066
-1014 -772 2065
-1005 -771 2064
-996 -769 2062
-984 -765 2055
-975 -763 2051
-947 -747 2011
-956 -759 2046
-957 -765 2066
-953 -767 2074
-943 -764 2069
-936 -764 2071
-904 -744 2019
-902 -748 2031
-886 -740 2012
-881 -741 2018
-870 -737 2010
-871 -744 2030
-859 -739 2019
-849 -736 2013
-839 -733 2008
-834 -735 2014
-829 -735 2019
-829 -741 2037
-818 -737 2028
-804 -731 2013
-776 -711 1961
-747 -691 1906
-776 -723 1997
-765 -718 1987
-748 -708 1961
-746 -712 1974
-755 -727 2016
-748 -727 2018
-739 -724 2011
-715 -707 1966
-720 -718 1999
-707 -711 1982
-714 -725 2022
-719 -736 2055
-688 -711 1987
-689 -719 2011
-687 -723 2025
-679 -721 2021
-676 -725 2034
-663 -718 2016
-651 -712 2000
-654 -722 2029
-649 -724 2037
-647 -729 2051
-639 -727 2048
-623 -716 2019
-620 -719 2030
-617 -723 2042
-613 -726 2053
-605 -724 2048
-597 -722 2045
-590 -721 2043
-578 -715 2027
-571 -714 2025
-563 -712 2021
-570 -728 2068
-563 -728 2069
-554 -725 2060
-549 -726 2067
-543 -727 2070
-531 -720 2050
-528 -724 2064
-518 -718 2049
-519 -729 2079
-504 -717 2047
-498 -717 2048
-491 -716 2048
-487 -720 2060
-483 -724 2071
-479 -726 2079
-503 -773 2215
-559 -872 2498
-601 -949 2723
-625 -1001 2873
-647 -1050 3014
-643 -1060 3043
-602 -1007 2893
-617 -1047 3009
-610 -1050 3020
-610 -1066 3066
-584 -1037 2986
-597 -1076 3099
-588 -1077 3102
-536 -999 2878
0 0 0
0 0 0
0 0 0
0 0 0
0 0 0
0 0 0
0 0 0
-541 -1158 3347
-545 -1191 3442
-549 -1221 3532
-581 -1317 3811
-610 -1410 4082
-595 -1406 4069
-581 -1401 4056
-570 -1405 4071
-555 -1398 4051
-546 -1406 4074
-533 -1405 4072
-521 -1404 4071
-506 -1398 4053
-496 -1403 4069
-484 -1404 4073
-471 -1404 4074
-462 -1414 4104
-450 -1414 4105
-455 -1470 4269
-461 -1531 4448
0 0 0
-114 -409 1189
-124 -457 1327
0 0 0
0 0 0
-267 -1076 3128
-252 -1054 3065
-243 -1056 3070
-237 -1072 3118
-228 -1070 3112
-220 -1077 3134
-209 -1070 3114
-198 -1064 3096
-191 -1077 3134
-181 -1072 3118
-171 -1069 3112
-163 -1073 3123
-153 -1070 3114
-144 -1075 3128
-134 -1072 3121
-126 -1078 3138
-115 -1069 3110
-105 -1059 3084
-97 -1077 3136
-88 -1078 3138
-78 -1068 3110
-68 -1063 3094
-60 -1083 3153
-50 -1076 3133
-41 -1070 3114
-32 -1075 3129
-22 -1075 3130
-13 -1081 3145
-3 -1066 3102
5 -1069 3110
14 -1070 3113
24 -1075 3129
33 -1069 3108
42 -1075 3126
51 -1062 3089
61 -1077 3131
70 -1061 3084
79 -1066 3100
88 -1061 3083
98 -1070 3110
108 -1079 3135
115 -1057 3070
126 -1071 3110
135 -1062 3085
145 -1069 3105
151 -1046 3037
161 -1055 3062
172 -1065 3091
186 -1092 3167
194 -1084 3145
204 -1087 3152
212 -1083 3141
224 -1093 3169
231 -1083 3140
241 -1083 3138
254 -1101 3189
265 -1107 3206
275 -1108 3207
284 -1107 3204
294 -1106 3199
305 -1111 3214
315 -1113 3219
328 -1126 3255
334 -1111 3210
344 -1114 3219
353 -1110 3205
363 -1112 3210
377 -1126 3251
380 -1106 3189
388 -1101 3176
401 -1112 3204
409 -1105 3183
409 -1080 3110
414 -1068 3076
417 -1052 3028
434 -1071 3082
449 -1087 3124
465 -1102 3166
473 -1098 3155
481 -1095 3144
495 -1106 3175
507 -1110 3185
512 -1102 3159
525 -1108 3176
538 -1115 3194
546 -1112 3185
557 -1114 3188
575 -1130 3232
578 -1117 3194
593 -1129 3225
597 -1116 3188
608 -1119 3194
619 -1123 3202
632 -1128 3215
641 -1126 3208
644 -1115 3175
639 -1089 3100
629 -1057 3008
651 -1079 3066
637 -1040 2954
642 -1033 2934
608 -965 2739
589 -922 2614
0 0 0
0 0 0
0 0 0
0 0 0
0 0 0
0 0 0
0 0 0
0 0 0
0 0 0
0 0 0
0 0 0
144 -190 533
153 -200 561
63 -78 220
48 -58 163
1262 -1627 4559
0 0 0
0 0 0
0 0 0
0 0 0
0 0 0
0 0 0
1056 -1263 3518
1090 -1290 3592
1085 -1271 3534
0 0 0
0 0 0
0 0 0
0 0 0
0 0 0
0 0 0
0 0 0
0 0 0
0 0 0
0 0 0
0 0 0
0 0 0
0 0 0
0 0 0
0 0 0
0 0 0
0 0 0
0 0 0
1059 -1040 2838
1069 -1042 2839
1054 -1018 2773
1075 -1030 2800
1111 -1056 2867
1108 -1044 2832
1102 -1031 2793
1102 -1022 2765
1097 -1009 2728
1088 -993 2681
1086 -983 2652
1094 -983 2648
1070 -954 2566
1071 -947 2545
1057 -928 2490
1114 -971 2602
1115 -965 2582
1119 -961 2569
1106 -943 2516
1114 -942 2512
1103 -927 2467
1107 -924 2455
1117 -925 2455
1112 -914 2423
1118 -913 2416
1115 -904 2390
1111 -894 2360
1110 -887 2339
1098 -872 2294
1098 -866 2275
1102 -863 2265
1103 -858 2249
1126 -870 2277
1125 -864 2256
1136 -867 2261
1113 -844 2197
1111 -836 2174
1113 -833 2162
1117 -830 2152
1116 -824 2133
1130 -829 2142
1131 -825 2127
1133 -821 2113
1139 -820 2108
1138 -815 2091
1132 -806 2064
1138 -805 2059
1134 -797 2035
1127 -787 2006
1125 -781 1988
1125 -777 1973
1113 -764 1937
1121 -765 1935
1115 -756 1911
1126 -759 1914
1129 -757 1904
-767 -484 1248
-751 -476 1232
-739 -472 1221
-581 -373 967
-489 -316 821
-496 -322 838
-494 -323 842
-477 -314 819
-489 -323 845
-473 -315 825
-466 -312 819
-479 -322 847
-461 -312 822
-459 -313 825
-458 -314 829
-471 -325 860
-466 -324 858
-462 -322 856
-509 -358 951
-555 -393 1046
-1004 -715 1906
-1069 -766 2045
-1069 -770 2061
-1059 -769 2059
-1053 -769 2064
-1043 -766 2059
-1035 -765 2059
-1030 -767 2067
-1017 -762 2057
-1013 -764 2065
-1005 -764 2066
-993 -760 2059
-985 -759 2059
-973 -755 2050
-939 -733 1994
-958 -753 2052
-954 -756 2060
-950 -759 2071
-946 -760 2078
-930 -753 2061
-913 -744 2040
-897 -737 2023
-895 -741 2035
-885 -738 2030
-874 -735 2023
-872 -738 2034
-862 -735 2028
-849 -730 2017
-832 -720 1992
-833 -727 2013
-834 -733 2033
-827 -733 2034
-813 -726 2018
-811 -731 2033
-783 -711 1980
-742 -680 1894
-773 -713 1990
-768 -715 1996
-742 -696 1946
-753 -713 1996
-762 -727 2036
-749 -721 2022
-735 -714 2005
-714 -700 1966
-707 -699 1966
-723 -720 2028
-714 -719 2024
-702 -713 2010
-706 -723 2040
-695 -718 2028
-691 -721 2038
-687 -724 2047
-676 -719 2036
-656 -704 1994
-653 -708 2009
-649 -710 2016
-653 -722 2051
-648 -723 2056
-638 -719 2045
-628 -715 2035
-622 -715 2038
-613 -712 2032
-609 -715 2040
-603 -715 2042
-595 -714 2040
-594 -720 2059
-580 -711 2034
-574 -711 2037
-568 -712 2041
-569 -721 2067
-563 -722 2072
-553 -717 2058
-546 -716 2056
-541 -718 2064
-536 -720 2070
-530 -720 2072
-521 -716 2063
-517 -720 2075
-505 -713 2055
-502 -717 2070
-494 -715 2064
-492 -721 2083
-485 -720 2080
-482 -724 2094
-504 -769 2224
-578 -892 2583
-614 -961 2783
-638 -1013 2935
-626 -1008 2920
-609 -995 2885
-619 -1025 2974
-623 -1048 3042
-603 -1029 2989
-607 -1052 3055
-581 -1022 2971
-573 -1025 2980
-579 -1052 3059
-545 -1007 2931
0 0 0
0 0 0
0 0 0
0 0 0
0 0 0
0 0 0
0 0 0
-536 -1137 3319
-546 -1182 3452
-551 -1214 3546
-592 -1330 3887
-610 -1398 4086
-592 -1387 4053
-581 -1390 4064
-568 -1387 4055
-555 -1386 4055
-544 -1388 4060
-532 -1389 4064
-520 -1391 4072
-507 -1389 4067
-495 -1388 4066
-483 -1390 4073
-470 -1388 4066
-458 -1389 4070
-447 -1394 4085
-449 -1437 4213
-445 -1466 4298
-439 -1491 4374
0 0 0
0 0 0
0 0 0
-228 -884 2593
-267 -1069 3139
-253 -1049 3079
-242 -1042 3060
-237 -1062 3117
-225 -1050 3084
-219 -1065 3129
-203 -1033 3034
-197 -1048 3078
-192 -1070 3144
-179 -1051 3089
-172 -1061 3119
-163 -1065 3130
-151 -1049 3083
-142 -1048 3079
-133 -1052 3092
-124 -1051 3088
-114 -1045 3072
-106 -1061 3119
-97 -1062 3121
-87 -1059 3113
-78 -1055 3102
-69 -1059 3111
-59 -1054 3098
-50 -1061 3117
-40 -1043 3065
-31 -1058 3109
-22 -1078 3167
-13 -1055 3100
-3 -1056 3102
5 -1054 3096
14 -1068 3138
24 -1067 3133
33 -1067 3133
42 -1061 3116
52 -1067 3132
61 -1064 3123
71 -1066 3128
80 -1061 3116
89 -1063 3118
99 -1072 3146
109 -1076 3157
118 -1074 3151
128 -1078 3162
137 -1074 3149
146 -1066 3125
155 -1066 3124
165 -1071 3140
175 -1075 3149
184 -1070 3136
195 -1083 3173
204 -1077 3154
213 -1075 3147
227 -1096 3209
232 -1078 3154
243 -1082 3166
255 -1096 3206
264 -1090 3188
276 -1103 3223
282 -1087 3176
292 -1089 3182
305 -1102 3218
317 -1111 3243
324 -1101 3214
335 -1104 3222
343 -1098 3204
350 -1093 3186
363 -1102 3213
377 -1115 3247
385 -1110 3233
392 -1102 3208
402 -1102 3207
410 -1100 3200
417 -1092 3177
433 -1109 3225
418 -1046 3041
431 -1055 3064
447 -1072 3114
459 -1078 3130
468 -1077 3125
484 -1093 3169
498 -1103 3197
503 -1092 3164
513 -1092 3161
525 -1097 3175
532 -1093 3162
541 -1092 3157
557 -1104 3190
572 -1114 3218
579 -1109 3202
570 -1074 3099
582 -1080 3113
590 -1076 3101
602 -1081 3114
612 -1082 3114
629 -1095 3151
627 -1075 3090
614 -1037 2981
620 -1033 2966
610 -1001 2872
642 -1039 2982
619 -987 2831
599 -942 2699
0 0 0
0 0 0
0 0 0
0 0 0
0 0 0
0 0 0
0 0 0
0 0 0
0 0 0
0 0 0
138 -185 525
99 -129 366
79 -100 284
0 0 0
45 -54 152
82 -102 289
0 0 0
0 0 0
0 0 0
0 0 0
0 0 0
0 0 0
0 0 0
1059 -1255 3532
1063 -1246 3503
1081 -1255 3524
0 0 0
0 0 0
0 0 0
0 0 0
0 0 0
0 0 0
0 0 0
0 0 0
0 0 0
0 0 0
0 0 0
0 0 0
0 0 0
0 0 0
0 0 0
0 0 0
0 0 0
0 0 0
1057 -1029 2836
1068 -1032 2839
1076 -1030 2832
1078 -1024 2811
1120 -1055 2893
1092 -1021 2796
1079 -1000 2735
1099 -1010 2760
1089 -993 2711
1077 -975 2657
1104 -991 2700
1066 -950 2583
1075 -950 2582
1051 -922 2501
1081 -941 2549
1114 -962 2604
1095 -939 2537
1093 -931 2512
1096 -926 2497
1098 -921 2480
1112 -926 2488
1100 -910 2442
1106 -908 2433
1104 -900 2408
1112 -900 2405
1101 -885 2362
1103 -880 2347
1110 -879 2341
1087 -855 2273
1071 -837 2221
1064 -826 2188
1101 -849 2247
1083 -830 2192
1106 -842 2221
1113 -842 2217
1105 -830 2182
1106 -825 2167
1114 -826 2165
1114 -821 2148
1119 -819 2140
1127 -820 2140
1134 -820 2135
1144 -822 2137
1133 -809 2100
1129 -801 2076
1118 -788 2039
1140 -799 2063
1128 -786 2027
1124 -779 2004
1122 -772 1984
1104 -756 1938
1129 -768 1967
1129 -764 1951
1138 -765 1952
1138 -761 1937
1135 -755 1918
-767 -480 1250
-752 -473 1235
-732 -463 1212
-561 -357 935
-521 -334 876
-496 -319 840
-487 -315 830
-481 -313 826
-487 -319 844
-482 -318 841
-463 -307 815
-468 -313 830
-455 -305 812
-461 -312 830
-459 -312 833
-478 -327 874
-470 -323 865
-455 -315 845
-473 -329 885
-582 -408 1097
-1039 -733 1974
-1073 -762 2055
-1066 -761 2057
-1056 -760 2055
-1054 -763 2067
-1045 -761 2065
-1034 -758 2061
-1029 -759 2066
-1021 -759 2067
-1011 -756 2064
-1004 -756 2066
-992 -752 2059
-983 -750 2056
-975 -750 2057
-936 -725 1990
-959 -747 2056
-953 -748 2061
-948 -750 2069
-941 -750 2070
-930 -746 2062
-903 -730 2020
-895 -728 2019
-884 -725 2012
-888 -734 2038
-873 -727 2021
-868 -728 2028
-859 -726 2024
-844 -719 2005
-837 -718 2007
-830 -718 2009
-831 -724 2028
-825 -725 2033
-820 -727 2039
-796 -711 1997
-775 -698 1962
-772 -700 1972
-768 -703 1981
-760 -701 1977
-732 -681 1924
-735 -689 1948
-751 -710 2010
-750 -715 2026
-737 -709 2010
-720 -699 1982
-716 -701 1991
-710 -702 1996
-702 -700 1992
-705 -709 2019
-697 -707 2016
-685 -702 2002
-688 -712 2033
-685 -715 2044
-675 -712 2036
-662 -704 2015
-657 -705 2021
-657 -713 2044
-648 -710 2036
-649 -718 2063
-636 -710 2041
-627 -707 2034
-622 -710 2042
-617 -711 2047
-607 -707 2038
-602 -708 2042
-598 -711 2052
-589 -707 2043
-583 -709 2048
-572 -702 2031
-577 -717 2074
-564 -708 2050
-564 -716 2075
-555 -714 2069
-548 -713 2068
-544 -716 2078
-529 -704 2044
-523 -705 2048
-521 -711 2068
-512 -707 2058
-510 -713 2076
-501 -709 2067
-494 -708 2064
-488 -709 2067
-486 -716 2089
-487 -726 2120
-524 -791 2312
-614 -940 2747
-594 -922 2696
-608 -956 2797
-613 -977 2861
-629 -1018 2980
-630 -1035 3034
-611 -1018 2985
-606 -1025 3006
-597 -1025 3008
-579 -1010 2964
-595 -1055 3097
-616 -1109 3258
0 0 0
0 0 0
0 0 0
0 0 0
0 0 0
0 0 0
0 0 0
0 0 0
-524 -1103 3250
-555 -1189 3506
-553 -1209 3564
-607 -1353 3990
-616 -1401 4134
-592 -1375 4059
-581 -1378 4067
-567 -1373 4055
-554 -1370 4047
-542 -1371 4052
-531 -1374 4062
-518 -1374 4061
-504 -1369 4049
-493 -1372 4057
-481 -1372 4059
-469 -1374 4065
-458 -1378 4077
-447 -1379 4083
-435 -1380 4086
-430 -1404 4158
-418 -1406 4163
-401 -1393 4125
-365 -1306 3869
-291 -1077 3191
-268 -1027 3043
-266 -1057 3131
-254 -1046 3099
-246 -1052 3119
-237 -1053 3121
-226 -1044 3096
-217 -1045 3098
-208 -1047 3104
-201 -1061 3147
-189 -1046 3102
-179 -1039 3082
-172 -1054 3127
-163 -1059 3142
-151 -1039 3083
-142 -1039 3082
-134 -1049 3112
-125 -1054 3128
-116 -1058 3139
-106 -1049 3113
-96 -1047 3108
-86 -1040 3087
-78 -1058 3139
-68 -1050 3115
-60 -1059 3142
-50 -1060 3146
-40 -1047 3107
-31 -1051 3117
-22 -1052 3121
-13 -1059 3141
-3 -1054 3128
5 -1040 3085
14 -1052 3121
24 -1042 3091
33 -1044 3095
42 -1048 3106
51 -1045 3099
61 -1056 3130
70 -1052 3118
80 -1057 3132
90 -1063 3150
100 -1066 3158
110 -1070 3170
117 -1052 3116
129 -1071 3172
136 -1058 3134
147 -1065 3153
155 -1058 3132
165 -1062 3143
175 -1065 3151
186 -1071 3169
194 -1064 3147
203 -1065 3148
213 -1068 3158
225 -1080 3191
232 -1067 3151
245 -1082 3197
250 -1062 3137
265 -1085 3204
271 -1071 3161
282 -1076 3175
293 -1082 3192
301 -1076 3174
313 -1085 3198
319 -1074 3164
333 -1088 3204
347 -1104 3251
354 -1093 3217
361 -1088 3201
370 -1086 3194
383 -1094 3217
392 -1093 3212
404 -1098 3226
412 -1094 3214
424 -1100 3230
428 -1086 3188
0 0 0
430 -1045 3065
443 -1054 3090
462 -1075 3149
469 -1070 3134
480 -1073 3141
496 -1088 3184
501 -1078 3155
516 -1090 3188
526 -1090 3185
531 -1080 3155
547 -1094 3193
552 -1085 3166
565 -1091 3182
560 -1064 3102
510 -952 2774
0 0 0
0 0 0
0 0 0
505 -884 2570
521 -898 2610
498 -845 2454
479 -800 2323
478 -787 2282
508 -824 2389
541 -866 2509
594 -938 2716
0 0 0
0 0 0
0 0 0
0 0 0
0 0 0
0 0 0
0 0 0
0 0 0
0 0 0
107 -144 415
78 -102 294
65 -83 238
0 0 0
138 -178 511
116 -148 424
44 -53 151
20 -20 57
0 0 0
0 0 0
0 0 0
0 0 0
0 0 0
0 0 0
0 0 0
1092 -1282 3643
1067 -1240 3519
1067 -1228 3481
1166 -1329 3766
0 0 0
0 0 0
0 0 0
0 0 0
0 0 0
0 0 0
0 0 0
0 0 0
0 0 0
0 0 0
0 0 0
0 0 0
0 0 0
0 0 0
0 0 0
0 0 0
0 0 0
1070 -1033 2873
1064 -1019 2831
1076 -1021 2836
1084 -1020 2829
1105 -1032 2858
1107 -1025 2835
1100 -1010 2792
1095 -998 2754
1093 -988 2723
1030 -923 2542
1068 -951 2614
1071 -946 2598
1076 -942 2585
1099 -955 2617
1090 -940 2573
1093 -936 2557
1100 -935 2552
1116 -941 2566
1114 -933 2540
1108 -921 2503
1115 -920 2499
1114 -913 2474
1108 -901 2440
1104 -892 2412
1102 -884 2387
1098 -874 2357
1096 -867 2334
1114 -875 2352
1075 -838 2250
1110 -860 2305
1108 -853 2282
1100 -841 2246
1106 -840 2241
1120 -845 2251
1127 -844 2246
1118 -832 2211
1108 -819 2173
1116 -820 2171
1115 -814 2152
1126 -817 2156
1126 -812 2139
1132 -811 2134
1133 -807 2119
1137 -805 2110
1124 -790 2069
1116 -780 2038
1121 -779 2031
1129 -780 2031
1125 -772 2007
1128 -770 1998
1131 -767 1987
1129 -762 1969
1125 -754 1946
1136 -757 1951
1143 -757 1947
1135 -747 1919
-756 -469 1234
-745 -464 1225
-725 -454 1201
-539 -340 899
-521 -330 876
-487 -311 826
-484 -311 827
-476 -307 819
-480 -312 833
-473 -309 826
-477 -313 839
-469 -310 832
-458 -305 820
-459 -307 826
-472 -318 856
-472 -320 864
-470 -320 866
-474 -325 882
-484 -334 906
-622 -432 1174
-1062 -742 2020
-1072 -754 2055
-1063 -753 2054
-1058 -754 2062
-1050 -753 2061
-1044 -754 2067
-1032 -750 2059
-1026 -751 2064
-1018 -750 2065
-1010 -749 2064
-999 -746 2060
-993 -746 2062
-987 -747 2068
-969 -739 2048
-941 -722 2005
-960 -742 2061
-954 -743 2067
-949 -744 2072
-940 -742 2069
-931 -741 2068
-901 -722 2018
-899 -725 2030
-884 -719 2014
-890 -729 2045
-872 -719 2021
-870 -723 2034
-858 -719 2024
-845 -713 2010
-830 -706 1993
-836 -717 2026
-834 -720 2037
-827 -720 2040
-823 -722 2047
-799 -707 2005
-777 -693 1969
-755 -679 1930
-792 -718 2043
-769 -703 2004
-739 -681 1942
-739 -687 1961
-750 -703 2009
-750 -709 2029
-739 -705 2020
-713 -686 1965
-699 -679 1947
-713 -698 2005
-710 -701 2016
-700 -698 2008
-704 -708 2039
-695 -705 2033
-682 -699 2017
-686 -710 2048
-673 -703 2032
-665 -701 2026
-652 -694 2009
-661 -710 2056
-654 -710 2056
-642 -704 2043
-632 -700 2032
-633 -708 2055
-616 -697 2025
-614 -702 2041
-617 -712 2072
-598 -697 2032
-593 -699 2039
-589 -702 2048
-584 -703 2052
-569 -693 2024
-574 -707 2065
-565 -703 2057
-561 -707 2068
-552 -703 2058
-549 -707 2073
-539 -702 2059
-535 -706 2072
-529 -707 2075
-518 -701 2058
-510 -698 2052
-504 -699 2055
-504 -707 2082
-494 -702 2067
-496 -715 2105
-487 -710 2091
-490 -725 2137
-531 -794 2344
-606 -919 2712
-592 -911 2691
-595 -928 2742
-599 -947 2800
-635 -1018 3012
-622 -1012 2994
-606 -1001 2963
-611 -1025 3034
-600 -1022 3028
-587 -1015 3010
-599 -1052 3120
-620 -1106 3280
0 0 0
0 0 0
0 0 0
0 0 0
0 0 0
0 0 0
0 0 0
-489 -1002 2980
-523 -1091 3246
-553 -1176 3500
-560 -1214 3616
-607 -1341 3996
-608 -1370 4081
-592 -1362 4061
-579 -1361 4058
-568 -1363 4064
-555 -1362 4064
-541 -1356 4047
-529 -1359 4055
-517 -1357 4052
-505 -1358 4054
-496 -1367 4082
-483 -1364 4076
-470 -1363 4071
-457 -1361 4067
-444 -1359 4062
-432 -1358 4061
-422 -1367 4087
-411 -1370 4099
-396 -1363 4078
-363 -1288 3855
-298 -1096 3280
-278 -1057 3164
-261 -1026 3071
-256 -1044 3126
-248 -1049 3139
-237 -1045 3128
-228 -1047 3134
-216 -1031 3087
-208 -1040 3115
-198 -1033 3094
-190 -1044 3128
-180 -1037 3108
-172 -1049 3141
-162 -1042 3122
-152 -1040 3117
-139 -1014 3038
-132 -1029 3085
-125 -1048 3141
-114 -1033 3095
-106 -1045 3133
-98 -1055 3162
-86 -1027 3079
-78 -1049 3145
-69 -1049 3145
-59 -1030 3087
-50 -1040 3117
-41 -1041 3120
-31 -1041 3119
-22 -1028 3080
-13 -1048 3139
-3 -1052 3152
5 -1047 3136
14 -1038 3107
24 -1043 3123
33 -1036 3103
42 -1039 3110
52 -1047 3135
60 -1030 3084
71 -1055 3157
80 -1048 3136
90 -1052 3148
98 -1042 3118
109 -1051 3145
118 -1050 3140
128 -1053 3150
136 -1047 3132
145 -1044 3122
156 -1055 3154
165 -1054 3150
176 -1060 3166
185 -1057 3159
195 -1060 3166
205 -1066 3182
211 -1049 3130
224 -1065 3179
233 -1063 3171
241 -1056 3151
253 -1067 3181
263 -1070 3190
273 -1069 3185
280 -1060 3158
295 -1081 3220
307 -1090 3245
309 -1063 3163
321 -1071 3188
335 -1085 3228
338 -1065 3168
350 -1073 3189
364 -1085 3224
373 -1082 3214
378 -1069 3176
393 -1086 3223
400 -1078 3200
408 -1075 3188
421 -1082 3208
434 -1092 3237
0 0 0
404 -970 2873
443 -1044 3092
463 -1069 3162
465 -1052 3110
482 -1069 3160
492 -1070 3162
501 -1069 3157
514 -1075 3174
522 -1073 3165
530 -1068 3151
539 -1068 3149
554 -1079 3179
551 -1054 3103
545 -1025 3017
256 -471 1386
234 -422 1240
229 -406 1194
229 -400 1175
241 -414 1216
249 -422 1238
250 -418 1225
258 -424 1243
277 -450 1318
283 -453 1325
294 -465 1360
291 -453 1323
0 0 0
0 0 0
0 0 0
0 0 0
0 0 0
0 0 0
0 0 0
0 0 0
103 -139 403
60 -78 227
71 -92 267
53 -66 191
78 -98 285
42 -50 146
70 -86 249
30 -34 99
6 -3 8
1251 -1571 4532
0 0 0
0 0 0
0 0 0
0 0 0
0 0 0
0 0 0
0 0 0
0 0 0
1175 -1340 3838
0 0 0
0 0 0
0 0 0
0 0 0
0 0 0
0 0 0
0 0 0
0 0 0
0 0 0
0 0 0
0 0 0
0 0 0
0 0 0
0 0 0
0 0 0
0 0 0
0 0 0
0 0 0
1039 -993 2792
1064 -1009 2833
1079 -1015 2845
1085 -1012 2834
1083 -1002 2804
1090 -1000 2794
1077 -980 2735
1072 -968 2698
1072 -960 2673
1017 -904 2513
1023 -902 2504
1073 -939 2604
1076 -934 2588
1078 -929 2570
1103 -943 2607
1112 -944 2604
1100 -926 2553
1123 -939 2585
1083 -899 2471
1115 -919 2522
1096 -896 2458
1101 -894 2449
1070 -862 2358
1089 -872 2382
1082 -860 2345
1121 -885 2409
1074 -842 2288
1099 -855 2322
1094 -846 2293
1115 -856 2318
1108 -845 2285
1123 -851 2296
1114 -838 2260
1118 -836 2249
1117 -830 2229
1111 -820 2199
1118 -820 2196
1116 -813 2174
1119 -810 2162
1115 -802 2137
1121 -801 2132
1124 -798 2121
1133 -800 2122
1130 -792 2099
1130 -788 2082
1122 -778 2052
1117 -769 2027
1128 -772 2030
1118 -761 1997
1122 -759 1989
1130 -760 1988
1131 -756 1974
1129 -750 1955
1145 -756 1968
1143 -750 1949
1139 -743 1928
-773 -475 1264
-749 -463 1233
-718 -446 1191
-521 -326 871
-491 -308 826
-493 -312 836
-483 -307 825
-486 -311 838
-481 -309 834
-473 -306 828
-476 -310 838
-471 -309 837
-466 -307 834
-466 -309 841
-476 -318 865
-457 -307 837
-469 -317 865
-485 -330 903
-492 -337 923
-679 -467 1283
-1065 -738 2029
-1072 -747 2057
-1061 -744 2052
-1055 -745 2057
-1046 -744 2057
-1040 -744 2061
-1035 -745 2067
-1029 -746 2072
-1017 -742 2063
-1007 -740 2061
-1002 -741 2068
-993 -740 2066
-979 -734 2052
-966 -729 2042
-941 -716 2006
-955 -731 2053
-956 -737 2072
-948 -737 2073
-942 -737 2076
-931 -734 2071
-899 -714 2015
-896 -716 2025
-885 -713 2019
-878 -713 2021
-873 -714 2026
-865 -713 2026
-867 -720 2047
-849 -711 2024
-844 -712 2030
-838 -712 2032
-830 -710 2030
-815 -704 2013
-812 -707 2024
-799 -701 2008
-759 -671 1925
-751 -669 1922
-773 -695 1998
-761 -689 1984
-742 -678 1953
-751 -692 1996
-756 -702 2027
-740 -694 2004
-737 -697 2016
-714 -681 1971
-701 -675 1955
-708 -688 1994
-713 -698 2028
-704 -696 2022
-708 -706 2053
-695 -699 2035
-686 -696 2028
-684 -702 2045
-671 -695 2028
-652 -681 1989
-668 -705 2061
-656 -699 2043
-652 -701 2053
-642 -697 2043
-638 -700 2052
-623 -691 2026
-617 -691 2029
-616 -697 2048
-611 -699 2055
-599 -692 2035
-597 -697 2053
-591 -698 2056
-578 -689 2032
-575 -693 2046
-575 -701 2069
-570 -703 2078
-553 -690 2040
-551 -695 2057
-551 -703 2081
-542 -700 2074
-533 -697 2065
-529 -700 2075
-520 -697 2068
-521 -706 2096
-503 -690 2050
-503 -699 2077
-493 -694 2064
-490 -699 2081
-485 -702 2089
-484 -709 2112
-534 -792 2361
-610 -917 2733
-600 -914 2727
-616 -953 2843
-615 -964 2878
-618 -982 2934
-618 -997 2981
-612 -1002 2996
-604 -1004 3004
-596 -1006 3010
-593 -1017 3043
-621 -1080 3235
-629 -1112 3331
0 0 0
0 0 0
0 0 0
0 0 0
0 0 0
0 0 0
0 0 0
-455 -924 2777
-510 -1056 3173
-558 -1176 3535
-571 -1226 3686
-609 -1333 4011
-608 -1358 4086
-593 -1353 4073
-581 -1352 4071
-567 -1348 4061
-556 -1353 4076
-541 -1344 4050
-531 -1350 4069
-517 -1347 4062
-505 -1346 4060
-492 -1345 4057
-480 -1345 4058
-469 -1348 4068
-457 -1349 4071
-445 -1349 4072
-434 -1353 4085
-421 -1350 4078
-407 -1347 4068
-395 -1345 4064
-372 -1308 3951
-310 -1128 3408
-279 -1052 3180
-265 -1033 3122
-251 -1014 3065
-244 -1022 3091
-236 -1027 3107
-223 -1012 3062
-215 -1019 3081
-206 -1022 3091
-198 -1024 3097
-190 -1033 3125
-180 -1031 3118
-169 -1020 3087
-159 -1015 3072
-153 -1034 3129
-142 -1025 3102
-133 -1024 3099
-123 -1021 3089
-114 -1025 3100
-105 -1021 3089
-94 -1012 3062
-87 -1029 3113
-77 -1027 3109
-68 -1032 3122
-59 -1026 3105
-49 -1021 3090
-40 -1030 3117
-31 -1030 3116
-22 -1034 3129
-12 -1025 3101
-3 -1032 3123
5 -1027 3107
15 -1042 3151
24 -1025 3099
33 -1025 3101
43 -1035 3128
52 -1030 3114
61 -1036 3130
71 -1035 3129
81 -1045 3158
89 -1029 3108
99 -1035 3128
109 -1043 3150
118 -1043 3151
127 -1036 3128
136 -1038 3135
147 -1046 3159
155 -1041 3141
163 -1028 3101
174 -1040 3137
185 -1050 3167
193 -1042 3142
204 -1050 3166
214 -1051 3168
222 -1046 3152
232 -1048 3156
243 -1054 3175
253 -1056 3179
261 -1051 3164
273 -1059 3186
282 -1060 3188
293 -1062 3195
300 -1055 3172
309 -1053 3164
322 -1065 3202
335 -1077 3235
342 -1066 3201
351 -1067 3203
362 -1069 3207
374 -1075 3226
380 -1067 3199
392 -1072 3214
398 -1061 3181
412 -1074 3216
421 -1074 3215
418 -1042 3119
0 0 0
422 -1006 3010
444 -1036 3098
449 -1026 3067
467 -1046 3123
480 -1055 3150
491 -1056 3153
501 -1059 3159
517 -1071 3194
525 -1069 3186
535 -1069 3185
542 -1064 3167
549 -1060 3153
556 -1055 3137
446 -830 2467
248 -451 1339
221 -396 1175
228 -401 1191
232 -402 1193
234 -398 1181
237 -399 1181
242 -400 1185
248 -404 1195
247 -396 1173
254 -403 1190
258 -403 1190
264 -407 1202
262 -398 1174
0 0 0
0 0 0
0 0 0
0 0 0
0 0 0
0 0 0
106 -143 421
88 -116 342
77 -101 296
59 -74 219
52 -64 189
68 -85 248
102 -128 376
59 -71 207
32 -36 104
40 -46 133
1234 -1535 4475
0 0 0
0 0 0
0 0 0
0 0 0
0 0 0
0 0 0
0 0 0
0 0 0
0 0 0
0 0 0
0 0 0
0 0 0
0 0 0
0 0 0
0 0 0
0 0 0
0 0 0
0 0 0
0 0 0
0 0 0
0 0 0
0 0 0
0 0 0
0 0 0
0 0 0
0 0 0
0 0 0
1049 -995 2823
1068 -1004 2845
1078 -1005 2845
1076 -995 2814
1095 -1004 2836
1095 -996 2810
1100 -992 2796
1075 -962 2708
1075 -954 2683
1091 -961 2700
1070 -935 2624
1107 -960 2689
1099 -946 2647
1106 -944 2640
1106 -938 2617
1104 -929 2590
1099 -918 2555
1118 -926 2576
1108 -911 2530
1110 -906 2514
1083 -878 2431
1082 -871 2408
1109 -886 2447
1091 -865 2387
1085 -854 2353
1093 -855 2353
1097 -853 2342
1112 -858 2353
1103 -845 2315
1108 -843 2305
1120 -846 2311
1129 -847 2311
1128 -842 2291
1125 -833 2265
1124 -827 2245
1123 -821 2225
1111 -807 2184
1109 -801 2163
1115 -799 2156
1114 -794 2138
1119 -793 2131
1120 -788 2116
1131 -791 2120
1117 -776 2077
1125 -777 2076
1134 -778 2075
1119 -764 2033
1134 -769 2043
1133 -764 2026
1149 -770 2038
1139 -759 2006
1135 -752 1983
1132 -746 1963
1137 -744 1956
1146 -746 1957
1152 -745 1952
-764 -465 1250
-756 -463 1246
-688 -424 1143
-514 -318 860
-494 -308 833
-492 -308 835
-474 -299 811
-479 -304 827
-495 -316 860
-471 -302 825
-469 -303 828
-469 -305 834
-459 -300 823
-467 -307 843
-462 -305 841
-473 -315 868
-475 -318 877
-478 -322 890
-504 -342 947
-757 -516 1432
-1076 -738 2051
-1072 -740 2060
-1062 -739 2058
-1055 -739 2061
-1049 -739 2064
-1039 -737 2062
-1031 -736 2061
-1025 -736 2065
-1016 -735 2065
-1009 -734 2066
-998 -731 2061
-990 -731 2062
-986 -733 2070
-967 -724 2047
-952 -717 2032
-959 -728 2064
-953 -728 2068
-947 -729 2073
-937 -727 2069
-914 -714 2034
-897 -706 2014
-900 -713 2037
-883 -705 2017
-880 -708 2026
-862 -698 2002
-866 -707 2030
-865 -711 2044
-841 -698 2007
-841 -703 2024
-835 -703 2026
-826 -701 2022
-822 -703 2031
-810 -698 2020
-792 -688 1992
-760 -666 1929
-760 -671 1948
-771 -687 1995
-767 -688 2001
-744 -674 1962
-742 -677 1973
-756 -696 2029
-734 -682 1990
-724 -678 1981
-693 -655 1915
-720 -686 2008
-718 -690 2023
-707 -686 2012
-710 -695 2040
-707 -698 2051
-692 -690 2029
-677 -682 2005
-686 -697 2054
-677 -694 2046
-663 -687 2026
-664 -694 2049
-662 -698 2064
-652 -695 2056
-646 -695 2058
-633 -689 2040
-624 -686 2033
-621 -689 2043
-613 -687 2040
-607 -688 2044
-599 -686 2039
-594 -687 2043
-589 -689 2051
-585 -691 2059
-570 -681 2031
-573 -693 2066
-563 -688 2053
-557 -689 2058
-554 -693 2070
-543 -687 2053
-538 -689 2060
-533 -690 2067
-526 -690 2067
-520 -690 2068
-515 -692 2077
-502 -683 2050
-503 -693 2080
-497 -693 2081
-496 -701 2108
-483 -691 2079
-487 -707 2127
-578 -850 2559
-613 -914 2751
-604 -912 2749
-619 -947 2855
-602 -935 2821
-617 -973 2935
-620 -991 2992
-608 -986 2979
-617 -1017 3072
-588 -983 2972
-600 -1019 3082
-629 -1086 3284
-664 -1164 3523
0 0 0
0 0 0
0 0 0
0 0 0
0 0 0
0 0 0
0 0 0
0 0 0
-522 -1070 3249
-555 -1159 3518
-580 -1234 3747
-615 -1335 4058
-614 -1359 4130
-594 -1343 4082
-580 -1338 4069
-565 -1331 4049
-554 -1335 4061
-542 -1336 4067
-530 -1335 4064
-518 -1337 4072
-507 -1341 4083
-492 -1333 4060
-481 -1337 4073
-469 -1337 4075
-456 -1334 4067
-444 -1334 4068
-434 -1341 4090
-420 -1335 4072
-408 -1338 4082
-395 -1335 4073
-382 -1330 4060
-368 -1324 4042
-299 -1114 3399
-267 -1031 3147
-253 -1013 3092
-245 -1019 3110
-233 -1008 3077
-224 -1006 3074
-213 -1001 3058
-206 -1013 3093
-192 -989 3021
-187 -1010 3087
-179 -1015 3101
-167 -1000 3056
-158 -1002 3062
-150 -1006 3073
-143 -1025 3133
-134 -1027 3138
-123 -1011 3090
-113 -1005 3072
-105 -1017 3107
-96 -1014 3099
-86 -1012 3094
-78 -1022 3125
-68 -1018 3110
-59 -1017 3108
-49 -1007 3078
-40 -1014 3098
-31 -1021 3121
-22 -1017 3107
-12 -1027 3139
-3 -1008 3080
5 -1020 3115
15 -1030 3146
24 -1017 3107
33 -1016 3102
43 -1024 3126
52 -1027 3135
61 -1027 3136
71 -1024 3125
80 -1023 3123
88 -1013 3092
99 -1031 3145
108 -1025 3127
117 -1023 3121
127 -1028 3135
136 -1023 3120
145 -1024 3122
156 -1036 3157
165 -1032 3146
173 -1026 3127
184 -1032 3144
197 -1050 3198
202 -1028 3131
214 -1044 3177
221 -1030 3134
234 -1046 3183
242 -1040 3163
253 -1047 3185
260 -1036 3149
269 -1035 3145
281 -1046 3178
291 -1047 3180
306 -1067 3240
307 -1037 3148
317 -1039 3153
331 -1051 3190
340 -1051 3186
351 -1055 3199
359 -1052 3189
371 -1058 3206
377 -1049 3177
387 -1048 3173
401 -1062 3214
406 -1050 3176
411 -1037 3136
420 -1037 3135
0 0 0
428 -1012 3056
439 -1015 3064
456 -1033 3118
464 -1030 3106
478 -1040 3137
485 -1036 3121
499 -1044 3144
510 -1049 3158
520 -1048 3155
530 -1049 3157
542 -1054 3168
553 -1057 3177
560 -1052 3159
377 -695 2085
229 -412 1236
216 -382 1145
223 -389 1165
229 -392 1176
232 -392 1175
243 -404 1210
236 -386 1155
240 -388 1161
249 -396 1184
252 -396 1181
262 -406 1211
261 -398 1186
263 -396 1180
0 0 0
0 0 0
0 0 0
0 0 0
0 0 0
0 0 0
59 -76 227
66 -85 253
77 -100 296
55 -68 203
77 -96 286
72 -89 264
94 -116 344
49 -58 171
84 -102 300
1248 -1556 4584
0 0 0
0 0 0
0 0 0
0 0 0
0 0 0
0 0 0
0 0 0
0 0 0
0 0 0
0 0 0
0 0 0
0 0 0
0 0 0
0 0 0
0 0 0
0 0 0
0 0 0
0 0 0
0 0 0
0 0 0
0 0 0
0 0 0
1040 -1029 2968
0 0 0
0 0 0
0 0 0
0 0 0
0 0 0
1066 -1002 2871
1060 -987 2827
1078 -995 2847
1079 -988 2824
1081 -982 2803
1110 -1000 2852
1083 -968 2755
1058 -938 2668
1071 -942 2677
1099 -959 2721
1092 -946 2680
1101 -946 2677
1086 -926 2616
1095 -927 2617
1081 -908 2560
1101 -918 2584
1101 -911 2562
1090 -895 2514
1076 -877 2459
1076 -870 2438
1099 -883 2470
1083 -863 2412
1050 -831 2319
1091 -858 2389
1080 -843 2345
1100 -853 2370
1109 -854 2369
1122 -858 2376
1128 -857 2370
1113 -840 2319
1120 -839 2314
1122 -835 2299
1132 -837 2301
1106 -812 2230
1122 -819 2245
1121 -812 2224
1116 -803 2196
1111 -795 2169
1107 -787 2144
1113 -786 2139
1130 -793 2154
1125 -785 2128
1126 -781 2113
1130 -778 2103
1112 -761 2053
1123 -764 2057
1131 -765 2056
1126 -757 2032
1129 -754 2021
1135 -754 2017
1145 -756 2019
1139 -748 1993
1141 -745 1981
1146 -744 1975
1143 -737 1954
1136 -729 1928
-761 -459 1247
-758 -459 1250
-658 -401 1094
-533 -327 892
-502 -310 848
-493 -306 838
-484 -302 830
-487 -306 841
-473 -299 822
-476 -302 834
-469 -300 829
-471 -303 838
-477 -309 857
-462 -301 836
-480 -315 875
-476 -314 874
-459 -304 849
-489 -327 913
-513 -345 964
-850 -574 1609
-1075 -731 2052
-1070 -733 2059
-1059 -730 2054
-1052 -730 2057
-1048 -731 2064
-1042 -732 2070
-1030 -728 2062
-1027 -731 2073
-1016 -728 2066
-1009 -728 2070
-999 -726 2066
-988 -722 2059
-978 -720 2055
-963 -714 2040
-951 -710 2032
-962 -723 2072
-955 -723 2074
-948 -723 2077
-941 -723 2080
-919 -711 2048
-903 -704 2029
-893 -701 2024
-892 -705 2038
-887 -707 2045
-881 -707 2048
-864 -699 2027
-856 -698 2026
-841 -690 2007
-841 -696 2025
-837 -698 2034
-835 -702 2048
-818 -693 2023
-814 -695 2032
-791 -681 1994
-759 -659 1930
-777 -680 1994
-782 -690 2026
-759 -675 1983
-753 -676 1988
-743 -672 1978
-742 -677 1995
-738 -680 2004
-732 -679 2005
-700 -655 1936
-712 -672 1988
-718 -685 2026
-707 -680 2015
-711 -690 2046
-707 -692 2054
-690 -682 2024
-685 -684 2032
-677 -681 2027
-665 -675 2011
-668 -686 2043
-664 -688 2051
-657 -687 2052
-653 -690 2060
-641 -684 2043
-632 -681 2038
-624 -679 2033
-624 -686 2055
-617 -685 2054
-604 -678 2034
-599 -680 2041
-596 -683 2053
-593 -687 2065
-582 -682 2053
-577 -683 2057
-573 -686 2066
-567 -687 2070
-566 -693 2091
-551 -682 2060
-547 -685 2070
-536 -680 2054
-531 -682 2063
-525 -681 2062
-515 -678 2052
-513 -683 2070
-506 -682 2067
-499 -681 2065
-494 -682 2071
-488 -684 2076
-483 -685 2080
-488 -701 2132
-585 -851 2588
-652 -962 2925
-619 -927 2821
-638 -969 2950
-617 -950 2893
-616 -962 2933
-606 -961 2930
-623 -1001 3055
-610 -995 3037
-598 -991 3027
-597 -1005 3068
-628 -1074 3282
-670 -1163 3555
0 0 0
0 0 0
0 0 0
0 0 0
0 0 0
0 0 0
0 0 0
0 0 0
-533 -1083 3320
-565 -1168 3583
-591 -1246 3823
-619 -1330 4082
-607 -1331 4087
-594 -1330 4083
-578 -1322 4062
-563 -1316 4044
-554 -1324 4068
-540 -1319 4053
-530 -1325 4074
-518 -1324 4073
-504 -1319 4058
-493 -1323 4072
-481 -1324 4073
-468 -1320 4065
-456 -1323 4074
-443 -1319 4062
-432 -1324 4079
-419 -1322 4074
-407 -1323 4076
-394 -1318 4063
-383 -1324 4080
-389 -1390 4283
-352 -1299 4004
-272 -1043 3216
-251 -998 3079
-244 -1006 3102
-238 -1018 3139
-226 -1006 3105
-216 -1004 3097
-206 -1001 3090
-197 -1001 3087
-187 -997 3076
-179 -1003 3097
-166 -985 3039
-160 -1004 3100
-150 -995 3071
-141 -1002 3091
-133 -1006 3106
-125 -1015 3134
-113 -1000 3088
-104 -996 3075
-95 -995 3071
-87 -1008 3113
-76 -998 3081
-67 -1000 3087
-58 -1001 3091
-49 -1006 3105
-39 -994 3067
-31 -1013 3126
-21 -1001 3089
-12 -993 3066
-3 -1010 3115
5 -1011 3119
14 -1002 3091
24 -1010 3115
33 -1010 3116
43 -1019 3144
52 -1008 3108
61 -1002 3090
70 -1011 3117
79 -1005 3098
89 -1011 3117
99 -1017 3135
108 -1019 3141
118 -1024 3154
128 -1022 3149
135 -1009 3107
145 -1011 3112
154 -1008 3105
166 -1026 3159
175 -1025 3154
183 -1017 3129
193 -1020 3137
204 -1028 3160
214 -1031 3170
222 -1026 3155
233 -1034 3178
241 -1025 3150
251 -1029 3161
262 -1035 3177
269 -1026 3150
281 -1033 3171
293 -1043 3201
302 -1041 3193
310 -1038 3183
314 -1018 3119
333 -1049 3215
337 -1031 3160
349 -1038 3179
361 -1046 3201
372 -1052 3218
379 -1042 3189
390 -1047 3203
392 -1027 3139
403 -1030 3149
406 -1015 3101
431 -1054 3219
0 0 0
445 -1041 3177
441 -1010 3080
455 -1021 3112
465 -1023 3117
474 -1022 3112
484 -1024 3116
498 -1033 3142
506 -1031 3135
518 -1036 3148
523 -1026 3118
533 -1027 3119
543 -1029 3123
547 -1018 3089
321 -584 1772
226 -404 1225
220 -386 1171
223 -385 1165
228 -387 1170
227 -380 1150
233 -384 1162
241 -391 1182
243 -388 1172
245 -386 1163
250 -388 1171
258 -395 1191
259 -392 1181
245 -366 1101
0 0 0
0 0 0
0 0 0
0 0 0
0 0 0
0 0 0
106 -141 423
86 -112 337
81 -104 312
59 -73 219
72 -90 269
62 -76 226
73 -89 265
30 -33 98
67 -79 235
60 -69 206
1209 -1477 4392
1097 -1324 3935
0 0 0
0 0 0
0 0 0
0 0 0
0 0 0
0 0 0
0 0 0
0 0 0
0 0 0
0 0 0
0 0 0
0 0 0
0 0 0
0 0 0
0 0 0
0 0 0
0 0 0
0 0 0
0 0 0
0 0 0
0 0 0
1064 -1034 3010
0 0 0
0 0 0
0 0 0
0 0 0
1072 -998 2890
1055 -974 2816
1078 -986 2850
1082 -982 2835
1092 -983 2833
1080 -964 2776
1059 -938 2696
1083 -952 2734
1078 -939 2695
1094 -946 2711
1094 -939 2687
1095 -932 2666
1089 -920 2628
1090 -914 2607
1101 -917 2610
1091 -901 2564
1088 -892 2534
1088 -885 2511
1102 -890 2521
1049 -841 2380
1078 -858 2425
1069 -844 2383
1070 -839 2365
1082 -843 2371
1109 -858 2410
1124 -864 2424
1110 -847 2373
1107 -839 2347
1116 -840 2347
1110 -830 2315
1120 -832 2317
1119 -825 2295
1132 -830 2304
1101 -801 2223
1115 -806 2233
1115 -801 2215
1104 -788 2175
1105 -783 2159
1118 -787 2167
1106 -774 2128
1114 -775 2125
1116 -772 2113
1128 -775 2118
1121 -765 2089
1135 -770 2098
1127 -760 2067
1136 -761 2068
1143 -762 2065
1144 -757 2050
1146 -754 2038
1147 -751 2024
1139 -741 1994
1136 -735 1975
1143 -735 1971
1151 -736 1970
1140 -724 1936
-762 -455 1250
-741 -445 1225
-607 -367 1010
-502 -305 842
-499 -305 843
-489 -300 832
-479 -296 822
-475 -295 821
-484 -303 842
-475 -299 833
-477 -302 844
-462 -295 824
-465 -298 835
-462 -298 837
-470 -305 857
-485 -316 891
-468 -307 867
-487 -322 910
-532 -354 1001
-926 -620 1756
-1071 -722 2047
-1071 -726 2062
-1063 -725 2063
-1051 -722 2057
-1044 -721 2058
-1038 -722 2064
-1027 -720 2059
-1020 -719 2061
-1014 -720 2065
-1007 -720 2068
-1001 -720 2071
-992 -718 2069
-978 -713 2057
-941 -691 1996
-959 -709 2051
-959 -715 2069
-955 -716 2076
-946 -715 2075
-941 -716 2080
-922 -707 2057
-916 -707 2061
-896 -697 2033
-876 -686 2004
-872 -689 2013
-874 -695 2035
-868 -696 2039
-862 -696 2042
-847 -689 2024
-841 -690 2028
-830 -686 2019
-833 -694 2046
-815 -684 2017
-805 -681 2011
-781 -667 1970
-750 -645 1909
-771 -668 1980
-781 -682 2023
-758 -668 1982
-748 -665 1976
-753 -675 2007
-753 -680 2025
-735 -670 1997
-719 -662 1973
-721 -669 1996
-717 -671 2006
-716 -676 2023
-701 -668 1998
-709 -682 2042
-702 -681 2043
-691 -676 2030
-678 -670 2011
-679 -677 2035
-665 -670 2015
-655 -666 2005
-665 -682 2056
-661 -685 2065
-656 -687 2072
-644 -680 2055
-631 -674 2037
-623 -672 2032
-622 -678 2052
-615 -677 2052
-601 -668 2025
-598 -672 2038
-596 -677 2056
-583 -669 2034
-580 -674 2048
-572 -671 2042
-572 -679 2066
-571 -685 2088
-558 -677 2063
-551 -677 2064
-548 -681 2079
-542 -681 2079
