VERSION 0.7
FIELDS x y z
SIZE 4 4 4
TYPE I I I
COUNT 1 1 1
WIDTH 3956
HEIGHT 1
VIEWPOINT 0.0 0.0 0.0 1.0 0.0 0.0 0.0
POINTS 3956
DATA ascii
-747 41 2080
-738 41 2074
-740 41 2101
-725 41 2077
-713 40 2064
-717 41 2093
-716 41 2110
-715 41 2128
-707 41 2126
-694 41 2106
-685 41 2101
-681 41 2110
-679 41 2123
-671 41 2121
-649 40 2070
-643 40 2073
-643 40 2096
-636 40 2094
-632 40 2104
-629 40 2115
-624 40 2122
-614 40 2110
-614 40 2132
-605 40 2123
-595 40 2111
-593 40 2129
-580 40 2107
-571 39 2099
-572 40 2127
-561 39 2110
-557 40 2119
-552 40 2123
-541 39 2108
-536 39 2111
-529 39 2110
-525 39 2120
-519 39 2121
-512 39 2120
-507 39 2126
-499 39 2121
-497 39 2138
-510 41 2223
-558 45 2466
-662 54 2960
-684 56 3101
-677 56 3112
-673 57 3137
-659 56 3115
-655 56 3141
-646 56 3143
-638 56 3151
-630 56 3157
-620 56 3153
-613 56 3166
-605 57 3173
-594 56 3169
-586 56 3176
-577 56 3179
-568 56 3180
-559 56 3181
-551 56 3187
-540 56 3183
-532 56 3187
-524 56 3196
-514 56 3196
-504 56 3193
-495 56 3191
-485 56 3191
-477 56 3195
-468 56 3201
-458 56 3199
-450 56 3204
-440 56 3202
-430 55 3194
-421 55 3200
-412 55 3203
-403 55 3207
-394 55 3207
-383 55 3195
-374 55 3200
-366 55 3211
-356 55 3207
-348 55 3212
-337 55 3203
-328 55 3206
-319 55 3206
-311 55 3214
-301 55 3211
-290 54 3197
-281 54 3200
-273 54 3210
-264 54 3218
-261 55 3287
-370 81 4828
-13 5 208
-41 11 617
-49 13 750
-45 13 726
-46 14 783
-41 13 733
-38 13 718
-23 9 482
-12 6 292
0 2 60
-228 83 5059
-211 83 5014
-197 83 5015
-181 82 4980
-167 82 4971
-8 7 370
-17 13 728
-19 15 885
-17 16 901
-16 16 953
-10 14 798
-9 15 873
-6 15 850
-3 14 789
-2 16 908
0 14 801
3 14 814
5 16 905
8 15 867
10 15 855
13 15 905
16 15 902
17 14 808
21 15 906
21 14 811
22 13 758
28 15 882
31 15 891
33 15 878
37 16 929
37 15 858
41 15 874
41 14 836
45 14 856
40 12 710
46 14 798
49 14 799
58 15 909
62 16 940
58 14 839
66 15 914
69 15 913
75 16 964
78 16 964
68 13 803
60 12 686
72 13 799
67 12 719
83 14 864
89 15 901
91 15 902
103 16 994
96 15 893
93 14 845
85 12 745
91 13 777
87 12 726
74 10 596
74 10 586
63 8 484
59 8 439
48 6 343
49 6 341
31 4 205
27 4 175
16 2 91
20 3 113
21 3 121
20 3 112
29 4 167
33 4 187
80 8 483
0 0 0
179 17 1064
196 18 1146
229 21 1316
208 19 1174
190 17 1051
202 18 1103
196 17 1051
0 0 0
214 18 1114
243 20 1244
246 20 1245
210 17 1043
232 18 1137
222 17 1069
190 14 898
173 13 806
166 12 762
163 12 737
147 11 655
142 10 620
184 13 801
158 11 677
152 11 642
140 10 580
133 9 545
159 11 644
111 8 439
114 8 448
128 8 498
164 10 632
55 4 198
1269 72 4884
1272 71 4839
1298 72 4881
23 2 70
0 0 0
0 0 0
0 0 0
0 0 0
0 0 0
0 0 0
1013 51 3478
1015 51 3445
1029 51 3457
1042 51 3462
1092 53 3593
0 0 0
0 0 0
0 0 0
0 0 0
0 0 0
0 0 0
0 0 0
0 0 0
0 0 0
1065 46 3166
1067 46 3141
1057 45 3081
1030 43 2974
0 0 0
0 0 0
0 0 0
1046 42 2910
1046 42 2882
1059 42 2892
1067 42 2887
1077 42 2887
1074 41 2853
1073 41 2827
1076 41 2807
1070 40 2769
1077 40 2762
1094 40 2780
1079 39 2718
1075 39 2684
1081 39 2678
1088 39 2672
1083 38 2636
1105 39 2667
1089 38 2606
1088 37 2581
1098 37 2584
1101 37 2570
1112 37 2573
1098 36 2519
1105 36 2517
1102 36 2489
1103 36 2471
1101 35 2445
1099 35 2421
1115 35 2437
1099 34 2383
1117 35 2403
1113 34 2376
1107 34 2345
1111 34 2333
1116 34 2326
1112 33 2299
1116 33 2289
1110 33 2261
1103 32 2228
1102 32 2209
1108 32 2205
1111 32 2193
1113 31 2180
1120 31 2178
1124 31 2169
1136 31 2175
1124 31 2136
1124 31 2121
1129 31 2114
1123 30 2086
1122 30 2070
1130 30 2068
1130 30 2053
1125 29 2030
1129 29 2021
-501 23 873
-505 23 887
-498 23 882
-490 23 874
-498 23 894
-481 23 870
-482 23 880
-488 23 896
-484 23 897
-482 23 899
-617 30 1159
-1079 51 2042
-1104 52 2105
-1097 52 2107
-1088 52 2107
-1080 52 2107
-1071 52 2105
-1063 52 2106
-1057 52 2110
-1049 52 2110
-1041 52 2110
-1032 51 2108
-1024 51 2108
-1018 51 2111
-1008 51 2107
-1003 51 2112
-994 51 2110
-989 51 2116
-980 51 2114
-976 51 2121
-965 51 2115
-954 50 2107
-953 51 2123
-935 50 2099
-919 49 2079
-912 49 2081
-900 49 2071
-897 49 2081
-888 49 2077
-884 49 2085
-880 49 2094
-871 49 2090
-868 49 2099
-864 49 2109
-857 49 2109
-834 48 2069
-833 48 2085
-835 49 2109
-825 49 2101
-821 49 2108
-811 48 2101
-805 48 2104
-804 49 2121
-790 48 2102
-776 48 2085
-772 48 2091
-770 48 2107
-764 48 2109
-748 47 2083
-731 47 2056
-735 47 2087
-724 47 2075
-723 47 2091
-716 47 2091
-712 47 2100
-714 48 2124
-701 47 2108
-695 47 2110
-688 47 2109
-686 47 2123
-678 47 2121
-670 47 2115
-648 46 2068
-644 46 2076
-636 46 2073
-626 46 2061
-629 46 2093
-632 47 2124
-625 47 2125
-615 46 2112
-613 47 2129
-603 46 2117
-595 46 2113
-582 46 2090
-579 46 2104
-578 46 2121
-570 46 2118
-563 46 2116
-559 46 2124
-551 46 2119
-542 46 2112
-537 46 2118
-531 46 2118
-525 45 2119
-516 45 2111
-511 45 2115
-504 45 2114
-499 45 2118
-497 46 2140
-514 48 2242
-576 54 2544
-667 63 2984
-682 65 3093
-680 66 3128
-672 66 3135
-661 65 3127
-654 66 3139
-645 65 3137
-638 66 3153
-629 66 3154
-619 66 3151
-611 66 3156
-604 66 3170
-594 66 3170
-588 66 3185
-576 66 3173
-569 66 3188
-560 66 3189
-552 66 3197
-541 65 3186
-533 66 3196
-524 65 3197
-513 65 3187
-504 65 3190
-495 65 3194
-487 65 3204
-477 65 3197
-468 65 3198
-458 65 3194
-448 65 3195
-439 65 3198
-431 65 3203
-422 65 3210
-412 65 3202
-403 65 3206
-393 64 3204
-384 64 3201
-375 64 3204
-364 64 3193
-356 64 3200
-347 64 3207
-338 64 3206
-329 64 3215
-319 64 3202
-310 64 3209
-300 64 3201
-291 64 3206
-281 63 3197
-272 63 3204
-264 64 3210
-260 65 3283
-371 95 4840
-40 12 574
-46 14 681
-44 14 679
-41 14 671
-34 13 591
-30 12 544
-30 12 572
-22 10 456
-8 5 216
0 2 51
2 1 -3
-213 98 5065
-197 97 5027
-183 97 5040
-168 97 5013
-5 6 270
-13 12 577
-15 15 725
-14 16 781
-14 17 861
-10 15 755
-7 15 709
-5 16 769
-3 15 743
0 14 682
0 16 765
3 16 775
5 14 702
7 16 765
9 15 758
11 15 728
13 15 745
16 16 796
17 15 716
20 15 765
24 16 813
25 16 790
25 14 696
27 14 706
34 17 836
34 15 771
36 15 758
38 15 755
42 16 807
37 13 663
42 14 709
41 13 667
51 16 799
51 15 765
54 15 772
56 15 771
65 17 860
64 16 809
63 15 776
59 14 700
47 11 521
49 11 534
60 13 634
63 13 654
71 14 718
90 17 892
82 15 786
90 16 839
87 15 788
84 15 737
88 15 757
83 14 696
71 11 570
77 12 612
73 11 564
60 9 447
56 9 409
35 5 240
22 4 142
20 3 124
17 3 98
14 2 74
12 2 60
5 1 15
3 1 -4
9 2 35
795 90 4964
0 0 0
0 0 0
0 0 0
0 0 0
191 20 1077
207 22 1146
234 24 1281
162 16 864
182 18 957
185 18 961
205 20 1048
206 20 1039
190 18 942
189 17 923
168 15 807
188 17 888
162 14 754
174 15 798
166 14 750
157 13 700
161 14 709
182 15 792
171 14 732
169 14 713
158 13 656
158 13 649
144 11 583
123 10 489
131 10 516
0 0 0
93 7 353
90 7 336
14 2 39
1281 86 4873
1284 85 4826
29 3 92
0 0 0
0 0 0
0 0 0
0 0 0
0 0 0
0 0 0
0 0 0
1039 62 3530
1062 63 3566
0 0 0
0 0 0
0 0 0
0 0 0
0 0 0
0 0 0
0 0 0
0 0 0
0 0 0
0 0 0
0 0 0
0 0 0
1062 55 3128
1053 54 3070
0 0 0
0 0 0
0 0 0
0 0 0
1034 51 2876
1050 51 2893
1061 51 2895
1066 51 2884
1063 50 2850
1087 51 2889
1070 49 2816
1072 49 2797
1071 49 2771
1073 48 2751
1091 49 2772
1093 48 2752
1082 47 2702
1081 47 2676
1079 47 2650
1084 46 2638
1101 47 2657
1087 46 2602
1099 46 2607
1099 45 2585
1094 45 2552
1100 45 2545
1105 45 2537
1096 44 2494
1090 43 2461
1095 43 2452
1097 43 2437
1095 42 2412
1093 42 2390
1103 42 2392
1104 42 2376
1108 42 2364
1112 41 2353
1109 41 2330
1104 40 2301
1114 41 2304
1107 40 2272
1109 40 2258
1104 39 2229
1105 39 2214
1101 39 2191
1111 39 2193
1113 38 2180
1125 39 2186
1131 38 2182
1122 38 2149
1128 38 2144
1131 38 2133
1126 37 2107
1125 37 2090
1132 37 2088
1132 37 2073
1123 36 2041
1131 36 2040
1127 36 2018
-499 26 871
-504 26 885
-498 26 882
-483 25 862
-489 26 878
-488 26 884
-470 25 856
-482 26 886
-472 25 873
-501 27 934
-611 33 1149
-1077 57 2037
-1105 59 2108
-1103 59 2120
-1088 59 2106
-1079 59 2105
-1074 59 2112
-1063 59 2105
-1063 59 2122
-1050 58 2112
-1042 58 2111
-1035 58 2113
-1028 58 2115
-1019 58 2114
-1010 58 2112
-1006 58 2119
-996 58 2116
-989 58 2117
-980 57 2115
-973 57 2115
-964 57 2113
-960 57 2121
-953 57 2122
-942 57 2115
-914 56 2069
-908 56 2073
-903 56 2078
-898 56 2084
-883 55 2066
-885 56 2089
-878 55 2089
-872 55 2092
-866 55 2095
-854 55 2084
-853 55 2098
-828 54 2054
-833 55 2084
-830 55 2094
-828 55 2110
-817 55 2098
-808 55 2094
-802 55 2096
-796 55 2100
-788 54 2098
-780 54 2095
-771 54 2089
-769 54 2104
-760 54 2098
-749 54 2087
-734 53 2065
-730 53 2071
-737 54 2110
-723 53 2090
-717 53 2093
-711 53 2097
-710 54 2115
-701 54 2107
-698 54 2118
-692 54 2120
-679 53 2104
-671 53 2098
-663 53 2093
-646 52 2063
-640 52 2065
-638 52 2078
-630 52 2076
-628 52 2091
-630 53 2117
-618 52 2100
-615 53 2114
-608 52 2111
-602 53 2115
-592 52 2102
-589 52 2115
-577 52 2096
-576 52 2116
-570 52 2117
-562 52 2113
-561 52 2133
-548 52 2109
-547 52 2130
-539 52 2124
-529 52 2112
-525 52 2120
-519 52 2124
-517 52 2140
-509 52 2136
-499 51 2119
-499 52 2150
-525 55 2290
-612 65 2705
-681 73 3045
-686 75 3110
-680 75 3125
-669 75 3119
-662 75 3130
-655 75 3140
-647 75 3151
-637 75 3146
-631 75 3165
-620 75 3156
-612 75 3166
-604 75 3169
-594 75 3167
-585 75 3171
-577 75 3176
-568 75 3182
-560 75 3190
-552 75 3196
-542 75 3195
-532 75 3191
-523 75 3191
-514 75 3196
-504 74 3190
-495 74 3194
-486 74 3197
-476 74 3194
-469 74 3206
-460 74 3210
-450 74 3205
-439 74 3196
-429 74 3194
-421 74 3204
-412 74 3205
-403 74 3203
-392 74 3197
-384 74 3205
-375 74 3205
-366 74 3212
-356 73 3206
-346 73 3198
-338 73 3211
-328 73 3201
-319 73 3210
-309 73 3203
-300 73 3205
-291 73 3206
-282 73 3211
-273 73 3214
-263 73 3199
-257 73 3244
0 0 0
-41 14 593
-41 15 612
-37 14 586
-32 13 526
-32 13 551
-26 12 481
-21 11 425
-20 11 434
-10 7 248
-235 110 4918
-223 110 4952
-209 110 4957
-195 111 4980
-183 111 5020
-165 110 4938
-154 111 5029
-12 13 553
-13 15 627
-12 16 668
-9 15 634
-8 15 646
-7 16 703
-5 17 726
-2 16 664
-1 17 747
1 17 707
3 15 654
5 16 674
6 15 631
8 15 630
11 18 758
12 16 667
15 16 691
16 15 660
17 15 636
19 15 630
21 15 632
24 16 681
24 14 619
27 15 650
28 14 622
30 14 621
34 16 673
31 13 570
32 13 559
39 15 653
41 15 658
41 15 639
45 15 658
40 13 560
46 15 629
45 14 585
50 15 630
55 15 673
43 12 499
32 8 344
41 11 442
28 7 286
42 10 425
34 8 327
47 11 446
72 16 686
73 15 673
82 17 736
83 16 726
68 13 579
71 13 584
67 12 540
61 11 478
61 11 467
50 9 369
49 9 352
37 6 255
25 4 160
22 4 138
15 3 81
12 2 59
741 105 4990
753 105 4976
764 104 4951
773 103 4915
784 103 4892
779 100 4775
775 98 4660
789 98 4662
0 0 0
0 0 0
0 0 0
0 0 0
0 0 0
169 20 891
142 16 735
169 19 862
171 19 860
190 21 943
156 17 759
166 18 795
175 18 829
136 14 630
172 17 792
148 15 667
157 16 702
142 14 624
127 12 547
159 15 679
143 14 603
152 14 634
157 14 646
128 12 516
123 11 491
103 9 403
121 11 471
89 8 336
57 5 206
1254 100 4826
1285 101 4886
1280 99 4811
10 2 21
23 3 69
0 0 0
0 0 0
0 0 0
0 0 0
0 0 0
0 0 0
0 0 0
0 0 0
0 0 0
0 0 0
0 0 0
0 0 0
0 0 0
0 0 0
0 0 0
0 0 0
0 0 0
0 0 0
0 0 0
0 0 0
0 0 0
0 0 0
0 0 0
0 0 0
0 0 0
0 0 0
1018 58 2830
1039 59 2862
1059 60 2892
1057 59 2858
1064 59 2851
1089 60 2893
1034 56 2721
1057 57 2757
1067 57 2759
1067 56 2735
1087 57 2763
1105 57 2785
1081 56 2699
1093 56 2705
1083 55 2659
1091 55 2656
1091 54 2632
1081 53 2587
1079 53 2560
1087 53 2557
1086 52 2534
1088 52 2518
1099 52 2522
1111 52 2529
1104 51 2493
1102 51 2468
1091 50 2423
1100 50 2422
1101 50 2406
1096 49 2377
1103 49 2373
1109 49 2366
1113 49 2357
1115 49 2343
1107 48 2307
1109 48 2292
1107 47 2271
1103 47 2245
1093 46 2208
1101 46 2206
1111 46 2210
1113 46 2198
1117 45 2187
1126 46 2190
1125 45 2171
1123 45 2150
1125 45 2138
1128 44 2128
1130 44 2115
1126 44 2092
1126 43 2076
1132 43 2072
1127 43 2047
1137 43 2050
1129 42 2022
-505 29 882
-502 29 882
-495 29 876
-497 29 887
-491 29 882
-489 29 884
-476 28 868
-479 29 879
-478 29 885
-519 31 969
-613 37 1151
-1074 64 2033
-1106 66 2109
-1094 66 2102
-1094 66 2118
-1082 66 2110
-1078 66 2118
-1066 65 2111
-1060 65 2115
-1047 65 2106
-1043 65 2114
-1035 65 2115
-1026 65 2112
-1020 65 2115
-1010 64 2111
-1005 65 2118
-993 64 2108
-990 64 2118
-979 64 2112
-970 64 2110
-965 64 2115
-957 64 2115
-955 64 2127
-942 63 2115
-920 62 2082
-912 62 2081
-901 62 2073
-895 62 2076
-889 62 2079
-879 62 2074
-873 62 2078
-872 62 2092
-867 62 2098
-851 61 2077
-857 62 2108
-834 61 2070
-835 61 2090
-822 61 2075
-824 61 2098
-814 61 2091
-809 61 2098
-802 61 2097
-794 61 2096
-785 61 2090
-778 60 2090
-769 60 2085
-769 61 2103
-761 60 2100
-744 60 2074
-732 59 2057
-733 60 2080
-727 60 2082
-719 59 2080
-716 60 2092
-713 60 2103
-704 60 2097
-698 60 2098
-703 60 2132
-687 60 2106
-682 60 2112
-677 60 2116
-667 59 2108
-655 59 2091
-639 58 2060
-638 58 2080
-635 59 2091
-628 58 2089
-629 59 2116
-623 59 2116
-611 59 2099
-608 59 2110
-600 59 2108
-594 59 2109
-586 58 2103
-580 58 2106
-581 59 2134
-570 58 2118
-563 58 2117
-553 58 2103
-549 58 2112
-544 58 2120
-539 58 2123
-533 58 2125
-522 58 2110
-519 58 2121
-514 58 2130
-505 58 2120
-501 58 2129
-501 59 2155
-539 64 2352
-660 79 2913
-689 83 3081
-685 84 3106
-676 84 3109
-674 84 3142
-661 84 3126
-657 84 3150
-647 84 3149
-642 85 3169
-632 84 3167
-621 84 3159
-612 84 3163
-602 84 3162
-596 84 3180
-587 84 3182
-578 84 3181
-568 84 3178
-559 84 3180
-553 85 3204
-542 84 3195
-533 84 3198
-524 84 3199
-514 84 3197
-505 84 3200
-497 84 3204
-485 84 3192
-478 84 3209
-466 83 3191
-458 84 3201
-449 84 3201
-439 83 3195
-430 83 3202
-421 83 3202
-412 83 3201
-403 83 3206
-394 83 3207
-384 83 3207
-375 83 3208
-365 83 3202
-355 83 3196
-347 83 3209
-337 82 3201
-328 83 3208
-320 83 3212
-309 82 3203
-300 82 3198
-291 82 3206
-282 82 3207
-272 82 3204
-263 82 3206
-258 83 3251
0 0 0
-28 12 417
-30 13 468
-29 13 460
-23 11 397
-17 9 323
-14 8 291
-9 7 217
-6 6 174
-255 127 5027
-233 123 4871
-218 122 4854
-206 123 4892
-193 124 4927
-179 124 4932
-164 123 4895
-150 123 4899
-8 11 390
-9 13 483
-9 15 549
-7 14 500
-7 17 628
-4 15 542
-3 16 581
-2 17 629
0 16 615
1 17 631
3 15 575
4 14 534
6 16 609
8 15 576
10 16 616
11 16 599
11 14 510
13 14 527
13 13 471
17 15 550
18 14 530
19 13 503
19 13 481
21 13 493
21 12 445
19 11 386
21 11 400
27 13 503
27 13 475
31 14 518
33 14 522
34 14 515
34 13 485
44 16 615
35 12 462
43 15 554
46 15 570
41 13 494
21 7 223
20 6 208
20 6 193
22 6 212
18 5 162
23 6 212
35 9 331
42 10 386
41 10 370
61 14 542
71 16 621
73 16 624
63 14 519
68 14 545
52 11 402
57 12 437
55 11 408
46 9 329
41 8 281
22 5 141
17 4 101
24 5 149
4 1 2
734 119 4943
741 117 4890
755 117 4888
765 116 4861
762 114 4755
769 113 4711
770 111 4632
786 111 4643
775 108 4502
768 105 4384
0 0 0
0 0 0
0 0 0
0 0 0
140 18 723
144 18 732
162 20 811
176 22 870
159 19 774
155 19 743
132 16 621
131 15 607
142 16 648
140 16 630
146 16 648
134 15 586
150 16 649
140 15 598
132 14 553
172 18 717
120 13 488
135 14 547
106 11 419
154 15 608
98 10 375
106 11 402
32 4 112
1250 114 4811
1282 115 4875
1275 113 4793
1300 114 4829
1315 114 4829
0 0 0
0 0 0
0 0 0
0 0 0
0 0 0
0 0 0
0 0 0
0 0 0
0 0 0
0 0 0
0 0 0
0 0 0
0 0 0
0 0 0
0 0 0
0 0 0
0 0 0
0 0 0
0 0 0
0 0 0
0 0 0
0 0 0
0 0 0
0 0 0
0 0 0
0 0 0
1017 67 2828
1049 68 2888
1069 69 2918
1061 68 2870
1099 70 2946
1067 67 2834
1047 65 2754
1042 64 2719
1019 62 2635
1025 62 2627
1084 65 2754
1039 62 2617
1061 63 2649
1077 63 2666
1074 62 2635
1058 61 2574
1083 62 2613
1067 61 2552
1075 60 2550
1082 60 2546
1089 60 2540
1083 59 2506
1090 59 2500
1095 59 2493
1094 59 2468
1097 58 2456
1106 58 2457
1096 57 2415
1107 58 2418
1106 57 2397
1098 56 2361
1099 56 2345
1099 55 2326
1114 56 2340
1111 55 2314
1106 55 2287
1111 54 2279
1111 54 2261
1097 53 2215
1100 53 2204
1101 52 2189
1107 52 2185
1116 52 2186
1124 52 2184
1130 52 2180
1128 52 2160
1125 51 2137
1119 51 2111
1131 51 2116
1128 50 2095
1130 50 2084
1132 50 2072
1133 50 2059
1136 49 2048
1138 49 2036
-509 32 889
-492 31 864
-500 32 886
-489 31 872
-489 32 878
-489 32 885
-474 31 864
-471 31 865
-487 32 901
-496 33 925
-606 40 1139
-1071 70 2027
-1105 73 2107
-1095 72 2104
-1087 72 2104
-1084 72 2113
-1075 72 2112
-1064 72 2106
-1058 72 2111
-1049 72 2110
-1044 72 2116
-1032 71 2107
-1025 71 2109
-1021 71 2117
-1012 71 2116
-1005 71 2116
-995 71 2113
-988 71 2115
-979 71 2112
-976 71 2122
-965 70 2116
-958 70 2116
-952 70 2121
-936 70 2101
-920 69 2082
-904 68 2064
-904 69 2081
-902 69 2092
-890 68 2082
-875 68 2063
-878 68 2087
-869 68 2084
-867 68 2098
-854 68 2082
-851 68 2095
-835 67 2071
-832 67 2083
-827 68 2089
-824 68 2099
-816 68 2096
-810 68 2098
-800 67 2092
-794 67 2095
-785 67 2089
-784 67 2105
-774 67 2099
-766 67 2096
-762 67 2104
-742 66 2068
-742 66 2087
-740 67 2099
-729 66 2088
-715 65 2067
-713 66 2082
-712 66 2100
-708 66 2106
-697 66 2094
-700 67 2124
-686 66 2103
-681 66 2109
-676 66 2116
-666 66 2105
-652 65 2080
-641 64 2067
-638 65 2079
-626 64 2060
-630 65 2097
-629 65 2114
-621 65 2112
-616 65 2118
-607 65 2108
-601 65 2111
-598 65 2122
-583 64 2092
-582 65 2113
-581 65 2135
-568 65 2110
-560 64 2104
-557 65 2119
-548 64 2109
-542 64 2112
-540 65 2128
-528 64 2108
-524 64 2118
-522 65 2135
-515 64 2132
-505 64 2120
-498 64 2116
-499 65 2148
-539 71 2351
-662 87 2923
-687 92 3076
-686 93 3113
-676 93 3108
-667 93 3110
-665 93 3146
-653 93 3134
-647 93 3147
-638 93 3152
-630 93 3158
-621 93 3162
-611 93 3160
-604 94 3171
-596 94 3177
-586 93 3176
-576 93 3174
-570 94 3190
-558 93 3179
-553 94 3202
-542 94 3194
-532 93 3190
-524 93 3197
-515 93 3199
-505 93 3195
-496 93 3200
-486 93 3196
-476 93 3195
-467 93 3198
-457 93 3192
-448 93 3194
-440 93 3200
-431 93 3205
-420 92 3191
-413 93 3210
-402 92 3202
-393 92 3205
-384 92 3205
-374 92 3198
-366 92 3211
-355 92 3194
-346 92 3202
-338 92 3206
-329 92 3211
-318 91 3195
-310 92 3208
-301 92 3212
-291 92 3208
-282 92 3210
-273 92 3217
-265 92 3223
-256 92 3237
-365 135 4767
-14 8 235
-16 9 272
-13 8 226
-25 13 419
-9 7 194
-17 10 327
-6 5 150
0 2 31
-251 139 4950
-233 137 4875
-221 138 4912
-212 141 5029
-197 140 5016
-180 139 4952
-163 137 4884
-147 134 4804
-140 141 5057
-4 9 300
-4 10 306
-5 13 426
-4 14 453
-3 13 423
-3 17 560
-1 17 576
0 14 469
1 12 398
3 12 404
4 14 457
5 13 443
6 13 445
7 11 363
10 15 506
8 10 336
9 10 331
11 11 368
10 9 298
13 11 362
14 11 356
16 12 387
15 10 338
19 12 398
17 10 326
18 10 326
19 10 330
18 9 286
20 10 314
17 8 250
28 13 421
21 9 295
27 11 371
30 12 396
28 11 349
37 13 452
36 13 428
25 8 270
15 5 145
12 4 101
17 5 155
13 4 111
17 5 147
16 5 131
19 5 156
19 5 158
40 10 344
49 12 418
60 15 502
46 11 375
64 15 512
50 12 389
63 14 478
40 9 292
40 9 281
44 9 310
28 6 183
26 6 165
13 3 70
730 135 5012
733 133 4932
733 130 4841
738 128 4780
745 127 4732
749 125 4672
754 124 4618
755 122 4540
765 121 4522
775 121 4499
781 119 4455
793 119 4451
784 116 4329
756 110 4107
792 113 4233
0 0 0
0 0 0
0 0 0
161 22 797
119 16 572
99 14 466
124 17 581
108 14 496
117 15 532
131 17 590
101 13 444
143 18 627
113 14 487
122 15 519
142 17 599
129 15 533
179 21 736
152 17 615
110 13 436
104 12 407
79 9 302
60 7 221
22 3 73
1248 128 4803
1272 128 4836
1287 128 4836
1310 129 4866
10 2 24
0 0 0
0 0 0
0 0 0
0 0 0
0 0 0
0 0 0
0 0 0
0 0 0
0 0 0
0 0 0
0 0 0
0 0 0
0 0 0
0 0 0
0 0 0
0 0 0
0 0 0
0 0 0
0 0 0
0 0 0
0 0 0
0 0 0
0 0 0
0 0 0
0 0 0
0 0 0
1033 77 2870
1057 78 2910
1065 77 2906
1064 77 2877
1079 77 2891
1088 77 2889
1101 77 2899
1111 77 2899
1068 74 2762
1074 74 2752
1061 72 2695
1053 71 2652
1064 71 2656
1082 72 2678
1051 69 2580
1037 68 2523
1031 67 2486
1084 69 2592
1053 67 2498
1095 69 2576
1098 69 2562
1074 67 2485
1102 68 2528
1088 66 2475
1104 67 2491
1099 66 2461
1090 65 2420
1089 65 2399
1098 65 2398
1095 64 2373
1119 65 2405
1094 63 2334
1106 63 2340
1109 63 2330
1108 62 2309
1108 62 2289
1098 61 2252
1113 61 2265
1102 60 2226
1103 60 2210
1102 59 2191
1107 59 2185
1117 59 2187
1123 59 2182
1136 59 2190
1129 59 2160
1130 58 2146
1134 58 2138
1125 57 2106
1131 57 2102
1132 57 2088
1137 57 2081
1132 56 2057
1134 56 2044
1136 56 2033
-508 35 887
-503 35 884
-499 35 884
-493 34 880
-494 35 888
-485 34 879
-482 34 880
-475 34 873
-484 35 896
-504 36 939
-601 43 1128
-1069 76 2022
-1106 79 2109
-1099 79 2111
-1092 79 2114
-1082 79 2110
-1073 79 2109
-1066 79 2110
-1056 78 2108
-1052 79 2115
-1040 78 2107
-1036 78 2116
-1031 78 2122
-1021 78 2118
-1010 78 2111
-1001 77 2109
-995 77 2112
-987 77 2112
-983 77 2121
-977 77 2124
-965 77 2116
-958 77 2116
-954 77 2124
-939 76 2109
-906 74 2050
-910 75 2078
-914 76 2102
-891 74 2066
-882 74 2064
-879 74 2073
-877 75 2085
-861 74 2064
-864 75 2091
-854 74 2083
-848 74 2086
-839 74 2083
-834 74 2088
-828 74 2090
-823 74 2095
-815 74 2093
-804 73 2084
-810 75 2119
-793 73 2093
-784 73 2088
-773 73 2077
-767 73 2079
-763 73 2088
-761 73 2100
-750 73 2088
-730 71 2052
-731 72 2076
-730 73 2093
-722 72 2087
-719 73 2099
-711 72 2096
-707 73 2104
-700 72 2103
-695 73 2111
-688 72 2111
-683 72 2115
-675 72 2111
-663 72 2095
-653 71 2086
-642 71 2069
-638 71 2078
-643 72 2116
-631 71 2098
-627 72 2110
-622 72 2113
-615 71 2113
-604 71 2098
-601 71 2111
-599 72 2126
-589 71 2116
-582 71 2112
-576 71 2115
-573 71 2128
-564 71 2119
-554 71 2107
-553 71 2129
-550 71 2142
-537 71 2116
-531 71 2120
-527 71 2128
-521 71 2132
-513 71 2125
-509 71 2135
-502 71 2132
-497 71 2141
-530 76 2312
-655 95 2894
-689 101 3081
-683 101 3096
-672 101 3091
-670 102 3123
-660 102 3121
-652 102 3128
-646 103 3147
-636 102 3141
-631 103 3163
-615 102 3129
-610 102 3154
-603 103 3166
-597 103 3182
-586 103 3173
-577 103 3179
-567 102 3173
-558 103 3179
-550 103 3188
-541 103 3190
-532 103 3190
-524 103 3200
-515 103 3204
-505 103 3201
-496 102 3199
-486 102 3196
-478 103 3207
-468 102 3201
-458 102 3200
-449 102 3204
-439 102 3194
-430 102 3197
-421 102 3202
-411 102 3198
-403 102 3208
-393 102 3200
-383 101 3200
-374 101 3199
-365 101 3199
-356 101 3207
-348 101 3213
-338 101 3206
-328 101 3207
-319 101 3209
-309 101 3198
-301 101 3215
-291 101 3205
-282 101 3211
-273 101 3218
-264 101 3218
-263 104 3318
-360 147 4702
-5 4 106
-16 9 261
-8 6 167
-2 4 75
-5 5 129
0 2 32
0 3 51
1 2 14
-248 152 4903
-234 151 4894
-221 152 4924
2 2 10
0 4 82
-182 154 5003
-164 151 4910
-140 142 4605
-137 152 4947
-124 154 5015
0 4 107
1 3 62
0 6 163
0 9 271
0 11 311
0 10 288
1 10 286
1 12 357
3 17 519
3 11 328
4 9 267
6 13 394
7 12 368
6 8 241
7 10 278
9 11 334
8 9 256
7 6 175
10 9 254
12 10 296
7 5 123
14 10 290
10 7 184
15 10 291
12 7 197
8 5 119
15 8 242
11 6 154
14 7 204
13 6 176
16 8 211
17 7 209
14 6 164
16 7 185
16 6 170
12 5 114
4 2 16
9 3 68
428 147 4901
450 150 4985
465 150 4998
479 150 4986
494 150 4998
3 1 -3
8 3 52
10 3 62
23 6 178
43 12 350
27 7 206
33 9 254
32 8 241
47 12 354
31 8 222
35 8 246
35 8 242
21 5 129
20 5 119
4 1 3
718 147 4933
737 148 4959
735 145 4853
730 141 4728
745 141 4735
748 139 4665
749 136 4582
747 134 4493
759 133 4485
767 132 4450
773 131 4413
781 130 4381
776 127 4280
767 124 4161
779 124 4164
773 121 4067
797 123 4127
0 0 0
0 0 0
0 0 0
95 14 448
92 14 425
87 13 394
91 13 408
97 14 430
74 11 323
74 11 317
106 15 455
116 16 493
110 15 457
90 12 368
103 13 418
115 15 463
110 14 434
132 16 521
104 13 402
96 12 365
1258 145 4898
1264 143 4861
1274 143 4843
1271 141 4776
1301 143 4833
1330 144 4884
0 0 0
0 0 0
0 0 0
0 0 0
0 0 0
0 0 0
0 0 0
0 0 0
0 0 0
0 0 0
0 0 0
0 0 0
0 0 0
0 0 0
0 0 0
0 0 0
0 0 0
0 0 0
0 0 0
0 0 0
0 0 0
0 0 0
0 0 0
0 0 0
0 0 0
0 0 0
1031 85 2866
1050 86 2892
1060 86 2891
1067 86 2884
1064 85 2851
1075 85 2856
1079 84 2840
1065 83 2778
1053 81 2721
1115 85 2856
1102 83 2799
1093 82 2752
1058 79 2639
1048 77 2592
980 72 2403
1015 74 2468
1024 74 2470
1044 75 2497
1090 77 2584
1014 71 2383
1014 71 2365
1060 73 2453
1065 73 2443
1039 71 2364
1086 73 2451
1068 72 2389
1073 71 2382
1080 71 2379
1084 71 2369
1089 71 2359
1094 71 2351
1091 70 2326
1110 71 2349
1102 70 2313
1106 69 2303
1104 69 2281
1103 68 2262
1092 67 2222
1102 67 2224
1098 67 2201
1100 66 2188
1108 66 2187
1117 66 2187
1118 66 2173
1125 66 2170
1134 66 2171
1125 65 2136
1128 65 2127
1128 64 2111
1126 64 2091
1135 64 2093
1138 64 2082
1132 63 2056
1133 62 2042
1132 62 2025
-510 38 890
-508 38 892
-504 38 892
-491 37 876
-479 37 861
-486 37 879
-487 37 889
-467 36 858
-487 38 901
-498 39 929
-597 47 1121
-1073 83 2030
-1106 86 2108
-1100 86 2113
-1093 86 2115
-1082 86 2110
-1078 86 2119
-1066 85 2112
-1058 85 2111
-1053 85 2117
-1046 85 2120
-1032 85 2107
-1026 85 2112
-1020 85 2115
-1013 85 2118
-1001 84 2109
-995 84 2112
-990 84 2118
-983 84 2119
-977 84 2124
-968 84 2122
-960 84 2121
-953 84 2122
-941 83 2112
-926 82 2096
-908 81 2072
-911 82 2097
-893 81 2072
-895 82 2093
-883 81 2083
-876 81 2083
-864 80 2073
-863 81 2087
-856 81 2087
-846 80 2082
-840 80 2085
-829 80 2074
-832 81 2101
-823 80 2096
-822 81 2112
-813 81 2108
-800 80 2092
-795 80 2097
-783 79 2083
-787 80 2113
-774 80 2097
-765 79 2092
-760 79 2097
-743 78 2071
-736 78 2069
-732 78 2076
-731 79 2094
-712 77 2059
-715 78 2088
-711 79 2095
-705 79 2099
-700 79 2103
-688 78 2089
-694 79 2127
-686 79 2123
-673 78 2105
-670 79 2116
-650 77 2074
-643 77 2072
-635 77 2070
-634 77 2086
-625 77 2080
-629 78 2114
-622 78 2113
-618 78 2122
-609 78 2114
-599 77 2105
-598 78 2123
-590 78 2118
-575 76 2089
-573 77 2106
-571 77 2123
-569 78 2138
-560 78 2128
-548 77 2109
-544 77 2120
-538 77 2122
-531 77 2118
-526 77 2124
-518 77 2118
-512 77 2120
-505 76 2117
-503 77 2138
-498 77 2143
-519 81 2262
-640 101 2825
-679 109 3039
-676 109 3065
-664 109 3055
-662 110 3089
-660 111 3120
-654 112 3138
-644 111 3136
-634 111 3134
-632 112 3169
-615 111 3133
-616 113 3182
-606 112 3181
-599 113 3196
-592 113 3209
-580 113 3195
-572 113 3204
-565 113 3220
-561 114 3252
-549 114 3238
-541 114 3246
-529 113 3229
-520 113 3230
-510 113 3230
-501 113 3232
-492 113 3236
-481 113 3228
-471 112 3222
-464 113 3238
-449 112 3205
-439 111 3199
-431 111 3209
-422 111 3211
-413 111 3210
-403 111 3208
-394 111 3214
-385 111 3217
-376 111 3213
-367 111 3220
-356 111 3207
-347 111 3211
-338 111 3212
-328 110 3207
-319 110 3208
-310 110 3208
-301 110 3214
-291 110 3206
-282 110 3212
-272 110 3203
-266 111 3235
-270 116 3405
-362 161 4733
-369 170 5004
-2 3 66
1 2 22
-322 168 4942
-305 167 4909
2 1 -4
-285 171 5046
-268 169 4998
-249 166 4909
-233 165 4886
-222 167 4937
0 3 40
0 4 87
-182 169 5018
-163 165 4886
-138 153 4541
-133 162 4819
-124 169 5013
-110 169 5035
-96 169 5040
0 6 137
0 8 208
0 7 178
1 8 218
1 10 251
2 7 185
2 4 77
3 7 178
3 6 131
5 12 321
4 5 109
4 5 106
5 5 124
5 5 123
8 9 248
4 4 71
3 2 25
5 4 72
8 6 148
5 3 68
4 3 45
4 2 34
4 2 30
4 2 37
11 7 165
9 5 106
9 5 105
8 4 81
5 3 43
6 3 55
12 6 137
14 6 152
3 1 3
395 166 5027
405 164 4966
414 162 4901
430 162 4929
439 160 4866
458 162 4922
466 160 4851
478 159 4828
502 162 4926
514 162 4912
526 161 4887
8 3 47
15 5 104
23 7 170
13 4 82
22 6 159
11 3 61
27 7 187
16 4 100
17 5 103
8 2 35
6 2 22
709 163 4969
718 161 4931
726 160 4887
732 158 4829
732 155 4735
740 154 4698
748 152 4660
740 148 4530
755 148 4539
747 144 4411
751 142 4358
763 142 4351
783 143 4390
782 141 4315
770 136 4179
765 133 4088
784 135 4124
783 132 4054
769 128 3917
788 129 3957
0 0 0
0 0 0
0 0 0
79 13 357
86 14 386
51 8 217
56 9 239
48 8 200
41 7 166
38 6 148
55 8 220
82 12 335
83 12 333
92 13 367
64 9 248
65 9 249
87 12 334
56 8 206
33 5 113
1255 157 4828
1248 154 4744
1288 157 4840
1301 157 4833
0 0 0
0 0 0
0 0 0
0 0 0
0 0 0
0 0 0
0 0 0
0 0 0
0 0 0
0 0 0
0 0 0
0 0 0
0 0 0
0 0 0
0 0 0
0 0 0
0 0 0
0 0 0
0 0 0
0 0 0
0 0 0
0 0 0
0 0 0
0 0 0
0 0 0
0 0 0
0 0 0
1037 94 2881
1056 95 2908
1061 95 2895
1062 94 2870
1072 94 2872
1078 94 2861
1082 93 2847
1088 93 2837
1074 91 2777
1088 91 2788
1064 89 2701
1078 89 2715
1087 89 2712
1075 87 2659
1093 88 2681
1076 86 2618
1035 82 2496
1082 85 2588
1029 80 2440
1050 81 2468
1008 78 2349
1032 79 2386
1060 80 2430
1069 80 2432
1061 79 2394
1063 79 2378
1023 75 2270
1091 80 2402
1074 78 2346
1092 78 2365
1077 77 2314
1093 77 2332
1089 77 2304
1102 77 2313
1104 77 2300
1107 76 2288
1104 75 2264
1095 74 2228
1093 74 2206
1103 74 2209
1104 73 2195
1110 73 2189
1121 73 2194
1122 73 2180
1127 73 2173
1123 72 2149
1122 72 2131
1131 72 2132
1124 71 2103
1127 70 2092
1131 70 2085
1136 70 2079
1132 69 2055
1135 69 2047
1132 69 2025
-510 41 889
-503 41 883
-498 40 882
-492 40 878
-484 40 869
-489 40 886
-482 40 879
-468 39 860
-494 41 915
-495 42 923
-591 50 1110
-1062 89 2009
-1106 93 2108
-1093 92 2100
-1090 93 2109
-1081 92 2108
-1075 92 2111
-1066 92 2111
-1058 92 2111
-1051 92 2113
-1044 92 2116
-1036 92 2114
-1026 91 2112
-1019 91 2112
-1014 91 2119
-1005 91 2117
-996 91 2115
-990 91 2119
-978 90 2109
-971 90 2112
-966 90 2117
-961 90 2122
-952 90 2120
-939 89 2108
-918 88 2077
-905 87 2065
-907 88 2086
-899 88 2086
-893 88 2088
-886 88 2090
-873 87 2077
-869 87 2084
-863 87 2088
-862 88 2102
-848 87 2087
-840 87 2085
-834 87 2086
-823 86 2077
-820 87 2089
-817 87 2099
-808 87 2094
-808 87 2114
-788 86 2080
-787 86 2096
-779 86 2091
-780 87 2115
-767 86 2098
-755 85 2084
-752 86 2096
-741 85 2083
-733 85 2080
-724 84 2075
-719 84 2079
-710 84 2073
-716 86 2111
-706 85 2101
-700 85 2104
-695 85 2109
-690 85 2116
-678 84 2098
-672 84 2101
-669 85 2114
-660 84 2105
-637 82 2055
-635 83 2069
-633 83 2083
-628 83 2090
-624 84 2099
-623 84 2117
-611 83 2099
-610 84 2120
-602 84 2113
-597 84 2120
-586 83 2104
-577 83 2094
-578 84 2125
-569 83 2115
-563 83 2115
-558 84 2122
-550 83 2115
-542 83 2111
-539 83 2125
-530 83 2115
-523 83 2112
-520 83 2129
-515 83 2134
-505 83 2120
-499 83 2120
-496 83 2135
-515 87 2247
-621 106 2744
-676 117 3027
-659 116 2991
-663 118 3049
-660 119 3076
-658 120 3112
-656 121 3147
-646 121 3144
-639 121 3155
-629 121 3156
-621 121 3163
-615 122 3178
-624 125 3275
-603 123 3216
-605 125 3278
-614 129 3379
-623 133 3487
-620 134 3528
-609 134 3527
-623 139 3668
-611 139 3662
-580 134 3539
-564 133 3507
-559 134 3540
-543 132 3503
-548 136 3603
-530 134 3557
-511 132 3494
-472 124 3297
-451 121 3218
-439 120 3196
-431 121 3208
-423 121 3214
-420 123 3270
-430 128 3422
-417 127 3399
-404 126 3374
-395 127 3378
-372 122 3263
-356 120 3210
-345 119 3191
-336 119 3190
-327 119 3200
-317 119 3193
-309 119 3201
-299 119 3196
-291 119 3204
-282 119 3211
-274 120 3229
-275 124 3351
-311 145 3915
-360 174 4708
-355 178 4816
-339 177 4785
-329 179 4841
-304 172 4673
-296 175 4755
-288 179 4852
-279 182 4944
-265 182 4942
-245 178 4840
-234 180 4898
-220 180 4901
0 0 0
-1 5 101
-182 184 5030
-164 180 4908
-139 167 4564
-132 175 4775
-120 178 4859
-107 179 4892
2 2 28
-81 184 5046
2 3 37
1 6 136
2 3 40
-23 183 5017
-9 184 5045
4 181 4991
19 184 5066
33 179 4916
48 184 5062
3 3 52
3 2 31
91 183 5038
4 3 58
120 182 5037
135 182 5026
146 178 4928
163 181 5018
176 179 4966
188 178 4921
208 182 5048
216 177 4914
233 180 4976
250 181 5028
264 180 5006
280 181 5037
294 181 5035
300 176 4889
321 180 5004
333 178 4960
6 3 51
365 180 5007
380 180 5015
395 180 5022
393 173 4821
410 174 4858
422 173 4824
429 170 4748
453 174 4863
468 174 4871
495 179 5001
497 175 4881
510 174 4870
533 177 4951
552 178 4992
571 180 5028
582 179 4999
586 175 4913
614 179 5024
620 177 4956
643 179 5023
657 179 5012
650 173 4855
680 177 4970
694 177 4965
696 174 4876
703 172 4824
723 173 4865
729 171 4809
741 171 4795
744 168 4722
741 164 4619
746 163 4567
760 163 4568
746 157 4405
756 156 4389
763 155 4352
762 152 4272
780 153 4305
764 147 4143
765 145 4085
771 144 4054
780 143 4034
773 140 3940
782 140 3926
752 132 3717
816 141 3976
0 0 0
0 0 0
0 0 0
50 9 216
32 6 127
31 6 123
26 5 98
36 6 140
53 9 213
53 9 211
77 12 308
26 4 93
59 9 226
52 8 196
39 6 142
27 4 93
24 4 80
1248 170 4801
1286 173 4888
1288 171 4840
1317 173 4890
1311 171 4813
0 0 0
0 0 0
0 0 0
0 0 0
0 0 0
0 0 0
0 0 0
0 0 0
0 0 0
0 0 0
0 0 0
0 0 0
0 0 0
0 0 0
0 0 0
0 0 0
0 0 0
0 0 0
0 0 0
0 0 0
0 0 0
0 0 0
0 0 0
0 0 0
0 0 0
0 0 0
1021 101 2837
1064 105 2930
1061 104 2895
1066 103 2883
1077 103 2885
1071 102 2844
1084 102 2852
1082 101 2821
1080 100 2792
1079 99 2764
1081 99 2746
1075 97 2705
1091 98 2723
1083 96 2680
1084 96 2659
1077 94 2619
1065 92 2567
1068 92 2554
1090 93 2585
1106 94 2601
1068 90 2489
1081 90 2499
1095 91 2511
1069 88 2431
1068 87 2409
1038 84 2321
1041 84 2310
1076 86 2368
1078 85 2353
1054 83 2283
1092 85 2348
1067 83 2276
1079 83 2282
1099 84 2307
1102 84 2295
1090 82 2252
1099 82 2254
1097 81 2231
1098 81 2216
1102 81 2208
1108 81 2202
1111 80 2192
1115 80 2183
1128 80 2191
1127 80 2172
1126 79 2155
1129 79 2145
1129 78 2128
1127 78 2108
1132 78 2102
1134 77 2090
1132 77 2071
1134 76 2058
1138 76 2051
1129 75 2021
-507 44 884
-502 43 882
-497 43 880
-494 43 881
-490 43 880
-485 43 878
-481 43 877
-485 43 891
-475 43 878
-516 46 963
-589 53 1106
-1061 95 2008
-1107 100 2110
-1101 100 2114
-1093 99 2114
-1083 99 2112
-1073 99 2108
-1065 99 2109
-1058 99 2111
-1050 98 2110
-1047 99 2121
-1037 98 2117
-1028 98 2116
-1022 98 2118
-1013 98 2117
-1002 97 2111
-996 97 2114
-992 98 2123
-980 97 2114
-975 97 2119
-967 97 2118
-961 97 2123
-957 97 2131
-945 97 2123
-923 95 2088
-909 94 2075
-904 94 2079
-897 94 2082
-889 94 2079
-878 93 2072
-880 94 2093
-869 94 2085
-864 94 2090
-860 94 2097
-847 93 2083
-835 93 2071
-840 94 2102
-832 94 2100
-824 93 2098
-819 93 2104
-807 93 2091
-803 93 2098
-792 92 2088
-788 93 2096
-785 93 2108
-774 92 2098
-768 92 2100
-757 92 2089
-756 92 2106
-736 91 2069
-729 91 2070
-729 91 2088
-715 90 2069
-720 92 2101
-715 92 2109
-708 92 2107
-701 91 2107
-694 91 2107
-689 91 2111
-686 92 2123
-679 92 2123
-671 92 2121
-656 90 2095
-636 88 2051
-633 89 2062
-638 90 2099
-634 91 2111
-623 90 2094
-621 90 2110
-611 90 2100
-610 91 2120
-606 91 2128
-595 90 2112
-587 90 2108
-583 90 2119
-575 90 2112
-571 90 2120
-566 90 2128
-555 89 2112
-552 90 2124
-544 90 2120
-539 90 2125
-533 90 2127
-523 89 2113
-518 89 2121
-512 89 2119
-506 89 2123
-501 89 2128
-496 90 2136
-508 93 2215
-594 109 2624
-641 119 2868
-650 123 2947
-652 125 2997
-658 127 3070
-663 130 3136
-660 131 3166
-651 131 3169
-639 130 3155
-631 131 3162
-619 130 3152
-611 130 3159
-621 134 3263
-630 138 3361
-680 151 3683
-715 161 3936
-683 157 3822
0 0 0
-783 185 4527
-758 182 4459
-787 192 4715
-767 190 4675
-763 193 4735
-745 192 4710
-731 192 4714
-724 193 4759
-715 194 4792
-642 178 4390
-479 136 3345
-450 130 3210
-440 130 3202
-432 130 3212
-422 130 3208
-426 134 3312
-550 176 4370
-542 178 4412
-516 173 4299
-477 164 4080
-397 140 3481
-363 132 3266
-347 129 3206
-338 129 3212
-329 129 3214
-318 129 3202
-310 129 3207
-300 129 3207
-292 129 3215
-282 129 3211
-277 131 3266
-308 150 3750
-363 182 4570
-356 185 4646
-349 189 4735
-331 186 4671
-311 182 4585
-296 181 4557
-288 185 4644
-283 189 4770
-273 192 4846
-257 190 4798
-246 192 4851
-233 193 4881
-221 195 4929
0 0 0
0 0 0
-183 200 5055
-165 195 4940
-138 179 4528
-125 179 4545
-116 185 4682
-106 192 4866
-91 190 4810
-77 189 4793
-65 192 4887
-51 193 4895
-36 190 4837
-22 188 4792
-8 187 4773
5 192 4890
19 192 4896
33 193 4923
47 192 4891
61 192 4909
76 194 4943
90 194 4969
105 195 4980
118 192 4914
134 195 4996
145 191 4894
158 190 4859
171 189 4830
186 189 4843
200 190 4867
212 188 4812
232 193 4947
240 188 4823
259 191 4919
271 190 4875
287 191 4904
307 194 4999
313 189 4868
329 190 4893
339 188 4843
355 189 4870
376 192 4960
381 188 4838
393 187 4812
400 184 4739
414 184 4739
434 186 4808
458 190 4913
473 190 4919
479 187 4840
491 186 4814
512 189 4885
536 192 4973
550 192 4974
565 192 4978
570 189 4896
575 186 4817
587 185 4796
614 189 4907
637 192 4969
639 188 4878
661 190 4933
660 186 4823
689 190 4928
692 187 4846
698 185 4789
711 184 4779
724 184 4773
725 181 4688
740 181 4696
745 179 4640
749 176 4581
755 175 4534
750 170 4425
757 169 4394
765 168 4363
753 162 4219
767 163 4229
773 161 4192
776 159 4143
781 158 4105
766 153 3965
765 150 3899
764 148 3835
757 144 3742
763 143 3716
760 140 3648
757 138 3580
757 136 3530
0 0 0
0 0 0
0 0 0
1102 187 4869
8 2 18
1132 187 4870
1158 189 4919
1153 186 4836
3 1 0
1182 186 4833
16 3 51
1200 184 4785
1236 187 4868
1238 185 4818
1254 185 4823
1262 184 4796
1260 182 4731
1283 183 4762
1317 186 4833
0 0 0
0 0 0
0 0 0
0 0 0
0 0 0
0 0 0
0 0 0
0 0 0
0 0 0
0 0 0
0 0 0
0 0 0
0 0 0
0 0 0
0 0 0
0 0 0
0 0 0
0 0 0
0 0 0
0 0 0
0 0 0
0 0 0
0 0 0
0 0 0
0 0 0
0 0 0
1037 112 2880
1051 112 2892
1064 113 2901
1071 112 2895
1080 112 2892
1083 112 2875
1084 111 2851
1067 108 2780
1083 109 2799
1079 108 2762
1076 106 2732
1091 107 2747
1083 105 2701
1097 106 2715
1087 104 2666
1073 102 2609
1084 102 2614
1082 101 2587
1090 101 2585
1071 99 2517
1081 99 2521
1078 98 2492
1094 98 2508
1056 94 2402
1068 95 2409
1057 93 2364
1073 94 2381
1078 93 2374
1081 93 2359
1083 92 2346
1115 94 2396
1029 87 2193
1111 93 2349
1097 91 2302
1089 90 2268
1097 90 2265
1108 90 2271
1095 88 2227
1090 87 2200
1098 87 2198
1104 87 2194
1110 87 2189
1117 87 2186
1123 87 2181
1132 87 2181
1126 86 2154
1133 86 2150
1125 85 2120
1128 85 2110
1123 84 2084
1131 84 2083
1130 83 2067
1139 83 2068
1129 82 2034
1135 82 2031
-504 46 879
-502 46 881
-497 46 881
-490 46 875
-493 46 885
-487 46 881
-478 45 871
-471 45 864
-481 46 889
-485 47 904
-584 56 1097
-1061 101 2007
-1107 106 2110
-1101 106 2114
-1090 106 2109
-1085 106 2116
-1073 106 2108
-1064 105 2107
-1060 106 2115
-1054 105 2119
-1042 105 2110
-1033 105 2109
-1028 105 2114
-1018 104 2111
-1011 104 2113
-1005 104 2117
-996 104 2113
-990 104 2119
-983 104 2120
-976 104 2122
-966 103 2118
-963 104 2127
-954 103 2123
-936 102 2102
-909 100 2057
-912 101 2080
-908 101 2088
-897 101 2080
-889 100 2079
-890 101 2099
-873 100 2076
-864 100 2073
-864 100 2090
-851 99 2077
-852 100 2095
-830 98 2059
-828 99 2073
-828 99 2089
-817 99 2080
-816 100 2096
-805 99 2086
-802 99 2098
-794 99 2095
-792 100 2108
-782 99 2100
-776 99 2103
-763 98 2086
-765 99 2110
-749 98 2086
-741 98 2082
-741 98 2102
-724 97 2074
-720 97 2082
-716 97 2091
-713 98 2101
-708 98 2107
-693 97 2082
-696 98 2113
-690 98 2116
-684 98 2117
-673 97 2106
-670 98 2117
-655 96 2090
-639 95 2060
-633 95 2063
-634 96 2088
-630 96 2097
-626 97 2106
-620 97 2108
-615 97 2114
-612 97 2124
-601 96 2109
-592 96 2103
-586 96 2105
-580 96 2104
-574 96 2109
-573 97 2127
-565 96 2123
-555 96 2111
-549 96 2112
-545 96 2122
-538 96 2122
-533 96 2127
-525 96 2122
-518 95 2121
-514 96 2130
-508 96 2130
-502 96 2131
-498 96 2142
-501 98 2187
-582 115 2569
-610 122 2730
-639 129 2898
-635 130 2920
-659 137 3073
-660 139 3123
-653 139 3135
-646 139 3145
-638 139 3151
-628 139 3147
-625 140 3180
-653 149 3377
-699 162 3669
-809 190 4313
-827 197 4480
-768 186 4229
-623 153 3486
-636 159 3621
-796 202 4607
-778 200 4577
-796 208 4769
-779 207 4748
-770 209 4784
-756 208 4784
-744 209 4796
-732 209 4806
-717 209 4804
-656 195 4483
-480 146 3355
-451 140 3217
-440 139 3205
-431 139 3204
-424 140 3228
-428 144 3329
-572 196 4544
-574 202 4666
-549 198 4578
-535 197 4568
-479 181 4200
-400 156 3602
-366 146 3383
-346 142 3288
-330 139 3229
-320 139 3216
-312 139 3237
-305 140 3260
-294 139 3240
-289 142 3295
-302 152 3552
-372 194 4522
-363 196 4577
-357 199 4660
-346 201 4699
-325 196 4600
-311 195 4577
-292 192 4503
-285 196 4597
-279 201 4719
-268 203 4761
-253 202 4737
-243 205 4810
-233 207 4881
-220 208 4906
0 0 0
0 0 0
-183 214 5055
-165 209 4939
-130 182 4288
-122 187 4421
-112 193 4557
-102 199 4700
-89 199 4700
-75 198 4691
-62 200 4731
-48 197 4660
-35 198 4692
-22 200 4743
-8 201 4755
5 201 4758
18 196 4642
33 206 4882
46 202 4800
60 203 4817
74 204 4848
86 199 4733
101 201 4784
118 206 4907
129 202 4806
140 198 4726
154 199 4738
171 203 4835
186 203 4846
199 202 4817
208 197 4710
225 200 4780
234 196 4689
258 204 4888
266 200 4784
281 201 4807
295 201 4800
303 197 4707
323 200 4801
334 199 4762
347 198 4757
361 198 4756
373 197 4736
374 191 4576
392 193 4639
415 198 4746
424 196 4696
445 199 4771
466 202 4845
472 198 4766
477 195 4680
485 192 4623
511 197 4744
537 202 4851
539 197 4744
550 196 4718
564 196 4724
574 195 4691
597 198 4763
619 201 4833
629 199 4799
644 199 4803
663 201 4843
673 199 4808
682 198 4772
687 195 4710
694 193 4665
714 195 4707
721 193 4664
727 191 4616
736 190 4584
739 187 4521
755 188 4534
752 184 4439
756 182 4383
756 178 4310
760 176 4259
773 176 4262
772 173 4190
768 170 4101
772 168 4054
769 165 3979
762 161 3882
759 158 3805
756 155 3735
756 152 3681
762 151 3656
766 150 3624
774 149 3607
775 148 3563
746 140 3383
761 141 3401
0 0 0
0 0 0
0 0 0
1126 198 4782
1145 198 4799
1132 194 4687
1185 200 4841
6 2 9
1202 198 4791
1237 201 4872
1214 195 4725
1227 195 4717
1249 196 4746
1266 197 4753
1261 194 4679
0 0 0
0 0 0
0 0 0
0 0 0
0 0 0
0 0 0
0 0 0
0 0 0
0 0 0
0 0 0
0 0 0
0 0 0
0 0 0
0 0 0
0 0 0
0 0 0
0 0 0
0 0 0
971 122 2938
0 0 0
0 0 0
1016 124 2986
1017 124 2961
1070 129 3086
0 0 0
0 0 0
0 0 0
1020 118 2834
1060 122 2919
1061 121 2894
1064 120 2876
1085 122 2905
1080 120 2865
1078 119 2836
1065 116 2776
1081 117 2792
1092 117 2796
1082 115 2747
1091 115 2745
1075 113 2683
1094 114 2707
1089 112 2669
1078 110 2621
1078 110 2599
1102 111 2633
1100 110 2606
1078 107 2533
1090 107 2540
1099 107 2541
1093 106 2507
1087 105 2470
1078 103 2432
1095 104 2450
1086 102 2409
1107 103 2437
1048 97 2288
1092 101 2365
1073 98 2306
1062 96 2262
1081 98 2287
1087 97 2280
1098 98 2285
1099 97 2270
1097 96 2247
1076 94 2187
1099 95 2218
1105 95 2213
1103 94 2191
1106 94 2180
1121 94 2194
1125 94 2184
1125 93 2168
1127 93 2156
1125 92 2136
1126 92 2122
1130 91 2113
1133 91 2103
1130 90 2082
1133 90 2072
1134 89 2058
1132 89 2040
1135 88 2029
-502 49 875
-497 49 873
-495 49 877
-494 49 880
-495 49 889
-481 48 871
-477 48 869
-476 48 873
-482 49 893
-497 51 927
-579 59 1087
-1056 107 1998
-1100 112 2096
-1100 113 2112
-1091 113 2112
-1082 112 2109
-1078 113 2117
-1065 112 2109
-1058 112 2110
-1052 112 2116
-1045 112 2116
-1035 112 2114
-1026 111 2110
-1020 111 2115
-1014 111 2119
-1008 111 2123
-999 111 2121
-991 111 2121
-983 111 2119
-974 110 2117
-967 110 2119
-961 110 2122
-955 110 2126
-938 109 2105
-916 107 2073
-915 108 2088
-913 108 2100
-897 107 2081
-883 106 2064
-882 107 2079
-871 106 2070
-867 106 2079
-865 107 2093
-860 107 2097
-851 107 2094
-834 105 2069
-833 106 2085
-824 105 2079
-817 105 2079
-818 106 2100
-809 106 2097
-796 105 2082
-795 106 2098
-783 105 2084
-780 105 2095
-770 105 2087
-773 106 2113
-758 105 2091
-746 104 2079
-738 103 2075
-725 103 2058
-721 103 2065
-724 104 2094
-710 103 2074
-714 104 2105
-708 104 2108
-703 104 2112
-696 104 2113
-689 104 2113
-684 104 2117
-676 104 2113
-671 104 2119
-657 103 2097
-640 101 2063
-633 101 2061
-637 103 2096
-628 102 2088
-627 103 2107
-622 103 2114
-618 103 2124
-606 102 2106
-606 103 2127
-590 102 2094
-589 103 2115
-581 102 2111
-577 103 2120
-572 103 2123
-567 103 2130
-558 102 2121
-553 103 2127
-546 102 2127
-542 103 2135
-531 102 2118
-526 102 2126
-521 102 2132
-516 102 2138
-506 102 2123
-501 102 2130
-494 102 2128
-501 104 2186
-555 117 2450
-581 124 2603
-594 128 2695
-641 140 2947
-657 145 3063
-660 148 3124
-651 148 3124
-647 149 3152
-641 149 3167
-636 150 3191
-664 159 3378
-739 179 3817
-840 207 4405
-871 218 4643
-844 214 4571
-729 188 4015
-593 156 3324
-618 165 3519
-782 211 4527
-794 218 4672
-791 221 4739
-791 225 4826
-777 225 4826
-767 226 4854
-753 225 4852
-738 225 4847
-723 225 4846
-684 217 4672
-493 160 3440
-452 150 3226
-439 148 3200
-432 149 3214
-424 149 3223
-437 157 3402
-588 216 4676
-585 219 4757
-568 218 4731
-548 215 4678
-534 215 4673
-509 210 4571
-457 194 4217
-364 159 3456
-326 147 3184
-320 148 3221
-329 157 3408
-313 154 3343
-307 155 3384
-294 153 3345
-343 184 4028
-384 213 4664
-372 214 4689
-359 214 4690
-341 212 4635
-328 211 4637
-314 211 4622
-296 207 4551
-283 208 4563
-274 211 4628
-262 211 4649
-247 210 4616
-241 216 4762
-230 219 4829
-215 217 4792
0 0 0
0 0 0
-180 225 4968
-163 221 4884
-128 191 4211
-116 191 4217
-112 206 4549
-101 209 4625
-87 208 4597
-74 209 4625
-61 208 4603
-49 214 4735
-34 210 4657
-21 212 4704
-8 212 4696
5 213 4725
18 214 4763
32 216 4802
46 215 4782
60 215 4786
74 216 4816
88 216 4818
102 218 4851
116 216 4817
128 214 4767
141 213 4744
157 215 4806
171 215 4807
182 212 4736
195 211 4722
207 210 4680
221 210 4696
233 209 4677
248 210 4697
263 211 4720
276 211 4713
285 207 4643
302 209 4687
318 211 4728
328 209 4679
341 209 4675
359 211 4733
374 212 4751
381 208 4669
384 202 4540
409 208 4672
412 203 4553
436 208 4673
447 207 4643
454 204 4582
478 209 4688
491 208 4676
504 208 4674
519 208 4686
534 209 4701
545 208 4674
547 203 4575
575 209 4697
597 212 4767
602 208 4692
626 212 4774
638 211 4758
649 210 4734
660 209 4718
670 208 4692
676 206 4638
691 206 4644
695 203 4581
707 203 4573
725 204 4602
737 204 4592
740 201 4527
742 197 4454
749 196 4417
745 192 4321
755 191 4304
760 189 4257
759 185 4181
758 182 4109
754 178 4025
759 177 3986
757 174 3913
766 173 3900
764 170 3832
764 167 3775
768 166 3736
765 163 3668
765 161 3619
761 157 3548
764 156 3509
758 152 3436
749 149 3349
773 151 3409
773 149 3363
785 150 3370
0 0 0
0 0 0
0 0 0
1100 199 4494
1138 203 4592
1138 201 4535
1189 207 4682
1181 204 4595
1200 204 4613
1200 202 4556
1222 203 4589
1237 203 4589
1264 206 4637
0 0 0
0 0 0
0 0 0
0 0 0
0 0 0
0 0 0
0 0 0
0 0 0
0 0 0
0 0 0
0 0 0
0 0 0
0 0 0
0 0 0
0 0 0
0 0 0
0 0 0
0 0 0
0 0 0
0 0 0
1025 135 3014
1043 136 3035
1022 132 2946
0 0 0
0 0 0
0 0 0
1024 127 2843
1050 130 2889
1061 130 2892
1064 129 2875
1081 130 2893
1073 128 2846
1082 128 2846
1079 126 2812
1079 125 2788
1089 126 2789
1073 123 2723
1085 123 2731
1076 121 2684
1084 121 2681
1076 119 2638
1085 119 2638
1085 118 2615
1099 119 2627
1087 117 2577
1094 116 2570
1085 115 2528
1092 115 2525
1092 114 2503
1099 114 2498
1096 112 2472
1102 112 2464
1101 111 2442
1087 109 2391
1103 110 2408
1113 110 2410
1092 107 2347
1104 108 2353
1096 106 2317
1104 106 2316
1101 105 2292
1095 104 2261
1081 102 2215
1088 102 2213
1102 102 2223
1105 102 2211
1105 101 2194
1111 101 2191
1118 101 2187
1124 101 2182
1127 100 2171
1130 100 2161
1117 98 2120
1127 99 2123
1126 98 2105
1130 98 2097
1130 97 2081
1124 96 2055
1130 96 2051
1131 95 2038
1135 95 2029
-508 52 886
-496 51 871
-496 52 879
-495 52 882
-496 52 891
-479 51 867
-478 51 872
-474 51 871
-482 52 892
-492 53 916
-578 63 1086
-1054 114 1993
-1107 120 2109
-1100 120 2112
-1090 119 2108
-1085 120 2116
-1077 119 2116
-1068 119 2114
-1061 119 2117
-1052 119 2115
-1044 118 2115
-1036 118 2116
-1028 118 2115
-1020 118 2115
-1015 118 2120
-1007 118 2120
-998 117 2118
-987 117 2110
-982 117 2117
-974 117 2116
-965 117 2115
-959 117 2118
-956 117 2129
-938 115 2105
-913 113 2067
-913 114 2082
-894 112 2055
-893 113 2070
-890 113 2082
-878 113 2071
-873 113 2077
-871 113 2088
-861 113 2081
-853 112 2081
-848 113 2087
-838 112 2080
-836 113 2092
-837 114 2113
-818 112 2082
-817 112 2099
-805 112 2087
-806 113 2108
-794 112 2095
-787 112 2095
-780 111 2093
-775 112 2099
-771 112 2109
-761 111 2100
-751 111 2092
-726 108 2040
-722 108 2049
-722 109 2068
-725 110 2097
-714 110 2085
-705 109 2078
-710 111 2114
-701 110 2105
-687 109 2084
-687 110 2105
-687 111 2127
-675 110 2110
-669 110 2115
-649 108 2072
-630 106 2033
-635 108 2069
-635 109 2091
-627 108 2087
-617 107 2073
-620 109 2106
-613 109 2106
-609 109 2114
-602 109 2114
-597 109 2120
-585 108 2100
-584 109 2122
-581 110 2133
-573 109 2128
-563 109 2117
-555 108 2111
-553 109 2127
-546 109 2125
-539 109 2124
-531 108 2117
-524 108 2116
-522 109 2135
-514 108 2128
-505 108 2119
-499 108 2121
-495 108 2133
-506 112 2207
-565 126 2495
-579 131 2592
-627 143 2843
-654 152 3009
-653 153 3048
-673 160 3181
-652 157 3131
-650 159 3164
-639 158 3158
-655 164 3285
-728 185 3702
-837 216 4325
-866 226 4543
-871 231 4638
-860 232 4655
-764 209 4205
-601 167 3363
-630 178 3587
-777 223 4495
-800 233 4708
-806 239 4828
-801 242 4886
-785 241 4873
-769 240 4861
-757 241 4882
-744 241 4885
-725 239 4858
-698 235 4772
-515 178 3599
-454 160 3235
-440 158 3206
-432 158 3213
-422 158 3213
-440 169 3426
-597 233 4741
-584 233 4747
-571 233 4760
-553 231 4719
-543 233 4755
-527 232 4739
-496 224 4578
-385 179 3655
