VERSION 0.7
FIELDS x y z
SIZE 4 4 4
TYPE I I I
COUNT 1 1 1
WIDTH 3629
HEIGHT 1
VIEWPOINT 0.0 0.0 0.0 1.0 0.0 0.0 0.0
POINTS 3629
DATA ascii
1098 -196 2398
1087 -193 2354
1092 -193 2347
1111 -195 2369
1120 -195 2369
1094 -189 2296
1102 -189 2294
1113 -190 2299
1112 -189 2279
1111 -187 2258
1098 -184 2216
1099 -183 2201
1103 -183 2191
1101 -181 2170
1111 -182 2174
1113 -181 2161
1122 -182 2163
1118 -180 2138
1114 -178 2114
1115 -177 2100
1112 -176 2079
1115 -175 2069
1113 -174 2049
1120 -174 2048
1118 -173 2029
1121 -172 2019
1123 -172 2008
-484 -62 841
-472 -61 826
-476 -62 840
-475 -62 844
-470 -62 842
-463 -61 835
-475 -63 863
-464 -62 848
-489 -66 902
-485 -66 902
-481 -65 900
-502 -69 946
-784 -109 1489
-1090 -153 2086
-1087 -154 2096
-1083 -154 2105
-1070 -153 2095
-1063 -153 2097
-1053 -153 2094
-1045 -153 2094
-1041 -153 2102
-1031 -153 2098
-1024 -153 2100
-1015 -152 2097
-1009 -152 2100
-1002 -152 2102
-992 -152 2099
-986 -152 2102
-977 -152 2100
-970 -152 2101
-964 -152 2104
-959 -152 2110
-953 -152 2115
-939 -151 2101
-921 -149 2076
-912 -149 2074
-899 -148 2061
-905 -150 2091
-889 -148 2072
-891 -150 2093
-872 -148 2067
-857 -146 2049
-858 -148 2068
-861 -149 2091
-855 -149 2095
-836 -147 2065
-835 -148 2081
-818 -146 2057
-800 -144 2029
-810 -147 2073
-806 -148 2081
-787 -145 2050
-777 -145 2041
-781 -147 2071
-786 -149 2103
-773 -148 2087
-768 -148 2093
-751 -146 2065
-736 -144 2044
-713 -141 1998
-710 -141 2006
-720 -145 2055
-718 -146 2069
-708 -145 2059
-714 -148 2097
-703 -147 2084
-695 -146 2080
-689 -146 2083
-689 -148 2105
-673 -146 2077
-669 -146 2082
-663 -146 2087
-652 -145 2073
-654 -147 2100
-644 -146 2091
-636 -146 2085
-625 -145 2072
-618 -145 2070
-620 -147 2098
-617 -148 2112
-611 -148 2112
-603 -147 2107
-596 -147 2109
-586 -146 2094
-577 -146 2087
-569 -145 2079
-571 -147 2111
-563 -147 2107
-559 -147 2115
-548 -146 2099
-544 -147 2110
-540 -147 2119
-531 -147 2110
-523 -146 2102
-516 -146 2101
-510 -146 2102
-505 -146 2108
-500 -147 2116
-492 -146 2107
-490 -148 2128
-473 -144 2079
-459 -142 2045
-421 -132 1902
-413 -131 1894
-420 -136 1955
-381 -124 1796
-398 -132 1903
-388 -130 1882
-384 -131 1894
-376 -130 1882
-363 -128 1842
-347 -124 1788
-300 -109 1574
-283 -104 1510
-259 -97 1403
0 0 0
0 0 0
-691 -272 3909
-706 -283 4061
-712 -290 4165
-792 -329 4714
-821 -347 4977
-807 -347 4976
-793 -347 4982
-779 -348 4986
-765 -348 4989
-750 -348 4992
-735 -348 4989
1 1 1
-13 -6 110
-12 -6 108
-1 0 29
-8 -4 76
-7 -3 71
-4 -2 54
-14 -8 136
-49 -28 424
-52 -30 457
-64 -39 575
-86 -54 789
-102 -65 955
-106 -70 1015
-114 -77 1121
-120 -83 1210
-136 -97 1407
-233 -172 2476
0 0 0
-54 -43 636
-43 -35 527
-47 -40 597
-59 -52 760
-84 -76 1108
-85 -80 1170
-82 -81 1176
-82 -84 1225
-79 -85 1238
-77 -86 1251
-74 -88 1273
-67 -83 1206
-63 -83 1203
-58 -81 1171
-58 -85 1235
-54 -85 1239
-52 -87 1262
-45 -81 1180
-42 -83 1202
-38 -82 1193
-39 -92 1331
-33 -85 1234
-30 -87 1260
-26 -88 1270
-22 -86 1250
-19 -86 1246
-15 -85 1228
-12 -87 1255
-8 -89 1287
-4 -85 1229
-1 -89 1288
2 -82 1185
6 -87 1249
9 -86 1237
13 -86 1245
17 -93 1339
20 -85 1227
24 -88 1269
26 -83 1194
29 -82 1178
36 -91 1302
38 -87 1251
41 -84 1216
47 -90 1299
50 -90 1292
52 -87 1244
58 -90 1298
60 -87 1248
70 -96 1380
69 -90 1285
73 -90 1286
73 -86 1228
76 -85 1218
84 -90 1288
85 -87 1251
90 -89 1274
96 -91 1307
99 -90 1291
109 -96 1374
105 -89 1266
0 0 0
0 0 0
361 -285 4019
0 0 0
0 0 0
0 0 0
344 -241 3386
342 -233 3273
361 -239 3362
328 -212 2977
349 -219 3082
355 -218 3057
361 -216 3028
370 -216 3036
396 -226 3170
395 -221 3092
389 -212 2976
374 -199 2795
393 -205 2872
410 -210 2932
420 -210 2942
433 -213 2977
442 -213 2974
444 -210 2933
453 -210 2935
446 -203 2837
435 -194 2709
442 -194 2705
443 -191 2666
456 -194 2695
464 -193 2691
471 -194 2690
471 -190 2641
424 -168 2337
355 -138 1923
345 -132 1836
347 -131 1818
353 -131 1823
358 -131 1818
348 -125 1742
358 -127 1763
363 -127 1764
379 -131 1817
352 -120 1661
288 -96 1334
238 -78 1085
250 -81 1125
240 -76 1063
244 -77 1068
188 -58 809
138 -41 581
133 -39 552
0 0 0
0 0 0
87 -24 343
44 -10 162
0 0 0
89 -23 337
0 0 0
47 -11 167
2 1 -4
1288 -358 4847
1307 -359 4859
62 -14 214
0 0 0
0 0 0
0 0 0
0 0 0
0 0 0
1052 -268 3611
1013 -256 3440
1029 -257 3457
1033 -256 3433
1062 -261 3495
0 0 0
0 0 0
995 -237 3171
1053 -249 3322
0 0 0
0 0 0
0 0 0
0 0 0
0 0 0
0 0 0
0 0 0
0 0 0
1029 -225 2971
0 0 0
0 0 0
0 0 0
0 0 0
1035 -217 2852
1053 -219 2875
1061 -219 2870
1077 -220 2886
1080 -219 2869
1087 -219 2861
1078 -215 2813
1089 -216 2815
1076 -212 2758
1090 -213 2769
1105 -214 2783
1086 -209 2710
1099 -210 2721
1081 -205 2652
1093 -206 2659
1083 -202 2611
1076 -199 2573
1091 -201 2587
1087 -199 2556
1093 -198 2549
1098 -198 2539
1097 -196 2517
1104 -196 2511
1097 -194 2475
1090 -191 2439
1114 -194 2472
1107 -192 2437
1105 -190 2413
1105 -189 2394
1106 -188 2376
1116 -188 2380
1109 -186 2346
1101 -183 2311
1106 -183 2303
1107 -182 2287
1105 -180 2265
1101 -179 2238
1099 -177 2217
1096 -176 2194
1096 -175 2177
1098 -174 2164
1105 -174 2162
1112 -174 2160
1116 -174 2151
1120 -173 2142
1111 -171 2109
1111 -170 2093
1114 -169 2083
1105 -167 2051
1103 -166 2032
1110 -166 2029
1113 -165 2020
1113 -164 2004
1113 -164 1991
-482 -59 839
-477 -59 835
-474 -59 837
-470 -58 835
-469 -59 839
-474 -60 855
-475 -60 864
-474 -60 867
-480 -62 885
-481 -62 894
-476 -62 890
-507 -67 957
-799 -106 1518
-1091 -147 2088
-1081 -146 2085
-1082 -147 2102
-1072 -147 2099
-1065 -147 2102
-1056 -147 2099
-1050 -147 2103
-1036 -146 2092
-1032 -146 2099
-1025 -146 2101
-1016 -146 2100
-1006 -145 2095
-1002 -146 2104
-995 -146 2104
-988 -146 2106
-980 -146 2106
-972 -145 2106
-963 -145 2103
-958 -145 2109
-951 -145 2111
-942 -145 2108
-923 -143 2082
-912 -142 2073
-900 -142 2064
-894 -142 2068
-884 -141 2061
-884 -142 2077
-872 -141 2067
-861 -141 2057
-869 -143 2094
-858 -142 2086
-849 -142 2081
-838 -141 2071
-832 -141 2074
-821 -141 2066
-813 -140 2063
-813 -141 2080
-797 -140 2059
-776 -137 2022
-765 -136 2012
-786 -141 2085
-790 -143 2114
-776 -142 2095
-764 -141 2083
-746 -139 2051
-732 -137 2032
-737 -139 2066
-727 -139 2056
-717 -138 2048
-725 -141 2090
-719 -141 2092
-710 -140 2085
-711 -142 2107
-701 -141 2100
-692 -141 2093
-674 -138 2058
-678 -140 2091
-667 -139 2078
-666 -141 2096
-651 -139 2069
-652 -140 2095
-650 -141 2109
-640 -141 2098
-631 -140 2093
-616 -138 2064
-619 -140 2095
-619 -142 2119
-604 -140 2090
-601 -140 2100
-592 -140 2092
-583 -139 2085
-583 -141 2109
-574 -140 2098
-570 -141 2109
-564 -141 2110
-560 -141 2119
-553 -141 2117
-541 -140 2096
-538 -141 2110
-531 -141 2111
-526 -141 2114
-517 -140 2106
-511 -140 2106
-508 -141 2121
-493 -139 2087
-492 -140 2106
-487 -141 2115
-472 -138 2078
-444 -132 1980
-424 -127 1919
-431 -131 1976
-389 -120 1812
-392 -123 1849
-395 -125 1891
-354 -114 1720
-355 -116 1750
-386 -128 1929
-382 -129 1940
-374 -128 1929
-331 -115 1735
-292 -103 1554
0 0 0
0 0 0
0 0 0
-693 -262 3923
-709 -272 4078
-716 -280 4192
-792 -315 4717
2 1 -2
-810 -334 4998
-792 -333 4979
-780 -334 4996
-765 -334 4996
-748 -333 4980
-735 -333 4987
2 1 -4
-8 -3 75
-8 -3 77
-7 -3 68
-5 -2 59
-7 -3 70
-7 -3 77
-19 -10 175
-38 -21 335
-43 -24 385
-52 -30 476
-82 -49 754
-95 -58 887
-96 -60 922
-80 -52 798
-87 -58 883
-65 -45 689
0 0 0
-20 -15 251
-53 -40 622
-65 -51 782
-85 -69 1053
-95 -80 1213
-92 -80 1215
-87 -79 1197
-87 -82 1247
-83 -82 1237
-77 -79 1204
-74 -80 1215
-75 -85 1290
-72 -85 1291
-65 -82 1236
-58 -77 1169
-60 -85 1280
-52 -79 1190
-49 -80 1204
-47 -82 1239
-45 -84 1268
-39 -80 1209
-36 -82 1233
-32 -81 1228
-29 -80 1213
-24 -78 1178
-23 -85 1280
-19 -84 1274
-15 -82 1244
-12 -86 1291
-6 -70 1062
-3 -74 1112
0 -68 1034
2 -71 1075
5 -69 1046
8 -63 950
11 -71 1066
16 -79 1192
20 -81 1220
23 -83 1241
27 -81 1220
31 -85 1279
36 -88 1318
38 -83 1245
42 -83 1251
46 -85 1273
48 -82 1237
51 -81 1213
60 -89 1333
62 -87 1298
64 -85 1268
67 -84 1256
67 -79 1184
71 -80 1199
76 -81 1219
84 -86 1291
91 -90 1345
91 -86 1277
91 -83 1232
95 -83 1234
98 -83 1235
101 -82 1219
0 0 0
350 -275 4035
342 -259 3810
0 0 0
0 0 0
0 0 0
0 0 0
357 -233 3420
346 -220 3223
352 -218 3194
329 -198 2907
349 -205 3008
367 -211 3084
373 -209 3058
391 -214 3126
405 -217 3165
389 -203 2970
379 -194 2831
394 -197 2881
410 -201 2935
417 -201 2928
427 -201 2931
438 -202 2947
448 -203 2958
450 -200 2916
442 -193 2808
436 -187 2717
440 -186 2696
441 -182 2648
458 -187 2706
463 -185 2687
473 -187 2702
467 -181 2621
422 -161 2326
353 -132 1911
341 -125 1816
345 -125 1810
350 -125 1804
348 -122 1766
350 -121 1753
353 -120 1741
373 -126 1813
370 -123 1771
367 -120 1730
264 -84 1222
231 -72 1054
236 -73 1063
222 -68 983
247 -75 1080
178 -52 766
0 0 0
144 -41 598
138 -38 565
0 0 0
0 0 0
104 -27 409
128 -34 497
0 0 0
0 0 0
28 -5 93
3 1 -2
1292 -345 4863
1276 -337 4746
5 0 4
0 0 0
0 0 0
0 0 0
0 0 0
0 0 0
1084 -266 3722
1008 -244 3422
1020 -245 3429
1030 -245 3425
1048 -247 3447
0 0 0
0 0 0
1048 -240 3342
1044 -237 3295
0 0 0
0 0 0
0 0 0
0 0 0
0 0 0
0 0 0
0 0 0
0 0 0
0 0 0
0 0 0
0 0 0
0 0 0
0 0 0
1048 -211 2887
1053 -210 2874
1069 -211 2890
1075 -211 2882
1088 -212 2890
1085 -210 2857
1086 -208 2832
1089 -207 2817
1087 -205 2785
1078 -202 2739
1085 -202 2732
1089 -201 2719
1104 -202 2733
1095 -199 2687
1095 -198 2663
1092 -196 2635
1106 -197 2646
1089 -192 2583
1103 -194 2594
1113 -194 2597
1094 -189 2531
1093 -188 2507
1092 -186 2484
1109 -188 2502
1103 -186 2469
1099 -184 2439
1105 -184 2433
1102 -182 2407
1113 -183 2412
1102 -179 2368
1107 -179 2361
1108 -178 2343
1111 -178 2331
1094 -174 2278
1096 -173 2265
1086 -170 2226
1092 -170 2221
1090 -169 2200
1080 -166 2163
1093 -167 2172
1090 -166 2150
1106 -167 2164
1110 -167 2156
1104 -165 2129
1105 -164 2113
1094 -162 2078
1103 -162 2078
1096 -160 2050
1100 -160 2042
1095 -158 2017
1106 -159 2022
1107 -158 2009
1098 -156 1978
1107 -156 1979
-488 -57 849
-478 -56 837
-473 -56 834
-485 -58 862
-476 -57 853
-472 -57 851
-465 -56 846
-465 -57 852
-475 -58 876
-485 -60 902
-476 -59 891
-511 -64 964
-821 -104 1561
-1093 -140 2093
-1087 -140 2097
-1079 -140 2098
-1068 -140 2092
-1066 -140 2105
-1054 -140 2095
-1048 -140 2101
-1042 -140 2104
-1033 -140 2103
-1025 -140 2102
-1013 -139 2094
-1007 -139 2097
-1001 -139 2102
-990 -139 2095
-988 -139 2107
-977 -139 2101
-972 -139 2106
-962 -138 2102
-957 -139 2108
-954 -139 2117
-937 -138 2098
-914 -135 2062
-915 -137 2082
-907 -136 2080
-902 -137 2085
-889 -136 2072
-882 -136 2074
-877 -136 2079
-875 -136 2092
-870 -137 2096
-861 -136 2092
-851 -136 2086
-843 -136 2085
-834 -135 2081
-827 -135 2082
-802 -132 2036
-817 -136 2092
-807 -135 2083
-771 -130 2008
-786 -134 2067
-788 -135 2092
-780 -135 2089
-775 -135 2093
-763 -134 2079
-753 -134 2071
-734 -131 2039
-726 -131 2035
-724 -132 2047
-723 -133 2064
-725 -134 2089
-719 -135 2091
-712 -134 2091
-709 -135 2103
-698 -134 2091
-697 -135 2109
-684 -134 2091
-678 -134 2090
-664 -133 2069
-651 -131 2050
-662 -135 2104
-650 -134 2089
-648 -135 2102
-636 -133 2085
-624 -132 2070
-617 -132 2066
-617 -133 2088
-614 -134 2103
-603 -133 2085
-595 -133 2081
-594 -134 2100
-581 -132 2076
-578 -133 2091
-573 -134 2097
-571 -135 2113
-564 -135 2111
-557 -134 2109
-552 -135 2115
-544 -134 2112
-542 -136 2129
-536 -136 2130
-525 -134 2110
-518 -134 2110
-508 -133 2097
-506 -134 2114
-499 -134 2110
-492 -134 2110
-488 -135 2120
-476 -133 2094
-414 -117 1850
-411 -118 1862
-403 -117 1850
-391 -115 1818
-387 -116 1828
-392 -119 1875
-381 -117 1851
-361 -113 1778
-374 -119 1871
-389 -125 1973
-356 -116 1837
0 0 0
0 0 0
0 0 0
0 0 0
0 0 0
-702 -254 3975
-706 -259 4064
-712 -266 4171
-797 -303 4750
-820 -318 4971
-809 -319 4996
-792 -318 4983
-778 -318 4983
-764 -319 4988
-750 -319 4996
-736 -319 4999
1 0 4
-2 0 32
-10 -4 87
-5 -2 59
-5 -2 55
-2 -1 37
-8 -3 80
-23 -12 206
-50 -26 437
-34 -18 305
-40 -22 369
-46 -26 430
-43 -25 413
-53 -32 525
-34 -21 357
-37 -23 391
-32 -21 358
0 0 0
0 0 0
-89 -65 1031
-93 -70 1110
-97 -75 1192
-93 -75 1185
-93 -77 1227
-93 -80 1275
-84 -76 1199
-82 -78 1231
-78 -77 1216
-76 -79 1247
-72 -78 1232
-69 -78 1238
-64 -77 1224
-61 -78 1229
-59 -80 1272
-57 -82 1298
-50 -77 1226
-47 -78 1233
-44 -79 1247
-40 -78 1233
-36 -79 1243
-35 -83 1310
-29 -78 1228
-26 -80 1257
-23 -80 1265
-19 -79 1252
-15 -77 1223
-11 -74 1172
-4 -49 782
0 -26 434
1 -24 392
2 -10 178
3 -7 130
3 -8 142
4 -12 218
6 -22 361
11 -36 582
15 -48 758
23 -65 1026
30 -76 1202
35 -80 1255
38 -80 1253
43 -83 1297
47 -82 1288
50 -81 1268
53 -81 1267
53 -76 1186
58 -77 1212
66 -83 1298
69 -83 1297
72 -81 1272
70 -75 1181
82 -85 1324
79 -78 1215
86 -81 1262
91 -82 1282
95 -82 1283
103 -86 1340
108 -87 1357
103 -80 1244
0 0 0
0 0 0
0 0 0
0 0 0
0 0 0
349 -231 3540
0 0 0
0 0 0
363 -221 3381
347 -206 3149
350 -202 3090
351 -198 3024
366 -201 3074
377 -202 3089
397 -208 3177
399 -204 3121
376 -188 2875
387 -190 2895
394 -189 2883
411 -193 2943
418 -193 2932
430 -194 2957
440 -195 2967
448 -195 2959
454 -193 2938
446 -186 2831
434 -178 2708
440 -178 2696
450 -179 2708
451 -176 2665
464 -178 2694
477 -180 2720
474 -176 2659
419 -153 2312
351 -125 1901
340 -120 1813
341 -118 1788
351 -120 1811
354 -119 1798
346 -115 1733
357 -117 1760
366 -118 1776
366 -116 1751
345 -108 1629
276 -85 1282
229 -69 1042
242 -72 1088
0 0 0
224 -64 978
0 0 0
144 -39 607
131 -35 542
115 -30 471
142 -38 577
126 -32 501
107 -27 420
30 -6 107
138 -34 530
59 -13 216
1269 -332 4891
1263 -326 4808
1280 -327 4818
1294 -327 4811
16 -1 45
0 0 0
0 0 0
0 0 0
0 0 0
0 0 0
0 0 0
1016 -236 3450
1022 -235 3434
1034 -236 3439
1036 -234 3408
0 0 0
0 0 0
1048 -230 3341
1043 -227 3294
0 0 0
0 0 0
0 0 0
0 0 0
0 0 0
0 0 0
0 0 0
0 0 0
0 0 0
0 0 0
0 0 0
0 0 0
0 0 0
1047 -202 2886
1063 -203 2902
1061 -201 2871
1077 -203 2887
1083 -202 2878
1088 -202 2865
1092 -201 2848
1085 -198 2807
1089 -197 2791
1098 -197 2789
1087 -194 2738
1095 -194 2735
1102 -194 2728
1094 -191 2684
1097 -190 2670
1104 -190 2664
1086 -185 2597
1105 -187 2621
1103 -186 2594
1100 -184 2565
1104 -183 2554
1112 -183 2552
1105 -181 2515
1108 -180 2502
1104 -178 2470
1115 -179 2477
1109 -177 2443
1109 -176 2423
1106 -174 2397
1106 -173 2378
1119 -174 2386
1115 -172 2360
1105 -169 2319
1059 -161 2205
1052 -159 2173
1060 -159 2174
1051 -157 2139
1060 -157 2140
1058 -156 2119
1068 -157 2122
1069 -156 2108
1088 -158 2129
1089 -157 2116
1090 -156 2101
1076 -153 2058
1067 -151 2025
1080 -152 2035
1076 -150 2012
1076 -150 1997
1072 -148 1974
1088 -150 1990
1072 -147 1946
1079 -147 1943
1078 -146 1928
-485 -54 844
-481 -54 842
-485 -54 857
-470 -53 837
-480 -55 861
-474 -54 856
-466 -54 847
-484 -56 887
-472 -55 871
-470 -55 873
-483 -57 904
-529 -63 998
-829 -100 1576
-1091 -133 2090
-1088 -134 2100
-1077 -133 2094
-1068 -133 2092
-1068 -134 2108
-1061 -134 2111
-1047 -133 2099
-1039 -133 2098
-1033 -133 2103
-1026 -133 2104
-1017 -133 2102
-1010 -133 2105
-1003 -133 2106
-989 -132 2094
-984 -132 2099
-977 -132 2101
-968 -132 2097
-966 -132 2111
-956 -132 2107
-952 -132 2113
-944 -132 2113
-926 -131 2090
-914 -130 2080
-897 -128 2058
-899 -130 2080
-891 -129 2077
-889 -130 2091
-873 -129 2071
-858 -128 2052
-856 -128 2064
-856 -129 2083
-849 -129 2083
-846 -130 2092
-829 -128 2068
-827 -129 2082
-808 -127 2051
-811 -128 2078
-805 -128 2080
-773 -124 2016
-755 -122 1987
-786 -129 2084
-776 -128 2078
-772 -128 2084
-766 -128 2087
-753 -127 2072
-742 -127 2061
-724 -125 2029
-736 -128 2081
-729 -128 2083
-717 -127 2066
-725 -129 2110
-716 -129 2103
-707 -128 2097
-701 -129 2100
-690 -128 2088
-681 -127 2082
-673 -127 2078
-669 -127 2084
-655 -126 2061
-656 -127 2086
-655 -128 2105
-641 -127 2083
-638 -128 2094
-629 -127 2084
-615 -126 2060
-618 -128 2094
-612 -128 2097
-609 -128 2108
-603 -128 2109
-589 -127 2085
-591 -129 2115
-580 -128 2099
-571 -127 2090
-572 -129 2117
-566 -129 2118
-556 -128 2107
-552 -128 2116
-545 -128 2115
-539 -128 2116
-530 -128 2108
-522 -128 2102
-520 -129 2120
-511 -128 2109
-503 -127 2103
-499 -128 2114
-496 -129 2126
-487 -128 2115
-475 -127 2092
-460 -124 2051
-444 -122 2008
-404 -112 1856
-388 -109 1804
-420 -120 1980
-384 -111 1839
-409 -120 1988
-349 -104 1724
-369 -112 1848
-381 -117 1936
-378 -118 1948
-314 -99 1645
0 0 0
0 0 0
0 0 0
0 0 0
-690 -238 3909
-706 -247 4064
-717 -256 4198
-801 -291 4769
-821 -304 4980
2 1 -1
-795 -305 5000
-780 -305 4996
-762 -303 4978
-749 -304 4986
-735 -304 4995
-723 -306 5013
-16 -6 128
-10 -4 93
-6 -2 65
-7 -3 72
-5 -2 62
-3 -1 46
-22 -10 195
-52 -26 453
-50 -25 443
-45 -24 414
-43 -23 406
-39 -22 380
-57 -33 560
-49 -29 500
-67 -41 695
0 0 0
-252 -162 2672
-216 -143 2363
-105 -72 1207
-101 -72 1195
-100 -74 1231
-95 -73 1210
-95 -75 1250
-90 -75 1242
-87 -75 1250
-84 -75 1250
-79 -75 1241
-77 -76 1257
-74 -76 1269
-68 -74 1229
-66 -75 1253
-59 -72 1192
-57 -74 1227
-57 -78 1293
-48 -71 1180
-46 -73 1212
-43 -74 1224
-40 -76 1256
-35 -72 1201
-32 -73 1212
-30 -76 1264
-25 -75 1235
-22 -75 1247
-18 -73 1202
-14 -72 1200
-9 -61 1011
0 -18 311
-27 -311 5048
-12 -305 4955
1 -297 4832
15 -296 4814
29 -297 4820
43 -297 4818
56 -296 4804
70 -294 4772
84 -298 4837
5 -5 106
28 -69 1131
34 -76 1247
37 -74 1222
41 -75 1240
47 -80 1311
48 -74 1215
56 -81 1334
55 -74 1213
61 -77 1270
65 -79 1290
66 -75 1233
75 -81 1325
77 -79 1297
80 -79 1291
83 -78 1274
82 -73 1203
89 -77 1255
91 -76 1237
94 -75 1221
103 -80 1299
100 -74 1211
0 0 0
347 -249 4000
337 -234 3755
0 0 0
353 -230 3695
0 0 0
0 0 0
347 -207 3327
348 -202 3240
335 -189 3034
368 -203 3251
361 -194 3109
362 -190 3038
370 -189 3028
397 -199 3181
400 -196 3126
392 -188 2997
375 -175 2801
398 -183 2913
412 -185 2949
419 -184 2938
428 -185 2938
435 -184 2929
444 -184 2930
457 -186 2962
438 -175 2785
440 -173 2745
435 -168 2664
442 -168 2660
454 -169 2684
460 -168 2667
466 -168 2660
474 -168 2658
426 -149 2351
350 -119 1893
338 -113 1798
343 -113 1795
346 -113 1785
357 -114 1812
346 -110 1733
362 -113 1786
370 -114 1798
374 -114 1792
345 -103 1626
269 -78 1245
245 -70 1117
240 -68 1080
258 -72 1148
250 -69 1096
184 -49 789
129 -33 542
109 -28 451
0 0 0
0 0 0
0 0 0
153 -38 604
78 -18 295
63 -14 236
56 -12 205
23 -3 72
1275 -315 4856
6 0 7
9 0 19
5 0 5
0 0 0
0 0 0
0 0 0
0 0 0
0 0 0
0 0 0
0 0 0
1022 -225 3437
1046 -228 3477
0 0 0
0 0 0
0 0 0
1033 -217 3295
1040 -216 3282
0 0 0
0 0 0
0 0 0
0 0 0
0 0 0
0 0 0
0 0 0
0 0 0
0 0 0
0 0 0
0 0 0
0 0 0
0 0 0
1045 -193 2880
1065 -195 2907
1065 -193 2880
1079 -194 2893
1082 -193 2875
1081 -191 2846
1096 -193 2860
1093 -191 2827
1092 -189 2800
1097 -189 2788
1082 -185 2726
1093 -185 2731
1090 -183 2699
1102 -184 2704
1097 -182 2671
1091 -179 2632
1100 -180 2633
1100 -178 2609
1097 -177 2580
1108 -177 2584
1107 -176 2560
1106 -174 2537
1093 -171 2487
1111 -173 2508
1106 -171 2477
1112 -171 2469
1104 -168 2432
1106 -168 2417
1109 -167 2403
1112 -166 2391
1113 -165 2375
1111 -164 2351
1097 -161 2304
1047 -152 2180
1041 -151 2152
1038 -149 2128
1048 -150 2132
1041 -148 2102
1047 -148 2098
1046 -147 2078
1056 -147 2082
1058 -147 2071
1068 -147 2074
1060 -145 2042
1058 -144 2025
1061 -144 2014
1069 -144 2014
1052 -141 1968
1064 -142 1975
1051 -139 1937
1058 -139 1935
1056 -138 1917
1067 -139 1922
1077 -139 1925
-490 -52 852
-481 -51 842
-479 -51 845
-472 -51 840
-470 -51 843
-472 -51 851
-463 -50 842
-458 -50 840
-473 -52 873
-478 -53 888
-491 -55 919
-512 -58 967
-841 -97 1598
-1096 -127 2100
-1083 -127 2091
-1080 -127 2101
-1070 -127 2097
-1065 -127 2103
-1054 -126 2096
-1051 -127 2107
-1042 -127 2105
-1036 -127 2109
-1025 -126 2103
-1018 -126 2105
-1008 -126 2101
-1002 -126 2105
-988 -125 2091
-985 -126 2102
-975 -125 2097
-967 -125 2097
-963 -126 2106
-957 -126 2108
-953 -126 2116
-945 -126 2115
-918 -123 2071
-907 -122 2064
-909 -124 2085
-898 -123 2077
-898 -124 2094
-879 -122 2067
-882 -124 2091
-871 -123 2082
-861 -123 2077
-859 -123 2090
-845 -122 2074
-838 -122 2073
-834 -123 2081
-825 -122 2076
-811 -121 2060
-813 -122 2082
-796 -121 2057
-781 -119 2035
-774 -119 2035
-778 -121 2066
-782 -123 2095
-775 -123 2094
-767 -122 2092
-758 -122 2086
-720 -117 2000
-736 -121 2064
-730 -121 2067
-734 -122 2095
-725 -122 2091
-721 -122 2099
-714 -122 2100
-711 -123 2109
-701 -122 2100
-686 -121 2077
-686 -122 2096
-673 -121 2077
-665 -120 2073
-668 -122 2104
-655 -121 2085
-655 -122 2106
-645 -122 2094
-636 -121 2088
-624 -120 2071
-614 -119 2057
-621 -122 2102
-611 -121 2093
-610 -122 2113
-596 -121 2087
-590 -121 2087
-585 -121 2094
-578 -121 2093
-569 -120 2081
-568 -121 2101
-569 -123 2129
-558 -122 2116
-550 -122 2108
-545 -122 2113
-539 -122 2119
-525 -120 2087
-525 -122 2113
-517 -121 2105
-514 -122 2121
-505 -122 2110
-497 -121 2103
-494 -122 2120
-483 -121 2100
-477 -121 2102
-441 -113 1971
-424 -110 1920
-405 -107 1859
-412 -110 1918
-395 -107 1864
-365 -101 1751
-395 -110 1919
-349 -99 1720
-352 -101 1764
-375 -109 1903
-378 -112 1949
-319 -96 1675
0 0 0
0 0 0
0 0 0
0 0 0
-695 -228 3933
-704 -235 4056
-720 -245 4219
-799 -276 4762
-823 -290 4991
-809 -290 4994
-792 -289 4985
-781 -290 5004
-765 -290 4995
-749 -290 4989
-737 -290 5004
-1 0 23
-7 -2 66
-3 -1 40
-5 -2 59
-5 -1 54
-4 -1 52
-7 -3 75
-32 -15 279
-57 -27 493
-49 -24 435
-49 -24 445
-72 -37 667
-72 -38 684
-76 -42 741
-86 -48 849
-111 -64 1123
-187 -111 1932
-256 -157 2717
-200 -127 2196
-113 -74 1295
-97 -66 1149
-105 -74 1288
-99 -72 1259
-93 -70 1227
-86 -68 1191
-85 -69 1212
-82 -70 1229
-79 -71 1235
-75 -70 1222
-69 -68 1181
-67 -70 1215
-67 -73 1280
-63 -72 1262
-57 -70 1217
-52 -68 1193
-49 -69 1202
-44 -66 1152
-42 -69 1200
-37 -66 1157
-38 -74 1284
-32 -69 1200
-28 -69 1195
-27 -75 1295
-23 -73 1270
-19 -73 1275
-13 -66 1145
-8 -56 979
0 -12 229
-26 -291 4956
-12 -282 4807
1 -276 4715
15 -276 4701
28 -277 4720
42 -276 4702
55 -277 4710
69 -276 4703
83 -277 4719
100 -290 4935
29 -67 1159
33 -70 1206
38 -72 1250
43 -75 1302
46 -73 1265
48 -71 1229
53 -74 1268
58 -75 1290
60 -73 1258
65 -75 1292
66 -71 1230
72 -75 1282
77 -76 1302
82 -77 1325
86 -77 1315
93 -80 1370
86 -70 1206
93 -73 1257
101 -77 1317
105 -77 1321
100 -71 1213
0 0 0
0 0 0
355 -235 3958
337 -216 3638
352 -219 3683
354 -213 3592
352 -206 3465
362 -206 3467
353 -196 3289
358 -193 3243
347 -183 3068
344 -176 2956
371 -185 3112
374 -183 3066
398 -190 3183
408 -191 3192
383 -175 2924
360 -160 2689
391 -171 2860
410 -175 2933
421 -177 2952
429 -177 2950
439 -177 2955
443 -175 2923
451 -175 2924
435 -166 2763
445 -167 2773
436 -160 2670
447 -162 2690
456 -162 2691
458 -160 2659
474 -163 2704
473 -160 2655
423 -140 2333
355 -116 1922
336 -107 1788
343 -108 1798
352 -109 1819
347 -106 1764
349 -105 1746
360 -107 1773
369 -108 1795
378 -109 1809
360 -103 1699
284 -79 1317
253 -69 1155
251 -68 1129
227 -60 1007
230 -60 1008
177 -45 760
162 -41 687
0 0 0
128 -31 525
145 -35 589
0 0 0
77 -17 298
0 0 0
0 0 0
0 0 0
42 -8 149
1259 -297 4792
1277 -298 4804
17 -1 48
1330 -304 4889
0 0 0
0 0 0
0 0 0
0 0 0
0 0 0
0 0 0
0 0 0
0 0 0
0 0 0
0 0 0
0 0 0
0 0 0
1031 -207 3288
1024 -203 3234
0 0 0
0 0 0
0 0 0
0 0 0
0 0 0
0 0 0
0 0 0
0 0 0
0 0 0
0 0 0
0 0 0
0 0 0
0 0 0
1058 -186 2915
1056 -184 2884
1057 -183 2859
1078 -185 2889
1080 -184 2871
1084 -183 2854
1087 -183 2838
1087 -181 2812
1078 -178 2763
1086 -178 2761
1085 -177 2733
1105 -179 2761
1081 -173 2676
1104 -176 2710
1104 -175 2686
1108 -174 2673
1105 -172 2645
1098 -170 2606
1085 -167 2553
1097 -167 2559
1113 -169 2575
1101 -166 2526
1109 -166 2524
1103 -164 2490
1108 -163 2481
1103 -162 2450
1107 -161 2438
1112 -161 2430
1106 -159 2399
1109 -158 2385
1107 -157 2362
1105 -156 2338
1087 -152 2283
1040 -145 2166
1040 -144 2148
1034 -142 2120
1042 -142 2120
1037 -141 2094
1041 -140 2084
1039 -139 2065
1048 -140 2068
1060 -140 2074
1041 -137 2022
1048 -137 2021
1047 -136 2004
1049 -136 1991
1042 -134 1963
1045 -134 1955
1052 -134 1953
1041 -132 1919
1038 -130 1899
1058 -132 1921
1049 -130 1891
1052 -130 1881
-489 -49 851
-484 -48 849
-483 -49 853
-480 -49 853
-478 -49 858
-466 -48 842
-462 -48 840
-473 -49 866
-471 -49 869
-477 -50 887
-474 -50 888
-503 -54 949
-849 -92 1615
-1094 -120 2096
-1088 -121 2101
-1084 -121 2109
-1069 -120 2096
-1066 -120 2105
-1059 -120 2107
-1049 -120 2104
-1042 -120 2105
-1033 -120 2103
-1024 -120 2102
-1018 -120 2106
-1010 -120 2106
-999 -119 2100
-995 -119 2107
-980 -118 2091
-976 -119 2100
-971 -119 2105
-962 -119 2104
-958 -119 2111
-950 -119 2110
-941 -119 2108
-924 -117 2086
-912 -117 2075
-909 -117 2085
-895 -116 2071
-885 -116 2065
-886 -117 2084
-883 -117 2096
-869 -116 2079
-863 -117 2083
-857 -117 2084
-853 -117 2094
-844 -117 2088
-824 -115 2057
-822 -115 2069
-818 -116 2076
-804 -115 2060
-795 -114 2055
-762 -110 1986
-769 -112 2023
-781 -115 2073
-781 -116 2091
-768 -115 2077
-773 -117 2107
-758 -116 2087
-736 -113 2045
-734 -114 2058
-729 -114 2064
-731 -115 2088
-724 -115 2089
-727 -117 2115
-712 -116 2093
-709 -116 2105
-692 -114 2073
-694 -116 2100
-684 -115 2089
-674 -115 2080
-664 -114 2072
-661 -115 2081
-655 -115 2084
-653 -116 2099
-647 -116 2102
-631 -114 2072
-623 -114 2068
-618 -114 2070
-620 -115 2101
-613 -115 2099
-606 -115 2097
-589 -113 2062
-595 -116 2105
-583 -115 2087
-576 -114 2086
-575 -115 2105
-571 -116 2113
-564 -116 2113
-554 -115 2100
-552 -116 2117
-545 -116 2116
-538 -116 2113
-532 -116 2117
-527 -116 2122
-523 -117 2131
-512 -116 2113
-502 -115 2100
-501 -116 2119
-493 -116 2116
-487 -116 2115
-471 -113 2075
-447 -109 1997
-435 -107 1967
-438 -110 2008
-425 -108 1978
-416 -107 1962
-416 -109 1992
-404 -107 1965
-377 -101 1861
-363 -99 1818
-380 -105 1931
-357 -100 1843
0 0 0
0 0 0
0 0 0
0 0 0
0 0 0
-699 -218 3961
-703 -223 4050
-722 -233 4230
-804 -264 4794
1 1 3
-809 -275 4995
-794 -275 4997
-776 -274 4978
-761 -274 4975
-750 -276 4998
-735 -275 4997
0 0 11
-11 -3 94
-9 -3 81
-6 -2 67
-6 -2 66
-3 -1 46
-7 -2 74
-31 -13 271
-50 -22 434
-55 -25 489
-49 -23 452
-71 -35 654
-89 -45 835
-83 -43 803
-106 -56 1042
-128 -70 1295
-213 -120 2196
-260 -152 2760
-225 -136 2469
-103 -64 1185
-102 -66 1216
-106 -71 1304
-94 -65 1205
-92 -66 1222
-91 -68 1253
-83 -65 1192
-84 -69 1261
-78 -67 1225
-74 -66 1215
-69 -65 1193
-68 -67 1234
-66 -68 1255
-60 -66 1215
-56 -65 1197
-55 -68 1247
-50 -67 1233
-45 -64 1179
-43 -68 1240
-41 -69 1265
-35 -65 1197
-32 -67 1228
-28 -66 1212
-25 -66 1213
-22 -69 1256
-18 -65 1195
-14 -65 1198
-8 -54 986
1 -7 150
-26 -276 4953
-12 -266 4768
1 -262 4692
15 -262 4691
28 -263 4714
42 -263 4712
55 -261 4681
69 -262 4694
83 -264 4716
100 -274 4908
27 -60 1093
35 -69 1255
37 -67 1221
44 -73 1319
46 -69 1261
50 -70 1271
53 -70 1266
57 -71 1280
60 -69 1254
62 -67 1214
70 -72 1307
69 -68 1225
72 -67 1208
72 -64 1159
84 -71 1287
90 -73 1324
89 -70 1257
97 -73 1316
99 -71 1288
100 -69 1253
104 -70 1256
0 0 0
0 0 0
339 -213 3778
0 0 0
352 -208 3685
345 -198 3495
362 -202 3569
359 -194 3438
338 -178 3143
349 -179 3165
347 -174 3067
348 -170 2997
367 -175 3080
379 -176 3104
397 -180 3180
403 -179 3149
380 -165 2902
385 -163 2875
395 -164 2885
409 -167 2929
417 -166 2922
430 -168 2951
436 -167 2936
448 -169 2958
452 -167 2924
431 -156 2739
438 -156 2728
442 -155 2705
444 -152 2667
457 -155 2700
465 -154 2697
465 -152 2652
467 -150 2617
423 -134 2332
351 -109 1903
343 -104 1825
337 -101 1768
345 -102 1783
354 -103 1801
341 -98 1705
361 -102 1780
373 -104 1814
383 -106 1835
365 -99 1722
296 -79 1373
211 -55 960
220 -56 988
209 -53 924
216 -54 946
210 -51 904
149 -35 630
133 -31 553
0 0 0
131 -29 528
92 -20 361
76 -16 295
150 -33 587
0 0 0
128 -27 486
25 -3 84
1273 -286 4847
1274 -283 4796
3 1 -2
1326 -288 4875
0 0 0
0 0 0
0 0 0
0 0 0
0 0 0
0 0 0
0 0 0
0 0 0
0 0 0
0 0 0
0 0 0
1046 -201 3370
1029 -196 3282
1042 -197 3291
0 0 0
0 0 0
0 0 0
0 0 0
0 0 0
0 0 0
0 0 0
0 0 0
0 0 0
0 0 0
0 0 0
0 0 0
0 0 0
1032 -173 2844
1057 -176 2887
1069 -176 2894
1079 -177 2894
1085 -176 2883
1082 -174 2850
1090 -174 2844
1092 -173 2826
1078 -170 2764
1087 -170 2763
1093 -170 2754
1088 -167 2716
1104 -169 2735
1089 -165 2675
1086 -164 2643
1099 -164 2651
1097 -163 2625
1104 -163 2620
1093 -160 2571
1104 -161 2575
1098 -159 2541
1101 -158 2526
1099 -157 2501
1099 -156 2481
1100 -155 2463
1101 -154 2446
1098 -152 2419
1114 -153 2434
1104 -151 2394
1110 -151 2387
1112 -150 2373
1114 -150 2358
1095 -146 2300
1060 -141 2209
1068 -141 2207
1053 -138 2160
1054 -137 2144
1041 -134 2101
1038 -133 2079
1051 -134 2089
1050 -133 2071
1059 -134 2074
1059 -133 2058
1051 -131 2026
1052 -130 2013
1043 -129 1981
1048 -128 1975
1055 -128 1973
1054 -128 1957
1062 -128 1957
1057 -127 1934
1055 -126 1915
1052 -125 1895
1060 -125 1897
-482 -45 839
-478 -45 839
-479 -46 847
-480 -46 854
-472 -45 846
-468 -45 845
-468 -45 851
-477 -47 874
-489 -48 903
-496 -49 922
-484 -48 907
-506 -51 956
-854 -88 1625
-1095 -114 2098
-1087 -114 2099
-1079 -114 2100
-1070 -113 2098
-1063 -113 2100
-1056 -113 2101
-1049 -113 2104
-1038 -113 2099
-1033 -113 2105
-1027 -113 2109
-1015 -113 2100
-1008 -113 2102
-999 -113 2099
-989 -112 2095
-987 -113 2107
-978 -113 2105
-968 -112 2099
-959 -112 2098
-955 -112 2106
-954 -113 2120
-942 -112 2111
-927 -111 2094
-907 -110 2065
-909 -111 2086
-890 -109 2060
-885 -110 2066
-882 -110 2075
-873 -110 2071
-871 -110 2085
-865 -110 2087
-848 -109 2064
-842 -109 2066
-847 -111 2097
-835 -110 2084
-824 -109 2075
-808 -108 2053
-807 -109 2069
-798 -109 2063
-785 -108 2048
-784 -108 2062
-787 -110 2089
-775 -109 2077
-771 -109 2085
-766 -110 2089
-752 -109 2071
-731 -106 2030
-729 -107 2043
-730 -108 2066
-738 -110 2109
-725 -109 2090
-731 -111 2128
-716 -110 2105
-705 -109 2093
-699 -109 2095
-696 -110 2107
-678 -108 2073
-680 -109 2100
-667 -108 2081
-663 -109 2089
-662 -110 2107
-646 -108 2077
-647 -109 2102
-634 -108 2082
-622 -107 2063
-618 -108 2071
-621 -109 2103
-610 -109 2089
-596 -107 2065
-591 -107 2069
-588 -108 2082
-590 -110 2111
-575 -108 2081
-571 -109 2092
-565 -109 2092
-562 -109 2106
-560 -110 2124
-555 -110 2128
-547 -110 2122
-540 -110 2122
-531 -109 2110
-526 -110 2116
-518 -109 2110
-512 -109 2112
-506 -110 2116
-502 -110 2126
-491 -109 2105
-485 -109 2107
-462 -105 2037
-432 -100 1929
-417 -98 1890
-419 -99 1922
-402 -97 1870
-409 -100 1931
-398 -98 1906
-391 -98 1899
-365 -93 1803
-392 -101 1960
-384 -101 1951
-349 -93 1804
0 0 0
-251 -69 1339
0 0 0
0 0 0
0 0 0
-697 -206 3946
-704 -211 4058
-722 -221 4234
-807 -251 4810
2 1 -3
-807 -260 4986
-792 -260 4987
-777 -260 4985
-763 -260 4984
-750 -261 4999
-735 -261 4994
-723 -262 5014
-12 -4 104
-8 -2 75
-7 -2 74
-5 -1 55
-5 -1 59
-6 -2 69
-29 -12 253
-56 -24 480
-53 -23 471
-52 -23 469
-64 -30 597
-90 -43 845
-90 -44 866
-99 -50 983
-148 -77 1491
-243 -130 2503
-267 -147 2831
-220 -126 2419
-105 -62 1208
-97 -59 1150
-101 -64 1241
-93 -61 1189
-96 -66 1277
-89 -63 1230
-82 -60 1171
-85 -65 1270
-79 -64 1235
-78 -66 1279
-77 -68 1314
-69 -64 1246
-68 -67 1305
-63 -65 1270
-56 -62 1199
-53 -63 1214
-49 -61 1194
-47 -64 1240
-42 -62 1210
-39 -63 1219
-35 -62 1210
-33 -64 1244
-29 -63 1228
-25 -63 1228
-22 -65 1264
-18 -64 1234
-14 -63 1210
-7 -45 874
1 -7 168
-26 -262 4951
-11 -253 4785
1 -249 4703
15 -248 4691
28 -250 4723
42 -250 4723
56 -250 4715
69 -249 4692
83 -252 4755
100 -260 4898
27 -55 1063
35 -66 1274
37 -64 1226
42 -65 1247
45 -64 1224
50 -66 1267
53 -66 1258
59 -69 1315
63 -69 1313
63 -65 1251
64 -62 1192
69 -64 1219
75 -66 1265
79 -66 1262
81 -65 1239
84 -65 1235
96 -71 1353
96 -68 1301
98 -67 1276
102 -67 1278
97 -61 1166
0 0 0
343 -211 3948
363 -217 4041
342 -198 3692
354 -198 3702
349 -190 3539
358 -189 3531
347 -178 3321
344 -172 3206
360 -175 3266
361 -171 3188
353 -163 3037
361 -163 3030
375 -165 3076
395 -170 3160
396 -167 3093
382 -157 2918
378 -152 2823
399 -157 2914
415 -160 2970
416 -158 2917
426 -158 2929
438 -159 2948
446 -159 2942
452 -159 2929
442 -152 2808
432 -146 2691
433 -144 2652
447 -146 2689
457 -147 2698
465 -147 2700
473 -147 2699
467 -142 2618
411 -123 2266
355 -104 1920
336 -97 1791
342 -97 1791
348 -97 1795
351 -97 1786
349 -95 1745
364 -98 1793
378 -100 1837
375 -98 1794
355 -91 1674
264 -66 1221
239 -59 1093
221 -54 995
0 0 0
211 -50 923
189 -44 811
161 -36 681
0 0 0
124 -27 507
0 0 0
0 0 0
0 0 0
121 -25 469
74 -14 276
0 0 0
13 0 34
1287 -275 4900
1278 -270 4809
23 -2 71
13 0 34
0 0 0
0 0 0
0 0 0
0 0 0
0 0 0
0 0 0
0 0 0
0 0 0
0 0 0
0 0 0
0 0 0
1003 -183 3233
1035 -188 3302
1021 -183 3222
0 0 0
0 0 0
0 0 0
0 0 0
0 0 0
0 0 0
0 0 0
0 0 0
0 0 0
0 0 0
0 0 0
0 0 0
0 0 0
1056 -168 2911
1058 -167 2889
1071 -168 2897
1075 -167 2883
1078 -166 2866
1085 -166 2859
1084 -165 2830
1082 -163 2799
1090 -163 2794
1083 -161 2754
1081 -159 2725
1099 -161 2745
1087 -158 2693
1083 -156 2658
1094 -157 2662
1091 -155 2633
1088 -154 2604
1103 -155 2618
1099 -153 2586
1095 -151 2555
1106 -152 2560
1096 -149 2517
1096 -148 2495
1100 -148 2485
1097 -147 2457
1098 -146 2438
1115 -147 2457
1095 -143 2394
1097 -143 2378
1104 -143 2374
1112 -143 2373
1104 -141 2337
1106 -140 2322
1094 -138 2279
1090 -137 2254
1055 -131 2164
1049 -130 2135
1047 -129 2115
1055 -129 2114
1059 -129 2105
1054 -127 2081
1053 -126 2062
1056 -126 2052
1056 -125 2036
1060 -125 2028
1054 -124 2003
1060 -123 1998
1067 -124 1997
1061 -122 1971
1062 -122 1958
1062 -121 1943
1067 -121 1939
1065 -120 1920
1065 -119 1905
-483 -43 842
-489 -43 857
-474 -42 837
-473 -42 841
-473 -43 849
-455 -41 823
-458 -42 834
-462 -43 847
-485 -45 895
-469 -44 873
-480 -45 901
-520 -49 983
-869 -84 1653
-1093 -107 2095
-1084 -107 2094
-1079 -107 2099
-1070 -107 2098
-1065 -107 2104
-1053 -106 2096
-1048 -107 2103
-1039 -106 2100
-1034 -107 2107
-1021 -106 2096
-1018 -106 2106
-1008 -106 2102
-1003 -106 2109
-994 -106 2106
-984 -106 2102
-979 -106 2106
-967 -105 2097
-962 -106 2103
-958 -106 2112
-948 -106 2107
-941 -106 2109
-912 -103 2059
-919 -105 2092
-902 -104 2071
-905 -105 2095
-891 -104 2080
-886 -104 2086
-878 -104 2084
-872 -104 2087
-863 -104 2082
-850 -103 2069
-848 -103 2080
-842 -104 2086
-835 -104 2084
-813 -102 2048
-811 -102 2062
-814 -103 2086
-790 -101 2041
-786 -102 2052
-792 -103 2086
-785 -103 2085
-781 -103 2093
-777 -104 2100
-762 -103 2080
-759 -103 2090
-733 -100 2036
-725 -100 2033
-724 -101 2050
-722 -102 2063
-728 -103 2100
-720 -103 2097
-707 -102 2078
-706 -103 2096
-707 -104 2120
-697 -104 2109
-690 -104 2110
-679 -103 2096
-675 -103 2105
-656 -102 2068
-657 -103 2090
-652 -103 2098
-644 -103 2092
-636 -102 2087
-623 -101 2067
-622 -102 2085
-622 -103 2108
-612 -103 2098
-607 -103 2103
-601 -103 2105
-596 -103 2110
-587 -103 2100
-579 -102 2095
-575 -103 2107
-567 -103 2101
-562 -103 2106
-557 -103 2111
-550 -103 2111
-549 -104 2132
-539 -103 2117
-531 -103 2114
-524 -103 2112
-519 -103 2117
-512 -103 2115
-506 -103 2117
-499 -103 2114
-489 -103 2101
-484 -103 2105
-473 -102 2085
-437 -95 1954
-412 -91 1866
-426 -95 1955
-422 -96 1965
-397 -91 1873
-377 -88 1809
-376 -89 1829
-382 -92 1886
0 0 0
-372 -92 1890
-342 -86 1765
-308 -78 1617
0 0 0
0 0 0
0 0 0
0 0 0
-703 -196 3987
-713 -202 4109
-724 -209 4245
-803 -236 4787
1 1 0
-809 -246 5000
-795 -247 5006
-780 -247 5004
-765 -247 5003
1 1 5
-735 -246 4994
-2 0 30
-7 -2 69
-8 -2 80
-4 -1 48
-5 -1 57
-4 -1 52
-9 -3 94
-31 -12 273
-61 -24 524
-54 -22 478
-53 -22 482
-70 -30 648
-82 -37 774
-92 -42 886
-103 -49 1021
-148 -72 1490
-243 -123 2503
-264 -138 2800
-236 -127 2587
-110 -61 1258
-104 -60 1234
-98 -58 1203
-102 -63 1304
-94 -60 1240
-92 -61 1267
-89 -62 1282
-83 -60 1238
-76 -58 1190
-77 -61 1261
-71 -59 1218
-66 -58 1204
-65 -60 1234
-62 -61 1248
-56 -59 1211
-52 -58 1201
-49 -58 1203
-46 -59 1219
-42 -59 1203
-40 -61 1260
-36 -60 1235
-33 -61 1245
-31 -64 1301
-26 -62 1274
-22 -60 1228
-18 -59 1210
-15 -60 1222
-8 -47 977
0 -9 207
-26 -249 4981
-11 -239 4775
1 -234 4685
15 -235 4704
29 -236 4718
42 -237 4733
55 -235 4687
69 -236 4706
83 -237 4726
100 -247 4919
27 -52 1068
33 -58 1190
37 -59 1209
43 -63 1283
47 -63 1284
51 -64 1308
54 -63 1277
56 -62 1249
63 -65 1314
65 -63 1279
67 -61 1241
72 -63 1267
78 -65 1309
80 -63 1283
79 -60 1213
84 -61 1237
87 -60 1220
99 -67 1341
98 -64 1280
98 -61 1231
109 -65 1315
0 0 0
0 0 0
339 -191 3770
356 -195 3842
350 -185 3658
355 -183 3600
355 -177 3494
345 -168 3306
360 -170 3351
329 -151 2983
362 -162 3195
355 -155 3058
366 -156 3074
376 -157 3081
386 -157 3087
393 -156 3070
379 -147 2892
371 -141 2769
399 -149 2917
411 -150 2944
418 -150 2931
431 -152 2964
438 -151 2950
446 -151 2944
457 -152 2960
437 -142 2777
433 -138 2698
440 -138 2692
451 -139 2711
457 -139 2697
469 -140 2722
473 -139 2698
472 -136 2647
410 -116 2261
350 -97 1897
341 -93 1815
346 -93 1814
338 -90 1745
355 -93 1803
358 -92 1794
362 -92 1785
399 -100 1940
387 -96 1851
354 -86 1668
276 -66 1279
210 -49 958
0 0 0
218 -49 965
229 -51 1003
164 -35 703
149 -32 629
126 -26 523
115 -23 469
138 -28 558
0 0 0
0 0 0
67 -12 253
94 -17 359
47 -7 170
7 0 12
1270 -257 4837
1288 -257 4846
1306 -258 4860
35 -4 114
0 0 0
0 0 0
0 0 0
0 0 0
0 0 0
0 0 0
0 0 0
0 0 0
0 0 0
0 0 0
0 0 0
981 -170 3163
1030 -177 3284
1055 -180 3332
0 0 0
0 0 0
0 0 0
0 0 0
0 0 0
0 0 0
0 0 0
1028 -163 3000
1012 -159 2923
1035 -161 2962
0 0 0
0 0 0
0 0 0
1028 -155 2834
1055 -158 2883
1060 -157 2868
1072 -158 2875
1080 -158 2870
1071 -155 2820
1083 -156 2828
1082 -155 2798
1083 -154 2777
1069 -150 2718
1085 -152 2735
1076 -149 2689
1083 -149 2682
1082 -148 2657
1085 -147 2641
1072 -144 2588
1076 -144 2576
1090 -145 2587
1077 -142 2534
1092 -143 2548
1093 -142 2529
1095 -141 2513
1087 -140 2475
1088 -139 2456
1097 -139 2457
1102 -139 2448
1098 -137 2420
1107 -137 2419
1103 -136 2392
1105 -135 2378
1106 -135 2361
1107 -134 2343
1102 -133 2316
1101 -132 2294
1104 -131 2283
1066 -126 2186
1058 -124 2153
1056 -123 2132
1058 -123 2121
1058 -122 2103
1061 -121 2095
1065 -121 2086
1060 -120 2060
1059 -119 2043
1058 -118 2025
1057 -117 2009
1062 -117 2003
1067 -117 1997
1061 -116 1971
1067 -116 1966
1072 -116 1962
1066 -114 1936
1068 -114 1925
1065 -113 1907
-481 -40 838
-481 -40 843
-472 -39 834
-473 -40 842
-462 -39 829
-448 -38 810
-447 -38 814
-454 -39 832
-495 -43 915
-480 -42 894
-487 -43 912
-512 -45 967
-874 -79 1663
-1097 -101 2103
-1086 -100 2097
-1082 -101 2106
-1073 -100 2105
-1068 -101 2112
-1057 -100 2104
-1049 -100 2106
-1044 -100 2111
-1034 -100 2108
-1027 -100 2110
-1018 -100 2107
-1010 -100 2107
-1001 -100 2104
-992 -99 2103
-985 -99 2104
-980 -100 2109
-971 -99 2107
-961 -99 2102
-956 -99 2107
-956 -100 2125
-938 -99 2102
-915 -97 2066
-912 -97 2076
-904 -97 2075
-905 -98 2094
-888 -97 2072
-885 -98 2084
-884 -98 2098
-866 -97 2072
-860 -97 2076
-858 -97 2088
-849 -97 2084
-846 -98 2094
-834 -97 2082
-814 -96 2051
-811 -96 2062
-809 -96 2073
-792 -95 2048
-780 -95 2035
-792 -97 2084
-775 -96 2058
-787 -98 2110
-771 -97 2085
-770 -97 2102
-757 -97 2084
-739 -95 2053
-727 -94 2040
-725 -95 2054
-731 -97 2090
-721 -96 2081
-722 -97 2102
-714 -97 2099
-706 -97 2097
-707 -98 2121
-691 -97 2092
-688 -97 2103
-675 -96 2086
-677 -97 2113
-650 -94 2049
-650 -95 2070
-652 -97 2096
-647 -97 2104
-633 -96 2077
-620 -95 2057
-624 -96 2094
-622 -97 2109
-607 -96 2080
-604 -96 2094
-596 -96 2087
-594 -97 2103
-586 -97 2100
-584 -97 2116
-572 -96 2096
-562 -96 2082
-570 -98 2137
-559 -97 2118
-550 -97 2110
-547 -98 2125
-542 -98 2129
-532 -97 2116
-528 -98 2126
-520 -97 2119
-510 -97 2104
-506 -97 2116
-500 -97 2119
-491 -97 2108
-484 -97 2105
-474 -96 2090
-424 -87 1896
-413 -86 1872
-403 -85 1851
-412 -88 1920
-365 -79 1723
-408 -89 1953
-399 -89 1939
-381 -86 1881
-370 -85 1854
-394 -92 2003
-342 -81 1767
-336 -81 1762
0 0 0
0 0 0
-274 -69 1511
0 0 0
-726 -190 4114
-751 -200 4327
-761 -207 4463
-809 -224 4827
-13 -3 92
-17 -4 122
-11 -2 83
-10 -2 80
-14 -3 107
-10 -2 83
-8 -1 69
-13 -3 109
-10 -2 89
-3 0 41
-9 -2 85
-5 -1 56
-6 -1 65
-6 -2 72
-39 -14 332
-65 -24 559
-58 -22 511
-51 -20 469
-68 -28 633
-83 -35 786
-100 -43 959
-98 -44 973
-132 -61 1335
-240 -114 2475
-265 -130 2810
-223 -113 2448
-105 -55 1209
-105 -57 1251
-99 -56 1221
-93 -54 1190
-95 -57 1257
-83 -52 1142
-83 -54 1187
-80 -55 1205
-81 -58 1265
-78 -58 1272
-71 -56 1229
-66 -55 1203
-64 -56 1231
-64 -59 1291
-60 -59 1279
-50 -53 1158
-46 -52 1145
-45 -54 1187
-43 -57 1241
-37 -53 1165
-36 -56 1219
-32 -57 1234
-29 -57 1238
-26 -57 1249
-23 -59 1275
-18 -55 1200
-14 -54 1187
-8 -43 951
1 -7 183
-26 -233 4957
-11 -226 4796
2 -221 4698
15 -221 4696
28 -221 4682
42 -222 4707
56 -222 4707
69 -222 4697
83 -224 4737
101 -235 4967
28 -51 1099
34 -57 1237
38 -58 1245
41 -57 1238
44 -56 1205
48 -56 1214
53 -58 1254
55 -56 1210
60 -58 1251
64 -59 1266
63 -54 1164
71 -59 1261
72 -56 1209
84 -63 1355
82 -59 1260
81 -55 1180
91 -60 1280
95 -60 1284
103 -63 1339
108 -63 1356
90 -50 1082
0 0 0
341 -187 3920
358 -190 3984
354 -182 3819
355 -177 3713
346 -168 3512
341 -160 3357
349 -160 3345
356 -158 3311
366 -159 3316
348 -147 3069
350 -144 3015
365 -147 3067
373 -147 3058
385 -148 3083
393 -148 3073
384 -141 2937
378 -136 2826
396 -139 2898
413 -142 2958
422 -143 2957
423 -140 2906
442 -144 2978
449 -143 2965
449 -140 2907
447 -137 2838
446 -134 2778
451 -134 2762
447 -130 2688
460 -132 2717
477 -134 2769
472 -131 2692
478 -130 2681
425 -114 2344
360 -94 1947
348 -90 1856
351 -89 1840
354 -89 1828
363 -90 1846
354 -86 1770
365 -87 1800
402 -95 1954
392 -92 1879
364 -84 1717
260 -58 1203
218 -48 994
0 0 0
199 -42 880
227 -48 992
183 -38 788
168 -34 712
152 -30 633
111 -21 454
81 -14 321
103 -19 406
0 0 0
0 0 0
0 0 0
57 -9 207
1269 -245 4891
1261 -241 4802
1280 -242 4819
1304 -244 4850
13 0 35
0 0 0
0 0 0
0 0 0
0 0 0
0 0 0
0 0 0
0 0 0
0 0 0
0 0 0
0 0 0
0 0 0
1017 -166 3279
1039 -168 3315
1012 -162 3195
0 0 0
0 0 0
0 0 0
0 0 0
0 0 0
0 0 0
0 0 0
1057 -158 3084
1036 -154 2994
1050 -155 3006
0 0 0
0 0 0
0 0 0
1045 -149 2881
1057 -149 2888
1060 -149 2869
1068 -149 2865
1076 -149 2859
1083 -148 2852
1070 -145 2792
1081 -146 2797
1094 -147 2806
1071 -142 2723
1064 -140 2681
1072 -140 2678
1093 -142 2707
1045 -135 2566
1086 -139 2644
1079 -137 2605
1070 -135 2561
1059 -133 2514
1064 -133 2503
1070 -132 2498
1068 -131 2472
1068 -130 2452
1085 -132 2471
1096 -132 2474
1094 -131 2450
1093 -130 2428
1090 -129 2401
1092 -128 2386
1070 -125 2321
1103 -128 2374
1088 -125 2323
1095 -125 2319
1097 -125 2305
1092 -123 2275
1117 -125 2309
1068 -119 2192
1064 -118 2165
1053 -116 2126
1054 -115 2113
1061 -115 2111
1056 -114 2084
1053 -113 2063
1061 -113 2063
1056 -112 2036
1058 -112 2025
1065 -112 2024
1064 -111 2007
1068 -111 1999
1060 -109 1970
1067 -110 1967
1065 -109 1950
1075 -109 1952
1068 -108 1926
1073 -108 1919
-474 -36 825
-475 -37 834
-480 -37 848
-475 -37 845
-469 -37 842
-462 -37 835
-447 -36 814
-459 -37 842
-486 -39 899
-482 -39 898
-496 -41 931
-520 -43 983
-875 -74 1666
-1093 -94 2097
-1084 -94 2095
-1077 -93 2097
-1071 -94 2101
-1065 -94 2104
-1056 -94 2104
-1050 -94 2108
-1037 -93 2097
-1034 -93 2107
-1024 -93 2104
-1019 -93 2109
-1010 -93 2108
-1002 -93 2107
-993 -93 2104
-986 -93 2106
-975 -93 2099
-972 -93 2108
-962 -93 2104
-954 -93 2104
-956 -93 2125
-940 -93 2107
-919 -91 2076
-910 -91 2073
-904 -91 2077
-907 -92 2100
-884 -90 2065
-886 -91 2085
-879 -91 2086
-865 -90 2070
-862 -91 2082
-861 -91 2097
-852 -91 2093
-838 -90 2074
-841 -92 2102
-819 -90 2063
-811 -90 2062
-819 -91 2101
-804 -90 2080
-803 -91 2096
-788 -90 2074
-780 -90 2073
-780 -91 2091
-781 -92 2113
-766 -91 2091
-753 -90 2074
-736 -89 2046
-739 -90 2074
-734 -90 2079
-735 -91 2101
-728 -91 2102
-715 -90 2082
-712 -90 2094
-709 -91 2106
-695 -90 2084
-695 -91 2106
-682 -90 2087
-681 -91 2103
-660 -89 2061
-658 -89 2075
-653 -90 2080
-651 -90 2093
-644 -90 2094
-628 -89 2064
-621 -89 2063
-623 -90 2090
-624 -91 2116
-612 -90 2096
-613 -91 2123
-604 -91 2116
-595 -91 2106
-592 -91 2121
-583 -91 2111
-571 -90 2092
-566 -90 2097
-560 -90 2098
-563 -92 2133
-550 -91 2112
-543 -90 2107
-539 -91 2120
-537 -92 2136
-526 -91 2120
-519 -91 2117
-509 -90 2102
-502 -90 2102
-500 -91 2119
-491 -90 2108
-483 -90 2100
-467 -88 2058
-407 -78 1819
-404 -78 1832
-429 -84 1971
-412 -82 1921
-425 -86 2007
-364 -75 1744
-423 -88 2055
-352 -74 1738
-394 -85 1974
-386 -84 1962
-344 -76 1779
-357 -80 1873
0 0 0
-262 -61 1423
0 0 0
0 0 0
-821 -202 4654
-832 -208 4795
-834 -212 4887
-833 -216 4968
-6 0 51
-33 -8 219
-25 -6 176
-18 -4 132
-13 -3 102
-17 -4 131
-16 -4 124
-10 -2 88
-7 -1 68
-5 -1 53
-11 -3 100
-5 -1 60
-5 -1 57
-8 -2 85
-37 -12 321
-55 -19 476
-58 -21 513
-50 -18 453
-56 -21 525
-84 -33 796
-87 -35 843
-99 -41 979
-129 -56 1310
-209 -93 2161
-259 -119 2754
-214 -102 2352
-115 -56 1314
-101 -51 1201
-94 -49 1159
-95 -52 1219
-91 -51 1208
-90 -53 1237
-83 -51 1187
-78 -50 1174
-80 -53 1245
-72 -51 1185
-68 -50 1176
-68 -53 1239
-65 -53 1248
-58 -50 1171
-56 -52 1209
-53 -52 1219
-53 -56 1297
-45 -52 1203
-44 -54 1261
-39 -52 1218
-38 -55 1288
-31 -51 1198
-31 -56 1310
-26 -55 1271
-22 -53 1238
-18 -54 1249
-15 -53 1228
-9 -43 1015
0 -9 232
-26 -220 4986
-11 -212 4808
2 -208 4702
15 -208 4699
29 -207 4690
42 -208 4701
56 -208 4701
69 -208 4702
83 -210 4746
101 -220 4956
28 -49 1132
35 -55 1270
38 -55 1258
43 -56 1288
46 -55 1272
49 -54 1251
54 -56 1290
56 -54 1245
60 -55 1261
64 -55 1253
65 -53 1210
72 -55 1271
72 -52 1204
78 -55 1257
82 -55 1252
83 -53 1223
90 -55 1263
96 -57 1298
94 -53 1215
99 -55 1245
84 -44 1008
0 0 0
342 -176 3931
331 -165 3678
355 -172 3823
337 -158 3517
350 -159 3545
342 -151 3368
346 -149 3307
366 -153 3409
352 -143 3191
351 -139 3098
364 -141 3135
366 -138 3068
372 -137 3051
382 -138 3054
390 -137 3046
375 -129 2862
377 -127 2813
397 -131 2904
407 -132 2914
414 -131 2905
423 -132 2907
438 -134 2951
447 -134 2954
457 -134 2958
452 -130 2872
461 -131 2876
462 -129 2827
474 -130 2851
477 -128 2816
474 -125 2753
481 -125 2746
470 -120 2638
450 -113 2480
391 -97 2121
389 -95 2077
372 -89 1952
379 -89 1959
383 -89 1946
373 -85 1865
359 -81 1770
373 -83 1814
374 -82 1791
334 -72 1573
292 -62 1355
236 -49 1078
225 -46 1011
264 -53 1171
195 -38 851
152 -29 652
138 -26 582
98 -17 402
0 0 0
0 0 0
118 -20 468
103 -17 402
0 0 0
80 -13 303
85 -13 319
14 0 40
1286 -231 4896
1273 -226 4792
18 -1 53
43 -5 146
0 0 0
0 0 0
0 0 0
0 0 0
0 0 0
0 0 0
0 0 0
0 0 0
0 0 0
0 0 0
0 0 0
0 0 0
1040 -159 3317
1022 -154 3227
0 0 0
0 0 0
0 0 0
0 0 0
0 0 0
0 0 0
0 0 0
1012 -142 2951
1033 -144 2986
1033 -143 2955
0 0 0
0 0 0
0 0 0
1035 -139 2854
1057 -141 2886
1064 -141 2880
1079 -141 2893
1071 -139 2846
1070 -138 2818
1071 -137 2796
1059 -135 2740
1060 -134 2718
1080 -135 2747
1114 -139 2809
1069 -132 2671
1026 -126 2542
1016 -123 2494
1059 -128 2577
1025 -123 2473
1041 -124 2493
1090 -129 2586
1090 -128 2565
1039 -121 2424
1039 -120 2404
1069 -123 2453
1081 -123 2461
1076 -122 2431
1071 -121 2399
1081 -121 2403
1096 -122 2416
1095 -121 2394
1058 -116 2295
1083 -118 2331
1074 -116 2292
1073 -115 2271
1062 -114 2232
1104 -117 2302
1103 -117 2282
1059 -111 2172
1060 -111 2157
1051 -109 2122
1058 -109 2120
1065 -109 2119
1056 -108 2085
1059 -107 2074
1061 -107 2063
1062 -106 2049
1059 -105 2027
1062 -105 2018
1065 -105 2008
1061 -104 1986
1065 -104 1978
1068 -103 1969
1064 -102 1948
1068 -102 1940
1071 -102 1931
1075 -102 1924
-478 -34 833
-484 -35 850
-481 -35 850
-471 -34 839
-471 -34 845
-453 -33 819
-455 -34 829
-456 -34 836
-485 -36 896
-483 -36 900
-468 -35 878
-529 -41 1000
-883 -69 1682
-1098 -87 2106
-1084 -87 2095
-1080 -87 2103
-1075 -87 2108
-1064 -87 2104
-1060 -87 2112
-1047 -87 2102
-1041 -87 2105
-1031 -87 2102
-1025 -87 2107
-1017 -87 2106
-1008 -86 2102
-1002 -87 2108
-998 -87 2116
-985 -86 2105
-979 -86 2108
-970 -86 2106
-962 -86 2105
-957 -86 2111
-948 -86 2108
-938 -86 2103
-917 -84 2072
-915 -85 2085
-914 -85 2099
-885 -83 2050
-893 -85 2086
-881 -84 2075
-873 -84 2072
-865 -84 2072
-861 -84 2079
-866 -86 2108
-847 -84 2081
-841 -84 2082
-824 -83 2059
-817 -83 2058
-799 -82 2030
-807 -84 2070
-794 -83 2054
-794 -84 2073
-788 -84 2076
-768 -82 2041
-778 -84 2086
-767 -84 2076
-762 -84 2079
-754 -84 2077
-740 -83 2058
-732 -83 2056
-725 -83 2054
-726 -84 2077
-723 -84 2087
-714 -84 2081
-718 -85 2113
-705 -84 2096
-699 -84 2098
-691 -84 2094
-685 -84 2097
-682 -84 2106
-670 -84 2090
-665 -84 2095
-650 -83 2071
-658 -85 2116
-642 -84 2089
-634 -83 2082
-623 -83 2068
-622 -84 2086
-622 -85 2111
-616 -85 2111
-606 -84 2100
-600 -84 2102
