VERSION 0.7
FIELDS x y z
SIZE 4 4 4
TYPE I I I
COUNT 1 1 1
WIDTH 3595
HEIGHT 1
VIEWPOINT 0.0 0.0 0.0 1.0 0.0 0.0 0.0
POINTS 3595
DATA ascii
746 354 1686
750 354 1680
752 352 1671
760 353 1674
764 353 1670
764 350 1657
770 350 1656
760 344 1622
741 333 1567
713 318 1497
671 297 1397
589 259 1213
592 259 1210
650 282 1320
711 307 1434
756 324 1513
789 336 1567
806 341 1588
806 339 1576
818 342 1587
825 342 1589
833 343 1591
837 343 1587
836 340 1573
837 339 1562
838 337 1554
838 335 1541
836 332 1527
832 329 1507
831 326 1494
830 324 1480
827 321 1464
829 320 1457
828 317 1444
-485 194 830
-488 196 841
-492 199 855
-466 190 816
-484 198 854
-485 199 861
-467 193 836
-482 201 870
-494 206 897
-489 206 896
-472 200 870
-492 209 915
-487 208 912
-482 208 909
-486 210 924
-474 207 909
-488 214 943
-490 216 953
-493 219 967
-495 221 978
-512 230 1020
-497 225 998
-511 233 1034
-527 241 1074
-543 250 1115
-554 257 1148
-536 250 1119
-533 250 1122
-529 250 1122
-523 249 1119
-519 249 1120
-531 256 1156
-553 268 1212
-570 278 1260
-571 281 1273
-566 280 1271
-545 272 1235
-508 255 1161
-500 253 1152
-502 256 1167
-500 257 1172
-509 263 1203
-518 269 1234
-540 283 1298
-582 307 1411
-629 334 1537
-636 341 1570
-629 339 1565
-626 340 1571
-618 338 1564
-620 342 1583
-613 341 1580
-605 339 1574
-599 339 1574
-594 338 1573
-591 339 1580
-581 336 1567
-580 339 1581
-572 336 1572
-569 338 1579
-562 336 1574
-553 334 1563
-547 333 1562
-547 336 1578
-539 334 1570
-537 336 1580
-534 337 1587
-534 340 1602
-536 344 1624
-525 340 1606
-520 340 1608
-519 342 1619
-512 341 1613
-504 339 1606
-504 342 1623
-502 344 1633
-490 339 1611
-482 337 1602
-474 335 1595
-470 335 1596
-471 339 1617
-466 339 1617
-460 338 1615
-452 336 1605
-441 331 1584
-441 335 1604
-440 338 1617
-432 335 1606
-426 334 1603
-422 335 1610
-422 339 1626
-414 337 1618
-404 332 1598
-406 337 1624
-397 334 1608
-397 338 1628
-389 335 1617
-383 334 1613
-381 336 1625
-373 334 1613
-370 336 1623
-365 335 1622
-355 331 1601
-345 326 1578
-343 329 1592
-336 326 1581
-336 330 1602
-326 325 1579
-324 328 1593
-321 330 1602
-316 329 1601
-310 328 1597
-302 324 1578
-301 328 1597
-295 327 1592
-289 325 1584
-286 327 1594
-278 324 1581
-270 320 1562
-270 325 1588
-265 325 1588
-255 318 1555
-253 322 1573
-243 315 1540
-242 319 1564
-237 318 1559
-232 318 1556
-228 318 1560
-225 321 1576
-219 319 1565
-216 320 1572
-210 319 1567
-206 320 1573
-201 318 1564
-198 322 1581
-194 322 1584
-189 322 1582
-183 320 1575
-177 317 1559
-176 323 1590
-168 317 1563
-166 322 1585
-161 321 1582
-157 323 1595
-153 324 1600
-148 323 1595
-143 323 1596
-138 322 1591
-134 323 1596
-126 316 1560
-119 308 1523
-111 300 1480
-100 280 1385
-93 274 1353
-86 264 1305
-80 257 1272
-75 254 1254
-72 254 1257
-67 251 1242
-64 252 1243
-60 252 1247
-56 252 1247
-53 253 1250
-49 253 1254
-47 258 1275
-43 261 1291
-40 265 1311
-37 270 1336
-34 274 1358
-31 283 1404
-29 297 1474
-25 304 1509
-22 317 1573
-17 321 1594
-13 323 1604
-8 320 1587
-3 322 1600
0 322 1601
5 323 1605
10 324 1608
15 325 1613
19 322 1600
24 324 1607
29 324 1609
33 323 1603
38 325 1612
42 320 1592
47 322 1598
52 325 1615
57 325 1615
61 324 1608
67 326 1618
71 325 1616
75 323 1606
81 326 1622
85 325 1613
90 323 1606
94 323 1605
100 326 1618
105 326 1622
110 330 1638
114 326 1622
120 328 1632
124 328 1628
129 327 1625
133 326 1622
137 325 1613
143 328 1628
149 330 1638
155 331 1646
159 331 1645
162 327 1626
168 330 1639
173 330 1637
179 332 1648
183 330 1637
189 333 1652
195 334 1658
198 331 1641
204 334 1656
210 335 1661
215 335 1659
219 334 1654
223 332 1647
229 334 1657
234 334 1657
238 333 1650
242 331 1641
249 335 1657
254 335 1660
258 334 1651
265 336 1662
265 330 1634
272 333 1647
279 335 1655
280 331 1634
289 336 1661
289 330 1629
296 332 1641
301 332 1640
304 331 1633
306 328 1616
314 331 1632
320 332 1635
324 331 1630
333 335 1651
335 333 1638
341 333 1640
347 334 1645
346 329 1618
357 334 1644
359 332 1631
365 333 1634
371 333 1638
375 333 1634
379 332 1628
389 336 1650
390 334 1636
397 335 1643
402 335 1640
407 335 1641
408 332 1625
417 335 1641
420 333 1630
424 333 1628
429 333 1627
435 334 1631
440 334 1631
451 339 1652
453 336 1637
457 336 1635
469 340 1657
469 337 1639
479 341 1658
487 343 1666
488 340 1652
491 339 1643
498 340 1648
499 337 1634
505 338 1636
517 342 1657
518 340 1645
525 341 1647
529 340 1643
535 341 1647
543 343 1653
548 342 1651
556 345 1661
560 344 1655
560 341 1640
566 341 1641
572 342 1643
600 355 1706
629 369 1772
629 366 1756
641 370 1773
634 363 1736
636 361 1727
642 362 1727
636 355 1693
642 356 1695
649 356 1698
651 354 1687
658 355 1690
668 358 1700
668 355 1686
677 357 1693
679 355 1683
684 355 1681
693 357 1688
705 361 1703
700 355 1676
711 358 1687
718 359 1690
722 358 1684
729 359 1687
732 358 1679
739 359 1682
740 357 1671
746 357 1670
752 357 1670
748 353 1647
757 355 1654
766 356 1659
767 354 1649
768 352 1638
769 351 1627
760 344 1593
734 330 1528
688 307 1419
646 286 1321
588 259 1192
592 259 1191
673 293 1345
722 312 1432
767 329 1510
796 340 1556
806 342 1562
814 343 1566
818 342 1562
818 340 1551
828 342 1556
832 342 1552
842 344 1559
841 341 1545
842 340 1537
839 336 1518
836 333 1501
831 329 1481
831 327 1471
829 325 1457
823 320 1435
-472 192 808
-481 196 828
-478 196 830
-483 199 845
-485 201 854
-484 202 858
-498 209 891
-485 205 874
-485 206 881
-499 213 912
-493 212 909
-498 215 925
-504 219 944
-481 210 907
-499 219 949
-487 215 933
-492 219 950
-499 223 970
-478 215 937
-495 224 978
-501 228 998
-520 238 1043
-534 246 1080
-550 255 1120
-559 261 1149
-536 252 1110
-535 253 1117
-530 253 1116
-531 255 1127
-528 255 1128
-524 254 1129
-524 256 1139
-545 268 1195
-574 284 1268
-568 283 1265
-558 280 1253
-539 273 1221
-514 262 1173
-522 268 1202
-503 260 1168
-511 266 1196
-511 268 1208
-520 275 1239
-538 286 1293
-585 313 1419
-638 344 1558
-633 344 1561
-623 341 1548
-619 341 1552
-610 339 1544
-610 342 1559
-601 339 1549
-607 345 1579
-594 340 1558
-586 339 1552
-581 339 1553
-580 341 1564
-569 337 1549
-573 342 1574
-562 338 1559
-551 335 1544
-547 335 1546
-539 333 1540
-543 338 1563
-538 338 1564
-531 337 1559
-529 338 1570
-526 340 1578
-520 339 1574
-517 340 1582
-510 339 1576
-508 340 1587
-508 344 1603
-497 339 1583
-502 346 1616
-497 345 1616
-488 343 1606
-475 337 1579
-469 336 1576
-469 339 1593
-466 341 1601
-462 341 1604
-450 336 1582
-450 339 1598
-439 335 1579
-429 331 1560
-431 336 1586
-425 335 1582
-420 334 1580
-415 334 1579
-410 334 1581
-407 336 1590
-403 336 1593
-398 336 1595
-396 338 1604
-390 337 1601
-385 337 1600
-381 337 1604
-375 336 1600
-371 337 1603
-365 336 1601
-358 333 1590
-348 329 1569
-343 329 1568
-334 325 1550
-335 330 1576
-329 328 1569
-322 326 1560
-319 328 1569
-314 327 1567
-307 324 1555
-306 329 1575
-301 328 1575
-295 326 1565
-287 323 1550
-285 325 1563
-278 323 1552
-277 327 1574
-275 330 1585
-265 323 1556
-260 323 1557
-255 322 1552
-250 322 1551
-244 320 1544
-238 318 1532
-233 318 1535
-229 318 1535
-225 319 1542
-224 324 1565
-218 321 1552
-213 322 1557
-209 322 1559
-204 321 1555
-199 321 1552
-196 323 1564
-192 323 1566
-186 321 1557
-183 324 1572
-179 326 1579
-174 324 1571
-166 319 1549
-165 325 1576
-160 324 1573
-154 320 1557
-150 322 1566
-145 322 1567
-140 321 1563
-137 324 1574
-132 324 1575
-124 314 1530
-117 309 1506
-107 293 1428
-98 281 1367
-92 275 1339
-84 263 1281
-79 258 1256
-74 255 1241
-70 252 1228
-66 251 1221
-63 252 1225
-59 253 1231
-56 253 1231
-53 257 1251
-49 255 1244
-46 257 1254
-43 263 1284
-40 265 1293
-37 270 1319
-33 273 1334
-30 282 1378
-28 297 1452
-24 303 1480
-21 317 1548
-17 321 1571
-12 320 1566
-8 324 1584
-3 319 1559
0 323 1580
5 321 1572
10 324 1585
14 322 1576
19 325 1591
24 327 1599
28 324 1583
33 327 1602
38 328 1608
42 323 1579
47 324 1585
52 326 1598
56 325 1589
61 325 1592
66 325 1592
69 321 1569
75 325 1590
80 325 1593
84 325 1592
89 327 1603
95 330 1617
99 329 1610
104 329 1609
109 329 1612
113 328 1604
118 330 1614
123 328 1608
127 327 1601
132 329 1610
137 328 1606
143 332 1625
148 332 1623
153 332 1623
157 332 1623
163 333 1629
166 331 1619
171 331 1619
177 333 1626
179 328 1604
183 327 1599
189 329 1610
197 334 1631
203 337 1647
208 336 1641
211 334 1633
216 334 1631
221 335 1633
226 334 1631
229 332 1620
235 334 1630
242 337 1644
245 334 1629
252 336 1640
251 329 1605
260 335 1630
265 334 1629
267 332 1616
274 334 1628
280 335 1633
280 329 1603
287 332 1616
292 332 1616
296 331 1612
303 334 1626
302 328 1595
312 333 1619
319 335 1629
319 331 1605
325 332 1611
331 333 1617
338 335 1626
338 330 1601
345 332 1610
351 334 1616
354 332 1607
361 334 1614
365 333 1613
373 336 1624
373 332 1606
380 334 1613
389 337 1628
393 337 1626
402 340 1640
399 333 1606
403 333 1604
406 331 1595
419 338 1625
419 334 1609
423 333 1604
432 337 1619
441 339 1630
438 334 1603
452 340 1633
459 342 1642
457 337 1615
461 336 1612
470 339 1623
478 342 1635
484 342 1636
485 339 1622
488 338 1613
500 343 1636
501 340 1621
504 339 1614
512 341 1625
525 346 1647
524 342 1627
532 344 1635
540 346 1643
542 344 1634
550 346 1640
549 342 1622
555 343 1623
558 342 1617
570 346 1636
584 351 1660
608 362 1712
624 369 1741
625 366 1728
631 367 1727
635 366 1722
623 356 1674
626 354 1666
637 358 1679
638 355 1668
646 357 1674
649 356 1666
668 363 1700
668 360 1685
671 359 1676
682 362 1690
686 361 1685
688 360 1674
692 359 1671
694 357 1660
698 357 1657
713 362 1677
715 360 1668
720 360 1666
728 361 1669
727 358 1653
735 360 1659
742 360 1659
745 359 1654
754 361 1659
754 358 1645
760 359 1645
759 356 1629
774 360 1649
769 356 1625
774 356 1623
770 351 1602
753 341 1553
720 324 1473
691 309 1403
637 283 1281
607 268 1210
610 267 1207
683 298 1343
737 319 1438
770 331 1492
790 338 1519
810 344 1546
816 344 1545
820 344 1541
824 343 1536
825 342 1526
834 343 1531
844 345 1538
846 344 1530
842 340 1512
842 339 1501
830 332 1468
840 334 1474
833 329 1451
-471 194 806
-481 199 829
-479 199 831
-485 203 847
-489 206 860
-492 208 873
-474 202 848
-475 203 855
-486 209 882
-475 205 868
-487 212 898
-495 217 919
-465 205 870
-488 216 920
-500 223 949
-487 218 933
-486 219 938
-487 221 946
-474 217 929
-506 232 998
-524 242 1043
-535 249 1073
-546 255 1104
-550 259 1121
-550 260 1129
-539 257 1115
-536 257 1118
-537 259 1129
-531 258 1127
-527 258 1127
-518 255 1116
-526 261 1142
-547 273 1197
-570 286 1258
-564 285 1256
-567 289 1274
-546 280 1236
-518 268 1182
-514 268 1183
-497 261 1154
-502 265 1175
-508 270 1199
-524 281 1248
-550 296 1320
-618 335 1495
-631 345 1542
-621 342 1530
-613 340 1525
-611 341 1532
-608 343 1539
-608 345 1553
-593 339 1526
-593 342 1541
-588 342 1543
-579 339 1533
-576 340 1539
-575 342 1549
-566 340 1539
-565 342 1551
-550 336 1525
-547 337 1532
-537 334 1517
-536 336 1528
-532 336 1533
-529 337 1538
-527 339 1547
-525 341 1558
-519 340 1556
-518 342 1567
-509 339 1556
-504 339 1556
-502 341 1566
-504 346 1588
-495 343 1577
-489 342 1575
-492 347 1601
-481 343 1582
-472 339 1567
-465 338 1563
-466 342 1582
-459 340 1576
-453 340 1573
-449 340 1576
-443 339 1573
-435 337 1563
-428 335 1556
-426 337 1565
-423 338 1571
-419 339 1576
-413 338 1574
-408 337 1571
-405 338 1579
-392 332 1549
-392 336 1570
-395 342 1598
-384 337 1576
-383 340 1591
-381 342 1604
-372 338 1587
-364 335 1574
-359 335 1574
-352 333 1565
-343 329 1545
-342 332 1561
-335 330 1553
-330 329 1551
-325 329 1548
-323 331 1561
-315 328 1549
-311 328 1549
-307 330 1557
-300 327 1543
-296 327 1546
-291 327 1545
-286 327 1545
-282 327 1547
-278 328 1552
-272 326 1544
-269 327 1551
-264 327 1551
-259 326 1548
-254 326 1547
-248 325 1542
-242 322 1532
-237 321 1527
-235 324 1543
-228 321 1530
-223 321 1529
-218 320 1525
-217 325 1550
-208 318 1516
-207 324 1544
-204 327 1558
-199 325 1552
-193 323 1543
-191 327 1560
-182 320 1528
-181 325 1553
-175 323 1546
-169 321 1534
-166 323 1545
-161 323 1543
-158 326 1558
-152 323 1544
-149 325 1555
-144 325 1556
-140 326 1562
-135 324 1554
-132 328 1575
-122 315 1508
-113 302 1449
-104 291 1395
-96 278 1334
-90 273 1310
-84 265 1273
-78 258 1237
-73 255 1225
-70 255 1222
-65 252 1210
-62 254 1219
-58 252 1209
-56 256 1230
-52 256 1230
-48 256 1228
-45 257 1234
-42 261 1253
-39 265 1275
-36 270 1300
-33 273 1313
-30 283 1363
-28 305 1467
-25 310 1492
-21 319 1536
-16 317 1528
-12 326 1571
-8 324 1563
-3 323 1558
1 322 1552
5 326 1574
10 322 1554
15 332 1601
19 326 1573
24 327 1576
28 326 1570
32 324 1563
37 325 1568
42 326 1573
46 323 1556
51 327 1575
56 329 1586
60 326 1575
65 325 1566
70 326 1574
74 327 1577
79 329 1585
83 325 1568
89 328 1584
94 330 1594
98 329 1588
104 333 1606
107 329 1585
112 328 1583
117 330 1591
121 327 1577
126 330 1589
131 330 1591
137 333 1604
142 335 1613
146 332 1598
151 334 1609
155 332 1600
158 328 1583
165 333 1603
171 335 1615
174 332 1598
180 335 1613
186 336 1619
189 333 1603
194 334 1610
200 336 1620
204 335 1614
214 343 1651
215 337 1621
217 333 1600
225 338 1628
227 333 1600
232 334 1604
239 338 1623
242 335 1611
245 333 1599
251 334 1606
257 336 1611
259 331 1591
266 334 1605
272 337 1617
276 335 1606
281 336 1611
286 336 1611
288 333 1596
293 333 1595
296 331 1585
300 330 1580
307 333 1594
314 335 1604
318 335 1601
320 332 1586
328 334 1599
332 334 1594
336 333 1590
341 334 1593
348 336 1603
354 336 1605
358 336 1600
359 333 1586
367 336 1599
370 333 1587
376 335 1594
383 337 1602
386 335 1594
393 337 1603
391 331 1574
406 340 1616
406 336 1594
415 339 1609
416 336 1595
427 341 1617
425 336 1590
434 339 1606
436 337 1595
440 336 1588
454 343 1621
453 339 1601
460 340 1607
470 344 1622
474 343 1617
474 340 1600
482 342 1612
489 343 1616
488 339 1595
495 341 1601
498 339 1594
509 344 1613
511 341 1602
516 342 1603
524 343 1609
531 345 1615
541 348 1630
536 342 1599
547 346 1614
553 346 1617
554 344 1603
568 350 1629
577 352 1637
597 361 1680
615 368 1713
625 371 1724
625 368 1709
617 361 1672
609 353 1634
622 357 1655
635 362 1675
634 358 1656
643 361 1665
650 362 1668
657 362 1670
665 364 1675
664 361 1659
673 362 1665
686 367 1684
682 362 1659
688 362 1660
696 364 1665
697 361 1652
707 364 1662
711 363 1658
707 359 1634
715 360 1639
725 362 1647
731 362 1647
740 365 1655
742 363 1646
744 361 1637
752 362 1639
752 360 1627
762 362 1636
762 360 1622
769 361 1624
768 358 1608
771 357 1602
773 355 1594
777 355 1588
755 342 1531
716 322 1440
690 309 1376
631 281 1249
618 273 1213
624 274 1215
696 304 1347
735 319 1411
773 333 1473
804 344 1521
804 342 1509
814 344 1517
822 345 1520
826 345 1516
836 347 1523
831 343 1502
836 343 1499
840 343 1496
841 341 1487
841 339 1475
838 336 1459
-485 202 828
-471 197 810
-478 202 829
-487 206 850
-488 208 859
-496 212 879
-481 208 859
-476 206 856
-488 213 885
-493 216 900
-489 216 899
-490 218 909
-487 217 910
-496 223 933
-494 223 938
-503 228 962
-476 218 918
-503 231 976
-524 242 1026
-532 248 1051
-543 254 1080
-547 258 1097
-547 259 1105
-544 260 1108
-543 261 1115
-535 258 1106
-534 260 1113
-535 262 1124
-533 262 1128
-533 264 1139
-528 264 1137
-523 263 1135
-545 276 1193
-570 290 1258
-569 292 1266
-563 291 1264
-553 287 1250
-496 260 1132
-507 268 1167
-500 266 1161
-513 275 1201
-505 272 1191
-520 282 1237
-564 308 1354
-621 342 1503
-622 344 1517
-617 344 1519
-612 344 1520
-607 344 1522
-601 344 1520
-595 343 1519
-591 343 1521
-588 344 1528
-580 342 1519
-580 345 1534
-565 339 1509
-568 343 1532
-563 343 1531
-553 339 1517
-557 345 1544
-533 333 1491
-540 340 1526
-531 337 1513
-526 337 1515
-522 337 1517
-513 335 1507
-514 339 1525
-517 343 1547
-508 340 1535
-508 343 1551
-502 343 1550
-496 342 1546
-491 342 1548
-487 342 1550
-478 339 1536
-481 344 1564
-481 348 1581
-466 340 1549
-462 340 1550
-453 338 1539
-455 342 1561
-448 341 1555
-441 339 1547
-437 339 1552
-430 337 1543
-422 335 1534
-421 338 1548
-421 341 1566
-414 340 1559
-407 337 1548
-400 335 1540
-401 340 1563
-397 340 1567
-386 335 1543
-383 337 1551
-382 340 1567
-376 339 1562
-372 339 1567
-368 339 1569
-362 338 1563
-358 339 1569
-348 334 1547
-341 332 1537
-336 331 1534
-332 332 1540
-328 332 1540
-323 332 1541
-319 332 1543
-316 334 1553
-308 330 1537
-303 329 1532
-298 329 1532
-291 327 1521
-286 326 1519
-282 327 1523
-280 329 1534
-276 330 1541
-271 329 1537
-263 325 1519
-260 326 1525
-254 325 1522
-251 327 1528
-246 326 1524
-240 324 1517
-232 320 1499
-231 324 1520
-224 320 1503
-220 320 1503
-216 321 1508
-214 326 1529
-210 325 1527
-205 325 1525
-201 325 1528
-195 324 1524
-192 326 1534
-190 330 1552
-182 324 1523
-178 326 1533
-174 326 1534
-170 327 1539
-166 327 1544
-162 329 1550
-156 325 1531
-152 326 1538
-147 326 1538
-144 328 1548
-137 323 1524
-133 324 1531
-130 329 1554
-119 312 1473
-111 303 1430
-103 290 1370
-95 280 1322
-88 270 1278
-82 263 1243
-77 260 1228
-72 256 1208
-69 255 1204
-65 255 1205
-62 255 1206
-58 254 1200
-54 254 1201
-51 256 1211
-48 258 1220
-44 257 1219
-41 261 1236
-38 265 1255
-36 272 1290
-33 278 1315
-30 286 1355
-28 305 1448
-24 308 1462
-20 317 1505
-16 323 1534
-12 322 1531
-7 317 1504
-3 325 1544
1 323 1536
5 322 1531
10 323 1537
14 323 1532
19 326 1547
23 328 1560
28 327 1553
32 327 1556
37 325 1544
42 328 1558
46 329 1565
51 329 1566
55 325 1544
60 330 1569
64 325 1544
69 327 1557
74 328 1561
79 331 1573
82 327 1556
88 331 1573
92 330 1570
96 326 1552
102 330 1571
106 331 1574
112 333 1582
115 328 1559
119 328 1558
124 328 1558
130 332 1576
135 334 1585
138 330 1567
143 331 1570
148 332 1576
153 332 1579
160 337 1600
165 337 1599
168 334 1586
174 336 1597
176 332 1576
184 338 1603
190 339 1610
194 338 1604
197 336 1595
203 338 1603
207 336 1595
212 337 1597
216 337 1596
220 335 1588
226 337 1596
230 336 1593
234 334 1584
238 334 1580
245 337 1594
247 333 1576
252 333 1576
257 335 1583
262 334 1579
266 333 1576
271 334 1576
273 331 1565
282 336 1586
287 336 1588
291 335 1582
296 336 1586
298 333 1571
305 335 1580
311 336 1585
317 338 1592
321 337 1587
323 334 1573
330 337 1585
334 336 1582
338 335 1576
344 337 1583
349 336 1581
356 339 1591
359 338 1585
364 337 1583
370 339 1589
372 336 1577
375 334 1568
387 341 1598
388 338 1582
397 342 1599
398 338 1581
401 337 1574
407 337 1576
410 336 1570
419 340 1586
424 339 1584
426 338 1575
428 335 1563
442 343 1596
443 340 1582
449 341 1586
457 343 1594
462 343 1594
463 340 1580
467 340 1577
473 340 1579
479 341 1583
491 346 1604
487 340 1574
494 341 1580
500 342 1582
507 344 1589
516 347 1601
511 340 1568
521 344 1584
528 345 1588
536 347 1597
541 347 1597
544 346 1590
551 347 1595
566 353 1623
570 353 1618
596 365 1674
614 373 1710
609 367 1680
606 362 1655
597 354 1616
607 357 1628
612 357 1627
622 359 1637
618 354 1613
628 357 1624
630 355 1614
643 360 1635
650 361 1637
658 362 1642
667 365 1651
674 366 1654
680 366 1654
687 367 1656
691 366 1652
698 367 1653
700 365 1644
704 365 1640
706 363 1630
720 367 1648
717 363 1628
731 368 1646
732 365 1634
743 368 1646
748 369 1644
746 365 1626
747 363 1614
755 364 1619
759 364 1615
766 364 1616
764 361 1600
774 363 1606
772 360 1591
776 359 1586
777 357 1574
772 353 1552
739 336 1475
717 324 1419
696 312 1366
616 274 1199
624 276 1204
631 278 1210
706 309 1344
750 326 1417
781 337 1466
806 346 1500
815 347 1506
818 346 1500
826 348 1503
831 348 1500
836 348 1499
837 346 1490
846 348 1494
841 344 1474
850 346 1480
-474 200 808
-494 210 850
-490 209 848
-486 209 848
-471 204 828
-488 212 865
-492 215 879
-497 218 893
-487 215 882
-476 212 869
-481 215 885
-482 217 894
-495 224 924
-489 223 920
-490 225 930
-478 221 915
-504 234 972
-585 273 1136
-726 340 1421
-725 341 1428
-579 274 1150
-557 266 1116
-545 262 1100
-548 265 1115
-540 263 1107
-534 261 1103
-539 266 1122
-535 265 1123
-541 270 1146
-526 264 1122
-527 267 1134
-523 267 1135
-547 280 1196
-572 296 1262
-571 297 1268
-557 292 1249
-548 289 1239
-513 273 1169
-497 266 1143
-512 276 1187
-504 274 1179
-506 277 1193
-529 291 1259
-590 327 1415
-617 344 1494
-613 344 1495
-612 347 1506
-598 341 1485
-594 342 1488
-593 344 1499
-592 346 1509
-588 346 1514
-581 345 1509
-571 342 1497
-573 346 1516
-568 345 1514
-568 348 1530
-560 346 1521
-551 343 1512
-546 343 1512
-535 339 1497
-532 340 1501
-526 339 1500
-522 340 1503
-515 338 1497
-515 340 1510
-512 342 1518
-506 340 1513
-504 342 1524
-503 345 1537
-495 343 1528
-497 347 1549
-489 345 1541
-479 341 1524
-478 344 1537
-471 342 1532
-474 347 1556
-458 339 1520
-455 340 1527
-452 341 1534
-444 339 1524
-443 341 1536
-436 340 1531
-436 343 1545
-424 338 1523
-424 341 1539
-419 341 1540
-414 340 1538
-412 342 1547
-405 341 1543
-395 336 1523
-397 341 1547
-390 339 1540
-387 341 1548
-380 338 1537
-372 336 1527
-369 337 1531
-366 338 1541
-365 341 1555
-360 341 1555
-351 337 1539
-346 337 1537
-339 334 1524
-331 331 1512
-327 331 1516
-322 330 1510
-320 333 1523
-315 333 1524
-307 329 1507
-301 328 1503
-301 332 1522
-294 330 1513
-290 329 1512
-286 330 1515
-285 334 1535
-274 327 1505
-267 324 1492
-268 330 1521
-257 322 1485
-256 327 1506
-254 329 1516
-250 330 1520
-241 325 1498
-238 326 1506
-232 323 1493
-229 326 1507
-225 326 1508
-217 321 1485
-214 323 1494
-212 327 1515
-207 325 1505
-202 324 1502
-198 326 1509
-193 325 1506
-190 327 1515
-187 329 1525
-181 327 1517
-177 328 1524
-171 325 1509
-167 326 1516
-164 328 1523
-158 325 1510
-153 324 1506
-150 326 1517
-146 328 1526
-141 326 1516
-137 328 1529
-132 327 1525
-125 320 1489
-117 311 1450
-109 301 1402
-100 286 1332
-92 276 1286
-87 270 1259
-81 264 1229
-76 260 1212
-71 256 1193
-67 254 1184
-64 256 1193
-61 257 1197
-57 254 1185
-54 257 1197
-51 257 1199
-47 259 1208
-44 259 1208
-41 264 1231
-38 266 1244
-35 273 1276
-32 279 1302
-30 290 1357
-27 305 1426
-23 304 1421
-20 314 1470
-16 324 1516
-12 327 1529
-7 322 1508
-3 324 1518
1 321 1505
5 322 1506
10 324 1517
14 325 1525
18 324 1515
23 329 1543
28 329 1544
32 328 1535
37 331 1551
42 332 1554
46 330 1546
50 328 1535
54 324 1517
59 330 1544
63 327 1535
68 330 1546
73 331 1550
77 328 1539
81 326 1526
87 333 1559
92 332 1557
96 331 1550
101 331 1553
106 334 1567
111 334 1563
116 335 1571
120 335 1571
124 333 1559
128 332 1554
134 334 1565
136 329 1540
142 332 1552
148 336 1573
152 334 1562
157 334 1564
161 334 1562
166 334 1562
171 334 1565
176 336 1574
180 335 1568
186 338 1581
190 337 1574
194 335 1564
198 334 1561
205 338 1580
208 336 1569
213 336 1571
218 336 1570
224 338 1579
228 337 1572
233 338 1578
239 340 1586
243 339 1584
248 339 1580
251 337 1573
254 335 1563
258 334 1556
265 337 1570
272 339 1581
275 338 1574
278 336 1565
284 337 1568
292 341 1586
292 336 1562
295 334 1554
302 336 1563
307 336 1563
315 340 1580
318 338 1570
320 335 1557
327 338 1571
329 336 1558
339 341 1580
339 336 1558
346 339 1568
347 335 1551
353 336 1555
357 335 1551
362 336 1552
369 338 1561
376 340 1572
376 336 1552
383 338 1561
391 341 1571
396 341 1573
396 337 1553
401 337 1553
406 337 1553
415 341 1570
417 339 1560
430 345 1588
431 342 1572
437 343 1577
440 342 1570
446 343 1572
447 340 1560
457 344 1576
464 345 1582
460 339 1553
467 341 1559
472 341 1558
482 345 1574
491 347 1586
492 345 1573
495 344 1566
501 345 1569
512 349 1588
508 343 1560
519 347 1575
525 347 1578
529 347 1575
535 348 1578
540 348 1576
543 346 1569
555 351 1588
568 356 1612
589 366 1654
599 369 1668
604 369 1665
610 370 1667
606 364 1639
605 360 1621
606 358 1610
615 360 1619
620 360 1617
634 365 1638
630 360 1614
634 360 1609
641 361 1613
642 358 1601
648 359 1603
662 364 1623
665 363 1616
678 367 1632
687 369 1640
695 370 1645
705 373 1654
702 369 1633
707 369 1632
711 368 1628
718 369 1629
723 369 1626
724 367 1617
728 366 1612
738 369 1622
739 366 1609
751 370 1623
747 365 1600
754 366 1602
763 368 1608
762 365 1595
764 364 1586
772 365 1589
772 363 1577
780 364 1580
776 360 1561
772 355 1539
757 346 1498
740 336 1452
719 325 1400
692 310 1336
616 275 1179
619 274 1176
651 287 1228
713 312 1335
754 328 1402
791 342 1461
811 349 1487
818 349 1487
824 350 1488
823 347 1474
827 347 1471
840 350 1483
842 349 1475
844 348 1467
-472 202 804
-487 210 837
-472 205 818
-483 210 842
-491 215 862
-495 218 876
-487 216 869
-493 220 886
-484 217 876
-479 216 874
-480 218 883
-496 226 919
-498 228 929
-494 228 928
-491 228 930
-516 241 986
-573 269 1102
-811 382 1573
-858 406 1677
-809 385 1593
-662 318 1315
-547 265 1095
-539 263 1088
-542 266 1101
-538 266 1103
-539 268 1114
-535 268 1115
-526 264 1103
-527 267 1115
-511 261 1090
-520 267 1119
-524 271 1135
-540 281 1180
-573 300 1263
-563 297 1251
-566 300 1269
-544 291 1230
-514 277 1171
-512 277 1175
-490 268 1135
-501 276 1172
-505 280 1190
-545 304 1295
-608 342 1458
-613 346 1481
-606 345 1479
-595 342 1465
-600 347 1490
-592 345 1482
-589 346 1489
-576 341 1469
-571 341 1470
-569 342 1477
-567 344 1485
-568 347 1501
-563 347 1502
-554 344 1491
-553 346 1503
-542 342 1486
-543 346 1503
-528 339 1475
-527 341 1487
-524 342 1493
-520 342 1495
-513 341 1489
-515 346 1512
-508 344 1506
-506 346 1515
-502 346 1516
-491 341 1498
-493 346 1521
-487 345 1516
-484 346 1523
-473 341 1503
-468 341 1503
-469 345 1523
-464 345 1523
-455 342 1511
-448 340 1504
-450 344 1526
-440 341 1510
-443 346 1534
-438 346 1535
-424 339 1504
-422 341 1515
-413 337 1499
-414 341 1518
-412 343 1529
-405 342 1524
-398 339 1513
-391 337 1504
-391 341 1522
-385 339 1517
-382 341 1527
-373 337 1510
-372 340 1526
-362 335 1502
-366 343 1539
-359 341 1531
-352 338 1520
-350 341 1534
-341 337 1515
-335 335 1508
-327 332 1494
-321 330 1488
-321 334 1507
-317 335 1511
-309 331 1495
-305 331 1496
-300 331 1496
-295 330 1492
-293 333 1505
-286 330 1496
-283 331 1499
-277 329 1492
-272 329 1493
-270 332 1504
-264 330 1498
-261 331 1503
-250 324 1470
-248 327 1486
-245 327 1489
-239 326 1484
-236 328 1492
-232 328 1494
-225 324 1477
-222 327 1488
-220 330 1504
-213 326 1487
-210 328 1498
-205 326 1490
-201 328 1498
-194 324 1480
-192 328 1497
-190 332 1517
-184 328 1501
-180 329 1505
-177 331 1517
-171 328 1504
-166 328 1502
-162 328 1504
-158 329 1508
-153 327 1501
-149 329 1511
-146 333 1528
-141 331 1518
-134 326 1497
-131 329 1510
-123 320 1469
-115 310 1426
-108 301 1384
-99 289 1326
-92 279 1280
-86 271 1246
-80 263 1209
-74 258 1186
-70 256 1177
-67 257 1179
-64 257 1180
-60 257 1179
-56 255 1171
-53 257 1180
-50 258 1187
-47 262 1204
-44 261 1199
-41 263 1213
-38 269 1238
-35 274 1261
-32 276 1273
-29 289 1332
-27 309 1425
-23 311 1433
-20 318 1466
-16 328 1512
-11 323 1493
-7 325 1501
-3 323 1493
1 324 1495
5 322 1488
9 322 1486
14 325 1501
18 326 1505
23 328 1515
27 330 1522
32 330 1522
36 331 1528
41 332 1532
45 330 1525
50 329 1522
54 328 1516
59 329 1520
62 325 1499
67 328 1516
72 331 1529
76 329 1518
82 333 1537
87 334 1543
91 332 1535
96 334 1545
99 331 1531
104 331 1528
110 336 1552
113 333 1539
118 333 1539
123 334 1543
126 332 1531
132 335 1548
137 335 1545
142 337 1557
146 335 1547
151 336 1552
156 337 1554
161 337 1556
164 335 1548
170 339 1562
175 338 1558
178 336 1550
185 340 1569
188 337 1554
192 337 1552
196 336 1547
202 338 1557
208 340 1566
212 339 1562
216 337 1554
218 334 1538
225 337 1552
228 335 1542
233 336 1548
243 343 1578
245 340 1564
248 338 1552
252 336 1546
257 336 1546
260 336 1542
265 335 1541
273 339 1559
276 337 1549
279 336 1542
285 338 1549
288 336 1542
293 336 1538
299 337 1545
302 336 1539
308 337 1545
314 339 1553
318 338 1549
322 338 1545
325 335 1534
331 338 1543
340 342 1562
340 337 1539
347 339 1549
352 339 1548
358 341 1555
363 341 1556
364 338 1541
373 342 1558
381 345 1569
378 338 1539
383 339 1541
391 341 1552
389 336 1525
398 339 1539
403 340 1542
412 343 1555
409 336 1526
412 336 1521
427 343 1556
427 340 1538
437 344 1556
441 343 1552
439 338 1529
448 341 1542
454 343 1546
462 345 1556
457 338 1525
468 343 1544
471 341 1537
478 343 1545
482 343 1540
487 343 1540
497 346 1555
504 348 1560
500 342 1534
508 344 1541
518 348 1558
524 349 1559
535 352 1576
531 347 1548
540 350 1560
545 349 1558
555 353 1573
585 369 1643
594 371 1653
590 366 1626
599 368 1635
595 362 1608
600 362 1607
607 363 1610
610 362 1605
608 358 1583
616 360 1589
625 362 1599
626 360 1588
635 362 1596
631 357 1573
640 359 1581
647 361 1584
653 361 1584
671 368 1615
675 368 1610
683 369 1617
690 370 1619
690 367 1604
704 372 1624
714 375 1633
713 372 1618
707 366 1591
726 373 1620
731 373 1618
730 370 1601
741 372 1612
742 371 1602
743 369 1591
746 368 1585
752 368 1583
755 367 1578
762 368 1580
773 371 1590
766 365 1562
763 361 1544
780 366 1566
767 358 1528
781 362 1545
780 360 1531
770 353 1499
744 338 1436
717 324 1373
681 306 1294
615 275 1158
613 272 1146
665 293 1235
712 312 1312
759 331 1389
795 344 1444
812 350 1465
815 349 1458
822 350 1461
830 351 1463
833 350 1459
840 351 1460
-476 207 812
-505 220 868
-483 212 836
-505 223 881
-482 214 846
-488 218 863
-469 210 835
-489 221 878
-487 221 882
-482 220 879
-493 226 905
-481 222 891
-505 235 942
-501 234 942
-529 249 1002
-571 270 1090
-641 304 1232
-809 386 1568
-852 409 1664
-809 391 1593
-644 314 1278
-553 271 1106
-537 265 1083
-535 266 1088
-538 269 1103
-536 270 1106
-539 273 1121
-539 275 1130
-537 275 1135
-525 271 1118
-517 269 1111
-521 273 1129
-540 285 1180
-564 299 1243
-563 301 1251
-565 304 1266
-551 298 1244
-517 282 1177
-498 274 1144
-504 279 1167
-495 276 1156
-498 280 1173
-548 310 1302
-610 347 1460
-616 353 1489
-602 348 1468
-598 348 1471
-591 347 1467
-587 347 1470
-581 346 1467
-580 348 1478
-574 347 1476
-573 349 1486
-562 345 1470
-563 348 1486
-559 349 1491
-557 350 1498
-544 345 1476
-536 343 1470
-534 345 1477
-520 338 1452
-516 339 1457
-515 341 1468
-515 344 1481
-510 344 1481
-508 346 1491
-500 343 1480
-501 347 1498
-493 344 1488
-487 343 1485
-489 347 1506
-482 346 1502
-476 345 1499
-471 344 1496
-464 343 1490
-464 346 1508
-462 348 1515
-451 343 1495
-443 340 1485
-441 342 1494
-442 346 1514
-434 344 1504
-429 344 1505
-424 343 1504
-417 341 1496
-407 336 1475
-407 340 1495
-403 341 1498
-400 342 1504
-396 342 1506
-382 334 1472
-382 338 1488
-383 343 1511
-379 343 1514
-372 341 1505
-362 336 1485
-360 337 1492
-361 343 1516
-358 344 1526
-353 344 1524
-346 342 1515
-337 337 1496
-333 337 1497
-327 335 1490
-318 331 1473
-316 334 1485
-314 336 1496
-307 333 1484
-303 334 1488
-299 334 1488
-294 333 1485
-289 332 1483
-284 332 1481
-280 332 1483
-274 330 1476
-273 334 1495
-267 333 1488
-259 328 1467
-255 329 1472
-250 327 1466
-247 329 1475
-240 325 1458
-235 325 1457
-233 328 1471
-228 327 1466
-226 330 1482
-219 326 1464
-218 331 1488
-213 331 1488
-207 328 1475
-202 327 1474
-199 329 1484
-195 329 1482
-190 329 1481
-185 327 1472
-179 324 1462
-176 327 1475
-173 329 1483
-168 327 1478
-163 326 1473
-160 329 1485
-156 329 1488
-151 330 1490
-148 331 1499
-142 327 1481
-139 331 1496
-134 329 1490
-128 327 1480
-120 317 1435
-114 311 1408
-104 296 1341
-97 286 1296
-89 275 1246
-85 272 1232
-80 268 1213
-74 261 1184
-70 257 1166
-66 255 1155
-63 258 1169
-59 256 1159
-55 255 1155
-53 257 1167
-49 258 1172
-46 259 1177
-43 261 1186
-41 268 1216
-37 268 1218
-34 272 1235
-31 277 1260
-29 289 1313
-27 309 1405
-23 313 1424
-19 316 1440
-16 325 1478
-11 324 1475
-7 325 1481
-3 324 1476
1 324 1476
5 323 1469
10 329 1499
14 329 1499
18 326 1486
22 326 1485
27 333 1517
31 327 1487
36 327 1491
40 331 1508
44 327 1490
49 331 1508
54 330 1505
58 330 1503
63 333 1519
67 333 1516
72 332 1513
76 332 1512
80 330 1503
85 334 1522
89 330 1505
96 338 1541
100 337 1535
103 333 1516
108 335 1526
112 332 1513
117 334 1519
121 334 1522
126 334 1522
132 340 1548
134 333 1516
139 335 1525
145 338 1538
148 334 1522
152 332 1511
156 333 1513
163 338 1537
168 338 1538
169 331 1506
177 337 1533
180 335 1525
187 340 1546
192 341 1550
194 337 1530
198 335 1524
205 340 1543
210 340 1546
212 335 1523
218 339 1537
221 335 1523
228 339 1539
233 340 1541
237 339 1540
241 339 1535
244 336 1523
249 337 1529
253 336 1524
259 338 1533
263 337 1527
268 338 1532
269 334 1512
277 337 1526
286 343 1550
288 340 1538
291 339 1532
296 339 1530
300 338 1526
306 340 1534
308 336 1518
313 337 1522
317 337 1520
322 338 1523
328 339 1529
330 337 1516
337 338 1524
338 335 1509
346 338 1521
347 335 1507
356 340 1526
361 339 1525
364 338 1518
370 339 1522
377 342 1532
379 339 1522
387 342 1533
386 337 1511
392 339 1517
395 337 1508
405 342 1529
407 339 1518
416 344 1536
422 345 1539
429 346 1544
425 339 1513
435 344 1531
441 345 1537
445 344 1530
449 344 1529
455 345 1533
458 343 1526
461 342 1518
471 346 1536
471 342 1518
481 346 1535
481 343 1518
485 343 1517
495 347 1533
499 346 1530
508 349 1539
518 352 1555
521 351 1548
520 348 1532
530 351 1544
529 347 1526
541 352 1546
550 354 1557
575 367 1613
584 370 1623
586 368 1613
586 365 1597
591 365 1596
586 359 1569
596 362 1582
600 361 1577
612 366 1594
607 360 1566
614 361 1570
620 362 1572
627 363 1575
632 363 1575
633 361 1563
645 364 1578
643 360 1560
654 364 1573
668 369 1593
673 369 1590
680 370 1593
690 372 1603
691 370 1592
701 373 1602
705 372 1598
712 374 1601
722 376 1610
726 375 1604
724 372 1588
732 373 1592
728 368 1569
739 372 1582
742 370 1574
749 371 1576
753 371 1573
761 372 1577
759 369 1560
770 372 1570
768 368 1554
776 370 1557
775 367 1543
775 364 1531
774 362 1518
780 362 1517
790 365 1526
763 350 1461
737 336 1399
705 319 1328
675 304 1262
621 278 1151
622 276 1145
676 299 1236
728 320 1321
770 336 1388
805 349 1440
817 352 1449
820 352 1445
825 351 1442
832 352 1444
-494 217 842
-478 212 821
-481 214 832
-468 209 815
-488 219 856
-491 222 869
-499 227 889
-488 223 876
-494 227 893
-495 229 902
-486 226 892
-489 229 905
-510 240 951
-548 259 1030
-614 292 1162
-630 302 1202
-668 321 1284
-799 386 1547
-842 409 1643
-771 377 1517
-611 301 1211
-546 271 1091
-548 274 1105
-534 269 1084
-537 272 1100
-538 274 1110
-534 274 1111
-518 268 1086
-513 267 1085
-512 268 1092
-522 275 1121
-527 280 1141
-542 289 1183
-562 302 1237
-559 302 1241
-553 301 1238
-545 299 1231
-517 286 1176
-504 280 1156
-503 282 1164
-490 277 1144
-503 286 1184
-541 310 1285
-596 343 1426
-605 351 1462
-591 346 1439
-591 348 1452
-586 348 1453
-577 345 1442
-573 346 1447
-579 352 1473
-566 347 1455
-566 350 1468
-561 349 1469
-560 351 1478
-554 350 1475
-544 347 1463
-534 343 1449
-531 344 1455
-528 345 1460
-517 341 1444
-511 340 1440
-506 340 1441
-507 343 1456
-495 338 1436
-496 342 1453
-497 346 1472
-497 349 1486
-486 344 1467
-486 347 1481
-480 346 1479
-477 347 1483
-471 346 1481
-463 343 1470
-459 343 1472
-459 347 1491
-459 350 1506
-446 344 1479
-438 341 1467
-438 345 1485
-431 342 1477
-425 341 1472
-419 340 1468
-419 344 1486
-413 343 1482
-405 339 1468
-399 338 1464
-399 341 1479
-400 346 1500
-391 343 1488
-380 337 1463
-378 338 1472
-374 339 1475
-371 341 1483
-367 341 1484
-366 344 1499
-356 339 1478
-353 339 1482
-351 342 1493
-345 340 1487
-344 344 1506
-333 337 1475
-329 338 1479
-327 340 1491
-315 332 1457
-315 337 1479
-309 335 1472
-303 334 1466
-299 334 1466
-296 336 1476
-295 339 1490
-286 334 1468
-279 331 1458
-274 330 1454
-269 329 1452
-266 330 1457
-263 332 1464
-259 332 1468
-255 333 1469
-247 328 1449
-246 333 1470
-238 328 1449
-236 330 1461
-231 330 1462
-226 329 1458
-222 329 1457
-219 330 1465
-215 332 1472
-209 329 1459
-205 329 1461
-200 328 1458
-197 330 1466
-192 328 1459
-187 327 1455
-184 330 1469
-181 332 1476
-174 328 1459
-171 330 1470
-166 329 1466
-162 330 1470
-157 327 1459
-154 331 1474
-151 333 1483
-146 332 1483
-142 332 1481
-137 332 1480
-133 332 1484
-128 329 1470
-118 316 1412
-113 312 1394
-104 299 1334
-95 285 1272
-89 278 1240
-82 268 1198
-78 267 1191
-73 261 1167
-69 259 1156
-65 255 1139
-62 256 1145
-59 259 1158
-55 258 1154
-52 258 1153
-49 259 1157
-46 261 1168
-43 263 1176
-40 267 1194
-37 269 1203
-34 274 1225
-31 276 1239
-28 283 1267
-26 304 1363
-23 310 1389
-19 317 1421
-15 324 1455
-11 327 1468
-7 322 1445
-2 322 1445
1 326 1464
5 329 1476
9 324 1456
14 327 1468
18 329 1478
23 330 1483
27 331 1486
31 329 1478
36 334 1499
40 332 1490
44 328 1472
49 332 1494
53 329 1480
57 331 1488
61 328 1474
66 332 1491
71 333 1495
75 333 1496
80 335 1505
85 335 1507
90 340 1529
93 334 1502
98 335 1504
103 336 1508
108 339 1524
112 337 1514
116 336 1511
120 336 1507
124 334 1499
129 336 1510
133 335 1504
140 340 1525
142 336 1507
148 339 1522
153 339 1524
156 336 1508
161 337 1514
166 338 1518
171 340 1526
176 340 1524
179 337 1512
184 339 1520
189 339 1520
195 343 1535
197 339 1517
202 339 1521
207 339 1518
210 337 1508
214 337 1507
220 339 1518
224 338 1513
229 339 1518
234 339 1519
238 338 1512
243 339 1515
250 342 1530
250 337 1505
257 340 1520
264 343 1532
262 335 1494
269 338 1510
276 341 1522
275 334 1491
284 340 1515
292 344 1531
293 340 1514
296 338 1507
302 340 1513
303 336 1496
312 341 1517
318 343 1525
321 340 1514
323 338 1504
327 337 1498
334 340 1509
338 339 1507
342 339 1505
349 341 1513
354 342 1517
357 340 1508
362 341 1509
367 341 1509
372 342 1511
376 342 1510
381 341 1509
384 340 1501
390 341 1507
392 339 1495
399 341 1504
405 342 1509
413 345 1521
426 353 1553
421 345 1516
421 341 1499
432 346 1519
437 346 1521
437 343 1504
442 343 1504
453 347 1523
451 343 1501
455 342 1498
466 347 1517
467 344 1505
474 346 1512
478 346 1510
480 343 1498
484 343 1496
498 350 1524
501 348 1518
505 348 1516
513 350 1523
521 352 1532
521 349 1516
526 349 1516
539 355 1541
550 359 1556
557 360 1560
567 364 1574
573 365 1577
580 366 1579
577 361 1557
583 362 1560
591 364 1567
589 359 1546
599 363 1559
608 365 1568
614 365 1568
613 362 1552
621 364 1560
620 361 1542
630 364 1555
630 361 1541
638 363 1547
642 362 1541
652 365 1553
666 370 1574
661 364 1548
672 368 1561
681 370 1568
689 371 1573
702 376 1590
699 371 1569
707 373 1575
718 376 1585
719 374 1576
728 376 1582
729 374 1570
728 371 1557
736 372 1561
739 372 1556
743 371 1550
751 372 1554
756 372 1553
759 372 1547
751 365 1519
763 368 1530
764 367 1521
767 366 1514
777 368 1521
773 364 1503
780 365 1504
779 362 1492
778 359 1478
762 350 1436
728 332 1361
706 320 1309
662 298 1217
623 279 1136
623 277 1128
698 309 1256
739 325 1319
784 343 1390
810 352 1426
812 351 1419
817 351 1417
-491 219 836
-482 216 826
-481 217 831
-480 218 836
-486 221 851
-492 225 868
-493 227 878
-485 225 869
-476 222 860
-502 235 914
-491 232 901
-518 246 958
-553 264 1031
-608 291 1142
-647 311 1223
-630 305 1201
-682 332 1310
-808 395 1563
-830 409 1620
-780 387 1534
-594 297 1177
-550 277 1099
-541 274 1090
-539 275 1094
-539 277 1103
-539 278 1110
-542 282 1126
-528 276 1107
-528 278 1115
-512 272 1090
-532 284 1143
-529 284 1144
-548 296 1195
-548 298 1205
-552 302 1224
-560 309 1253
-548 304 1235
-516 289 1174
-540 304 1238
-497 282 1149
-514 294 1200
-501 289 1180
-531 308 1259
-576 336 1377
-594 349 1433
-591 350 1439
-579 346 1422
-583 351 1444
-570 346 1424
-570 348 1436
-561 345 1427
-562 349 1443
-563 352 1459
-552 348 1443
-558 355 1471
-544 349 1450
-542 350 1456
-528 344 1433
-528 347 1445
-523 347 1447
-514 344 1436
-512 345 1443
-501 341 1425
-499 342 1434
-492 340 1426
-491 343 1438
-489 344 1447
-489 348 1462
-485 348 1464
-484 350 1475
-474 346 1460
-475 350 1477
-466 347 1465
-463 348 1471
-459 348 1474
-456 350 1481
-446 345 1464
-439 343 1455
-434 343 1455
-433 345 1465
-429 345 1468
-424 345 1469
-416 342 1455
-414 344 1467
-408 343 1463
-406 345 1471
-398 341 1459
-394 342 1462
-394 346 1480
-391 347 1485
-384 345 1478
-380 345 1479
-376 345 1480
-370 344 1476
-365 343 1476
-364 347 1491
-358 345 1485
-351 342 1474
-347 342 1475
-346 346 1492
-341 345 1490
-334 343 1480
-322 335 1445
-319 336 1453
-313 334 1446
-308 334 1446
-307 338 1463
-297 332 1437
-295 334 1446
-291 334 1447
-287 334 1449
-281 332 1442
-276 332 1442
-273 334 1450
-268 333 1446
-263 332 1443
-261 334 1455
-258 335 1461
-251 332 1447
-246 331 1444
-241 330 1440
-236 329 1438
-233 331 1446
-227 329 1435
-224 330 1440
-220 331 1445
-217 333 1456
-212 332 1451
-206 329 1438
-203 330 1446
-199 330 1446
-194 330 1448
-190 330 1446
-186 330 1448
-182 330 1449
-179 334 1466
-174 333 1460
-169 331 1455
-164 329 1445
-161 332 1460
-156 331 1454
-151 329 1446
-147 329 1447
-144 333 1464
-140 332 1461
-135 330 1455
-132 334 1469
-126 330 1455
-118 319 1404
-112 314 1383
-101 295 1300
-93 283 1248
-87 275 1213
-81 268 1182
-77 265 1167
-72 261 1148
-69 261 1148
-65 259 1141
-62 261 1150
-58 260 1146
-55 258 1139
-51 258 1139
-49 262 1154
-45 262 1155
-42 265 1169
-39 265 1169
-36 271 1197
-33 275 1213
-30 278 1228
-27 284 1254
-25 297 1314
-22 309 1367
-18 312 1382
-15 326 1442
-11 326 1444
-7 329 1457
-2 328 1451
1 325 1441
5 331 1465
9 329 1458
14 327 1448
18 329 1458
22 330 1464
27 330 1463
31 330 1463
35 330 1463
40 332 1471
44 334 1478
48 331 1467
52 330 1465
57 332 1473
61 333 1474
67 337 1494
70 334 1482
75 336 1487
79 334 1479
84 336 1491
88 334 1481
93 338 1498
97 335 1483
101 334 1482
106 338 1496
111 338 1497
114 336 1489
118 333 1476
123 336 1489
127 336 1487
131 334 1479
136 334 1479
142 338 1496
147 340 1506
150 338 1496
154 336 1487
160 339 1500
165 342 1512
170 341 1510
172 337 1493
179 343 1516
183 341 1506
188 342 1512
194 344 1522
196 340 1503
200 340 1504
202 336 1485
208 339 1497
215 342 1512
216 337 1488
223 341 1505
227 339 1498
232 341 1504
233 336 1484
238 337 1487
244 339 1494
249 340 1497
252 338 1489
257 339 1493
262 339 1493
266 339 1490
269 337 1482
274 337 1484
281 340 1497
285 340 1496
290 341 1497
295 342 1501
301 343 1506
300 337 1480
307 339 1489
311 340 1490
316 340 1490
319 339 1484
326 341 1494
328 338 1482
332 338 1479
340 341 1494
342 339 1484
345 338 1477
355 343 1498
358 341 1490
360 339 1480
367 342 1492
373 343 1496
378 343 1495
382 343 1494
385 341 1486
389 341 1483
391 339 1472
395 338 1471
409 346 1505
410 344 1492
417 346 1500
420 344 1493
424 343 1489
430 345 1494
438 348 1507
441 346 1498
442 344 1487
447 344 1486
457 349 1506
460 347 1497
467 348 1503
471 348 1502
472 345 1488
472 343 1475
480 345 1482
487 346 1489
494 349 1497
495 346 1485
502 348 1491
508 349 1493
519 353 1510
517 348 1489
527 352 1503
535 354 1513
550 361 1540
559 363 1549
565 364 1551
571 365 1553
567 360 1530
573 360 1530
577 359 1526
587 363 1539
586 359 1523
596 362 1534
598 361 1527
607 363 1535
614 364 1539
610 359 1516
616 360 1517
617 358 1507
631 363 1528
638 364 1532
645 366 1535
643 362 1517
658 368 1540
665 369 1544
665 366 1530
678 371 1548
687 373 1555
690 372 1549
698 373 1554
708 376 1564
706 372 1546
714 374 1551
719 374 1548
725 374 1549
731 375 1549
733 373 1540
736 372 1534
750 377 1552
744 371 1526
757 375 1540
761 375 1538
758 371 1520
760 369 1510
762 368 1503
772 370 1511
767 366 1490
776 368 1496
779 367 1489
778 364 1476
779 362 1467
778 360 1454
751 345 1392
725 331 1333
694 315 1266
645 291 1168
632 283 1135
644 287 1148
721 319 1277
756 333 1329
788 345 1375
818 356 1417
-495 223 841
-497 226 852
-470 214 811
-475 218 827
-488 225 854
-479 222 845
-484 226 860
-486 228 872
-487 230 880
-511 243 930
-542 259 994
-555 266 1026
-613 296 1141
-613 297 1149
-622 304 1177
-639 314 1217
-705 348 1354
-814 404 1575
-819 408 1596
-759 381 1490
-582 295 1152
-548 280 1094
-540 277 1086
-542 280 1099
-541 281 1106
-539 282 1111
-539 284 1119
-533 283 1116
-528 282 1114
-518 278 1102
-513 278 1101
-525 286 1135
-534 293 1165
-525 290 1155
-528 293 1171
-531 297 1186
-542 306 1223
-524 297 1190
-497 284 1139
-487 280 1126
-501 291 1169
-494 288 1161
-528 310 1251
-575 340 1374
-594 354 1434
-585 352 1424
-584 354 1435
-575 350 1423
-562 345 1404
-553 343 1395
-556 347 1413
-563 354 1444
-549 348 1422
-544 348 1422
-539 347 1421
-540 351 1438
-530 347 1423
-527 348 1429
-528 352 1446
-517 347 1427
-507 343 1413
-502 343 1415
-499 344 1420
-491 341 1409
-483 338 1399
-489 346 1433
-482 344 1425
-479 345 1430
-477 347 1439
-477 350 1455
-467 345 1437
-471 352 1464
-462 348 1450
-457 348 1450
-455 350 1459
-453 351 1467
-446 349 1460
-435 344 1440
-432 345 1447
-426 344 1443
-426 347 1458
-420 346 1454
-415 346 1453
-412 347 1460
-410 349 1469
-402 346 1456
-396 344 1452
-392 345 1454
-389 346 1460
-388 348 1473
-379 344 1455
-377 347 1468
-369 344 1455
-368 346 1466
-361 344 1460
-356 344 1458
-357 349 1480
-353 349 1483
-347 348 1478
-341 346 1470
-333 341 1454
-327 340 1448
-323 341 1452
-315 337 1436
-312 338 1441
-309 339 1447
-304 339 1447
-299 338 1444
-295 338 1446
-288 335 1431
-285 336 1440
-281 337 1444
-277 336 1442
-269 332 1424
-267 335 1436
-263 336 1441
-259 336 1442
-255 336 1443
-246 330 1417
-243 331 1423
-239 332 1427
-235 333 1432
-229 330 1422
-227 333 1434
-221 330 1421
-219 334 1439
-214 332 1434
-209 330 1426
-205 331 1431
-199 328 1417
-196 330 1426
-193 331 1433
-188 330 1429
-184 332 1435
-180 332 1439
-176 333 1440
-171 331 1433
-168 333 1445
-164 333 1445
-158 330 1433
-156 334 1447
-150 332 1439
-148 335 1453
-143 333 1446
-139 335 1456
-134 334 1450
-130 334 1450
-124 330 1433
-116 319 1386
-110 313 1360
-99 294 1278
-92 283 1230
-86 276 1200
-81 271 1179
-76 267 1159
-71 262 1140
-67 259 1125
-64 259 1125
-61 259 1128
-57 259 1127
-54 260 1130
-51 259 1128
-48 260 1133
-45 261 1137
-41 263 1145
-39 266 1157
-36 272 1185
-33 273 1189
-30 279 1218
-27 286 1248
-25 303 1322
-22 311 1360
-18 319 1394
-15 330 1442
-11 329 1437
-6 327 1428
-2 331 1447
1 326 1423
5 327 1428
9 330 1440
14 332 1449
18 329 1440
22 331 1448
27 333 1457
31 336 1467
35 333 1458
39 334 1459
44 335 1464
48 335 1465
52 332 1452
56 331 1447
60 332 1451
65 333 1456
70 335 1464
74 336 1469
79 338 1480
82 334 1461
87 337 1472
91 335 1467
95 334 1460
100 336 1470
105 338 1479
109 336 1467
113 337 1472
118 337 1473
122 337 1473
127 339 1482
131 337 1472
134 335 1462
140 339 1479
145 339 1482
150 341 1488
154 341 1489
158 339 1479
163 341 1489
167 341 1489
170 338 1477
176 341 1489
181 341 1489
186 344 1499
190 341 1489
192 338 1472
196 337 1469
203 341 1486
207 341 1488
209 337 1469
217 343 1493
221 341 1487
226 342 1490
228 339 1475
233 340 1478
238 341 1485
243 342 1486
246 340 1479
253 343 1493
255 341 1481
260 341 1480
266 343 1488
267 338 1469
271 338 1467
276 339 1470
281 340 1475
286 340 1474
292 342 1484
296 341 1478
301 342 1481
307 344 1491
306 338 1464
314 342 1480
315 339 1464
323 342 1477
327 342 1476
330 340 1468
338 343 1482
340 341 1472
344 341 1469
348 341 1469
354 342 1476
357 340 1466
359 339 1458
367 342 1472
372 342 1471
376 342 1470
379 340 1461
384 341 1463
389 342 1466
394 342 1466
401 345 1477
402 341 1462
412 346 1482
414 344 1472
419 344 1470
428 348 1487
430 346 1477
437 348 1484
437 344 1468
443 346 1474
450 347 1479
451 345 1469
460 348 1482
462 346 1472
466 346 1468
475 349 1483
474 345 1463
482 348 1474
486 347 1469
495 350 1482
496 348 1471
505 351 1482
509 350 1480
519 354 1495
525 355 1497
533 357 1505
546 363 1527
555 366 1538
558 364 1531
556 360 1513
565 363 1522
564 359 1506
569 359 1505
572 358 1499
584 363 1516
589 363 1516
596 364 1521
598 363 1511
603 363 1512
612 365 1521
611 362 1505
621 365 1516
624 364 1510
627 363 1503
624 359 1485
638 364 1504
651 368 1521
643 361 1490
657 366 1510
662 366 1509
676 372 1529
681 372 1527
697 377 1549
696 375 1536
695 371 1521
707 375 1533
708 373 1523
719 376 1535
724 376 1534
731 377 1535
729 374 1520
742 377 1533
746 377 1531
744 374 1513
749 374 1511
751 373 1505
755 372 1500
755 370 1489
757 368 1480
760 367 1474
770 369 1482
769 367 1469
778 369 1476
780 367 1467
773 362 1443
782 364 1449
776 359 1427
752 346 1372
731 334 1324
703 319 1262
655 296 1167
657 295 1161
664 296 1165
720 319 1255
759 335 1314
-473 216 803
-490 225 839
-498 230 858
-488 227 849
-489 228 855
-489 230 862
-500 236 889
-507 241 908
-535 255 965
-575 276 1046
-625 302 1145
-631 306 1165
-604 295 1123
-626 307 1173
-619 306 1169
-640 318 1217
-741 370 1420
-782 393 1511
-799 404 1556
-736 374 1445
-593 304 1174
-552 285 1100
-541 281 1088
-543 284 1100
-542 285 1106
-542 287 1115
-550 293 1142
-515 277 1078
-541 292 1141
-529 288 1125
-501 275 1075
-520 287 1124
-523 291 1141
-510 285 1120
-509 286 1127
-515 292 1151
-530 303 1195
-527 303 1197
-508 294 1163
-500 292 1156
-500 294 1165
