VERSION 0.7
FIELDS x y z
SIZE 4 4 4
TYPE I I I
COUNT 1 1 1
WIDTH 3586
HEIGHT 1
VIEWPOINT 0.0 0.0 0.0 1.0 0.0 0.0 0.0
POINTS 3586
DATA ascii
-1063 -491 2078
-1058 -492 2084
-1048 -490 2081
-1038 -489 2077
-1030 -488 2076
-1024 -489 2082
-1014 -487 2078
-1005 -486 2074
-996 -484 2072
-989 -484 2075
-980 -483 2073
-957 -475 2040
-958 -479 2059
-962 -484 2083
-952 -483 2080
-947 -483 2085
-937 -482 2080
-925 -479 2070
-895 -467 2021
-897 -471 2043
-887 -469 2036
-881 -469 2038
-882 -474 2059
-863 -467 2032
-853 -465 2025
-849 -466 2032
-840 -465 2029
-842 -470 2052
-832 -467 2045
-826 -468 2047
-801 -457 2003
-772 -444 1948
-773 -448 1969
-807 -472 2074
-783 -462 2031
-767 -456 2006
-764 -457 2016
-756 -456 2013
-771 -470 2074
-751 -461 2039
-736 -456 2017
-728 -454 2012
-729 -460 2036
-731 -464 2059
-719 -461 2047
-704 -455 2022
-716 -467 2078
-708 -466 2073
-700 -465 2071
-692 -464 2068
-683 -462 2060
-672 -459 2047
-655 -451 2016
-665 -463 2067
-654 -460 2056
-651 -462 2068
-637 -456 2044
-626 -453 2031
-634 -463 2077
-622 -460 2062
-618 -461 2071
-612 -461 2070
-597 -455 2044
-593 -457 2054
-579 -450 2027
-573 -450 2028
-582 -463 2085
-577 -463 2089
-568 -461 2079
-561 -461 2079
-556 -462 2086
-547 -459 2075
-540 -459 2073
-537 -461 2087
-531 -462 2089
-522 -460 2082
-514 -458 2074
-507 -457 2073
-503 -459 2083
-492 -455 2063
-491 -460 2086
-494 -468 2127
-530 -509 2314
-653 -635 2885
-671 -662 3008
-669 -669 3041
-652 -660 3004
-654 -672 3059
-648 -675 3071
-641 -678 3086
-632 -677 3085
-619 -673 3066
-616 -680 3100
-603 -676 3083
-598 -681 3104
-591 -683 3118
-580 -682 3112
-573 -684 3123
-565 -685 3128
-558 -688 3142
-547 -686 3137
-535 -683 3122
-526 -683 3123
-518 -685 3133
-509 -686 3137
-500 -686 3140
-490 -685 3136
-481 -685 3138
-472 -685 3138
-461 -683 3127
-453 -685 3137
-445 -686 3144
-435 -685 3139
-427 -688 3153
-416 -684 3137
-408 -687 3149
-397 -685 3140
-388 -685 3143
-378 -684 3137
-370 -685 3141
-361 -686 3149
-351 -684 3141
-341 -684 3139
-332 -684 3139
-324 -685 3148
-316 -688 3162
-306 -686 3153
-295 -683 3138
-287 -685 3147
-278 -686 3150
-268 -685 3149
-258 -684 3143
-251 -688 3160
-246 -700 3215
-239 -709 3257
-231 -714 3282
-222 -713 3278
-208 -699 3213
-200 -704 3238
-183 -678 3115
-175 -682 3137
-167 -685 3148
-157 -681 3132
-145 -669 3078
-137 -675 3104
-114 -604 2779
-55 -321 1478
-42 -273 1256
-43 -297 1367
-37 -286 1318
-33 -288 1326
-27 -270 1244
-25 -277 1276
-21 -281 1293
-16 -264 1216
-14 -291 1341
-10 -290 1333
-6 -287 1319
-2 -285 1311
0 -301 1387
4 -285 1312
8 -279 1283
13 -297 1367
15 -271 1246
20 -293 1346
24 -287 1321
27 -277 1275
31 -285 1309
35 -284 1305
40 -294 1352
46 -305 1399
48 -293 1343
51 -289 1329
57 -300 1376
58 -284 1302
65 -299 1373
65 -284 1301
70 -285 1309
72 -281 1289
77 -285 1308
83 -292 1337
91 -306 1400
91 -292 1338
97 -298 1363
104 -307 1408
101 -286 1311
108 -295 1352
109 -288 1317
108 -275 1260
0 0 0
0 0 0
0 0 0
0 0 0
385 -854 3894
0 0 0
0 0 0
0 0 0
381 -754 3435
0 0 0
369 -693 3156
347 -636 2892
331 -591 2687
337 -588 2675
350 -597 2713
350 -583 2650
351 -573 2601
368 -588 2668
334 -521 2365
272 -415 1883
235 -351 1592
231 -338 1532
249 -357 1618
228 -321 1453
260 -360 1629
268 -364 1647
293 -391 1768
284 -373 1685
289 -372 1681
232 -293 1324
257 -319 1443
250 -306 1381
280 -337 1522
290 -344 1552
360 -422 1900
404 -466 2098
0 0 0
352 -393 1768
0 0 0
258 -278 1252
278 -296 1331
287 -302 1356
303 -314 1409
258 -263 1180
261 -262 1177
0 0 0
0 0 0
233 -225 1006
205 -195 872
216 -203 907
157 -145 648
0 0 0
0 0 0
0 0 0
0 0 0
147 -127 567
66 -54 242
0 0 0
96 -79 351
38 -28 129
32 -23 105
46 -34 155
0 0 0
0 0 0
0 0 0
0 0 0
0 0 0
0 0 0
0 0 0
0 0 0
0 0 0
0 0 0
0 0 0
0 0 0
0 0 0
0 0 0
0 0 0
0 0 0
0 0 0
0 0 0
0 0 0
0 0 0
986 -664 2885
0 0 0
0 0 0
0 0 0
0 0 0
0 0 0
0 0 0
0 0 0
1056 -664 2862
1071 -668 2876
1071 -663 2849
1087 -667 2866
1081 -658 2824
1091 -658 2822
1080 -647 2770
1085 -645 2758
1089 -642 2743
1095 -641 2734
1097 -637 2716
1101 -634 2701
1090 -624 2651
1091 -619 2631
1090 -614 2604
1107 -619 2622
1101 -611 2587
1083 -597 2523
1101 -603 2544
1095 -595 2506
1086 -586 2466
1077 -577 2424
1062 -564 2370
1068 -564 2365
1050 -551 2306
1049 -546 2284
1045 -541 2257
1078 -554 2311
1092 -557 2321
1076 -545 2268
1094 -551 2289
1110 -556 2303
1099 -546 2262
1114 -550 2274
1108 -544 2244
1106 -539 2223
1112 -539 2218
1101 -530 2177
1106 -529 2171
1113 -529 2167
1114 -526 2153
1120 -526 2148
1130 -527 2150
1133 -525 2139
1141 -526 2137
1132 -519 2104
1138 -518 2100
1131 -512 2071
1143 -514 2077
1142 -511 2060
1130 -503 2023
1131 -500 2009
1128 -496 1988
1132 -495 1982
-494 -200 837
-490 -200 836
-481 -197 827
-479 -198 831
-485 -201 847
-476 -198 837
-473 -199 838
-468 -198 836
-471 -200 847
-462 -197 837
-470 -202 857
-473 -205 870
-477 -208 884
-484 -212 905
-526 -232 991
-904 -402 1715
-1083 -484 2069
-1078 -485 2076
-1071 -485 2077
-1066 -485 2084
-1053 -483 2075
-1046 -483 2078
-1039 -482 2080
-1032 -482 2082
-1021 -480 2077
-1016 -481 2082
-1005 -479 2076
-998 -479 2078
-987 -477 2072
-975 -474 2063
-961 -471 2050
-961 -474 2066
-960 -477 2081
-950 -475 2076
-946 -477 2086
-936 -475 2080
-919 -470 2060
-900 -463 2032
-891 -462 2030
-886 -462 2034
-880 -463 2038
-882 -467 2060
-863 -461 2034
-846 -455 2010
-846 -458 2028
-842 -460 2036
-839 -462 2047
-832 -461 2047
-823 -460 2042
-815 -459 2039
-776 -440 1959
-792 -453 2019
-781 -450 2008
-781 -454 2026
-766 -449 2004
-755 -446 1994
-764 -455 2037
-761 -457 2048
-756 -458 2053
-744 -454 2039
-718 -442 1987
-724 -450 2023
-730 -458 2059
-710 -449 2021
-710 -453 2042
-713 -459 2068
-703 -457 2060
-697 -457 2062
-688 -455 2057
-685 -457 2068
-671 -452 2046
-657 -447 2024
-660 -453 2054
-656 -455 2063
-645 -451 2048
-638 -451 2048
-629 -449 2042
-627 -452 2056
-627 -456 2077
-619 -456 2075
-607 -451 2057
-600 -451 2055
-592 -449 2049
-585 -449 2050
-578 -448 2048
-578 -453 2071
-574 -455 2079
-568 -455 2083
-562 -455 2084
-553 -453 2076
-553 -458 2099
-543 -455 2087
-534 -453 2079
-526 -452 2073
-521 -453 2079
-517 -454 2087
-512 -455 2094
-507 -456 2099
-500 -456 2097
-488 -451 2077
-494 -462 2128
-542 -514 2368
-662 -636 2928
-674 -655 3020
-663 -654 3013
-660 -660 3044
-648 -657 3032
-648 -665 3072
-642 -669 3091
-631 -667 3081
-621 -666 3080
-615 -670 3099
-601 -665 3074
-596 -670 3097
-592 -675 3124
-583 -676 3129
-574 -676 3132
-563 -674 3122
-556 -677 3137
-548 -678 3144
-537 -676 3134
-529 -677 3142
-519 -677 3139
-509 -677 3139
-500 -676 3139
-490 -675 3135
-484 -680 3156
-472 -676 3139
-462 -674 3133
-452 -675 3134
-445 -677 3147
-435 -676 3143
-426 -676 3145
-418 -679 3158
-407 -677 3148
-399 -679 3157
-389 -676 3146
-379 -676 3147
-371 -677 3152
-360 -676 3145
-351 -676 3147
-342 -676 3148
-332 -675 3143
-323 -674 3138
-313 -672 3131
-304 -675 3142
-297 -678 3160
-288 -679 3163
-276 -673 3135
-268 -674 3143
-258 -674 3143
-251 -678 3161
-251 -705 3286
-259 -756 3522
0 0 0
0 0 0
0 0 0
0 0 0
0 0 0
0 0 0
0 0 0
0 0 0
0 0 0
0 0 0
0 0 0
-50 -288 1344
-41 -261 1218
-40 -277 1294
-36 -273 1276
-32 -270 1263
-30 -285 1330
-25 -279 1301
-21 -275 1283
-18 -288 1344
-14 -286 1333
-10 -279 1301
-6 -285 1329
-2 -269 1255
1 -273 1276
4 -274 1279
8 -289 1350
12 -277 1293
16 -274 1280
19 -274 1276
24 -282 1315
28 -282 1316
29 -261 1218
36 -286 1331
42 -304 1415
43 -284 1325
47 -282 1314
52 -289 1345
55 -285 1327
59 -283 1318
64 -290 1352
67 -289 1343
71 -286 1330
78 -299 1390
81 -295 1371
84 -293 1361
86 -284 1320
92 -293 1362
93 -282 1312
94 -273 1267
105 -295 1368
107 -288 1337
114 -297 1380
114 -288 1337
0 0 0
0 0 0
0 0 0
0 0 0
0 0 0
367 -779 3603
0 0 0
0 0 0
379 -740 3417
372 -708 3268
370 -686 3166
373 -675 3117
347 -612 2821
358 -617 2844
354 -597 2750
357 -588 2710
362 -582 2681
367 -579 2665
362 -557 2566
283 -426 1962
255 -376 1731
251 -363 1670
254 -359 1651
267 -371 1703
282 -386 1771
277 -370 1701
282 -371 1703
294 -380 1744
298 -379 1739
285 -356 1633
276 -339 1554
280 -339 1550
325 -387 1772
349 -408 1868
400 -463 2114
411 -468 2136
406 -455 2077
346 -381 1740
343 -372 1698
259 -276 1260
280 -295 1343
255 -264 1204
248 -253 1153
235 -236 1073
259 -257 1167
0 0 0
0 0 0
0 0 0
0 0 0
0 0 0
0 0 0
164 -147 665
0 0 0
0 0 0
0 0 0
0 0 0
0 0 0
0 0 0
93 -75 339
56 -43 197
4 0 0
69 -52 239
79 -61 275
0 0 0
0 0 0
0 0 0
0 0 0
0 0 0
0 0 0
0 0 0
0 0 0
0 0 0
0 0 0
0 0 0
0 0 0
0 0 0
0 0 0
0 0 0
0 0 0
0 0 0
0 0 0
0 0 0
996 -662 2915
1039 -684 3012
1023 -668 2936
0 0 0
0 0 0
0 0 0
0 0 0
0 0 0
1058 -656 2868
1055 -649 2834
1073 -655 2855
1080 -654 2849
1086 -652 2838
1082 -644 2801
1091 -645 2799
1094 -641 2781
1083 -630 2731
1090 -630 2724
1089 -624 2697
1085 -617 2662
1092 -616 2656
1085 -608 2617
1089 -605 2603
1085 -599 2572
1067 -584 2507
1074 -584 2502
1089 -588 2516
1047 -561 2398
1065 -567 2419
1045 -552 2355
1079 -566 2410
1095 -571 2426
1111 -575 2442
1087 -559 2369
1077 -550 2327
1087 -551 2330
1108 -558 2357
1106 -553 2334
1113 -553 2330
1112 -549 2309
1135 -557 2339
1113 -543 2275
1127 -546 2285
1120 -539 2252
1116 -534 2227
1117 -530 2210
1106 -522 2171
1111 -521 2165
1114 -519 2153
1124 -521 2156
1132 -521 2155
1135 -519 2144
1134 -516 2127
1133 -512 2107
1133 -509 2092
1132 -506 2074
1136 -505 2065
1126 -497 2033
1141 -501 2044
1134 -495 2016
1125 -488 1985
1127 -486 1974
-492 -197 834
-488 -196 834
-493 -199 849
-484 -197 839
-475 -194 830
-477 -196 840
-472 -195 836
-468 -195 837
-461 -193 831
-468 -197 849
-473 -201 865
-468 -200 862
-484 -208 899
-467 -202 874
-544 -236 1024
-948 -415 1799
-1084 -478 2072
-1078 -478 2078
-1073 -479 2083
-1063 -477 2080
-1055 -477 2081
-1045 -475 2077
-1035 -474 2073
-1030 -475 2079
-1023 -475 2082
-1012 -473 2075
-1006 -473 2079
-997 -472 2078
-987 -470 2074
-976 -468 2066
-963 -465 2057
-962 -468 2071
-961 -471 2085
-950 -468 2077
-947 -470 2088
-928 -464 2063
-917 -462 2056
-909 -461 2055
-895 -457 2040
-896 -461 2059
-882 -457 2044
-873 -456 2041
-868 -457 2047
-865 -459 2056
-843 -450 2021
-850 -457 2056
-838 -455 2046
-838 -458 2062
-824 -454 2046
-804 -446 2014
-793 -444 2003
-783 -442 1997
-792 -450 2037
-773 -443 2007
-772 -446 2021
-758 -442 2004
-769 -452 2052
-754 -447 2030
-752 -449 2043
-739 -445 2026
-735 -446 2034
-731 -448 2042
-728 -450 2053
-710 -443 2023
-713 -449 2051
-715 -454 2075
-699 -447 2049
-698 -451 2067
-692 -451 2069
-679 -447 2053
-669 -444 2041
-667 -447 2056
-661 -447 2057
-650 -444 2044
-648 -448 2061
-633 -441 2033
-629 -443 2042
-628 -447 2062
-624 -448 2068
-618 -448 2071
-607 -445 2059
-600 -444 2055
-591 -442 2047
-584 -441 2045
-580 -443 2054
-581 -449 2081
-569 -444 2061
-572 -452 2097
-561 -448 2082
-557 -450 2091
-546 -447 2077
-542 -448 2086
-538 -450 2094
-530 -449 2089
-526 -451 2101
-519 -450 2099
-512 -449 2095
-505 -449 2095
-501 -451 2105
-494 -450 2101
-498 -460 2149
-542 -507 2368
-661 -626 2925
-674 -646 3022
-668 -650 3039
-660 -651 3046
-659 -659 3085
-648 -657 3075
-638 -656 3073
-632 -659 3090
-625 -661 3101
-623 -670 3140
-608 -663 3110
-602 -667 3129
-594 -668 3136
-584 -667 3132
-575 -668 3140
-570 -673 3162
-556 -667 3136
-549 -670 3152
-538 -668 3143
-529 -669 3148
-519 -667 3140
-509 -667 3140
-498 -665 3129
-491 -668 3145
-481 -667 3140
-473 -669 3150
-465 -670 3158
-454 -667 3145
-445 -669 3153
-436 -669 3155
-428 -670 3161
-419 -671 3166
-407 -668 3149
-398 -668 3151
-388 -667 3146
-379 -667 3146
-371 -668 3156
-362 -670 3162
-352 -668 3155
-343 -668 3155
-334 -669 3159
-325 -670 3165
-314 -667 3151
-305 -667 3152
-297 -670 3168
-287 -667 3153
-278 -667 3155
-269 -669 3162
-259 -667 3155
-250 -669 3162
-253 -702 3320
-251 -722 3415
0 0 0
0 0 0
0 0 0
0 0 0
0 0 0
0 0 0
0 0 0
0 0 0
0 0 0
0 0 0
0 0 0
-49 -279 1319
-43 -269 1272
-38 -261 1237
-35 -265 1254
-34 -284 1347
-28 -266 1259
-25 -279 1319
-21 -277 1312
-17 -272 1286
-14 -278 1315
-10 -278 1317
-6 -274 1297
-2 -270 1278
1 -286 1352
5 -286 1352
8 -259 1227
12 -270 1280
15 -261 1235
20 -282 1334
24 -281 1327
27 -275 1300
32 -288 1363
35 -273 1293
38 -273 1291
42 -271 1281
44 -263 1241
54 -296 1399
54 -274 1295
61 -293 1385
64 -286 1352
66 -277 1307
74 -295 1390
78 -295 1391
75 -269 1271
82 -281 1325
89 -289 1364
90 -282 1328
93 -277 1307
98 -281 1325
102 -282 1328
110 -293 1381
106 -273 1285
110 -272 1282
0 0 0
0 0 0
0 0 0
0 0 0
389 -839 3935
0 0 0
0 0 0
380 -752 3522
378 -728 3410
371 -697 3263
362 -661 3095
365 -652 3049
367 -639 2988
381 -648 3030
384 -638 2984
372 -604 2825
362 -574 2684
365 -567 2650
380 -578 2698
309 -459 2144
283 -412 1923
271 -386 1801
278 -389 1816
285 -391 1821
290 -391 1819
298 -394 1836
301 -390 1817
307 -392 1825
300 -376 1747
301 -371 1725
332 -403 1870
305 -364 1689
340 -399 1853
381 -440 2042
391 -445 2063
404 -453 2098
391 -432 1999
358 -389 1800
343 -367 1698
328 -346 1600
286 -296 1370
258 -264 1219
249 -251 1158
250 -248 1145
236 -231 1064
0 0 0
0 0 0
229 -215 991
210 -194 895
0 0 0
0 0 0
0 0 0
147 -128 589
0 0 0
0 0 0
0 0 0
84 -68 314
79 -63 291
80 -63 290
16 -9 47
47 -34 159
47 -34 158
84 -63 291
0 0 0
0 0 0
0 0 0
0 0 0
0 0 0
0 0 0
0 0 0
0 0 0
0 0 0
0 0 0
0 0 0
0 0 0
0 0 0
0 0 0
0 0 0
0 0 0
0 0 0
0 0 0
0 0 0
0 0 0
1053 -684 3053
1060 -683 3045
0 0 0
0 0 0
0 0 0
0 0 0
0 0 0
1049 -642 2846
1069 -648 2872
1077 -648 2867
1082 -646 2854
1082 -641 2830
1094 -643 2836
1102 -643 2830
1091 -631 2776
1090 -626 2750
1078 -614 2694
1105 -625 2738
1063 -596 2611
1068 -594 2599
1089 -601 2627
1090 -598 2607
1091 -594 2588
1085 -586 2551
1094 -587 2550
1053 -561 2434
1052 -556 2412
1092 -573 2483
1063 -554 2395
1079 -558 2412
1068 -549 2368
1109 -566 2439
1103 -559 2404
1111 -560 2403
1109 -555 2380
1101 -547 2343
1104 -545 2331
1107 -543 2318
1128 -550 2344
1114 -539 2295
1123 -540 2295
1117 -534 2266
1118 -531 2250
1120 -528 2236
1110 -520 2199
1109 -517 2180
1113 -515 2170
1115 -513 2157
1120 -512 2151
1127 -512 2148
1127 -509 2130
1134 -509 2128
1137 -507 2117
1133 -502 2093
1128 -497 2068
1133 -496 2061
1120 -488 2023
1125 -487 2016
1119 -482 1990
1119 -479 1976
1130 -481 1980
-498 -196 845
-484 -192 828
-482 -192 831
-479 -192 831
-475 -192 831
-482 -195 848
-471 -192 837
-461 -189 825
-461 -190 830
-466 -194 846
-475 -199 869
-461 -194 850
-480 -203 891
-470 -200 879
-555 -238 1047
-994 -429 1888
-1086 -472 2078
-1076 -471 2076
-1071 -471 2082
-1060 -470 2077
-1050 -468 2073
-1042 -467 2073
-1034 -467 2074
-1029 -468 2079
-1019 -466 2074
-1012 -466 2078
-1005 -466 2078
-996 -465 2078
-988 -464 2077
-972 -460 2059
-961 -458 2052
-960 -461 2068
-964 -465 2092
-952 -463 2083
-945 -463 2086
-931 -459 2072
-903 -449 2027
-908 -454 2054
-905 -456 2063
-883 -448 2032
-878 -449 2037
-869 -447 2032
-864 -448 2038
-850 -444 2022
-851 -448 2043
-843 -447 2041
-840 -449 2051
-830 -448 2045
-815 -443 2026
-789 -432 1979
-779 -430 1971
-785 -437 2002
-788 -442 2029
-775 -438 2013
-754 -430 1976
-762 -438 2016
-755 -437 2015
-754 -440 2030
-745 -439 2027
-741 -440 2033
-731 -438 2025
-731 -442 2045
-728 -444 2054
-714 -439 2034
-718 -446 2067
-702 -440 2041
-707 -447 2076
-699 -445 2070
-690 -444 2066
-681 -442 2059
-667 -437 2036
-668 -442 2061
-668 -446 2081
-662 -446 2084
-649 -442 2064
-638 -439 2051
-631 -438 2050
-631 -443 2073
-621 -440 2061
-615 -440 2062
-608 -439 2061
-595 -435 2040
-592 -437 2051
-584 -436 2047
-582 -439 2063
-575 -438 2062
-573 -442 2079
-568 -442 2083
-561 -442 2084
-555 -442 2084
-550 -443 2092
-542 -442 2085
-535 -441 2085
-532 -444 2096
-525 -443 2095
-515 -440 2083
-511 -442 2091
-504 -441 2090
-496 -440 2085
-490 -440 2085
-497 -452 2144
-534 -492 2334
-657 -613 2908
-671 -635 3012
-667 -640 3037
-657 -639 3033
-651 -642 3049
-654 -654 3106
-639 -648 3079
-638 -656 3121
-632 -660 3140
-617 -654 3111
-610 -657 3126
-608 -664 3161
-602 -667 3179
-591 -666 3173
-585 -670 3192
-574 -669 3188
-564 -668 3186
-552 -664 3169
-549 -673 3209
-537 -670 3197
-525 -666 3181
-516 -667 3185
-506 -666 3179
-498 -667 3188
-489 -668 3191
-481 -670 3203
-471 -670 3203
-461 -669 3200
-451 -669 3198
-440 -666 3187
-433 -669 3201
-423 -668 3197
-414 -669 3203
-405 -670 3209
-398 -673 3222
-386 -670 3207
-376 -668 3199
-368 -670 3211
-357 -668 3199
-349 -672 3218
-339 -669 3208
-330 -671 3217
-321 -671 3218
-310 -669 3206
-300 -668 3201
-293 -671 3220
-282 -668 3202
-272 -668 3204
-263 -668 3202
-254 -670 3211
-252 -689 3304
0 0 0
0 0 0
0 0 0
0 0 0
0 0 0
0 0 0
0 0 0
0 0 0
0 0 0
0 0 0
0 0 0
0 0 0
-47 -266 1279
-43 -263 1262
-39 -265 1274
-34 -254 1220
-32 -268 1288
-28 -265 1273
-24 -258 1240
-22 -277 1331
-17 -265 1273
-14 -274 1316
-10 -272 1305
-6 -265 1274
-2 -275 1318
1 -258 1241
4 -268 1287
9 -289 1386
12 -274 1317
16 -276 1326
20 -281 1350
23 -263 1260
27 -271 1302
31 -266 1277
36 -281 1348
38 -265 1272
42 -266 1276
46 -268 1283
50 -270 1294
55 -278 1334
59 -276 1321
59 -259 1239
67 -281 1344
69 -272 1300
76 -282 1351
79 -279 1335
85 -287 1375
85 -275 1314
93 -286 1367
89 -261 1247
96 -273 1306
105 -288 1376
107 -282 1349
113 -286 1367
113 -277 1322
0 0 0
0 0 0
0 0 0
382 -837 3983
377 -800 3808
374 -772 3670
379 -760 3616
368 -718 3413
369 -700 3326
0 0 0
380 -685 3253
383 -675 3202
383 -657 3118
386 -647 3069
397 -651 3089
408 -653 3097
0 0 0
387 -594 2812
409 -614 2908
360 -529 2505
327 -469 2222
307 -433 2048
310 -428 2024
309 -418 1976
313 -416 1968
317 -414 1958
323 -415 1957
337 -424 2002
364 -451 2127
398 -485 2285
393 -471 2219
386 -455 2145
391 -453 2134
398 -455 2140
389 -437 2054
375 -414 1946
388 -423 1987
381 -408 1916
370 -391 1835
368 -383 1796
369 -378 1774
287 -289 1354
255 -253 1186
257 -251 1176
250 -241 1127
246 -234 1093
227 -213 997
202 -186 872
171 -155 725
119 -105 493
119 -104 485
126 -109 509
0 0 0
93 -78 364
162 -136 635
82 -66 311
0 0 0
0 0 0
50 -37 176
8 -2 14
22 -13 66
38 -26 125
0 0 0
0 0 0
0 0 0
0 0 0
0 0 0
0 0 0
0 0 0
0 0 0
0 0 0
0 0 0
0 0 0
0 0 0
0 0 0
0 0 0
0 0 0
0 0 0
0 0 0
0 0 0
0 0 0
0 0 0
0 0 0
0 0 0
1023 -650 2940
0 0 0
0 0 0
0 0 0
0 0 0
0 0 0
1045 -631 2837
1064 -637 2860
1073 -637 2859
1079 -635 2849
1092 -638 2858
1090 -632 2826
1083 -623 2781
1084 -618 2760
1070 -606 2699
1101 -619 2754
1063 -593 2636
1057 -585 2598
1072 -589 2612
1074 -585 2593
1067 -577 2554
1004 -538 2381
1050 -559 2469
1065 -563 2483
1100 -578 2546
1064 -555 2440
1066 -552 2424
1080 -555 2436
1105 -564 2471
1101 -558 2442
1110 -559 2442
1098 -549 2396
1116 -554 2416
1098 -541 2356
1114 -546 2372
1117 -544 2360
1117 -540 2340
1115 -536 2318
1122 -536 2314
1116 -529 2282
1124 -529 2280
1118 -524 2252
1115 -519 2228
1115 -515 2209
1109 -509 2181
1110 -507 2166
1117 -507 2162
1122 -506 2155
1124 -503 2142
1121 -499 2121
1117 -494 2097
1121 -493 2088
1126 -493 2082
1127 -490 2069
1121 -484 2041
1124 -483 2031
1111 -474 1992
1113 -473 1982
1108 -468 1958
1119 -470 1961
-493 -191 837
-492 -192 842
-480 -188 827
-482 -191 838
-476 -189 833
-481 -192 848
-473 -190 840
-460 -186 822
-462 -188 833
-468 -192 850
-475 -196 869
-464 -192 855
-471 -196 874
-484 -203 906
-570 -241 1075
-1019 -434 1937
-1083 -464 2074
-1077 -464 2078
-1069 -464 2079
-1060 -463 2077
-1053 -462 2079
-1044 -462 2077
-1037 -462 2080
-1030 -461 2082
-1020 -460 2079
-1011 -459 2076
-1003 -459 2077
-995 -458 2077
-987 -457 2076
-974 -454 2066
-965 -453 2063
-960 -454 2069
-957 -455 2078
-953 -457 2086
-944 -456 2085
-934 -454 2078
-915 -448 2054
-899 -444 2036
-897 -446 2047
-885 -443 2036
-875 -441 2032
-873 -444 2045
-865 -442 2041
-859 -443 2046
-858 -445 2060
-845 -442 2047
-843 -444 2058
-826 -439 2035
-815 -436 2025
-811 -438 2035
-783 -426 1981
-788 -432 2013
-787 -435 2028
-781 -435 2029
-764 -429 2005
-757 -429 2004
-767 -438 2048
-762 -439 2055
-742 -431 2018
-744 -435 2042
-730 -431 2023
-731 -435 2046
-722 -434 2040
-705 -428 2012
-714 -437 2056
-715 -441 2079
-702 -437 2060
-698 -439 2069
-691 -438 2069
-682 -437 2063
-680 -439 2077
-665 -433 2051
-666 -438 2076
-659 -438 2076
-651 -437 2072
-637 -431 2048
-632 -433 2055
-637 -440 2091
-623 -435 2070
-612 -432 2054
-604 -431 2050
-600 -432 2058
-592 -431 2053
-588 -432 2063
-584 -434 2070
-576 -432 2065
-574 -436 2082
-569 -437 2089
-563 -437 2091
-555 -436 2087
-550 -437 2093
-543 -436 2089
-532 -433 2075
-526 -433 2074
-517 -430 2064
-518 -437 2096
-510 -435 2090
-504 -435 2092
-496 -434 2086
-490 -434 2086
-499 -448 2154
-535 -486 2341
-665 -612 2947
-676 -630 3035
-673 -637 3066
-671 -643 3098
-659 -641 3089
-662 -652 3144
-648 -647 3123
-644 -653 3150
-633 -652 3145
-623 -651 3144
-613 -650 3140
-609 -656 3168
-609 -666 3220
-597 -663 3207
-588 -664 3212
-580 -665 3219
-569 -665 3216
-563 -668 3233
-553 -668 3234
-542 -666 3226
-534 -668 3238
-524 -668 3236
-516 -669 3244
-505 -668 3239
-495 -667 3234
-487 -669 3246
-478 -670 3252
-467 -668 3243
-457 -667 3239
-448 -667 3240
-439 -670 3251
-429 -669 3248
-420 -670 3253
-409 -667 3239
-400 -667 3243
-389 -666 3235
-381 -668 3248
-371 -667 3243
-364 -671 3261
-353 -668 3249
-343 -668 3246
-335 -670 3260
-324 -669 3254
-313 -665 3237
-304 -666 3242
-294 -665 3237
-286 -668 3251
-275 -666 3242
-266 -665 3238
-257 -666 3243
-247 -665 3238
0 0 0
0 0 0
0 0 0
0 0 0
0 0 0
-49 -178 868
0 0 0
0 0 0
0 0 0
0 0 0
0 0 0
0 0 0
0 0 0
-46 -281 1370
-40 -263 1283
-37 -273 1332
-32 -260 1268
-31 -282 1374
-25 -271 1321
-21 -268 1307
-17 -257 1251
-13 -261 1271
-10 -265 1293
-6 -269 1311
-2 -279 1359
1 -272 1326
5 -271 1319
8 -261 1270
12 -254 1237
16 -276 1346
20 -275 1339
21 -240 1170
27 -259 1259
32 -275 1337
34 -262 1276
39 -272 1322
42 -264 1287
44 -251 1222
53 -285 1388
53 -262 1274
57 -265 1290
62 -268 1303
68 -277 1345
66 -254 1236
75 -276 1341
79 -274 1330
78 -259 1256
82 -259 1259
93 -282 1368
97 -282 1368
97 -270 1312
100 -270 1307
104 -269 1306
106 -266 1288
104 -249 1207
0 0 0
0 0 0
366 -815 3937
368 -794 3836
0 0 0
0 0 0
372 -735 3547
369 -711 3428
364 -682 3288
387 -706 3404
370 -658 3172
375 -649 3129
379 -642 3090
387 -639 3076
396 -640 3079
371 -585 2816
0 0 0
394 -596 2865
415 -614 2950
425 -616 2957
421 -599 2875
423 -589 2825
411 -562 2695
418 -560 2686
410 -539 2582
420 -542 2595
426 -541 2588
436 -543 2598
457 -559 2675
479 -577 2756
476 -563 2692
456 -531 2537
431 -493 2355
417 -470 2242
420 -465 2220
408 -445 2122
431 -463 2205
400 -423 2016
392 -409 1947
367 -377 1795
375 -379 1802
357 -356 1692
313 -307 1459
283 -274 1300
284 -270 1284
229 -214 1017
223 -206 977
208 -189 898
123 -108 516
119 -104 494
133 -115 548
0 0 0
134 -113 534
0 0 0
0 0 0
0 0 0
147 -118 560
86 -67 317
117 -91 433
43 -30 146
6 -1 7
53 -38 182
0 0 0
0 0 0
0 0 0
0 0 0
0 0 0
0 0 0
0 0 0
0 0 0
0 0 0
0 0 0
0 0 0
0 0 0
0 0 0
0 0 0
0 0 0
0 0 0
0 0 0
0 0 0
0 0 0
0 0 0
0 0 0
0 0 0
0 0 0
0 0 0
0 0 0
0 0 0
0 0 0
0 0 0
1055 -628 2864
1061 -626 2854
1073 -628 2860
1085 -630 2865
1089 -628 2851
1073 -613 2782
1098 -622 2821
1076 -605 2740
1068 -596 2696
1089 -603 2725
1083 -595 2687
1032 -563 2536
1071 -580 2609
1123 -604 2714
1040 -554 2490
1072 -568 2546
1076 -565 2533
1072 -559 2502
1086 -562 2513
1107 -570 2542
1100 -562 2505
1100 -558 2483
1109 -558 2482
1103 -551 2448
1107 -550 2437
1104 -545 2411
1110 -544 2404
1114 -542 2392
1121 -542 2390
1121 -538 2370
1122 -535 2352
1117 -529 2322
1129 -531 2330
1121 -524 2295
1117 -519 2268
1109 -512 2233
1108 -508 2214
1112 -507 2206
1114 -505 2192
1115 -502 2177
1111 -497 2152
1123 -499 2159
1122 -496 2141
1127 -495 2134
1121 -489 2105
1121 -487 2090
1121 -484 2074
1117 -479 2051
1109 -473 2021
1119 -474 2023
1113 -469 1997
1119 -469 1993
1124 -468 1986
1137 -471 1994
-509 -195 865
-490 -189 839
-482 -187 832
-484 -189 842
-475 -186 832
-470 -185 829
-471 -187 837
-465 -185 833
-470 -189 848
-476 -192 865
-475 -193 870
-490 -200 905
-490 -201 911
-473 -196 887
-581 -242 1097
-1038 -435 1974
-1082 -457 2073
-1075 -457 2076
-1066 -456 2075
-1062 -457 2083
-1052 -456 2079
-1045 -455 2081
-1040 -456 2088
-1027 -453 2078
-1022 -454 2085
-1009 -451 2074
-1004 -452 2080
-993 -450 2074
-983 -449 2070
-976 -449 2072
-960 -444 2055
-959 -447 2069
-956 -448 2077
-953 -450 2088
-945 -449 2087
-934 -448 2081
-901 -435 2024
-898 -437 2035
-885 -433 2020
-887 -438 2044
-878 -436 2040
-872 -437 2043
-861 -434 2034
-849 -431 2022
-840 -430 2018
-849 -438 2058
-839 -436 2052
-835 -437 2060
-824 -435 2049
-791 -421 1985
-783 -420 1983
-789 -426 2015
-784 -427 2021
-782 -429 2033
-764 -423 2005
-760 -424 2011
-751 -423 2008
-750 -426 2024
-749 -429 2038
-742 -429 2040
-728 -424 2020
-730 -429 2043
-711 -421 2009
-709 -424 2023
-720 -434 2075
-711 -433 2069
-702 -431 2062
-697 -432 2068
-686 -429 2057
-682 -430 2065
-672 -428 2054
-661 -425 2043
-661 -429 2062
-658 -431 2074
-653 -432 2080
-633 -423 2039
-629 -425 2047
-629 -429 2067
-624 -429 2072
-619 -430 2077
-610 -428 2070
-603 -428 2071
-592 -425 2055
-586 -425 2056
-585 -429 2077
-575 -426 2065
-575 -430 2087
-568 -430 2086
-561 -430 2087
-554 -429 2085
-547 -428 2081
-544 -431 2094
-537 -430 2095
-533 -432 2102
-521 -427 2081
-518 -430 2096
-514 -432 2107
-503 -428 2089
-498 -429 2094
-492 -429 2096
-498 -440 2151
-564 -505 2467
-683 -619 3025
-692 -636 3108
-680 -634 3099
-674 -637 3116
-667 -639 3127
-665 -646 3161
-655 -645 3159
-650 -650 3185
-636 -645 3161
-631 -650 3187
-621 -649 3183
-611 -648 3180
-606 -653 3204
-597 -654 3210
-586 -653 3205
-577 -653 3205
-570 -655 3219
-561 -657 3228
-551 -656 3222
-543 -657 3232
-532 -657 3229
-523 -657 3230
-515 -658 3239
-505 -658 3240
-492 -654 3220
-484 -656 3230
-476 -658 3239
-467 -658 3240
-457 -658 3242
-447 -658 3240
-436 -656 3231
-428 -657 3240
-418 -657 3239
-408 -656 3236
-398 -654 3227
-390 -657 3240
-380 -656 3238
-371 -657 3241
-361 -656 3238
-351 -656 3238
-343 -658 3247
-331 -654 3231
-323 -657 3243
-313 -657 3242
-304 -656 3238
-294 -655 3236
-285 -656 3239
-275 -656 3242
-267 -658 3251
-255 -654 3231
-249 -663 3274
0 0 0
0 0 0
0 0 0
0 0 0
0 0 0
0 0 0
0 0 0
0 0 0
0 0 0
0 0 0
0 0 0
0 0 0
-52 -283 1401
-40 -242 1197
-38 -249 1232
-36 -262 1297
-31 -255 1261
-28 -258 1276
-25 -260 1285
-20 -254 1259
-17 -255 1260
-14 -275 1358
-9 -250 1238
-6 -261 1292
-2 -273 1349
1 -256 1266
4 -255 1260
8 -264 1306
12 -253 1249
15 -252 1245
19 -256 1265
23 -255 1261
27 -257 1269
31 -260 1285
35 -265 1307
40 -272 1342
44 -273 1347
48 -274 1353
49 -255 1258
52 -255 1257
57 -257 1271
59 -253 1249
65 -261 1289
71 -271 1339
73 -264 1300
78 -270 1329
85 -278 1371
88 -274 1351
93 -278 1369
101 -292 1435
101 -278 1368
110 -291 1433
109 -278 1369
107 -263 1295
107 -254 1250
0 0 0
0 0 0
384 -844 4136
0 0 0
0 0 0
0 0 0
360 -701 3435
364 -690 3379
371 -685 3353
382 -688 3363
378 -663 3241
368 -628 3072
384 -640 3127
387 -631 3081
400 -637 3109
377 -586 2863
0 0 0
391 -582 2840
410 -598 2916
423 -605 2947
435 -610 2972
443 -609 2965
454 -611 2975
461 -609 2962
466 -604 2939
475 -605 2943
487 -609 2958
495 -608 2954
509 -616 2988
515 -611 2966
524 -612 2965
519 -597 2892
495 -559 2708
480 -533 2581
445 -486 2354
467 -503 2432
547 -581 2808
534 -559 2700
487 -501 2420
406 -411 1987
396 -396 1909
382 -375 1810
371 -359 1732
324 -309 1491
263 -247 1192
248 -229 1103
211 -192 924
103 -90 437
128 -112 539
108 -92 445
135 -115 554
94 -78 378
0 0 0
155 -128 616
73 -57 277
146 -117 564
83 -64 311
90 -69 333
0 0 0
34 -23 113
18 -10 54
12 -5 30
14 -7 36
0 0 0
0 0 0
0 0 0
0 0 0
0 0 0
0 0 0
0 0 0
0 0 0
0 0 0
0 0 0
0 0 0
0 0 0
0 0 0
0 0 0
0 0 0
0 0 0
0 0 0
0 0 0
0 0 0
0 0 0
0 0 0
0 0 0
0 0 0
0 0 0
0 0 0
0 0 0
0 0 0
1047 -614 2846
1065 -620 2867
1067 -616 2846
1079 -618 2851
1090 -619 2855
1080 -608 2802
1084 -606 2789
1091 -605 2781
1054 -580 2662
1037 -566 2595
1069 -579 2653
1063 -572 2615
1077 -575 2626
1067 -565 2579
1104 -580 2645
1078 -563 2561
1082 -561 2549
1086 -559 2537
1088 -555 2519
1084 -550 2490
1107 -557 2521
1097 -548 2476
1105 -549 2475
1097 -541 2437
1108 -542 2441
1107 -538 2417
1113 -537 2411
1108 -532 2382
1110 -529 2366
1108 -524 2343
1117 -525 2344
1120 -523 2330
1107 -513 2284
1095 -505 2243
1097 -502 2228
1099 -500 2215
1100 -497 2200
1106 -497 2195
1112 -497 2190
1110 -492 2168
1118 -493 2167
1116 -489 2146
1118 -487 2133
1123 -486 2126
1115 -480 2095
1118 -478 2086
1117 -475 2068
1119 -473 2056
1117 -469 2037
1117 -467 2021
1112 -462 1996
1125 -465 2005
1133 -465 2005
1126 -459 1976
-489 -184 832
-488 -185 836
-494 -188 852
-473 -181 822
-460 -177 805
-468 -182 826
-468 -183 832
-472 -186 847
-471 -186 850
-465 -185 845
-487 -195 893
-504 -203 931
-472 -191 879
-500 -204 937
-604 -248 1142
-1055 -436 2008
-1082 -450 2075
-1080 -452 2087
-1066 -449 2077
-1059 -449 2079
-1053 -449 2083
-1042 -447 2077
-1037 -448 2083
-1027 -447 2079
-1019 -446 2079
-1010 -445 2077
-1002 -445 2078
-991 -443 2070
-981 -441 2067
-969 -439 2057
-961 -438 2058
-963 -442 2077
-961 -444 2090
-948 -441 2078
-941 -441 2080
-922 -436 2056
-908 -432 2041
-902 -432 2045
-892 -430 2038
-886 -430 2041
-877 -429 2039
-871 -430 2042
-863 -429 2039
-853 -427 2034
-853 -430 2051
-834 -424 2022
-842 -431 2059
-830 -428 2049
-820 -427 2042
-784 -411 1970
-785 -415 1988
-786 -419 2009
-782 -420 2017
-769 -416 2002
-757 -413 1989
-757 -416 2005
-763 -423 2039
-754 -422 2035
-750 -423 2042
-748 -426 2058
-721 -414 2001
-729 -422 2042
-723 -422 2046
-711 -419 2031
-722 -429 2080
-708 -425 2062
-705 -426 2073
-696 -425 2067
-698 -430 2094
-683 -425 2069
-668 -419 2042
-664 -421 2053
-664 -425 2073
-657 -424 2072
-651 -424 2073
-641 -422 2063
-635 -422 2067
-632 -424 2079
-628 -426 2088
-619 -424 2081
-609 -422 2069
-597 -418 2052
-593 -419 2059
-593 -424 2084
-578 -417 2053
-576 -421 2071
-568 -419 2064
-561 -418 2061
-563 -425 2094
-556 -425 2094
-547 -422 2083
-537 -419 2071
-538 -425 2100
-527 -421 2081
-521 -422 2086
-515 -422 2087
-508 -421 2084
-503 -422 2091
-497 -422 2090
-494 -425 2107
-494 -431 2136
-576 -508 2520
-689 -616 3054
-697 -632 3135
-682 -626 3108
-680 -633 3143
-672 -635 3152
-666 -638 3169
-659 -640 3179
-650 -641 3186
-640 -640 3182
-628 -637 3172
-624 -642 3198
-614 -643 3201
-607 -645 3213
-597 -644 3211
-590 -647 3225
-580 -646 3222
-570 -647 3225
-561 -647 3227
-552 -648 3232
-542 -647 3230
-534 -650 3242
-524 -648 3235
-513 -647 3229
-503 -647 3230
-495 -648 3237
-485 -647 3235
-475 -647 3232
-467 -649 3245
-457 -648 3241
-448 -649 3247
-438 -648 3241
-428 -648 3241
-417 -646 3232
-409 -648 3242
-399 -647 3237
-391 -649 3250
-381 -650 3254
-371 -648 3244
-361 -647 3243
-351 -647 3242
-342 -648 3246
-332 -647 3243
-322 -646 3238
-313 -646 3239
-304 -648 3249
-295 -648 3248
-286 -649 3254
-275 -647 3246
-266 -647 3244
-256 -647 3243
-251 -658 3300
0 0 0
0 0 0
0 0 0
0 0 0
0 0 0
0 0 0
0 0 0
0 0 0
0 0 0
0 0 0
0 0 0
0 0 0
0 0 0
-40 -235 1182
-39 -251 1261
-36 -260 1308
-32 -255 1284
-27 -243 1219
-24 -255 1282
-21 -257 1291
-17 -253 1273
-15 -280 1404
-10 -263 1319
-6 -262 1314
-2 -257 1291
1 -265 1329
5 -252 1266
8 -257 1292
12 -265 1329
16 -262 1317
19 -241 1211
23 -248 1247
27 -254 1275
32 -271 1358
35 -263 1321
39 -263 1316
43 -264 1322
45 -254 1272
51 -264 1325
54 -262 1311
57 -254 1270
62 -261 1308
65 -258 1292
67 -253 1264
74 -264 1320
79 -268 1341
84 -270 1350
88 -271 1354
91 -268 1339
95 -267 1337
95 -257 1285
95 -246 1231
105 -264 1317
107 -261 1301
100 -234 1169
0 0 0
0 0 0
0 0 0
379 -795 3956
0 0 0
0 0 0
387 -744 3699
386 -722 3588
374 -680 3379
357 -632 3136
370 -639 3171
362 -610 3026
378 -622 3086
387 -622 3084
401 -630 3121
381 -584 2895
0 0 0
391 -575 2845
418 -602 2978
427 -602 2976
436 -602 2978
447 -605 2991
453 -601 2969
464 -604 2982
474 -606 2990
486 -610 3009
488 -601 2966
506 -613 3021
517 -616 3032
524 -613 3019
525 -605 2975
521 -590 2901
510 -568 2793
491 -538 2642
442 -476 2337
486 -516 2535
581 -608 2982
566 -583 2859
572 -581 2846
0 0 0
386 -379 1857
387 -375 1834
392 -374 1832
326 -307 1502
252 -233 1141
252 -229 1121
259 -233 1139
214 -190 927
176 -153 749
122 -103 507
169 -143 697
131 -108 529
0 0 0
158 -128 627
0 0 0
0 0 0
0 0 0
147 -114 554
95 -71 347
44 -30 151
8 -2 15
18 -10 53
52 -36 176
0 0 0
0 0 0
0 0 0
0 0 0
0 0 0
0 0 0
0 0 0
0 0 0
0 0 0
0 0 0
0 0 0
0 0 0
0 0 0
0 0 0
0 0 0
0 0 0
0 0 0
0 0 0
0 0 0
0 0 0
0 0 0
0 0 0
0 0 0
0 0 0
0 0 0
0 0 0
0 0 0
1065 -616 2896
1066 -611 2870
1076 -612 2872
1092 -616 2886
1071 -600 2807
1083 -601 2811
1088 -599 2799
1084 -593 2765
1078 -585 2725
1080 -581 2705
1062 -567 2638
1094 -580 2692
1095 -576 2671
1085 -566 2623
1089 -565 2612
1098 -565 2611
1101 -562 2594
1085 -550 2535
1096 -552 2539
1109 -554 2548
1111 -551 2532
1097 -541 2479
1097 -537 2457
1113 -541 2474
1104 -533 2433
1110 -532 2426
1109 -528 2404
1119 -529 2405
1106 -519 2358
1100 -513 2327
1110 -514 2329
1093 -503 2276
1114 -510 2302
1110 -504 2274
1116 -504 2268
1100 -493 2218
1108 -494 2217
1095 -485 2174
1107 -487 2180
1110 -486 2170
1109 -482 2151
1113 -481 2142
1117 -480 2134
1113 -475 2110
1118 -474 2103
1117 -471 2085
1118 -469 2071
1119 -466 2058
1128 -467 2057
1128 -464 2042
1126 -461 2024
1136 -463 2027
1130 -457 2001
1136 -457 1996
-488 -181 830
-486 -182 834
-482 -181 833
-481 -182 837
-485 -184 851
-479 -183 847
-464 -179 826
-473 -183 849
-464 -181 839
-476 -187 867
-472 -186 867
-463 -184 856
-473 -189 880
-503 -202 943
-626 -253 1183
-1069 -435 2035
-1082 -443 2076
-1077 -444 2082
-1067 -443 2079
-1062 -443 2085
-1052 -442 2082
-1041 -440 2076
-1036 -441 2082
-1028 -441 2083
-1019 -440 2081
-1011 -439 2081
-1000 -437 2075
-990 -436 2069
-980 -434 2067
-960 -428 2040
-959 -431 2055
-960 -434 2072
-959 -437 2087
-952 -436 2088
-947 -437 2095
-928 -432 2071
-907 -425 2041
-901 -425 2044
-898 -427 2053
-884 -423 2039
-876 -422 2036
-871 -423 2042
-856 -419 2025
-852 -420 2033
-850 -423 2046
-840 -421 2040
-843 -425 2063
-825 -419 2036
-815 -418 2030
-806 -416 2024
-779 -405 1974
-779 -408 1991
-783 -414 2020
-771 -411 2007
-760 -408 1996
-767 -416 2035
-749 -409 2003
-766 -422 2068
-756 -420 2061
-740 -415 2036
-706 -399 1961
-716 -408 2008
-721 -415 2040
-720 -418 2059
-718 -420 2071
-709 -419 2065
-708 -422 2083
-699 -420 2076
-693 -420 2079
-682 -418 2068
-670 -414 2051
-663 -414 2050
-665 -419 2077
-656 -417 2071
-654 -420 2084
-636 -413 2050
-629 -412 2048
-632 -418 2079
-620 -414 2063
-613 -414 2062
-607 -414 2063
-603 -416 2073
-592 -412 2057
-596 -419 2093
-580 -413 2062
-575 -413 2067
-575 -418 2091
-565 -415 2077
-556 -413 2068
-554 -416 2085
-549 -417 2092
-538 -414 2075
-538 -419 2100
-530 -417 2095
-525 -419 2102
-516 -416 2092
-506 -413 2078
-500 -413 2078
-498 -417 2097
-492 -417 2100
-506 -434 2186
-575 -500 2520
-690 -608 3063
-695 -621 3127
-688 -623 3137
-681 -625 3150
-673 -626 3159
-664 -626 3159
-658 -630 3181
-650 -631 3187
-641 -632 3190
-633 -633 3197
-623 -633 3199
-617 -636 3218
-606 -634 3207
-599 -637 3222
-590 -638 3228
-578 -635 3216
-571 -638 3231
-562 -639 3235
-553 -639 3237
-543 -639 3237
-533 -638 3235
-525 -640 3246
-515 -639 3243
-505 -639 3241
-494 -637 3231
-485 -637 3235
-476 -638 3241
-467 -639 3245
-458 -640 3249
-448 -640 3252
-438 -639 3248
-427 -637 3236
-418 -638 3240
-409 -638 3244
-400 -639 3248
-389 -637 3237
-380 -637 3240
-370 -638 3244
-361 -638 3243
-351 -637 3240
-343 -639 3252
-333 -640 3255
-324 -640 3257
-313 -638 3246
-304 -639 3251
-296 -641 3264
-285 -639 3252
-275 -637 3240
-266 -638 3250
-258 -642 3270
-252 -651 3317
0 0 0
0 0 0
-310 -904 4599
0 -8 43
-35 -118 606
0 0 0
-31 -117 599
-28 -113 580
0 0 0
0 0 0
0 0 0
0 0 0
0 0 0
-43 -250 1273
-37 -235 1199
-35 -250 1278
-34 -264 1348
-28 -247 1258
-24 -251 1282
-20 -243 1242
-16 -243 1238
-13 -244 1244
-9 -253 1290
-6 -260 1326
-2 -244 1246
1 -248 1267
5 -253 1291
8 -251 1280
12 -253 1291
16 -247 1260
20 -258 1316
23 -250 1272
28 -261 1330
31 -256 1304
34 -250 1274
40 -264 1341
43 -257 1310
46 -252 1284
50 -255 1296
55 -260 1323
61 -271 1378
62 -260 1320
65 -255 1296
67 -246 1248
74 -258 1312
75 -248 1262
79 -250 1270
85 -257 1305
91 -266 1348
93 -259 1313
94 -250 1267
98 -252 1280
107 -264 1340
104 -249 1262
106 -244 1238
0 0 0
0 0 0
363 -773 3906
363 -749 3783
0 0 0
0 0 0
0 0 0
378 -695 3508
376 -673 3394
343 -598 3013
378 -644 3245
381 -632 3185
379 -614 3092
385 -609 3063
400 -619 3116
393 -595 2991
377 -557 2801
393 -569 2859
414 -587 2949
430 -596 2995
438 -596 2991
443 -591 2966
454 -594 2977
465 -597 2993
472 -595 2982
485 -600 3003
497 -604 3025
503 -601 3006
515 -605 3024
519 -599 2992
525 -596 2978
527 -588 2937
494 -542 2708
464 -501 2500
383 -406 2024
0 0 0
579 -597 2974
590 -599 2984
552 -552 2746
0 0 0
395 -383 1904
385 -367 1827
381 -359 1783
330 -305 1517
285 -260 1291
232 -208 1031
235 -208 1033
246 -215 1068
0 0 0
0 0 0
0 0 0
116 -95 470
0 0 0
161 -129 641
0 0 0
0 0 0
90 -68 338
0 0 0
58 -41 207
37 -24 124
3 0 -1
8 -2 16
45 -30 149
0 0 0
0 0 0
0 0 0
0 0 0
0 0 0
0 0 0
0 0 0
0 0 0
0 0 0
0 0 0
0 0 0
0 0 0
0 0 0
0 0 0
0 0 0
0 0 0
0 0 0
0 0 0
0 0 0
0 0 0
0 0 0
0 0 0
0 0 0
0 0 0
0 0 0
0 0 0
0 0 0
1040 -593 2829
1058 -598 2852
1076 -603 2873
1074 -597 2842
1091 -602 2859
1086 -594 2820
1077 -585 2773
1086 -585 2770
1086 -580 2746
1082 -574 2711
1101 -579 2734
1089 -569 2683
1102 -571 2690
1096 -564 2653
1091 -557 2617
1093 -554 2599
1093 -550 2577
1097 -548 2564
1112 -552 2578
1103 -543 2536
1106 -541 2520
1094 -531 2472
1098 -530 2462
1108 -530 2463
1108 -527 2444
1100 -520 2406
1118 -524 2424
1108 -516 2384
1112 -515 2374
1083 -498 2294
1100 -502 2309
1068 -484 2225
1081 -487 2234
1102 -494 2260
1093 -486 2224
1119 -495 2258
1091 -479 2184
1088 -475 2162
1107 -480 2183
1115 -481 2181
1115 -477 2163
1116 -475 2149
1115 -472 2131
1125 -473 2133
1123 -470 2114
1118 -465 2088
1134 -468 2101
1123 -461 2066
1133 -463 2068
1130 -459 2047
1135 -458 2041
1133 -455 2022
1140 -455 2019
1145 -454 2012
-486 -178 827
-491 -181 843
-477 -177 825
-478 -178 832
-476 -178 835
-478 -180 845
-474 -180 844
-461 -176 827
-480 -184 867
-467 -180 851
-475 -184 872
-489 -191 905
-478 -188 890
-483 -191 907
-655 -261 1239
-1075 -431 2049
-1081 -437 2077
-1070 -435 2071
-1069 -437 2085
-1060 -436 2082
-1052 -436 2084
-1042 -434 2081
-1035 -434 2083
-1028 -434 2084
-1022 -434 2088
-1012 -433 2084
-1003 -432 2083
-996 -432 2084
-974 -425 2054
-967 -425 2057
-959 -424 2055
-959 -427 2072
-958 -430 2086
-947 -428 2080
-944 -430 2090
-931 -426 2078
-905 -417 2036
-905 -421 2054
-898 -420 2055
-891 -420 2056
-881 -418 2049
-876 -419 2056
-849 -409 2009
-857 -416 2045
-846 -414 2037
-847 -418 2056
-838 -417 2053
-823 -412 2033
-807 -407 2010
-783 -398 1968
-783 -401 1986
-794 -410 2031
-786 -410 2031
-768 -403 2002
-760 -402 1997
-755 -403 2003
-756 -407 2024
-760 -413 2054
-754 -412 2055
-732 -404 2016
-724 -403 2011
-716 -402 2007
-726 -411 2056
-720 -411 2058
-709 -409 2048
-707 -411 2059
-704 -413 2073
-699 -414 2077
-687 -411 2063
-682 -411 2067
-662 -403 2028
-653 -401 2020
-661 -410 2067
-657 -412 2074
-649 -411 2070
-634 -405 2044
-631 -407 2056
-631 -411 2078
-620 -408 2064
-613 -407 2062
-604 -406 2053
-600 -408 2065
-597 -410 2076
-592 -410 2081
-578 -405 2056
-579 -410 2081
-573 -411 2086
-569 -412 2094
-563 -412 2097
-551 -408 2076
-544 -408 2076
-546 -414 2106
-535 -410 2090
-530 -411 2097
-521 -409 2088
-515 -409 2088
-509 -410 2091
-502 -408 2086
-498 -410 2097
-493 -411 2103
-498 -421 2154
-580 -497 2543
-696 -604 3089
-694 -610 3124
-687 -612 3135
-680 -615 3149
-675 -619 3170
-665 -618 3166
-660 -622 3188
-647 -619 3174
-641 -622 3193
-629 -620 3181
-623 -623 3200
-615 -625 3209
-605 -624 3205
-597 -626 3218
-587 -625 3213
-580 -628 3231
-570 -628 3228
-561 -628 3230
-551 -627 3228
-542 -629 3236
-534 -630 3241
-524 -629 3240
-515 -630 3246
-504 -628 3235
-494 -628 3236
-484 -627 3234
-476 -630 3246
-466 -629 3243
-458 -631 3254
-447 -628 3241
-437 -628 3241
-428 -629 3246
-419 -630 3251
-410 -630 3251
-399 -629 3247
-390 -630 3251
-380 -628 3244
-370 -627 3239
-361 -629 3248
-352 -629 3248
-342 -628 3247
-333 -629 3251
-324 -630 3255
-314 -629 3252
-304 -628 3245
-295 -630 3254
-284 -627 3243
-275 -627 3241
-266 -629 3252
-258 -631 3264
-253 -645 3336
0 0 0
-295 -812 4196
-297 -853 4407
0 0 0
0 0 0
0 0 0
-22 -85 446
-17 -73 383
0 0 0
0 0 0
0 0 0
0 0 0
0 0 0
-38 -220 1139
-38 -239 1237
-36 -248 1285
-32 -252 1303
-27 -239 1237
-24 -245 1269
-20 -241 1246
-17 -250 1296
-13 -246 1272
-9 -246 1272
-6 -245 1267
-2 -255 1320
1 -260 1346
5 -248 1285
9 -267 1383
12 -257 1330
16 -248 1282
20 -256 1326
25 -268 1384
28 -261 1348
31 -249 1288
35 -249 1290
38 -244 1262
41 -244 1263
45 -244 1263
50 -251 1296
53 -249 1287
58 -251 1294
61 -249 1286
68 -264 1364
66 -240 1237
73 -253 1304
77 -254 1309
83 -258 1332
86 -258 1329
90 -256 1320
87 -237 1223
100 -264 1360
97 -245 1263
105 -255 1316
105 -247 1272
105 -239 1229
0 0 0
0 0 0
0 0 0
376 -765 3923
360 -711 3644
0 0 0
381 -710 3638
0 0 0
0 0 0
381 -656 3356
380 -636 3255
367 -599 3066
382 -609 3116
389 -607 3102
404 -615 3141
0 0 0
0 0 0
392 -558 2849
415 -579 2954
424 -580 2959
435 -582 2968
440 -577 2942
452 -582 2963
471 -595 3030
477 -593 3015
485 -591 3004
496 -594 3019
498 -586 2978
503 -582 2954
526 -597 3032
528 -590 2994
524 -576 2919
500 -541 2741
447 -475 2408
0 0 0
0 0 0
578 -587 2971
562 -563 2846
587 -579 2923
0 0 0
411 -392 1980
375 -353 1782
386 -358 1807
339 -309 1561
289 -260 1311
249 -220 1110
237 -206 1040
248 -214 1078
0 0 0
0 0 0
0 0 0
162 -131 661
0 0 0
0 0 0
77 -58 294
158 -121 610
127 -96 481
43 -29 151
37 -25 128
76 -54 274
3 0 -1
54 -36 186
48 -31 160
0 0 0
0 0 0
0 0 0
0 0 0
0 0 0
0 0 0
0 0 0
0 0 0
0 0 0
0 0 0
0 0 0
0 0 0
0 0 0
0 0 0
0 0 0
0 0 0
0 0 0
0 0 0
0 0 0
0 0 0
0 0 0
0 0 0
0 0 0
0 0 0
0 0 0
0 0 0
0 0 0
1040 -584 2830
1070 -596 2884
1069 -590 2855
1075 -589 2844
1064 -578 2790
1079 -582 2803
1079 -577 2779
1095 -581 2795
1075 -566 2719
1086 -568 2724
1085 -563 2697
1089 -560 2682
1101 -563 2690
1104 -560 2673
1086 -547 2607
1105 -552 2630
1092 -541 2575
1099 -541 2572
1102 -539 2556
1079 -523 2481
1102 -531 2513
1089 -521 2464
1109 -527 2489
1102 -520 2453
1100 -515 2426
1097 -511 2401
1044 -483 2266
1084 -497 2332
1113 -508 2377
1094 -496 2318
1057 -475 2220
1062 -475 2213
1085 -482 2244
1101 -486 2259
1102 -483 2243
1103 -480 2227
1103 -477 2209
1109 -477 2204
1105 -472 2179
1109 -471 2170
1112 -470 2160
1119 -470 2157
1125 -469 2151
1129 -468 2143
1126 -464 2120
1131 -463 2113
1128 -459 2091
1132 -458 2084
1129 -454 2061
1142 -457 2071
1140 -453 2050
1149 -454 2052
1139 -448 2019
1146 -448 2016
-499 -180 851
-479 -174 823
-491 -179 849
-478 -175 833
-469 -173 823
-469 -174 830
-472 -176 841
-474 -178 851
-466 -176 843
-471 -179 858
-469 -179 861
-500 -192 925
-480 -186 895
-496 -193 931
-689 -270 1305
-1083 -428 2065
-1081 -430 2078
-1078 -431 2087
-1067 -429 2081
-1059 -429 2082
-1051 -429 2084
-1042 -428 2081
-1034 -427 2082
-1029 -428 2087
-1018 -426 2081
-1011 -426 2084
-1004 -426 2085
-992 -423 2076
-985 -423 2078
-962 -416 2046
-962 -419 2063
-965 -423 2085
-954 -421 2078
-948 -422 2083
-941 -422 2085
-922 -416 2060
-907 -412 2043
-903 -413 2050
-884 -408 2025
-884 -411 2041
-878 -411 2044
-861 -406 2023
-863 -409 2042
-851 -407 2033
-854 -412 2057
-836 -406 2031
-839 -410 2056
-826 -407 2042
-816 -406 2036
-775 -388 1949
-781 -394 1982
-786 -400 2012
-793 -407 2048
-766 -396 1997
-757 -395 1992
-758 -398 2012
-744 -394 1994
-761 -407 2056
-751 -405 2050
-722 -392 1988
-716 -393 1991
-727 -402 2041
-719 -401 2039
-713 -401 2040
-712 -404 2058
-710 -407 2072
-704 -407 2075
-698 -407 2076
-682 -401 2048
-683 -406 2072
-672 -403 2059
-658 -398 2037
-664 -406 2075
-659 -407 2082
-651 -405 2077
-634 -399 2045
-636 -404 2073
-634 -407 2087
-622 -403 2071
-615 -403 2070
-603 -399 2052
-600 -401 2065
-601 -406 2091
-590 -403 2076
-577 -398 2054
-577 -402 2076
-573 -404 2084
-572 -408 2105
-563 -406 2098
-553 -403 2084
-547 -404 2089
-543 -405 2096
-537 -405 2099
-529 -404 2095
-526 -406 2106
-515 -403 2089
-511 -404 2098
-503 -403 2093
-498 -404 2100
-494 -406 2108
-503 -419 2178
-592 -500 2596
-694 -593 3084
-698 -605 3143
-686 -602 3133
-679 -604 3144
-672 -607 3158
-665 -609 3171
-655 -608 3168
-651 -613 3196
-638 -610 3180
-633 -614 3203
-621 -612 3192
-613 -613 3197
-606 -616 3216
-594 -613 3200
-588 -617 3223
-579 -617 3224
-571 -619 3235
-560 -618 3228
-552 -619 3237
-542 -619 3235
-532 -618 3234
-524 -620 3242
-513 -618 3235
-505 -620 3246
-495 -619 3243
-484 -617 3233
-476 -620 3247
-466 -619 3244
-457 -620 3249
-447 -619 3246
-437 -618 3241
-428 -620 3250
-418 -619 3244
-408 -619 3244
-398 -618 3239
-389 -618 3244
-380 -620 3250
-370 -618 3240
-361 -620 3252
-352 -619 3249
-342 -619 3250
-332 -619 3248
-323 -619 3251
-314 -619 3252
-304 -620 3257
-293 -616 3236
-285 -619 3248
-275 -617 3242
-265 -618 3244
-258 -622 3267
-258 -647 3400
-271 -706 3707
-284 -770 4044
-292 -826 4339
-302 -893 4688
-24 -82 435
-31 -109 576
-18 -70 374
-28 -111 589
0 0 0
0 0 0
0 0 0
0 0 0
0 0 0
-38 -219 1153
-41 -251 1321
-34 -235 1238
-32 -243 1278
-28 -245 1289
-24 -242 1276
-21 -246 1292
-16 -234 1231
-15 -267 1407
-10 -264 1388
-6 -244 1281
-2 -239 1255
1 -246 1294
5 -246 1294
8 -236 1243
12 -243 1276
16 -254 1337
19 -240 1262
23 -243 1275
26 -238 1252
32 -253 1329
35 -247 1300
37 -234 1231
43 -249 1310
46 -246 1289
49 -241 1263
53 -245 1286
54 -233 1220
62 -248 1302
68 -257 1346
67 -241 1263
73 -247 1293
79 -257 1347
80 -245 1282
87 -257 1347
92 -258 1351
93 -252 1321
96 -248 1298
101 -251 1314
109 -261 1367
104 -240 1256
110 -245 1282
0 0 0
0 0 0
360 -744 3874
364 -729 3795
360 -699 3641
356 -672 3499
367 -673 3505
363 -648 3369
370 -642 3341
370 -627 3258
369 -609 3165
378 -608 3161
375 -590 3062
386 -592 3075
392 -588 3049
391 -574 2976
0 0 0
390 -548 2841
419 -575 2982
422 -568 2944
433 -571 2957
444 -575 2976
458 -581 3005
466 -580 2997
475 -581 3004
482 -578 2988
490 -577 2982
500 -579 2987
506 -576 2971
521 -584 3009
518 -570 2939
523 -567 2918
489 -520 2678
399 -417 2146
0 0 0
0 0 0
560 -560 2878
589 -581 2983
609 -592 3035
0 0 0
398 -375 1921
376 -349 1787
375 -342 1755
322 -289 1483
285 -252 1292
247 -215 1104
0 0 0
0 0 0
211 -176 901
165 -135 690
174 -141 721
0 0 0
161 -127 648
0 0 0
95 -72 368
0 0 0
0 0 0
58 -40 209
53 -36 187
29 -18 96
16 -8 46
1299 -947 4783
101 -69 353
0 0 0
0 0 0
0 0 0
0 0 0
0 0 0
0 0 0
0 0 0
0 0 0
0 0 0
0 0 0
0 0 0
0 0 0
0 0 0
0 0 0
0 0 0
0 0 0
0 0 0
0 0 0
0 0 0
0 0 0
0 0 0
0 0 0
0 0 0
0 0 0
0 0 0
0 0 0
0 0 0
1048 -580 2852
1060 -582 2860
1071 -583 2863
1080 -583 2860
1084 -580 2843
1091 -579 2836
1081 -570 2786
1076 -562 2747
1090 -566 2759
1084 -558 2718
1097 -561 2729
1090 -553 2687
1101 -554 2690
1102 -550 2669
1103 -547 2648
1099 -541 2616
1097 -536 2589
1088 -528 2546
1082 -521 2511
1100 -526 2532
1101 -522 2511
1094 -516 2476
1084 -507 2433
1067 -496 2375
1079 -498 2381
1066 -489 2335
1069 -486 2320
1063 -481 2289
1047 -470 2235
1076 -480 2280
1060 -470 2228
1069 -471 2229
1082 -473 2238
1113 -484 2284
1103 -476 2246
1120 -481 2263
1113 -475 2231
1100 -466 2188
1105 -465 2180
1111 -465 2175
1110 -462 2157
1121 -463 2161
1129 -464 2159
1129 -461 2143
1133 -460 2135
1133 -457 2118
1130 -453 2097
1132 -451 2084
1136 -450 2076
1130 -445 2050
1138 -446 2049
1136 -442 2029
1142 -442 2025
1145 -441 2016
-499 -177 851
-497 -177 854
-485 -174 840
-479 -173 835
-477 -173 838
-478 -174 846
-460 -169 821
-468 -173 842
-457 -170 827
-470 -176 857
-468 -176 860
-465 -176 860
-457 -174 852
-504 -193 947
-733 -283 1388
-1081 -420 2064
-1078 -422 2073
-1071 -422 2076
-1065 -422 2080
-1060 -423 2086
-1051 -422 2083
-1040 -420 2078
-1034 -420 2083
-1026 -420 2083
-1021 -421 2089
-1009 -418 2080
-1001 -418 2081
-994 -418 2082
-984 -416 2077
-968 -412 2060
-963 -413 2067
-959 -414 2074
-956 -416 2085
-950 -416 2089
-945 -417 2094
-921 -409 2058
-910 -407 2050
-898 -405 2041
-891 -405 2042
-879 -402 2030
-877 -404 2043
-875 -406 2057
-863 -403 2046
-849 -400 2030
-847 -402 2042
-844 -403 2052
-826 -398 2026
-821 -399 2032
-806 -395 2012
-777 -383 1956
-790 -393 2006
-791 -396 2026
-795 -401 2055
-767 -390 2000
-762 -391 2007
-749 -388 1990
-744 -388 1995
-758 -399 2051
-759 -403 2072
-742 -397 2044
-731 -394 2033
-724 -394 2033
-721 -396 2043
-716 -396 2048
-715 -400 2067
-710 -400 2071
-706 -402 2080
-693 -398 2062
-687 -398 2064
-676 -395 2050
-676 -399 2071
-663 -395 2055
-661 -398 2069
-659 -400 2082
-646 -396 2064
-633 -392 2044
-630 -394 2055
-632 -399 2083
-623 -398 2076
-617 -398 2077
-601 -392 2047
-599 -394 2062
-595 -395 2070
-584 -393 2057
-578 -393 2058
