VERSION 0.7
FIELDS x y z
SIZE 4 4 4
TYPE I I I
COUNT 1 1 1
WIDTH 4132
HEIGHT 1
VIEWPOINT 0.0 0.0 0.0 1.0 0.0 0.0 0.0
POINTS 4132
DATA ascii
-551 -3 2119
-543 -3 2112
-538 -3 2121
-532 -3 2121
-525 -3 2119
-520 -4 2124
-512 -4 2118
-507 -4 2127
-501 -4 2126
-488 -4 2100
-483 -4 2105
-467 -4 2062
-475 -4 2128
-457 -4 2076
-449 -4 2064
-424 -4 1981
-437 -4 2067
-413 -4 1985
0 0 0
0 0 0
-9 1 58
-4 1 33
-945 -12 4871
-931 -12 4879
-919 -12 4888
-905 -13 4892
-885 -13 4865
-860 -12 4804
-824 -12 4683
-850 -13 4910
-843 -13 4952
-829 -13 4955
-814 -13 4957
-802 -14 4969
-785 -14 4958
-773 -14 4975
-758 -14 4972
-743 -14 4968
-730 -14 4979
-717 -14 4992
-703 -14 4991
-690 -14 5009
-672 -14 4983
-661 -15 5005
-644 -15 4990
-631 -15 4998
-614 -15 4983
-599 -15 4978
-588 -15 5005
2 1 -3
-562 -15 5032
-543 -15 4993
-528 -15 4994
-510 -15 4959
-495 -15 4953
-481 -16 4955
-470 -16 4985
-454 -16 4975
-440 -16 4975
-427 -16 4988
-409 -16 4949
-393 -16 4933
-380 -16 4947
-366 -16 4951
-352 -16 4945
-337 -17 4946
-324 -17 4958
-312 -17 4998
-14 0 276
-85 -4 1536
-85 -4 1624
-76 -4 1541
-67 -4 1449
-60 -3 1382
-57 -3 1396
-52 -3 1379
-45 -3 1290
-40 -3 1252
-39 -3 1340
-43 -4 1607
-39 -5 1652
-37 -5 1755
-29 -5 1597
-24 -5 1610
-20 -5 1660
-16 -5 1674
-10 -5 1594
-6 -5 1753
-1 -5 1667
3 -5 1559
7 -5 1635
12 -5 1589
17 -5 1692
22 -5 1704
28 -6 1743
31 -5 1629
33 -5 1523
38 -5 1519
46 -5 1694
47 -5 1528
57 -6 1724
59 -5 1629
0 0 0
65 -5 1554
66 -5 1466
79 -6 1656
86 -6 1697
96 -6 1793
99 -6 1755
116 -7 1962
0 0 0
0 0 0
0 0 0
0 0 0
154 -8 2096
157 -8 2061
156 -7 1964
163 -7 1982
157 -7 1845
146 -6 1654
142 -6 1556
135 -5 1435
140 -5 1441
143 -5 1425
149 -5 1442
159 -5 1506
175 -6 1611
187 -6 1675
193 -6 1689
0 0 0
0 0 0
0 0 0
0 0 0
305 -10 2375
0 0 0
0 0 0
0 0 0
0 0 0
0 0 0
119 -2 798
129 -3 855
147 -3 953
153 -3 973
154 -3 961
158 -3 968
165 -3 994
166 -3 986
169 -3 984
171 -3 977
175 -3 983
178 -3 988
210 -4 1146
225 -5 1210
258 -6 1368
314 -7 1643
303 -7 1559
276 -6 1396
244 -5 1216
223 -4 1092
206 -4 991
214 -4 1019
204 -3 955
192 -3 883
214 -4 975
203 -3 910
211 -3 934
219 -4 957
219 -4 946
158 -2 667
189 -3 790
174 -2 718
130 -1 526
0 0 0
113 -1 444
159 -2 622
128 -1 494
136 -1 517
32 0 108
16 1 46
39 0 134
108 0 388
0 0 0
0 0 0
0 0 0
0 0 0
0 0 0
0 0 0
0 0 0
0 0 0
1036 -20 3483
1018 -20 3385
0 0 0
0 0 0
0 0 0
0 0 0
0 0 0
0 0 0
0 0 0
0 0 0
0 0 0
0 0 0
0 0 0
1086 -20 3200
982 -17 2865
0 0 0
0 0 0
0 0 0
0 0 0
1016 -18 2828
1046 -18 2884
1057 -18 2887
1066 -18 2886
1073 -18 2878
1076 -18 2860
1079 -18 2842
1084 -18 2830
1079 -18 2792
1070 -18 2746
1078 -18 2742
1074 -18 2707
1061 -17 2651
1090 -18 2700
1077 -17 2644
1068 -17 2600
1093 -17 2639
1115 -18 2670
1090 -17 2588
1036 -16 2438
1077 -17 2514
1111 -17 2572
1091 -17 2506
1073 -17 2443
1062 -16 2398
1085 -17 2430
1041 -16 2314
1019 -15 2245
1039 -16 2272
1037 -16 2249
1113 -17 2395
1034 -15 2208
1087 -16 2302
1093 -16 2297
1085 -16 2262
1084 -16 2242
1087 -16 2232
1073 -16 2186
1074 -16 2171
1085 -16 2177
1086 -16 2162
1087 -16 2146
1078 -15 2113
1076 -15 2092
1074 -15 2074
1071 -15 2051
1068 -15 2030
1062 -15 2004
1072 -15 2007
1073 -15 1995
1066 -15 1967
1077 -15 1972
1070 -15 1944
1068 -15 1927
1057 -14 1892
-496 3 866
-486 3 854
-496 3 878
-493 3 880
-483 3 869
-474 3 858
-480 3 875
-481 3 884
-480 3 889
-505 3 941
-664 4 1247
-1091 5 2064
-1102 6 2102
-1094 5 2102
-1091 5 2113
-1080 5 2106
-1076 5 2114
-1061 5 2101
-1056 5 2106
-1046 5 2103
-1039 5 2104
-1033 5 2109
-1025 5 2109
-1019 5 2113
-1011 5 2113
-1003 5 2113
-996 5 2114
-986 5 2110
-979 5 2111
-969 5 2106
-963 5 2111
-957 5 2115
-954 5 2124
-935 4 2099
-912 4 2065
-913 4 2084
-904 4 2080
-894 4 2073
-886 4 2073
-888 4 2094
-871 4 2072
-872 4 2092
-863 4 2088
-856 4 2088
-853 4 2097
-842 4 2089
-830 4 2077
-822 4 2075
-819 4 2086
-817 4 2097
-807 4 2091
-804 4 2102
-792 4 2088
-787 4 2095
-779 3 2092
-775 3 2099
-766 3 2093
-755 3 2084
-748 3 2083
-739 3 2076
-735 3 2084
-728 3 2087
-729 3 2109
-721 3 2104
-722 3 2129
-709 3 2109
-701 3 2106
-700 3 2126
-684 3 2097
-685 3 2121
-677 3 2116
-662 3 2089
-646 3 2061
-645 3 2080
-641 3 2087
-640 3 2105
-630 2 2096
-631 2 2122
-621 2 2111
-618 2 2121
-612 2 2125
-601 2 2111
-600 2 2128
-587 2 2107
-581 2 2108
-574 2 2105
-569 2 2113
-561 2 2107
-558 2 2120
-549 2 2111
-544 2 2117
-540 2 2125
-532 2 2120
-526 2 2122
-517 2 2114
-509 2 2106
-506 2 2122
-502 2 2133
-494 2 2126
-484 2 2112
-481 1 2126
-480 1 2148
-462 1 2095
-469 1 2159
-440 1 2053
-454 1 2148
-412 1 1978
-416 1 2027
0 0 0
0 0 0
-963 1 4893
-946 1 4878
-931 1 4879
-912 1 4856
-901 1 4871
-883 1 4851
-858 1 4791
-834 0 4735
-861 0 4972
-847 0 4976
-4 1 40
-822 0 5003
-16 1 115
-6 1 55
-3 1 37
-2 1 29
-3 1 39
0 1 15
-1 1 25
-3 1 36
-3 1 38
-2 1 37
2 1 -4
-9 1 87
-7 1 76
-24 1 212
-17 1 163
-22 1 213
-28 1 270
-24 1 241
-22 1 228
-9 1 106
-518 -1 5032
-498 -1 4983
-482 -1 4967
-473 -1 5018
-12 1 157
-8 1 117
-431 -2 5045
-410 -2 4969
-394 -2 4939
-379 -2 4938
-366 -2 4946
-351 -2 4943
-337 -2 4941
-325 -2 4975
-2 1 82
-61 0 1070
-81 0 1464
-78 0 1488
-69 0 1397
-64 0 1369
-53 0 1220
-53 0 1304
-50 0 1318
-44 0 1265
-37 0 1162
-40 0 1375
-40 0 1502
-34 0 1462
-30 0 1447
-26 0 1470
-23 0 1516
-19 0 1550
-14 0 1520
-10 0 1589
-5 0 1530
-1 0 1597
3 0 1506
7 0 1507
11 0 1464
16 0 1566
21 0 1625
26 0 1597
33 -1 1733
33 0 1532
38 0 1526
41 0 1467
44 0 1451
51 0 1528
54 0 1477
58 0 1472
64 0 1516
66 0 1460
70 0 1454
79 -1 1550
89 -1 1658
96 -1 1706
93 -1 1575
107 -1 1720
112 -1 1730
117 -1 1723
131 -1 1859
148 -2 2015
152 -2 1988
161 -2 2028
158 -2 1928
151 -1 1776
149 -1 1689
162 -1 1781
137 -1 1453
145 -1 1489
140 -1 1402
145 -1 1407
144 -1 1361
147 -1 1352
162 -1 1452
135 0 1169
137 0 1158
0 0 0
0 0 0
0 0 0
0 0 0
0 0 0
0 0 0
0 0 0
0 0 0
0 0 0
0 0 0
160 -1 1060
161 0 1048
158 0 1008
155 0 970
171 -1 1052
186 -1 1124
198 -1 1178
195 -1 1139
176 -1 1006
176 -1 994
179 -1 994
222 -1 1214
327 -3 1767
389 -3 2073
399 -4 2090
421 -4 2175
404 -4 2052
357 -3 1784
246 -1 1208
248 -1 1197
218 -1 1035
194 -1 905
203 -1 938
205 -1 931
202 -1 906
218 -1 966
211 -1 921
181 0 778
208 -1 885
171 0 712
185 0 763
184 0 748
0 0 0
159 0 631
0 0 0
79 0 298
122 0 462
10 1 22
3 1 -3
26 1 85
68 0 241
53 0 180
0 0 0
0 0 0
0 0 0
0 0 0
0 0 0
0 0 0
0 0 0
0 0 0
0 0 0
0 0 0
0 0 0
0 0 0
0 0 0
0 0 0
0 0 0
0 0 0
0 0 0
0 0 0
0 0 0
1023 -9 3041
1059 -10 3120
1049 -10 3061
1042 -9 3012
0 0 0
0 0 0
0 0 0
944 -8 2625
1047 -9 2886
1063 -10 2904
1073 -10 2904
1075 -10 2884
1076 -10 2861
1095 -10 2884
1082 -10 2825
1080 -9 2794
1087 -10 2788
1068 -9 2717
1087 -9 2741
1078 -9 2694
1077 -9 2667
1083 -9 2661
1078 -9 2625
1091 -9 2635
1096 -9 2624
1080 -9 2565
1079 -9 2539
1089 -9 2543
1084 -9 2509
1091 -9 2506
1069 -9 2434
1064 -9 2404
1092 -9 2446
1098 -9 2440
1088 -9 2399
1095 -9 2395
1092 -9 2369
1090 -9 2345
1074 -9 2292
1095 -9 2319
1074 -9 2256
1092 -9 2277
1098 -9 2271
1091 -9 2240
1089 -9 2218
1086 -9 2195
1088 -9 2182
1096 -9 2181
1103 -9 2178
1087 -9 2131
1096 -9 2131
1091 -9 2106
1097 -9 2102
1088 -9 2069
1087 -9 2052
1089 -9 2040
1079 -9 2006
1080 -9 1993
1074 -8 1967
1079 -8 1961
1075 -8 1939
1069 -8 1914
-505 6 882
-504 6 886
-493 6 873
-492 6 877
-485 6 872
-480 6 868
-468 6 854
-480 6 883
-499 6 924
-496 6 925
-673 8 1265
-1087 12 2058
-1105 12 2107
-1094 12 2102
-1088 12 2106
-1079 12 2104
-1071 12 2104
-1067 12 2112
-1055 12 2105
-1049 12 2110
-1040 12 2107
-1036 12 2115
-1024 12 2106
-1016 12 2107
-1012 12 2115
-1005 12 2118
-996 11 2115
-987 11 2112
-980 11 2114
-970 11 2109
-964 11 2113
-955 11 2111
-954 11 2125
-939 11 2107
-926 11 2096
-909 11 2073
-902 11 2075
-899 11 2085
-889 11 2079
-886 11 2089
-877 11 2087
-869 10 2084
-865 10 2091
-861 10 2099
-847 10 2085
-830 10 2060
-827 10 2070
-829 10 2093
-823 10 2096
-816 10 2096
-815 10 2113
-801 10 2095
-800 10 2110
-786 10 2091
-788 10 2115
-770 10 2088
-765 10 2091
-757 10 2090
-741 9 2064
-734 9 2063
-733 9 2079
-720 9 2063
-713 9 2063
-722 9 2107
-712 9 2100
-708 9 2107
-708 9 2128
-693 9 2104
-692 9 2120
-684 9 2118
-675 9 2109
-661 9 2089
-646 9 2062
-650 9 2095
-640 9 2084
-636 9 2095
-630 9 2096
-626 9 2106
-622 9 2113
-615 9 2112
-609 9 2116
-604 9 2122
-598 9 2121
-589 8 2114
-586 8 2126
-572 8 2101
-571 8 2122
-564 8 2120
-559 8 2126
-552 8 2124
-549 8 2136
-539 8 2124
-535 8 2132
-528 8 2134
-517 8 2115
-512 8 2120
-508 8 2132
-498 8 2117
-492 8 2119
-489 8 2134
-490 8 2163
-493 8 2208
-474 8 2153
-466 8 2146
-502 8 2344
-483 8 2286
-471 8 2260
-491 8 2393
0 0 0
0 0 0
0 0 0
0 0 0
-914 15 4791
-896 15 4771
-903 15 4880
-874 15 4803
-834 14 4657
-768 13 4362
-855 15 4941
-851 15 5002
-4 1 39
-820 14 4992
-13 1 95
-3 1 36
-11 1 90
-8 1 66
-4 1 41
-1 1 27
-11 1 96
-10 1 89
-8 1 75
-3 1 41
-3 1 45
-8 1 81
-21 1 186
-45 2 386
-48 2 419
-48 2 427
-44 2 408
-44 2 416
-48 2 465
-33 2 335
-2 1 46
-498 12 4982
-482 12 4963
-475 12 5047
-60 3 684
-75 3 874
-28 2 356
1 1 6
-398 12 4997
-382 11 4977
-367 11 4966
-355 11 4997
-343 11 5033
-6 1 137
-52 3 869
-76 4 1319
-72 4 1312
-71 4 1366
-67 4 1361
-53 3 1144
-45 3 1062
-52 3 1279
-49 3 1305
-41 3 1202
-35 3 1128
-37 3 1265
-36 3 1388
-34 4 1438
-29 3 1429
-23 3 1341
-22 3 1474
-17 3 1447
-13 3 1407
-9 3 1447
-5 3 1453
-1 3 1455
3 3 1416
7 3 1381
11 3 1485
15 3 1389
19 3 1409
23 3 1431
27 3 1419
31 3 1410
37 3 1471
38 3 1348
43 3 1388
50 3 1505
51 3 1397
54 3 1367
59 3 1401
65 3 1450
73 3 1515
68 3 1344
82 3 1525
83 3 1462
96 3 1623
90 3 1447
100 3 1540
105 3 1542
112 3 1574
119 3 1618
129 3 1686
148 3 1861
140 3 1697
141 3 1649
154 3 1747
149 3 1633
146 2 1550
141 2 1452
136 2 1356
133 2 1286
126 2 1188
134 2 1228
132 2 1176
120 2 1038
114 2 961
118 2 969
126 2 1016
129 2 1016
0 0 0
0 0 0
0 0 0
0 0 0
0 0 0
0 0 0
0 0 0
191 2 1272
176 2 1144
150 1 959
149 1 934
170 1 1045
233 2 1413
0 0 0
271 2 1590
185 1 1058
176 1 990
181 1 1003
209 1 1140
323 2 1746
404 2 2155
450 2 2363
451 2 2330
438 1 2230
0 0 0
245 1 1201
0 0 0
220 1 1045
211 1 988
205 1 946
178 1 807
191 1 855
184 1 812
193 1 841
192 1 825
0 0 0
196 1 820
177 1 731
178 1 725
141 1 562
117 1 459
0 0 0
110 1 421
165 1 629
12 1 33
1279 0 4870
45 1 154
42 1 144
0 0 0
0 0 0
0 0 0
0 0 0
0 0 0
0 0 0
0 0 0
0 0 0
0 0 0
0 0 0
0 0 0
0 0 0
0 0 0
0 0 0
0 0 0
0 0 0
0 0 0
0 0 0
0 0 0
0 0 0
1053 0 3131
1056 0 3111
1051 0 3066
1064 0 3074
0 0 0
0 0 0
0 0 0
1019 -1 2834
1052 -1 2900
1057 -1 2886
1069 -1 2894
1079 -1 2893
1078 -1 2864
1090 -1 2871
1082 -1 2824
1082 -1 2799
1083 -1 2777
1094 -1 2782
1081 -1 2723
1081 -1 2701
1077 -1 2668
1089 -1 2676
1084 -1 2639
1093 -1 2639
1093 -1 2616
1092 -1 2591
1087 -1 2559
1084 -1 2530
1088 -1 2518
1086 -1 2493
1097 -2 2498
1090 -2 2462
1107 -2 2481
1096 -2 2435
1096 -2 2415
1102 -2 2409
1088 -2 2360
1108 -2 2384
1088 -2 2323
1101 -2 2333
1106 -2 2324
1097 -2 2288
1103 -2 2281
1109 -2 2276
1095 -2 2231
1085 -2 2192
1094 -2 2194
1097 -2 2184
1102 -2 2176
1097 -2 2151
1103 -2 2145
1093 -2 2109
1096 -2 2099
1101 -2 2093
1108 -2 2090
1104 -2 2067
1096 -2 2037
1100 -2 2030
1096 -2 2008
1089 -2 1979
1093 -2 1972
1086 -2 1945
-499 9 872
-494 9 869
-491 9 870
-498 9 889
-486 9 874
-478 9 866
-488 9 890
-477 9 877
-485 9 898
-486 9 906
-660 12 1241
-1095 19 2072
-1102 19 2102
-1100 19 2113
-1087 19 2104
-1082 19 2110
-1073 19 2110
-1065 19 2109
-1059 19 2113
-1049 18 2110
-1040 18 2106
-1032 18 2107
-1021 18 2101
-1020 18 2115
-1012 18 2115
-1004 18 2114
-997 18 2116
-988 18 2115
-981 18 2116
-972 18 2114
-965 18 2115
-959 18 2119
-951 18 2117
-942 18 2115
-918 17 2079
-911 17 2079
-902 17 2075
-893 17 2071
-896 17 2095
-888 17 2096
-878 17 2089
-874 17 2097
-872 17 2109
-856 17 2088
-851 17 2094
-842 17 2089
-829 16 2076
-831 17 2099
-832 17 2118
-814 16 2091
-804 16 2085
-804 16 2103
-793 16 2092
-785 16 2089
-784 16 2106
-775 16 2099
-764 16 2090
-753 16 2078
-741 16 2064
-724 15 2035
-734 16 2084
-727 16 2084
-716 16 2070
-717 16 2092
-714 16 2105
-708 16 2107
-696 15 2091
-695 16 2108
-692 16 2120
-683 15 2116
-679 15 2125
-662 15 2092
-649 15 2070
-653 15 2104
-639 15 2082
-641 15 2110
-634 15 2110
-628 15 2111
-620 15 2107
-614 15 2108
-604 15 2097
-601 15 2110
-597 15 2117
-592 15 2127
-584 15 2119
-575 15 2111
-572 15 2123
-568 15 2135
-562 15 2135
-552 14 2124
-544 14 2119
-538 14 2121
-530 14 2115
-524 14 2116
-519 14 2121
-511 14 2114
-505 14 2119
-493 14 2094
-494 14 2125
-489 14 2130
-506 15 2237
-553 16 2476
-614 18 2782
-616 18 2832
-591 18 2757
-612 18 2895
-619 19 2971
-615 19 2991
-616 19 3043
-630 20 3158
-602 19 3065
-630 20 3253
-641 21 3365
-651 21 3466
-648 21 3508
-634 21 3486
-601 20 3360
-591 20 3360
-590 20 3416
-583 20 3432
-568 20 3405
-557 20 3399
-552 20 3431
-539 20 3407
-532 20 3429
-528 20 3471
-530 21 3553
-528 21 3608
-520 21 3625
-513 21 3652
-509 21 3699
-512 22 3802
-514 22 3897
-511 22 3964
-491 22 3895
-420 19 3414
-395 18 3295
0 0 0
2 1 1
-21 2 209
0 0 0
0 0 0
-491 26 4779
-485 26 4857
-473 26 4871
-457 26 4857
0 0 0
0 0 0
0 0 0
-407 26 4928
-400 26 5020
-386 26 5022
-367 26 4969
2 1 3
-34 4 540
-58 6 919
-73 7 1204
-73 7 1273
-66 7 1202
-69 7 1330
-54 6 1111
-43 6 950
-39 5 931
-43 6 1074
-42 6 1141
-44 7 1274
-35 6 1112
-33 6 1147
-31 7 1204
-29 7 1256
-27 7 1350
-25 7 1408
-18 7 1225
-15 7 1282
-11 7 1286
-7 7 1259
-4 7 1350
0 7 1335
3 7 1319
6 7 1321
10 7 1330
14 7 1339
17 7 1287
22 7 1338
25 7 1274
30 7 1345
34 7 1366
36 6 1279
42 7 1359
47 7 1398
47 6 1287
55 7 1399
57 7 1355
61 7 1355
62 6 1290
67 6 1320
67 6 1242
78 7 1368
83 7 1387
92 7 1470
90 7 1372
96 7 1410
103 7 1445
118 7 1601
119 7 1557
119 7 1496
125 7 1510
146 8 1714
148 7 1675
142 7 1559
147 7 1559
136 6 1393
125 6 1248
130 6 1254
121 5 1136
126 5 1156
118 5 1053
104 4 896
111 4 933
109 4 898
108 4 865
105 4 819
96 4 727
82 3 610
0 0 0
0 0 0
0 0 0
0 0 0
0 0 0
198 6 1322
157 5 1020
155 4 990
148 4 923
181 5 1112
222 6 1349
0 0 0
241 6 1412
191 5 1097
188 4 1060
184 4 1019
226 5 1234
338 7 1827
366 7 1950
418 8 2193
424 8 2192
438 8 2226
326 6 1627
252 5 1238
283 5 1367
236 4 1122
198 4 928
179 4 824
203 4 923
0 0 0
175 3 771
190 3 830
165 3 706
174 3 735
187 3 782
159 3 656
206 3 843
151 3 605
0 0 0
0 0 0
109 2 418
20 1 64
34 1 116
11 1 29
56 2 195
0 0 0
0 0 0
0 0 0
0 0 0
0 0 0
0 0 0
0 0 0
1069 10 3671
1023 10 3475
1030 10 3460
1046 10 3479
0 0 0
0 0 0
0 0 0
0 0 0
0 0 0
0 0 0
0 0 0
0 0 0
0 0 0
1006 8 3022
1047 8 3113
1054 8 3103
1058 8 3085
1065 8 3076
0 0 0
0 0 0
0 0 0
1034 7 2877
1045 7 2879
1057 7 2886
1068 7 2891
1078 7 2891
1088 7 2891
1093 7 2878
1070 7 2792
1070 6 2768
1068 6 2738
1081 6 2749
1084 6 2733
1083 6 2707
1082 6 2681
1090 6 2677
1088 6 2649
1085 6 2619
1094 6 2619
1092 6 2593
1103 6 2597
1104 5 2576
1093 5 2530
1100 5 2525
1091 5 2485
1094 5 2471
1111 5 2488
1098 5 2440
1094 5 2411
1093 5 2391
1105 5 2398
1102 5 2371
1094 5 2336
1106 5 2344
1090 4 2290
1101 4 2295
1107 4 2291
1103 4 2264
1097 4 2233
1091 4 2204
1097 4 2201
1107 4 2202
1109 4 2190
1111 4 2177
1110 4 2158
1110 4 2142
1109 4 2124
1107 4 2105
1109 4 2092
1103 3 2066
1113 3 2069
1115 3 2057
1109 3 2030
1097 3 1993
1105 3 1994
1095 3 1961
-503 12 878
-505 12 887
-504 12 892
-495 12 883
-501 12 900
-496 12 899
-482 12 878
-481 12 884
-490 12 908
-509 12 949
-659 16 1238
-1092 25 2067
-1100 26 2098
-1095 26 2103
-1087 25 2105
-1079 25 2105
-1074 25 2110
-1064 25 2106
-1057 25 2109
-1050 25 2112
-1042 25 2111
-1035 25 2113
-1026 25 2112
-1019 25 2113
-1012 25 2115
-1001 25 2108
-997 25 2116
-987 25 2113
-979 24 2112
-972 24 2113
-966 24 2117
-958 24 2117
-951 24 2118
-936 24 2102
-919 24 2080
-908 24 2073
-896 23 2062
-895 23 2077
-887 23 2076
-879 23 2074
-874 23 2079
-879 24 2109
-860 23 2079
-860 23 2097
-844 23 2078
-835 23 2071
-824 23 2062
-827 23 2087
-820 23 2088
-813 23 2088
-805 23 2087
-795 23 2078
-798 23 2104
-782 22 2081
-780 23 2095
-770 22 2087
-772 23 2113
-758 22 2092
-743 22 2068
-732 22 2057
-746 22 2116
-726 22 2081
-718 22 2075
-720 22 2104
-711 22 2097
-706 22 2101
-701 22 2108
-698 22 2120
-687 22 2105
-683 22 2114
-678 22 2120
-661 21 2088
-651 21 2077
-648 21 2090
-646 21 2104
-631 21 2077
-630 21 2096
-629 21 2116
-621 21 2110
-618 21 2123
-607 21 2106
-597 21 2097
-592 21 2101
-584 21 2097
-581 21 2107
-579 21 2124
-571 21 2120
-566 21 2127
-554 21 2107
-552 21 2125
-544 21 2117
-536 21 2112
-529 20 2108
-531 21 2144
-518 20 2116
-512 20 2121
-511 21 2142
-498 20 2117
-496 20 2135
-505 21 2201
-531 22 2345
-620 26 2774
-664 28 3010
-661 28 3038
-662 29 3085
-654 29 3092
-649 29 3111
-642 29 3124
-633 29 3126
-628 29 3147
-622 29 3165
-614 29 3170
-609 29 3193
-599 29 3192
-593 29 3212
-581 29 3199
-570 29 3188
-562 29 3196
-556 29 3216
-545 29 3211
-538 29 3227
-527 28 3213
-517 28 3211
-509 28 3223
-498 28 3213
-490 28 3221
-483 28 3235
-474 28 3238
-462 28 3222
-452 28 3220
-443 28 3225
-435 28 3231
-428 28 3255
-418 28 3248
-408 28 3242
-395 27 3212
-387 27 3227
-377 27 3217
-368 27 3221
-361 27 3245
-348 27 3211
-341 27 3232
-338 28 3294
-335 28 3365
-325 28 3357
-305 27 3248
-292 27 3208
-283 27 3216
-272 26 3194
-266 27 3239
-299 31 3763
-383 40 4989
-369 40 5000
-4 2 102
-56 8 858
-62 9 988
-64 9 1059
-60 9 1049
-59 9 1092
-61 10 1171
-56 10 1156
-44 9 979
-22 5 556
-28 7 731
-36 8 972
-38 9 1108
-33 9 1065
-27 8 957
-30 10 1167
-27 10 1167
-22 9 1115
-21 10 1199
-16 10 1152
-14 10 1221
-10 10 1143
-6 9 1140
-3 10 1181
0 10 1196
3 9 1144
6 9 1122
10 10 1198
13 9 1152
17 10 1204
20 10 1198
22 9 1126
28 10 1234
30 10 1187
34 10 1191
36 9 1159
40 9 1183
44 10 1200
48 10 1219
56 10 1314
55 10 1219
58 10 1209
59 9 1141
67 10 1249
69 9 1205
75 10 1253
78 10 1244
79 9 1198
85 10 1239
91 10 1273
97 10 1309
101 10 1312
105 10 1313
116 11 1404
126 11 1468
132 11 1495
123 10 1347
136 11 1447
120 9 1228
127 9 1268
124 9 1202
121 9 1139
116 8 1058
112 8 991
99 7 854
101 7 845
101 6 823
100 6 801
106 6 832
97 6 739
81 5 599
73 4 528
68 4 474
78 5 542
0 0 0
0 0 0
160 8 1059
137 7 891
132 6 840
153 7 956
174 8 1070
205 9 1243
245 10 1460
268 11 1569
243 10 1402
222 9 1257
227 9 1263
271 10 1485
283 10 1525
312 11 1656
0 0 0
406 14 2097
372 12 1891
297 10 1484
235 8 1151
0 0 0
231 8 1100
185 6 865
185 6 853
206 7 939
186 6 830
187 6 825
160 5 695
164 5 702
170 5 717
192 6 802
185 5 763
185 5 755
141 4 562
126 4 494
120 4 464
144 4 555
81 3 302
6 1 9
8 1 15
11 1 26
47 2 162
0 0 0
0 0 0
0 0 0
0 0 0
0 0 0
0 0 0
1024 20 3516
1014 20 3444
1030 20 3461
1034 20 3437
1052 20 3462
0 0 0
0 0 0
0 0 0
0 0 0
0 0 0
0 0 0
0 0 0
0 0 0
1023 17 3071
1049 17 3119
1055 17 3107
1062 17 3096
1033 17 2984
0 0 0
0 0 0
0 0 0
1000 15 2782
1048 16 2888
1061 16 2897
1068 16 2891
1073 16 2877
1075 15 2858
1087 15 2864
1089 15 2843
1082 15 2799
1094 15 2806
1066 15 2711
1079 15 2720
1090 14 2723
1076 14 2664
1085 14 2664
1090 14 2653
1096 14 2646
1084 14 2596
1083 13 2571
1096 13 2579
1090 13 2544
1092 13 2527
1099 13 2523
1094 13 2490
1102 13 2488
1101 13 2467
1111 13 2469
1108 13 2442
1099 12 2402
1106 12 2399
1105 12 2377
1106 12 2360
1104 12 2337
1114 12 2341
1121 12 2338
1119 12 2315
1110 11 2277
1109 11 2258
1091 11 2205
1101 11 2208
1105 11 2199
1108 11 2188
1112 11 2180
1115 11 2168
1124 11 2170
1117 10 2140
1122 10 2132
1120 10 2114
1120 10 2097
1120 10 2082
1119 10 2064
1111 10 2034
1114 10 2024
1116 10 2013
1119 10 2005
-507 15 885
-501 15 881
-499 15 884
-499 15 891
-498 15 896
-501 15 907
-469 14 855
-469 14 862
-489 15 905
-502 15 936
-663 20 1245
-1089 32 2061
-1102 32 2101
-1099 32 2111
-1088 32 2106
-1082 32 2111
-1073 32 2108
-1065 32 2108
-1057 32 2109
-1049 32 2110
-1044 32 2115
-1032 32 2108
-1027 32 2113
-1019 31 2113
-1010 31 2111
-1003 31 2114
-994 31 2112
-986 31 2109
-979 31 2113
-972 31 2115
-968 31 2122
-958 31 2117
-953 31 2123
-933 30 2096
-913 30 2066
-912 30 2081
-907 30 2086
-897 30 2081
-894 30 2092
-883 30 2084
-878 30 2088
-873 30 2094
-868 30 2099
-860 30 2098
-850 30 2092
-836 29 2074
-832 29 2082
-830 29 2096
-823 29 2095
-813 29 2087
-812 29 2105
-803 29 2100
-796 29 2101
-782 29 2081
-786 29 2111
-774 29 2098
-769 29 2103
-764 29 2109
-748 28 2084
-732 28 2059
-734 28 2082
-712 28 2039
-716 28 2070
-722 28 2109
-712 28 2098
-709 28 2110
-700 28 2103
-697 28 2116
-691 28 2117
-686 28 2123
-678 28 2119
-665 28 2100
-648 27 2068
-646 27 2083
-642 28 2093
-622 27 2048
-631 28 2099
-629 28 2115
-626 28 2126
-617 28 2118
-606 27 2104
-602 27 2113
-597 27 2121
-581 27 2087
-581 27 2109
-575 27 2111
-574 27 2131
-562 27 2112
-560 27 2129
-553 27 2129
-546 27 2125
-535 27 2109
-528 27 2106
-528 27 2132
-517 27 2114
-513 27 2123
-504 27 2112
-501 27 2127
-496 27 2133
-512 28 2233
-553 30 2441
-652 36 2915
-674 37 3055
-674 38 3097
-669 38 3119
-660 38 3119
-650 38 3118
-648 38 3154
-639 38 3153
-629 38 3153
-622 38 3163
-611 38 3159
-604 38 3170
-595 38 3174
-586 38 3176
-577 38 3177
-567 38 3171
-561 38 3192
-548 38 3175
-544 38 3207
-533 38 3193
-522 37 3187
-514 37 3195
-503 37 3186
-495 37 3194
-484 37 3185
-478 37 3202
-469 37 3210
-459 37 3205
-449 37 3200
-439 37 3195
-431 37 3201
-423 37 3217
-412 37 3198
-402 37 3197
-393 37 3197
-384 37 3202
-373 36 3188
-365 36 3200
-356 36 3202
-348 36 3212
-338 36 3210
-330 36 3216
-320 36 3215
-311 36 3220
-302 36 3218
-291 36 3204
-282 36 3202
-273 36 3206
-265 36 3221
-265 37 3345
-380 54 4949
1 1 14
-17 4 278
-55 10 847
-57 11 914
-57 11 951
-52 11 910
-54 12 1005
-56 12 1078
-53 13 1083
-34 9 765
-11 4 300
2 1 3
-10 4 321
-31 11 933
-25 10 812
-25 11 907
-27 12 1047
-25 12 1101
-21 12 1057
-18 12 1057
-15 12 1095
-12 12 1056
-9 12 1081
-6 13 1123
-2 12 1030
0 12 1089
3 13 1136
6 12 1035
9 12 1094
12 12 1069
15 12 1051
18 12 1073
21 12 1076
24 12 1062
28 12 1082
29 11 1021
33 12 1060
37 12 1073
41 12 1107
45 12 1119
47 12 1095
49 12 1074
55 12 1142
59 12 1142
58 12 1061
68 13 1186
68 12 1134
70 12 1106
68 11 1029
79 12 1145
81 12 1134
87 12 1174
94 13 1212
100 13 1245
116 15 1396
107 13 1241
115 14 1296
116 13 1267
117 13 1233
118 13 1213
117 12 1161
122 12 1183
113 11 1062
108 10 985
103 10 913
105 10 903
95 9 793
90 8 737
78 7 620
95 8 742
84 7 638
83 7 614
66 5 473
63 5 437
43 4 286
28 3 174
45 4 288
0 0 0
0 0 0
155 10 991
158 10 986
226 14 1400
268 16 1631
266 16 1587
259 15 1517
269 15 1549
260 14 1471
246 13 1371
285 15 1564
224 12 1204
276 14 1464
0 0 0
270 14 1386
270 13 1367
246 12 1223
251 12 1231
239 11 1152
212 10 1009
174 8 812
165 8 759
185 9 840
160 7 713
196 9 865
123 6 530
162 7 692
140 6 589
125 6 516
137 6 559
173 7 706
136 6 542
104 5 407
158 6 618
94 4 359
68 3 252
1265 43 4872
1276 43 4857
9 1 20
36 2 121
60 3 208
0 0 0
0 0 0
0 0 0
0 0 0
0 0 0
1022 31 3508
1007 30 3421
1023 30 3436
1035 30 3440
1046 30 3440
0 0 0
0 0 0
0 0 0
0 0 0
0 0 0
0 0 0
0 0 0
0 0 0
1054 27 3164
1074 27 3192
1063 27 3130
1062 27 3098
1034 26 2987
0 0 0
0 0 0
0 0 0
1015 24 2823
1045 25 2881
1056 25 2884
1065 24 2881
1076 24 2885
1086 24 2886
1083 24 2851
1084 24 2828
1078 23 2788
1075 23 2757
1084 23 2755
1086 23 2735
1084 23 2708
1078 22 2671
1088 22 2671
1094 22 2662
1087 22 2624
1096 22 2623
1084 21 2574
1089 21 2564
1094 21 2554
1097 21 2539
1102 21 2529
1106 21 2519
1106 21 2498
1104 20 2474
1092 20 2425
1106 20 2439
1100 20 2405
1110 20 2408
1105 20 2377
1114 19 2378
1112 19 2354
1110 19 2332
1111 19 2316
1115 19 2306
1111 19 2279
1113 18 2266
1098 18 2219
1099 18 2204
1102 18 2193
1113 18 2198
1115 18 2186
1118 18 2175
1121 17 2163
1123 17 2151
1117 17 2123
1119 17 2112
1123 17 2103
1121 17 2084
1117 17 2061
1132 17 2072
1116 16 2028
1125 16 2029
1125 16 2015
-504 17 879
-503 18 883
-486 17 860
-498 18 889
-481 17 864
-479 17 867
-463 17 844
-459 17 844
-474 17 878
-506 18 943
-654 23 1230
-1092 38 2066
-1103 39 2104
-1095 39 2104
-1090 39 2110
-1082 39 2111
-1074 39 2111
-1065 39 2110
-1058 39 2112
-1048 38 2107
-1044 38 2116
-1036 38 2115
-1023 38 2106
-1017 38 2109
-1008 38 2108
-1004 38 2114
-992 38 2106
-986 38 2111
-982 38 2117
-974 38 2117
-966 38 2117
-957 37 2116
-954 37 2124
-936 37 2103
-920 37 2082
-912 36 2081
-904 36 2080
-896 36 2078
-895 36 2093
-882 36 2081
-882 36 2098
-867 36 2080
-861 36 2082
-854 36 2083
-846 36 2081
-837 36 2077
-837 36 2095
-828 36 2090
-825 36 2102
-816 36 2096
-802 35 2078
-803 36 2099
-795 35 2096
-787 35 2095
-783 35 2103
-775 35 2100
-770 35 2105
-756 35 2088
-750 35 2090
-735 34 2066
-739 35 2097
-729 35 2088
-710 34 2052
-715 34 2088
-715 35 2107
-709 35 2109
-702 35 2109
-688 34 2088
-687 34 2106
-680 34 2105
-674 34 2109
-659 34 2082
-646 33 2063
-647 34 2087
-648 34 2110
-631 33 2078
-632 34 2101
-627 34 2108
-621 34 2111
-613 34 2106
-610 34 2120
-603 34 2116
-592 33 2102
-587 33 2106
-581 33 2108
-576 33 2114
-573 34 2128
-562 33 2114
-557 33 2119
-549 33 2111
-548 33 2134
-538 33 2119
-529 33 2110
-527 33 2130
-521 33 2130
-515 33 2132
-504 33 2114
-498 33 2117
-499 33 2146
-513 34 2235
-561 38 2480
-662 45 2962
-681 47 3086
-674 47 3100
-670 47 3122
-661 47 3125
-655 47 3141
-647 47 3150
-637 47 3143
-630 47 3159
-621 47 3158
-613 47 3165
-603 47 3162
-596 47 3179
-584 47 3164
-578 47 3180
-568 47 3179
-559 47 3180
-550 47 3186
-541 47 3186
-534 47 3199
-524 47 3198
-513 47 3190
-503 47 3187
-495 47 3191
-485 46 3191
-477 47 3200
-469 47 3205
-457 46 3192
-449 46 3198
-440 46 3198
-431 46 3204
-421 46 3197
-412 46 3202
-403 46 3202
-394 46 3206
-384 46 3204
-374 46 3193
-365 46 3199
-356 46 3205
-347 46 3206
-338 45 3206
-329 45 3210
-319 45 3203
-310 45 3211
-302 45 3217
-292 45 3210
-282 45 3211
-273 45 3214
-264 45 3215
-261 46 3293
-374 67 4871
-17 5 271
-36 8 542
-51 12 782
-48 12 781
-51 13 865
-49 13 864
-44 12 819
-50 14 975
-46 14 960
-21 8 492
0 2 38
-1 2 102
-3 3 162
-16 8 504
-22 11 738
-18 10 668
-25 14 1001
-23 15 1036
-22 16 1093
-18 15 1048
-14 15 1023
-11 14 987
-9 15 1081
-6 16 1098
-2 14 970
0 14 1018
3 15 1034
6 14 1019
9 15 1031
11 14 1000
14 14 1020
16 13 939
21 14 1035
23 14 997
27 15 1046
28 14 991
33 14 1035
31 13 889
37 14 1003
41 14 1014
45 15 1057
47 14 1018
49 14 1001
55 15 1062
56 14 1030
60 14 1049
62 14 1035
67 15 1059
67 14 1020
71 14 1031
81 15 1123
75 14 1003
87 15 1122
102 17 1271
94 15 1132
98 15 1134
118 18 1330
113 17 1236
111 16 1175
117 16 1202
115 15 1144
114 15 1099
109 14 1020
111 14 1013
101 12 895
97 11 838
90 10 753
90 10 737
83 9 655
75 8 582
79 8 594
69 7 509
74 8 530
65 7 455
35 4 232
29 3 184
55 5 356
72 7 463
0 0 0
0 0 0
0 0 0
0 0 0
0 0 0
186 14 1107
188 14 1099
216 16 1239
201 15 1133
0 0 0
191 14 1043
216 15 1158
233 16 1232
214 14 1113
0 0 0
260 17 1312
202 13 1000
225 14 1103
262 16 1269
214 13 1018
171 11 798
180 11 826
173 10 783
154 9 688
193 11 854
164 9 712
188 11 808
128 7 537
166 9 691
145 8 594
144 8 585
109 6 432
166 9 659
112 6 433
154 8 593
56 3 205
1275 58 4908
1277 57 4860
1287 57 4841
60 4 209
0 0 0
0 0 0
0 0 0
0 0 0
0 0 0
0 0 0
1015 41 3485
1016 40 3451
1028 40 3453
1050 41 3489
1004 39 3301
0 0 0
0 0 0
0 0 0
0 0 0
0 0 0
0 0 0
0 0 0
0 0 0
0 0 0
1047 36 3113
1063 36 3130
1058 36 3084
1035 35 2988
0 0 0
0 0 0
0 0 0
997 32 2772
1046 33 2882
1053 33 2875
1073 33 2902
1068 33 2864
1075 33 2858
1075 33 2830
1081 32 2821
1085 32 2807
1084 32 2780
1082 32 2751
1082 31 2726
1075 31 2686
1095 31 2712
1072 30 2631
1085 30 2641
1084 30 2616
1088 30 2604
1102 30 2615
1095 29 2577
1096 29 2559
1091 29 2526
1102 29 2529
1093 28 2490
1100 28 2484
1097 28 2458
1110 28 2467
1103 28 2432
1101 27 2407
1109 27 2405
1111 27 2391
1103 27 2353
1108 27 2347
1107 26 2327
1119 26 2332
1113 26 2302
1106 26 2270
1115 26 2271
1097 25 2216
1097 25 2200
1101 25 2190
1111 25 2193
1114 25 2183
1121 25 2180
1124 24 2169
1124 24 2152
1128 24 2145
1134 24 2139
1123 24 2104
1125 24 2090
1120 23 2067
1126 23 2062
1121 23 2038
1123 23 2025
1129 23 2022
-502 20 875
-500 20 880
-504 21 893
-496 20 885
-493 20 886
-503 21 911
-472 20 860
-480 20 882
-487 20 902
-489 21 912
-654 27 1228
-1091 45 2065
-1103 46 2103
-1096 46 2107
-1088 46 2106
-1082 46 2110
-1075 45 2114
-1064 45 2107
-1058 45 2111
-1050 45 2112
-1043 45 2115
-1030 45 2104
-1027 45 2113
-1018 45 2111
-1012 45 2115
-1003 45 2114
-989 44 2099
-988 44 2115
-980 44 2115
-972 44 2114
-966 44 2117
-959 44 2119
-952 44 2121
-934 43 2098
-923 43 2090
-912 43 2081
-905 43 2083
-895 43 2077
-882 42 2064
-885 43 2088
-877 43 2086
-874 43 2097
-870 43 2104
-856 42 2088
-846 42 2083
-838 42 2081
-838 42 2097
-829 42 2092
-825 42 2102
-813 42 2090
-809 42 2096
-796 42 2081
-796 42 2101
-785 42 2089
-780 42 2096
-774 42 2098
-765 41 2092
-755 41 2085
-749 41 2087
-736 41 2071
-740 41 2099
-730 41 2090
-711 40 2056
-721 41 2106
-712 41 2098
-707 41 2104
-700 41 2104
-694 41 2108
-696 41 2134
-680 41 2104
-677 41 2116
-664 40 2099
-650 40 2075
-644 40 2078
-643 40 2094
-633 40 2085
-631 40 2098
-631 40 2120
-622 40 2115
-611 40 2100
-616 40 2139
-601 40 2110
-593 40 2104
-591 40 2123
-578 39 2100
-575 40 2112
-571 40 2120
-567 40 2131
-562 40 2138
-550 39 2118
-542 39 2112
-535 39 2108
-534 40 2130
-523 39 2113
-518 39 2120
-511 39 2114
-507 39 2126
-501 39 2129
-496 39 2136
-511 41 2227
-566 46 2500
-668 54 2987
-681 56 3089
-678 56 3118
-670 56 3123
-660 56 3120
-654 56 3136
-646 56 3143
-641 57 3164
-628 56 3149
-619 56 3148
-613 56 3167
-603 56 3165
-595 56 3170
-588 57 3186
-578 56 3182
-568 56 3181
-561 56 3192
-554 57 3210
-542 56 3190
-532 56 3192
-523 56 3192
-513 56 3186
-504 56 3189
-495 56 3192
-487 56 3201
-477 56 3200
-466 56 3191
-459 56 3206
-449 56 3202
-441 56 3212
-430 55 3199
-421 55 3202
-412 55 3204
-402 55 3196
-393 55 3199
-385 55 3210
-375 55 3201
-366 55 3206
-357 55 3208
-346 55 3199
-338 55 3209
-328 55 3204
-319 55 3206
-310 55 3206
-300 54 3204
-292 54 3211
-282 54 3209
-272 54 3199
-264 54 3215
-259 55 3263
-357 78 4657
-33 9 483
-52 14 766
-51 14 788
-44 13 712
-41 13 700
-41 13 740
-42 14 786
-48 16 936
-43 16 893
-13 7 338
-224 82 4971
-207 81 4904
0 0 0
-20 11 626
-22 13 723
-12 9 477
-22 16 892
-24 18 1065
-23 20 1147
-18 18 1061
-14 17 1002
-11 17 983
-8 18 1054
-6 20 1162
-2 18 1029
0 18 1052
3 18 1079
6 18 1065
9 18 1039
11 17 1014
14 16 968
18 18 1048
20 17 998
23 17 1010
25 16 971
28 17 993
29 15 902
34 17 979
36 16 949
41 17 1030
42 16 969
45 16 967
50 17 1023
52 17 1004
56 17 1018
60 17 1045
64 18 1061
63 17 995
67 17 1013
72 17 1051
70 16 971
76 17 1018
81 17 1039
84 17 1048
90 18 1079
91 17 1057
101 19 1138
106 19 1153
114 20 1200
113 19 1153
114 19 1136
120 19 1161
115 18 1080
102 15 926
96 14 847
91 13 784
88 12 737
90 12 731
81 11 645
73 10 566
57 8 423
59 8 428
51 7 361
45 6 307
32 4 204
60 7 398
44 5 283
29 4 177
748 75 4941
758 75 4910
769 74 4891
0 0 0
0 0 0
0 0 0
0 0 0
0 0 0
188 17 1062
179 16 989
218 19 1190
185 16 991
205 17 1083
196 16 1016
191 16 976
211 17 1062
208 16 1031
187 15 912
214 16 1029
204 15 965
189 14 883
181 13 834
178 13 807
162 12 721
151 11 665
123 9 530
166 12 710
140 10 589
122 9 506
141 10 579
169 11 689
0 0 0
170 11 674
168 11 657
0 0 0
64 5 235
26 2 86
12 2 31
1279 71 4811
10 1 21
68 5 238
0 0 0
0 0 0
0 0 0
0 0 0
0 0 0
0 0 0
1016 51 3451
1030 51 3459
1014 50 3371
0 0 0
0 0 0
0 0 0
0 0 0
0 0 0
0 0 0
0 0 0
0 0 0
0 0 0
0 0 0
0 0 0
1013 44 2983
1041 44 3034
0 0 0
0 0 0
0 0 0
0 0 0
1019 41 2833
1049 42 2892
1064 42 2906
1070 42 2894
1064 41 2853
1059 41 2814
1061 41 2793
1061 40 2768
1096 41 2835
1064 40 2728
1070 39 2720
1075 39 2708
1065 39 2660
1073 39 2657
1077 38 2643
1085 38 2641
1075 38 2595
1084 38 2593
1079 37 2561
1094 37 2575
1087 37 2536
1097 37 2538
1109 37 2547
1099 36 2501
1097 36 2476
1096 35 2455
1096 35 2435
1094 35 2411
1097 35 2398
1105 35 2396
1098 34 2362
1114 34 2377
1097 34 2322
1110 34 2332
1124 34 2342
1113 33 2302
1107 33 2272
1112 33 2265
1100 32 2222
1101 32 2206
1104 32 2196
1105 32 2181
1115 32 2185
1121 31 2180
1126 31 2172
1129 31 2163
1125 31 2139
1126 31 2124
1124 30 2104
1131 30 2102
1137 30 2097
1123 30 2057
1139 30 2069
1125 29 2029
1132 29 2027
-491 23 856
-511 24 898
-488 23 864
-497 23 887
-499 23 897
-485 23 878
-485 23 885
-479 23 880
-485 23 897
-520 25 970
-645 31 1213
-1090 52 2063
-1101 52 2099
-1094 52 2102
-1090 52 2110
-1081 52 2108
-1073 52 2109
-1064 52 2108
-1056 52 2108
-1052 52 2115
-1044 52 2115
-1033 51 2109
-1026 51 2111
-1020 51 2115
-1009 51 2109
-1004 51 2114
-995 51 2113
-986 51 2110
-983 51 2120
-974 51 2117
-967 51 2120
-959 51 2120
-952 51 2122
-936 50 2103
-917 49 2076
-905 49 2066
-906 49 2086
-897 49 2082
-896 49 2097
-880 49 2076
-877 49 2087
-867 49 2079
-868 49 2100
-851 48 2075
-849 49 2088
-843 49 2091
-836 49 2093
-825 48 2082
-825 49 2100
-818 49 2102
-803 48 2082
-802 48 2097
-793 48 2092
-790 48 2104
-777 48 2088
-781 48 2116
-765 48 2092
-751 47 2073
-743 47 2069
-742 47 2087
-735 47 2088
-734 48 2104
-710 46 2055
-716 47 2092
-713 47 2101
-706 47 2101
-707 48 2127
-697 47 2116
-691 47 2119
-684 47 2118
-676 47 2114
-669 47 2113
-650 46 2073
-638 46 2059
-637 46 2076
-638 46 2099
-631 46 2099
-628 46 2112
-620 46 2107
-611 46 2098
-611 46 2122
-603 46 2118
-592 46 2103
-590 46 2118
-583 46 2115
-578 46 2124
-570 46 2116
-565 46 2124
-557 46 2118
-549 46 2112
-544 46 2117
-541 46 2133
-532 46 2124
-526 46 2123
-521 46 2130
-513 45 2123
-508 46 2129
-502 46 2132
-498 46 2145
-524 49 2284
-601 56 2656
-676 64 3025
-682 65 3092
-679 66 3120
-672 66 3133
-661 65 3125
-655 66 3142
-648 66 3154
-637 66 3147
-630 66 3158
-621 66 3159
-610 65 3150
-605 66 3173
-597 66 3182
-586 66 3174
-577 66 3179
-568 66 3181
-558 65 3176
-551 66 3193
-540 65 3180
-533 66 3195
-523 65 3191
-514 65 3197
-505 65 3197
-495 65 3194
-486 65 3193
-476 65 3193
-469 65 3205
-458 65 3196
-449 65 3198
-439 65 3199
-431 65 3205
-421 65 3201
-412 65 3200
-403 65 3202
-393 64 3199
-385 65 3211
-374 64 3200
-365 64 3199
-357 64 3209
-347 64 3202
-337 64 3204
-330 64 3217
-319 64 3204
-310 64 3205
-301 64 3207
-291 64 3208
-282 64 3207
-274 64 3220
-264 64 3212
-256 64 3235
0 0 0
-38 12 550
-42 13 629
-41 14 643
-40 14 653
-37 13 629
-31 12 571
-36 14 686
-44 18 862
-33 15 701
-242 98 5050
-210 90 4665
-194 89 4605
0 0 0
0 0 0
0 0 0
-14 11 539
-26 20 1011
-25 22 1110
-23 23 1175
-19 23 1146
-16 23 1164
-14 24 1218
-11 26 1309
-7 25 1253
-3 23 1177
0 24 1197
3 23 1159
6 22 1126
9 21 1073
12 21 1078
15 21 1085
18 21 1049
19 19 970
22 19 962
25 19 966
25 17 845
30 19 952
33 19 955
36 19 975
37 18 925
44 20 1025
48 20 1040
50 20 1031
52 20 1009
54 19 984
60 21 1050
60 20 996
65 20 1028
66 19 990
76 21 1104
72 19 999
73 19 977
82 21 1058
89 21 1108
104 24 1252
101 23 1172
103 22 1156
112 23 1218
112 23 1182
109 21 1108
115 22 1136
126 23 1218
120 22 1124
115 20 1049
91 16 800
93 16 798
87 14 722
75 12 610
74 12 580
71 11 544
56 9 418
56 9 409
47 7 333
35 5 235
20 3 122
34 5 216
35 5 223
9 2 42
739 89 4882
742 87 4808
759 88 4827
774 87 4828
757 84 4635
759 83 4567
0 0 0
0 0 0
0 0 0
170 18 939
0 0 0
0 0 0
203 20 1070
179 18 926
184 18 937
195 18 979
167 16 826
181 17 881
173 16 832
152 14 717
164 15 765
165 14 756
178 15 808
147 13 653
155 13 683
185 15 803
148 12 631
161 13 681
151 12 630
134 11 549
120 10 483
143 11 571
149 11 587
113 9 438
135 10 520
36 3 125
13 2 34
1287 87 4898
8 1 16
1311 86 4873
23 2 72
0 0 0
0 0 0
0 0 0
0 0 0
0 0 0
0 0 0
0 0 0
0 0 0
0 0 0
0 0 0
0 0 0
0 0 0
0 0 0
0 0 0
0 0 0
0 0 0
0 0 0
0 0 0
0 0 0
0 0 0
0 0 0
890 46 2592
0 0 0
0 0 0
0 0 0
0 0 0
1021 50 2839
1049 51 2889
1070 51 2920
1062 51 2874
1061 50 2843
1044 49 2774
1038 48 2734
1027 47 2678
1062 48 2748
1044 47 2675
1049 47 2667
1071 47 2697
1093 48 2729
1080 47 2673
1077 46 2645
1067 46 2596
1075 46 2594
1078 45 2580
1095 46 2599
1080 45 2540
1088 45 2539
1105 45 2556
1100 44 2524
1086 43 2472
1094 43 2471
1091 43 2443
1091 43 2424
1090 42 2402
1101 42 2406
1094 42 2372
1107 42 2380
1111 42 2370
1104 41 2336
1120 41 2352
1104 40 2301
1114 40 2303
1108 40 2272
1099 39 2237
1102 39 2225
1097 39 2200
1102 39 2192
1107 38 2185
1115 38 2185
1123 38 2182
1127 38 2174
1130 38 2163
1131 38 2150
1128 38 2128
1122 37 2100
1134 37 2107
1122 37 2070
1127 36 2064
1125 36 2044
1128 36 2035
1134 36 2030
-492 26 859
-503 26 884
-488 26 864
-485 25 864
-487 26 875
-477 25 863
-475 25 867
-483 26 887
-465 25 861
-503 27 937
-651 35 1223
-1085 58 2053
-1103 59 2102
-1098 59 2109
-1087 59 2104
-1083 59 2112
-1074 59 2110
-1067 59 2112
-1061 59 2117
-1052 59 2115
-1040 58 2108
-1034 58 2112
-1025 58 2110
-1016 58 2107
-1011 58 2114
-1003 58 2114
-994 58 2110
-989 58 2116
-983 58 2121
-972 57 2115
-969 57 2124
-959 57 2119
-950 57 2117
-934 56 2098
-921 56 2086
-903 55 2061
-900 55 2072
-897 56 2081
-889 55 2080
-880 55 2075
-882 56 2098
-869 55 2085
-864 55 2090
-860 55 2097
-852 55 2096
-832 54 2066
-825 54 2066
-831 55 2097
-818 55 2084
-823 55 2115
-809 55 2096
-803 55 2099
-799 55 2108
-793 55 2110
-780 54 2094
-776 54 2103
-772 54 2110
-759 54 2096
-739 53 2060
-730 53 2052
-730 53 2073
-735 54 2107
-723 53 2090
-716 53 2090
-721 54 2124
-706 53 2101
-708 54 2129
-697 54 2115
-692 54 2120
-686 54 2124
-672 53 2103
-665 53 2101
-651 52 2079
-639 52 2059
-640 52 2084
-637 53 2099
-626 52 2082
-630 53 2118
-620 53 2106
-615 53 2113
-607 52 2109
-603 53 2118
-594 52 2110
-587 52 2106
-579 52 2103
-576 52 2114
-572 52 2125
-563 52 2116
-559 52 2124
-549 52 2114
-543 52 2116
-540 52 2128
-529 52 2111
-522 51 2107
-518 52 2119
-511 52 2118
-503 51 2111
-502 52 2131
-500 52 2150
-540 57 2353
-655 70 2891
-688 74 3077
-684 74 3102
-678 75 3116
-669 75 3119
-664 75 3140
-656 75 3147
-650 75 3163
-639 75 3156
-631 75 3162
-619 75 3148
-610 75 3151
-603 75 3167
-598 75 3187
-588 75 3185
-576 75 3170
-569 75 3187
-560 75 3188
-552 75 3196
-543 75 3197
-533 75 3198
-523 75 3192
-514 75 3194
-506 75 3201
-497 75 3206
-487 75 3200
-476 74 3193
-467 74 3195
-459 74 3201
-450 74 3205
-438 74 3191
-432 74 3212
-420 74 3194
-413 74 3208
-403 74 3205
-394 74 3207
-384 74 3206
-375 74 3205
-366 74 3206
-356 73 3203
-347 74 3211
-336 73 3195
-328 73 3203
-319 73 3203
-310 73 3205
-300 73 3201
-291 73 3204
-282 73 3212
-272 73 3200
-263 73 3201
-258 74 3257
0 0 0
-35 12 505
-25 10 392
-31 12 488
-33 13 549
-31 13 539
-29 13 536
-33 15 639
-42 19 826
-24 13 530
-224 104 4682
-201 100 4484
-183 97 4364
0 0 0
0 0 0
0 0 0
-16 15 611
-27 25 1070
-25 26 1122
-23 26 1149
-20 27 1187
-18 29 1282
-14 28 1246
-11 30 1318
-7 29 1298
-3 28 1234
0 28 1228
3 28 1217
6 27 1180
9 26 1136
12 26 1129
16 26 1144
18 25 1090
20 23 1013
22 22 966
22 19 837
27 22 947
27 19 831
32 21 925
38 23 1011
43 24 1085
46 24 1070
45 22 969
45 21 920
52 23 1006
50 21 906
56 22 975
56 21 928
58 21 919
56 19 834
68 22 983
73 23 1007
83 25 1117
80 23 1027
90 25 1114
87 23 1040
102 26 1187
106 26 1195
110 26 1192
109 25 1147
112 25 1140
128 28 1272
120 26 1161
126 26 1180
121 24 1108
99 20 874
84 16 723
84 16 698
80 15 649
76 14 603
68 12 519
68 12 511
49 9 356
48 8 335
24 4 153
20 4 119
23 4 140
6 2 19
737 105 4966
742 103 4901
746 102 4834
752 101 4780
742 97 4628
745 96 4565
751 95 4517
763 95 4512
752 92 4366
727 87 4149
0 0 0
0 0 0
0 0 0
0 0 0
0 0 0
145 16 734
175 19 879
165 18 817
157 17 761
165 17 789
155 16 730
148 15 689
131 13 599
162 16 731
167 16 746
164 16 721
143 14 617
156 15 668
149 14 628
166 15 694
176 16 725
161 15 654
155 14 623
154 14 611
150 13 586
63 6 232
38 4 132
1272 101 4896
1260 99 4793
1269 98 4772
33 3 107
7 1 12
0 0 0
0 0 0
0 0 0
0 0 0
0 0 0
0 0 0
0 0 0
0 0 0
0 0 0
0 0 0
0 0 0
0 0 0
0 0 0
0 0 0
0 0 0
0 0 0
0 0 0
0 0 0
0 0 0
0 0 0
0 0 0
0 0 0
0 0 0
0 0 0
0 0 0
0 0 0
1031 59 2868
1055 60 2907
1057 59 2885
1064 59 2877
1065 59 2854
1004 55 2666
1044 57 2748
1065 57 2778
1057 56 2733
1064 56 2727
1054 55 2679
1064 55 2680
1062 55 2652
1052 54 2605
1075 54 2639
1083 54 2635
1071 53 2584
1068 53 2555
1070 52 2539
1068 52 2512
1089 52 2541
1082 52 2504
1094 52 2510
1108 52 2523
1095 51 2472
1110 51 2485
1097 50 2436
1095 50 2412
1099 50 2401
1107 50 2400
1096 49 2357
1106 49 2359
1102 48 2332
1119 49 2349
1107 48 2307
1114 48 2303
1122 48 2302
1111 47 2261
1100 46 2221
1098 46 2200
1100 45 2187
1111 46 2192
1116 45 2185
1123 45 2183
1130 45 2179
1124 45 2153
1122 44 2132
1120 44 2112
1130 44 2116
1123 44 2086
1127 43 2079
1138 43 2083
1129 43 2052
1128 43 2035
1131 42 2025
-487 28 850
-498 29 876
-503 29 891
-495 29 882
-486 29 874
-472 28 855
-488 29 889
-480 29 882
-493 29 912
-527 32 983
-639 38 1200
-1086 64 2054
-1109 66 2114
-1097 66 2108
-1090 66 2111
-1084 66 2113
-1072 65 2108
-1061 65 2101
-1060 65 2115
-1051 65 2114
-1044 65 2115
-1038 65 2120
-1029 65 2117
-1021 65 2117
-1011 65 2114
-1006 65 2120
-993 64 2108
-989 64 2117
-982 64 2118
-969 64 2108
-962 64 2109
-958 64 2118
-955 64 2128
-940 63 2110
-918 62 2079
-904 62 2064
-904 62 2081
-896 62 2079
-892 62 2086
-882 62 2080
-872 61 2074
-867 62 2079
-863 62 2088
-860 62 2098
-845 61 2080
-828 60 2056
-828 61 2074
-828 61 2091
-823 61 2095
-812 61 2086
-817 62 2118
-805 61 2106
-793 61 2093
-792 61 2108
-780 61 2095
-772 60 2093
-763 60 2087
-752 60 2076
-741 59 2065
-734 59 2063
-730 59 2071
-732 60 2098
-718 59 2077
-716 60 2089
-712 60 2100
-708 60 2108
-704 60 2115
-699 60 2123
-686 60 2102
-682 60 2112
-670 59 2097
-666 59 2104
-649 58 2072
-638 58 2058
-640 59 2085
-632 58 2080
-627 58 2086
-626 59 2105
-624 59 2120
-614 59 2111
-610 59 2117
-598 58 2101
-592 58 2102
-589 59 2115
-579 58 2101
-575 58 2112
-568 58 2111
-565 59 2124
-558 58 2122
-547 58 2105
-546 58 2126
-536 58 2113
-527 58 2103
-526 58 2125
-521 58 2131
-515 58 2132
-506 58 2123
-500 58 2124
-502 59 2161
-542 64 2364
-660 79 2913
-688 83 3076
-683 83 3099
-674 83 3097
-670 84 3125
-661 84 3128
-653 84 3134
-646 84 3146
-637 84 3149
-628 84 3147
-618 84 3146
-610 84 3155
-603 84 3164
-595 84 3173
-587 84 3181
-577 84 3177
-565 84 3162
-561 84 3193
-554 85 3210
-543 84 3197
-533 84 3199
-523 84 3192
-515 84 3201
-505 84 3195
-495 84 3193
-486 84 3195
-477 84 3200
-468 84 3205
-459 84 3204
-448 83 3194
-440 83 3200
-431 83 3207
-421 83 3203
-412 83 3205
-402 83 3199
-392 83 3196
-383 83 3200
-374 83 3201
-365 83 3198
-355 83 3199
-347 83 3209
-338 83 3206
-329 83 3212
-319 82 3203
-310 82 3206
-300 82 3199
-291 82 3202
-281 82 3197
-273 82 3213
-264 82 3211
-258 83 3252
-363 120 4737
-21 9 328
-20 9 314
-19 9 316
-19 9 329
-16 9 296
-24 13 458
-32 16 608
-28 16 574
2 1 10
-230 121 4808
-216 121 4805
0 0 0
0 0 0
0 0 0
0 0 0
0 0 0
-24 25 968
-23 27 1043
-22 28 1096
-19 29 1128
-17 30 1181
-14 31 1213
-11 34 1313
-8 34 1334
-4 34 1334
0 32 1260
3 32 1263
6 30 1189
10 31 1217
13 30 1195
17 31 1200
20 30 1186
22 28 1089
22 25 974
25 24 949
26 23 884
27 22 835
28 21 809
36 24 949
42 27 1053
46 27 1082
46 26 1008
45 23 918
52 25 996
52 24 950
50 22 859
56 24 928
53 21 827
56 22 844
59 22 853
64 22 880
74 25 981
80 26 1025
82 26 1013
86 26 1032
98 28 1135
98 28 1103
102 28 1109
101 27 1062
107 27 1094
108 27 1073
121 29 1165
119 28 1115
111 25 1013
87 20 768
81 18 691
74 16 609
65 14 522
47 10 364
55 11 414
39 8 282
40 8 285
39 8 266
20 4 126
22 4 138
10 2 49
13 3 67
732 118 4928
739 117 4882
740 115 4793
742 113 4714
736 110 4590
749 110 4588
740 106 4447
739 104 4364
752 104 4364
746 102 4256
763 102 4285
761 100 4199
758 98 4117
0 0 0
0 0 0
0 0 0
118 15 588
137 17 671
150 18 727
111 14 529
117 14 548
112 13 516
115 13 521
123 14 552
132 15 583
150 17 659
143 16 619
140 15 596
127 14 533
123 13 508
153 16 628
166 17 676
188 19 755
141 14 555
150 15 587
126 12 484
36 4 126
1262 115 4856
1278 115 4859
9 2 19
12 2 29
22 3 65
0 0 0
0 0 0
0 0 0
0 0 0
0 0 0
0 0 0
0 0 0
0 0 0
0 0 0
0 0 0
0 0 0
0 0 0
0 0 0
0 0 0
0 0 0
0 0 0
0 0 0
0 0 0
0 0 0
0 0 0
0 0 0
0 0 0
0 0 0
0 0 0
0 0 0
0 0 0
1003 66 2788
1054 69 2904
1047 68 2858
1076 69 2912
1065 67 2854
1045 66 2775
1074 67 2828
1077 66 2809
1105 68 2859
1051 64 2693
1059 64 2690
1067 64 2688
1005 59 2508
1015 60 2511
1014 59 2487
1048 60 2549
1043 60 2517
1061 60 2538
1079 61 2560
1060 59 2493
1094 61 2551
1089 60 2519
1099 60 2522
1105 60 2515
1093 59 2468
1080 58 2419
1085 57 2409
1093 57 2407
1097 57 2397
1086 56 2354
1105 57 2377
1107 56 2363
1108 56 2346
1107 55 2325
1117 56 2328
1105 55 2285
1109 54 2276
1096 53 2232
1098 53 2217
1098 53 2201
1097 52 2181
1107 52 2185
1115 52 2183
1126 52 2189
1125 52 2171
1140 52 2183
1124 51 2136
1125 51 2122
1127 51 2109
1127 50 2093
1133 50 2089
1132 50 2072
1133 50 2058
1129 49 2036
1131 49 2025
-512 32 894
-496 31 871
-506 32 895
-496 32 884
-490 32 881
-486 32 880
-472 31 861
-473 31 868
-474 31 878
-498 33 928
-630 42 1185
-1084 71 2052
-1102 72 2102
-1098 73 2109
-1090 72 2109
-1082 72 2110
-1078 72 2118
-1066 72 2111
-1059 72 2114
-1052 72 2115
-1044 72 2115
-1033 71 2110
-1027 71 2114
-1019 71 2114
-1012 71 2116
-1001 71 2108
-995 71 2113
-989 71 2116
-979 71 2112
-972 70 2113
-966 71 2118
-960 70 2122
-953 70 2123
-935 69 2098
-923 69 2091
-916 69 2091
-908 69 2089
-892 68 2069
-889 68 2080
-885 68 2088
-872 68 2075
-868 68 2082
-869 69 2102
-849 67 2072
-842 67 2071
-831 67 2062
-837 68 2094
-828 68 2089
-824 68 2099
-818 68 2101
-810 68 2099
-803 67 2100
-790 67 2084
-785 67 2090
-781 67 2099
-772 67 2093
-759 66 2076
-760 67 2099
-741 66 2065
-733 65 2061
-737 66 2092
-731 66 2093
-718 66 2077
-708 65 2067
-719 67 2119
-708 66 2109
-701 66 2107
-692 66 2102
-685 66 2101
-682 66 2111
-673 66 2106
-668 66 2110
-656 65 2094
-641 64 2068
-636 64 2071
-631 64 2078
-628 65 2090
-631 66 2120
-615 65 2090
-621 66 2135
-611 65 2121
-604 65 2122
-597 65 2118
-586 65 2104
-579 64 2101
-573 64 2105
-571 65 2121
-563 65 2116
-558 65 2121
-550 65 2118
-543 64 2116
-537 64 2115
-536 65 2140
-526 64 2125
-519 64 2121
-514 64 2130
-505 64 2119
-498 64 2116
-502 65 2159
-531 70 2316
-657 87 2903
-683 91 3058
-679 92 3080
-672 92 3092
-666 92 3105
-659 93 3117
-652 93 3126
-643 93 3130
-637 93 3145
-629 93 3154
-618 93 3146
-608 93 3141
-598 93 3140
-596 94 3178
-586 93 3176
-575 93 3166
-568 93 3182
-558 93 3179
-549 93 3183
-542 94 3196
-532 93 3189
-522 93 3189
-513 93 3188
-503 93 3185
-495 93 3196
-485 93 3192
-477 93 3201
-468 93 3201
-457 93 3189
-450 93 3205
-438 92 3189
-431 93 3203
-419 92 3190
-411 92 3196
-402 92 3202
-393 92 3202
-384 92 3202
-374 92 3197
-365 92 3203
-357 92 3213
-347 92 3207
-338 92 3211
-328 92 3205
-320 92 3214
-309 91 3195
-301 92 3214
-291 92 3206
-282 92 3212
-273 91 3209
-265 92 3222
-261 94 3289
-356 132 4648
-2 3 70
-16 9 271
-15 9 265
-6 5 136
-1 3 66
-6 5 153
-1 3 67
-4 5 131
-252 139 4965
-233 137 4882
-219 137 4883
0 0 0
0 0 0
0 0 0
0 0 0
-137 125 4482
-3 7 222
-14 20 663
-17 25 875
-15 27 936
-15 31 1097
-14 34 1202
-11 37 1298
-8 39 1380
-4 37 1291
0 37 1292
3 36 1266
6 34 1191
10 35 1240
14 35 1246
16 32 1142
19 32 1125
22 31 1083
23 28 980
24 26 905
24 23 810
25 23 789
32 26 925
33 25 876
40 28 982
41 27 947
42 26 906
45 26 923
45 24 858
55 29 1008
49 24 840
48 22 775
56 25 885
47 20 699
68 28 977
74 29 1033
74 28 982
68 24 863
78 27 963
79 27 939
88 28 1011
100 31 1121
102 31 1111
93 27 970
106 30 1086
108 30 1070
110 30 1056
117 31 1095
110 28 1002
76 19 664
36 9 294
44 11 356
48 11 383
52 12 404
55 12 416
25 6 176
34 7 235
22 5 142
12 3 65
3 1 -4
6 2 22
730 135 5011
723 131 4871
732 130 4830
749 130 4850
721 123 4581
739 124 4606
738 121 4520
746 120 4484
735 117 4344
752 117 4366
747 114 4265
762 115 4273
774 114 4272
755 110 4098
765 110 4088
777 109 4087
0 0 0
0 0 0
0 0 0
98 14 470
123 17 583
99 13 459
102 14 468
101 13 455
100 13 448
110 14 485
95 12 412
108 13 462
85 11 354
140 17 589
138 16 573
158 18 648
134 15 540
136 16 545
144 16 569
170 19 667
106 12 404
27 4 91
1258 129 4840
1271 128 4834
1271 127 4775
14 2 38
44 5 149
0 0 0
0 0 0
0 0 0
0 0 0
0 0 0
0 0 0
0 0 0
0 0 0
0 0 0
0 0 0
0 0 0
0 0 0
0 0 0
0 0 0
0 0 0
0 0 0
0 0 0
0 0 0
0 0 0
0 0 0
0 0 0
0 0 0
0 0 0
0 0 0
0 0 0
0 0 0
1031 76 2865
1051 77 2894
1062 77 2899
1065 77 2881
1062 76 2845
1081 77 2871
1070 75 2816
1078 75 2811
1062 73 2746
1086 74 2784
1087 74 2761
1038 70 2613
1055 70 2633
1035 69 2562
1047 69 2569
1041 68 2531
1018 66 2455
1039 67 2484
1053 67 2496
1080 68 2541
1057 66 2466
1058 66 2447
1093 67 2507
1074 66 2443
1080 65 2437
1077 65 2411
1094 65 2428
1098 65 2418
1111 65 2428
1091 64 2365
1101 64 2367
1094 63 2333
1098 63 2324
1105 63 2321
1105 62 2303
1098 61 2269
1098 61 2251
1099 61 2237
1095 60 2211
1098 60 2201
1110 60 2207
1110 59 2189
1121 60 2196
1127 59 2190
1125 59 2170
1131 59 2165
1122 58 2132
1128 58 2127
1128 58 2111
1130 57 2099
1131 57 2086
1134 57 2075
