VERSION 0.7
FIELDS x y z
SIZE 4 4 4
TYPE I I I
COUNT 1 1 1
WIDTH 3645
HEIGHT 1
VIEWPOINT 0.0 0.0 0.0 1.0 0.0 0.0 0.0
POINTS 3645
DATA ascii
-767 -551 2022
-768 -557 2044
-756 -552 2030
-744 -548 2017
-730 -542 1997
-719 -539 1987
-730 -552 2038
-726 -554 2044
-721 -555 2051
-701 -544 2013
-702 -550 2036
-692 -547 2026
-696 -555 2059
-683 -550 2042
-678 -551 2045
-668 -548 2035
-660 -546 2031
-663 -554 2063
-658 -556 2069
-648 -552 2058
-640 -551 2054
-633 -550 2054
-625 -549 2051
-622 -552 2062
-618 -554 2072
-602 -545 2039
-600 -549 2055
-597 -552 2070
-590 -551 2067
-578 -546 2049
-571 -545 2048
-576 -556 2090
-568 -555 2085
-559 -552 2077
-556 -555 2088
-545 -551 2074
-540 -552 2079
-532 -550 2074
-528 -553 2086
-517 -548 2068
-510 -547 2067
-506 -550 2077
-502 -552 2087
-497 -553 2092
-489 -551 2086
-481 -550 2081
-492 -569 2156
-581 -681 2581
-628 -746 2826
-602 -725 2748
-557 -681 2581
-466 -578 2194
-396 -498 1892
0 0 0
0 0 0
0 0 0
0 0 0
0 0 0
0 0 0
0 0 0
0 0 0
0 0 0
0 0 0
0 0 0
0 0 0
0 0 0
-624 -978 3732
-579 -926 3532
-564 -918 3506
-550 -913 3484
0 0 0
-141 -245 939
-119 -212 812
0 0 0
0 0 0
-83 -159 610
-50 -99 381
-57 -115 442
-35 -75 287
-48 -102 391
-47 -102 391
-31 -71 273
-35 -82 317
-40 -96 370
-75 -178 683
0 0 0
0 0 0
0 0 0
-300 -775 2970
-326 -869 3330
-318 -872 3342
-306 -867 3323
-297 -868 3328
-286 -865 3318
-277 -868 3331
-269 -874 3354
-260 -877 3365
-251 -881 3378
-246 -897 3444
0 0 0
-38 -161 621
-12 -60 231
0 -8 32
-4 -30 117
-40 -205 789
-58 -306 1175
-56 -317 1218
-49 -298 1144
-47 -305 1172
-47 -329 1264
-44 -335 1287
-44 -364 1399
-39 -356 1368
-35 -350 1346
-30 -343 1320
-26 -345 1326
-24 -373 1431
-18 -345 1327
-15 -359 1379
-9 -319 1225
-5 -304 1170
-1 -270 1036
0 -306 1173
4 -323 1240
8 -331 1271
12 -347 1331
17 -369 1416
19 -332 1275
24 -352 1352
30 -376 1442
33 -359 1376
38 -370 1420
38 -336 1288
45 -363 1393
48 -355 1361
52 -355 1361
55 -346 1328
61 -359 1375
65 -359 1375
70 -365 1398
76 -373 1429
77 -360 1378
84 -372 1424
87 -365 1397
88 -351 1344
99 -381 1456
100 -369 1410
108 -382 1461
104 -353 1349
113 -371 1418
110 -345 1320
115 -349 1332
127 -374 1428
0 0 0
0 0 0
0 0 0
0 0 0
415 -1066 4058
427 -1064 4052
444 -1076 4095
0 0 0
0 0 0
0 0 0
0 0 0
347 -738 2804
318 -661 2512
316 -641 2434
319 -634 2405
326 -632 2399
334 -635 2408
332 -617 2338
296 -537 2037
278 -495 1874
282 -492 1864
290 -496 1877
291 -489 1850
261 -430 1626
222 -357 1350
191 -301 1139
180 -279 1054
184 -281 1060
188 -282 1064
192 -283 1068
197 -285 1074
199 -284 1070
204 -286 1079
205 -282 1064
211 -287 1079
216 -289 1087
219 -288 1085
224 -292 1096
225 -289 1085
235 -297 1114
231 -287 1078
237 -291 1090
240 -291 1092
235 -281 1052
239 -282 1056
239 -278 1040
238 -273 1020
225 -254 950
176 -196 731
157 -172 643
0 0 0
146 -156 581
0 0 0
0 0 0
0 0 0
120 -121 452
0 0 0
80 -78 290
23 -19 72
61 -57 211
46 -41 152
0 0 0
153 -144 533
0 0 0
0 0 0
0 0 0
0 0 0
1054 -964 3541
1061 -960 3525
1078 -965 3542
0 0 0
0 0 0
0 0 0
0 0 0
0 0 0
0 0 0
0 0 0
0 0 0
0 0 0
0 0 0
1047 -845 3069
1074 -859 3118
1077 -854 3094
1087 -854 3093
1057 -823 2978
0 0 0
0 0 0
0 0 0
1028 -774 2788
1072 -800 2879
1077 -798 2868
1081 -794 2851
1095 -798 2860
1092 -789 2828
1079 -774 2769
1095 -779 2783
1105 -780 2785
1087 -761 2714
1137 -790 2813
1097 -756 2691
1057 -723 2568
1043 -708 2514
1073 -723 2562
1069 -715 2531
1061 -705 2491
1090 -718 2536
1105 -723 2550
1071 -696 2450
1103 -711 2501
1101 -705 2476
1099 -699 2451
1115 -704 2467
1104 -692 2422
1111 -692 2416
1119 -692 2414
1112 -683 2379
1115 -680 2366
1119 -678 2356
1117 -672 2332
1130 -676 2340
1111 -660 2281
1110 -655 2261
1097 -643 2217
1107 -645 2221
1105 -639 2198
1099 -632 2170
1107 -633 2168
1117 -634 2170
1116 -630 2152
1110 -622 2123
1129 -629 2144
1116 -618 2102
1119 -616 2090
1131 -619 2097
1127 -613 2075
1133 -612 2068
1129 -607 2046
1144 -611 2056
1145 -608 2044
1139 -601 2017
1140 -598 2004
1139 -594 1987
1142 -593 1978
-542 -263 908
-499 -243 842
-489 -240 831
-488 -241 836
-499 -248 861
-472 -235 821
-473 -237 829
-471 -238 831
-479 -243 852
-462 -236 829
-462 -237 833
-455 -235 828
-480 -249 879
-479 -251 886
-472 -248 878
-481 -255 902
-637 -340 1204
-1070 -575 2038
-1076 -581 2064
-1070 -582 2069
-1062 -581 2069
-1054 -580 2069
-1047 -580 2073
-1040 -580 2075
-1028 -577 2068
-1020 -577 2069
-1011 -575 2067
-1007 -577 2074
-997 -575 2070
-987 -573 2065
-982 -574 2072
-955 -562 2032
-955 -566 2048
-959 -572 2073
-956 -574 2083
-947 -573 2081
-939 -573 2082
-916 -562 2046
-900 -556 2028
-903 -562 2052
-896 -562 2055
-883 -558 2041
-867 -552 2021
-864 -554 2032
-859 -555 2037
-850 -553 2032
-848 -556 2046
-837 -554 2038
-829 -553 2037
-828 -556 2052
-813 -550 2033
-783 -534 1975
-758 -521 1928
-765 -530 1965
-772 -540 2001
-774 -545 2024
-761 -541 2009
-771 -552 2053
-761 -549 2044
-750 -546 2035
-731 -537 2003
-713 -528 1971
-724 -541 2020
-723 -545 2038
-724 -551 2060
-719 -552 2067
-694 -538 2014
-696 -544 2040
-697 -550 2063
-684 -544 2043
-678 -545 2048
-665 -539 2029
-661 -541 2037
-661 -547 2059
-658 -549 2071
-650 -548 2066
-641 -546 2060
-632 -543 2052
-628 -545 2062
-617 -541 2046
-619 -549 2078
-605 -542 2053
-603 -545 2066
-595 -544 2062
-588 -543 2061
-578 -540 2050
-575 -543 2065
-572 -546 2076
-566 -547 2080
-561 -548 2085
-554 -547 2083
-544 -544 2073
-541 -547 2086
-533 -545 2079
-528 -546 2085
-521 -546 2086
-512 -543 2077
-503 -540 2064
-501 -544 2083
-493 -543 2077
-487 -543 2079
-483 -546 2091
-486 -556 2132
-587 -680 2607
-639 -750 2876
-612 -729 2797
-557 -673 2584
-470 -576 2211
-401 -498 1916
0 0 0
0 0 0
0 0 0
0 0 0
0 0 0
0 0 0
0 0 0
0 0 0
0 0 0
0 0 0
0 0 0
0 0 0
0 0 0
-630 -978 3775
-578 -913 3528
-562 -905 3496
-550 -902 3487
0 0 0
-133 -230 892
0 0 0
0 0 0
-43 -81 314
-57 -109 422
-61 -120 465
-29 -61 238
-55 -112 436
-34 -74 287
-31 -68 265
-33 -75 293
-33 -77 299
-44 -102 397
-77 -180 701
-121 -288 1120
-130 -317 1230
0 0 0
-304 -778 3017
-326 -858 3331
-316 -856 3322
-306 -857 3325
-296 -857 3327
-286 -857 3325
-277 -857 3329
-268 -862 3348
-260 -866 3361
-251 -871 3384
-242 -876 3401
-72 -279 1084
-51 -209 812
-17 -80 311
0 -9 36
-5 -35 140
-39 -200 779
-55 -291 1133
-53 -296 1151
-47 -283 1102
-45 -292 1135
-47 -323 1256
-45 -339 1320
-40 -330 1285
-36 -325 1263
-33 -333 1295
-31 -348 1354
-25 -331 1285
-21 -327 1271
-18 -343 1332
-14 -327 1270
-7 -265 1032
0 0 0
-2 -287 1114
1 -274 1065
4 -284 1105
8 -319 1240
12 -326 1265
16 -336 1307
19 -321 1247
24 -339 1317
28 -353 1369
32 -348 1350
38 -365 1415
42 -362 1406
44 -347 1348
49 -358 1389
51 -340 1321
58 -361 1399
64 -375 1454
62 -335 1301
69 -355 1377
70 -340 1319
75 -345 1338
83 -364 1411
82 -341 1322
89 -353 1366
97 -369 1429
97 -354 1372
101 -351 1358
107 -359 1387
111 -359 1389
117 -367 1418
111 -333 1288
0 0 0
0 0 0
0 0 0
0 0 0
0 0 0
0 0 0
0 0 0
393 -942 3628
0 0 0
335 -760 2927
350 -775 2983
328 -708 2723
329 -692 2662
309 -635 2441
320 -643 2470
318 -624 2396
328 -629 2415
340 -638 2449
334 -613 2354
344 -618 2372
341 -601 2304
335 -579 2218
378 -641 2455
383 -638 2443
265 -431 1649
200 -319 1220
189 -294 1126
182 -278 1064
184 -276 1056
187 -276 1055
193 -281 1074
197 -282 1077
201 -283 1080
196 -272 1037
207 -282 1075
211 -283 1079
215 -284 1083
212 -276 1051
219 -282 1072
222 -282 1071
225 -280 1065
224 -276 1047
233 -282 1072
235 -282 1068
223 -263 999
253 -296 1120
240 -276 1043
234 -266 1005
234 -262 991
208 -229 867
0 0 0
118 -125 472
0 0 0
147 -153 578
0 0 0
0 0 0
126 -125 473
123 -122 458
50 -47 176
24 -20 76
69 -64 240
0 0 0
90 -82 309
0 0 0
0 0 0
0 0 0
0 0 0
0 0 0
1057 -956 3554
1050 -940 3491
1080 -957 3552
0 0 0
0 0 0
0 0 0
0 0 0
0 0 0
0 0 0
0 0 0
0 0 0
0 0 0
0 0 0
1069 -853 3134
1068 -845 3102
1082 -848 3111
1072 -833 3053
1058 -814 2982
0 0 0
0 0 0
0 0 0
1062 -791 2883
1071 -790 2878
1071 -784 2852
1082 -785 2854
1081 -778 2826
1096 -783 2840
1091 -774 2802
1061 -746 2699
1080 -753 2722
1097 -760 2742
1017 -698 2517
1042 -710 2556
999 -675 2429
1093 -734 2635
1080 -719 2580
1094 -723 2592
1086 -713 2551
1090 -710 2539
1092 -706 2522
1094 -703 2506
1094 -697 2483
1091 -691 2456
1102 -693 2460
1113 -695 2464
1108 -687 2432
1119 -689 2437
1114 -681 2405
1098 -667 2352
1122 -677 2383
1116 -668 2351
1110 -661 2320
1106 -654 2292
1083 -636 2226
1107 -646 2258
1108 -642 2242
1096 -631 2200
1095 -627 2181
1106 -628 2184
1100 -621 2155
1106 -621 2150
1115 -622 2151
1130 -626 2163
1128 -621 2142
1135 -621 2139
1126 -613 2105
1132 -613 2102
1130 -608 2082
1140 -609 2083
1143 -607 2074
1144 -604 2059
1136 -597 2030
1139 -595 2020
1144 -594 2013
1133 -585 1979
1138 -584 1972
-533 -255 893
-499 -240 843
-502 -243 854
-489 -238 838
-488 -239 843
-487 -240 848
-474 -235 831
-464 -232 820
-473 -237 842
-454 -229 815
-456 -231 824
-456 -233 830
-474 -244 870
-471 -243 870
-496 -258 923
-497 -260 933
-679 -358 1285
-1079 -573 2056
-1078 -576 2071
-1072 -576 2075
-1061 -574 2070
-1051 -572 2067
-1047 -574 2075
-1039 -573 2075
-1029 -571 2070
-1022 -571 2073
-1014 -570 2074
-1006 -570 2075
-996 -568 2070
-987 -567 2069
-976 -564 2061
-945 -550 2013
-959 -562 2058
-958 -565 2072
-948 -563 2069
-948 -567 2086
-940 -567 2086
-921 -559 2060
-901 -551 2032
-894 -550 2033
-881 -546 2020
-883 -552 2043
-862 -543 2012
-880 -558 2070
-856 -547 2032
-846 -545 2027
-836 -542 2019
-841 -550 2049
-830 -546 2039
-817 -542 2025
-805 -538 2013
-796 -537 2008
-748 -508 1904
-776 -532 1995
-779 -538 2019
-757 -527 1980
-759 -533 2005
-767 -543 2044
-757 -540 2036
-754 -543 2048
-734 -533 2012
-727 -532 2011
-721 -533 2015
-725 -541 2046
-710 -534 2021
-705 -535 2028
-687 -526 1996
-695 -537 2040
-692 -540 2050
-689 -542 2061
-670 -532 2025
-666 -534 2033
-653 -529 2015
-660 -539 2056
-656 -541 2066
-644 -536 2048
-636 -535 2044
-631 -536 2050
-629 -540 2066
-620 -537 2058
-617 -540 2072
-605 -535 2052
-597 -533 2047
-599 -541 2077
-590 -539 2070
-584 -539 2073
-573 -535 2058
-574 -542 2086
-564 -538 2074
-558 -538 2075
-553 -540 2081
-544 -537 2073
-539 -539 2080
-535 -541 2091
-522 -534 2065
-518 -536 2073
-508 -533 2061
-506 -537 2079
-500 -537 2079
-493 -537 2080
-486 -536 2078
-478 -533 2068
-494 -558 2166
-582 -667 2588
-634 -736 2857
-596 -701 2723
-543 -648 2520
-440 -533 2073
-400 -491 1911
-420 -524 2039
0 0 0
0 0 0
0 0 0
0 0 0
0 0 0
0 0 0
-207 -288 1127
0 0 0
0 0 0
0 0 0
0 0 0
0 0 0
-641 -983 3843
-590 -922 3604
-567 -902 3525
-561 -909 3554
-139 -231 907
-145 -247 968
0 0 0
0 0 0
-43 -80 316
-47 -90 356
-44 -86 338
-46 -91 360
-39 -80 315
-49 -103 404
-45 -97 382
-38 -84 333
-39 -88 347
-45 -104 410
-89 -205 805
-117 -275 1081
-106 -257 1012
0 0 0
0 0 0
-325 -846 3323
-315 -845 3320
-306 -847 3329
-297 -849 3334
-285 -843 3312
-276 -847 3327
-268 -851 3346
-260 -858 3372
-250 -859 3375
-234 -836 3285
-77 -294 1156
-58 -234 923
-35 -152 599
-4 -28 114
-5 -36 142
-47 -233 918
-54 -281 1107
-50 -277 1091
-48 -287 1131
-45 -289 1137
-43 -295 1163
-41 -306 1204
-39 -313 1233
-38 -341 1343
-35 -343 1349
-30 -342 1345
-26 -340 1339
-22 -337 1326
-17 -324 1276
-13 -316 1243
-10 -316 1242
-4 -266 1046
-2 -328 1290
0 -313 1233
4 -313 1230
8 -315 1239
12 -348 1370
16 -338 1331
20 -336 1322
24 -341 1339
28 -341 1339
32 -340 1335
35 -332 1306
41 -354 1389
45 -350 1374
47 -333 1309
52 -341 1340
59 -366 1435
64 -369 1449
70 -379 1487
69 -352 1381
74 -356 1397
82 -371 1456
78 -335 1313
86 -353 1385
92 -359 1409
96 -360 1409
100 -359 1405
104 -358 1404
101 -333 1305
110 -352 1378
116 -358 1400
120 -356 1393
0 0 0
0 0 0
0 0 0
0 0 0
0 0 0
0 0 0
0 0 0
0 0 0
353 -812 3166
310 -694 2706
308 -671 2616
308 -656 2554
314 -652 2538
319 -648 2522
319 -633 2461
323 -626 2434
327 -620 2409
329 -610 2370
337 -613 2379
335 -595 2312
335 -584 2266
331 -565 2193
351 -588 2281
332 -545 2114
276 -443 1719
190 -299 1159
181 -278 1077
183 -278 1075
184 -273 1058
189 -277 1070
194 -279 1079
195 -276 1068
197 -275 1062
204 -279 1077
208 -281 1085
208 -276 1063
207 -271 1046
214 -276 1063
221 -280 1080
220 -276 1061
227 -280 1077
228 -277 1065
228 -273 1050
231 -274 1052
230 -269 1031
231 -266 1018
233 -264 1014
229 -257 983
232 -257 985
214 -233 892
193 -208 795
0 0 0
0 0 0
0 0 0
0 0 0
0 0 0
154 -153 582
0 0 0
90 -86 327
20 -15 61
41 -36 138
76 -69 265
0 0 0
0 0 0
0 0 0
0 0 0
0 0 0
0 0 0
1068 -954 3592
1060 -937 3526
1079 -944 3549
0 0 0
0 0 0
0 0 0
0 0 0
0 0 0
0 0 0
0 0 0
0 0 0
0 0 0
0 0 0
0 0 0
1044 -816 3034
0 0 0
1071 -823 3052
1072 -817 3026
0 0 0
0 0 0
0 0 0
1052 -774 2857
1066 -778 2867
1068 -773 2847
1073 -770 2833
1082 -770 2830
1071 -756 2775
1101 -771 2828
1088 -757 2771
1042 -718 2627
1034 -707 2585
1084 -736 2686
1040 -700 2553
1085 -725 2641
1095 -727 2643
1083 -713 2590
1097 -717 2601
1085 -704 2550
1095 -705 2551
1100 -703 2541
1106 -702 2535
1103 -695 2505
1113 -697 2508
1116 -693 2492
1099 -678 2435
1107 -678 2432
1110 -675 2418
1108 -669 2393
1105 -663 2368
1117 -666 2374
1088 -644 2292
1097 -645 2293
1089 -636 2259
1095 -636 2254
1087 -627 2218
1103 -632 2234
1109 -631 2228
1096 -620 2183
1088 -611 2150
1109 -619 2176
1114 -618 2168
1112 -613 2148
1121 -614 2147
1127 -614 2142
1129 -611 2130
1129 -607 2112
1128 -603 2096
1140 -606 2102
1137 -601 2080
1143 -600 2075
1134 -592 2042
1133 -588 2025
1136 -586 2015
1145 -587 2016
1145 -584 2001
1140 -578 1976
-536 -254 900
-505 -240 853
-489 -234 833
-484 -233 830
-477 -231 825
-479 -233 835
-471 -231 826
-479 -236 846
-468 -232 833
-468 -233 839
-471 -236 852
-473 -239 862
-484 -246 888
-474 -242 877
-474 -244 885
-498 -258 937
-732 -381 1385
-1077 -565 2054
-1074 -567 2065
-1067 -566 2066
-1061 -567 2071
-1051 -565 2067
-1044 -565 2070
-1036 -565 2072
-1028 -564 2070
-1020 -563 2072
-1011 -562 2070
-1005 -562 2074
-998 -562 2076
-987 -560 2070
-978 -559 2067
-959 -551 2043
-960 -556 2063
-959 -559 2076
-952 -559 2080
-945 -559 2081
-937 -558 2079
-918 -550 2055
-901 -544 2035
-898 -547 2045
-892 -547 2048
-876 -541 2028
-880 -547 2054
-867 -543 2042
-860 -543 2042
-850 -540 2036
-842 -539 2034
-834 -539 2034
-831 -541 2043
-827 -543 2053
-812 -537 2032
-779 -519 1967
-732 -492 1866
-770 -521 1980
-770 -525 1997
-751 -517 1967
-765 -531 2022
-771 -540 2057
-760 -536 2046
-728 -518 1978
-719 -516 1973
-719 -521 1993
-732 -534 2046
-721 -531 2036
-715 -531 2037
-698 -523 2009
-696 -526 2022
-689 -526 2022
-695 -535 2059
-681 -530 2040
-674 -529 2038
-662 -525 2023
-667 -534 2060
-658 -531 2051
-652 -532 2056
-641 -527 2040
-638 -531 2054
-632 -531 2057
-626 -531 2057
-619 -530 2055
-611 -529 2052
-605 -530 2057
-597 -528 2052
-594 -530 2063
-588 -531 2066
-577 -526 2049
-576 -531 2070
-567 -529 2063
-562 -530 2068
-557 -532 2075
-550 -530 2071
-547 -534 2087
-540 -533 2083
-528 -528 2065
-525 -530 2076
-518 -530 2075
-514 -533 2087
-507 -531 2082
-499 -530 2077
-491 -528 2071
-485 -528 2074
-487 -537 2111
-491 -549 2158
-584 -661 2600
-608 -697 2741
-601 -699 2750
-528 -624 2454
-440 -526 2073
-429 -521 2051
-380 -468 1845
0 0 0
0 0 0
0 0 0
0 0 0
0 0 0
0 0 0
0 0 0
0 0 0
0 0 0
0 0 0
0 0 0
0 0 0
0 0 0
0 0 0
0 0 0
0 0 0
0 0 0
-141 -238 944
-103 -178 707
0 0 0
-48 -89 353
-42 -79 315
-36 -71 282
-45 -88 351
-42 -84 336
-30 -63 254
-51 -108 430
-40 -87 349
-34 -77 309
-41 -94 377
-72 -165 657
-125 -290 1155
-115 -275 1093
-117 -288 1146
0 0 0
-321 -825 3279
-316 -839 3335
-305 -835 3319
-296 -837 3328
-285 -834 3316
-277 -838 3335
-268 -842 3351
-259 -846 3365
-251 -852 3390
0 0 0
-75 -282 1123
-54 -217 867
-32 -138 549
-1 -16 64
-4 -28 115
-44 -216 860
-52 -271 1079
-49 -270 1077
-45 -266 1061
-46 -289 1153
-46 -308 1227
-42 -307 1224
-38 -309 1230
-36 -319 1270
-33 -322 1283
-28 -314 1251
-25 -316 1261
-20 -309 1233
-16 -301 1199
-12 -294 1171
-8 -276 1100
-5 -278 1106
-1 -260 1035
0 -303 1206
4 -298 1188
8 -327 1304
12 -332 1323
15 -322 1282
19 -327 1301
22 -305 1213
27 -321 1278
31 -322 1279
36 -344 1367
38 -320 1273
43 -328 1304
47 -334 1328
51 -331 1315
56 -339 1349
57 -321 1277
65 -344 1367
67 -336 1336
69 -325 1292
74 -330 1311
82 -348 1381
84 -342 1358
91 -354 1404
90 -335 1329
97 -346 1372
99 -339 1344
105 -344 1362
105 -332 1317
108 -327 1297
111 -327 1296
0 0 0
0 0 0
0 0 0
0 0 0
0 0 0
0 0 0
0 0 0
0 0 0
310 -704 2776
284 -628 2477
294 -634 2499
297 -624 2462
309 -635 2502
308 -618 2435
315 -617 2431
322 -617 2429
328 -614 2415
338 -619 2436
337 -605 2379
332 -584 2295
331 -569 2237
312 -526 2066
298 -494 1938
306 -497 1949
248 -394 1547
199 -308 1210
184 -280 1099
183 -274 1075
183 -269 1056
188 -272 1066
191 -272 1065
197 -276 1078
199 -274 1070
200 -270 1056
205 -273 1066
206 -270 1055
206 -266 1039
211 -268 1046
215 -270 1052
222 -274 1068
220 -268 1045
231 -278 1081
231 -274 1064
221 -258 1002
229 -265 1028
240 -274 1062
243 -273 1058
234 -260 1007
231 -253 981
198 -213 827
187 -198 768
0 0 0
150 -155 599
134 -136 525
0 0 0
0 0 0
130 -127 489
0 0 0
47 -42 163
37 -32 124
3 1 -4
38 -32 125
73 -64 248
0 0 0
0 0 0
0 0 0
0 0 0
0 0 0
0 0 0
1117 -977 3720
0 0 0
0 0 0
0 0 0
0 0 0
0 0 0
0 0 0
0 0 0
0 0 0
0 0 0
0 0 0
0 0 0
0 0 0
0 0 0
0 0 0
0 0 0
0 0 0
0 0 0
0 0 0
0 0 0
1058 -770 2876
1048 -756 2821
1069 -765 2851
1070 -759 2827
1082 -761 2832
1091 -762 2831
1100 -762 2828
1054 -724 2684
1039 -708 2623
1100 -744 2751
1113 -747 2761
1094 -729 2688
1082 -715 2636
1094 -718 2642
1090 -710 2609
1089 -704 2585
1106 -709 2601
1093 -696 2550
1106 -699 2557
1108 -696 2541
1106 -689 2513
1111 -688 2505
1110 -682 2482
1110 -677 2461
1098 -665 2413
1092 -657 2381
1079 -644 2332
1095 -650 2349
1089 -642 2317
1079 -632 2277
1057 -614 2211
1097 -634 2277
1088 -624 2239
1086 -619 2219
1113 -630 2255
1116 -628 2244
1123 -628 2240
1100 -611 2176
1106 -610 2171
1113 -611 2168
1118 -609 2160
1119 -606 2146
1132 -609 2153
1136 -608 2144
1134 -603 2125
1136 -601 2112
1137 -597 2097
1133 -592 2073
1128 -586 2049
1134 -585 2045
1135 -582 2030
1140 -582 2025
1138 -577 2005
1137 -573 1988
1128 -566 1958
-529 -247 888
-492 -231 832
-487 -230 830
-488 -232 838
-481 -230 832
-474 -228 826
-470 -227 825
-475 -231 840
-467 -229 832
-467 -230 839
-461 -228 834
-472 -235 861
-468 -235 861
-472 -238 874
-476 -242 888
-512 -262 964
-800 -412 1515
-1080 -560 2062
-1076 -561 2070
-1070 -561 2074
-1063 -562 2078
-1053 -560 2073
-1042 -558 2069
-1040 -560 2080
-1029 -557 2074
-1021 -557 2074
-1013 -556 2076
-1006 -556 2078
-997 -555 2076
-987 -553 2072
-972 -549 2057
-954 -542 2034
-959 -549 2063
-959 -552 2078
-950 -551 2077
-947 -553 2086
-938 -552 2084
-916 -543 2053
-904 -540 2043
-888 -534 2022
-888 -538 2041
-888 -542 2057
-873 -537 2041
-867 -537 2043
-856 -534 2035
-838 -527 2010
-845 -535 2044
-841 -537 2052
-820 -528 2019
-820 -531 2035
-804 -526 2015
-757 -499 1914
-748 -496 1907
-773 -518 1991
-774 -522 2009
-754 -513 1976
-765 -525 2023
-763 -528 2037
-758 -528 2041
-734 -516 1997
-710 -504 1950
-724 -518 2008
-725 -523 2028
-722 -526 2040
-713 -523 2033
-697 -517 2008
-685 -512 1992
-692 -522 2033
-694 -529 2059
-679 -522 2035
-675 -524 2044
-668 -523 2042
-662 -523 2046
-657 -524 2051
-655 -528 2066
-640 -520 2038
-639 -525 2058
-628 -521 2043
-623 -522 2050
-619 -524 2058
-610 -521 2049
-603 -521 2049
-597 -522 2053
-599 -528 2081
-586 -523 2060
-580 -523 2061
-574 -523 2063
-573 -528 2083
-563 -524 2071
-559 -527 2081
-551 -525 2076
-547 -527 2087
-543 -530 2099
-534 -528 2090
-526 -525 2081
-516 -522 2069
-509 -521 2068
-509 -527 2092
-499 -523 2079
-494 -525 2086
-486 -523 2079
-483 -526 2094
-490 -541 2154
-591 -661 2630
-618 -701 2789
-536 -617 2457
-454 -530 2112
-410 -486 1936
0 0 0
0 0 0
-306 -378 1511
-246 -310 1239
0 0 0
0 0 0
0 0 0
-213 -285 1141
0 0 0
-239 -330 1321
0 0 0
0 0 0
0 0 0
0 0 0
0 0 0
0 0 0
0 0 0
0 0 0
0 0 0
0 0 0
0 0 0
0 0 0
-55 -100 403
-36 -68 276
-55 -105 423
-45 -88 356
-48 -95 384
-47 -96 388
-36 -76 308
-44 -94 382
-36 -79 322
-41 -92 373
-81 -183 737
-119 -273 1099
-112 -264 1065
-119 -289 1164
0 0 0
-315 -801 3226
-316 -829 3339
-304 -824 3317
-295 -826 3325
-285 -824 3319
-277 -829 3337
-268 -832 3351
-260 -836 3370
-248 -832 3352
0 0 0
-70 -263 1060
-57 -226 912
-32 -136 551
-2 -19 81
-6 -38 155
-36 -178 721
-53 -272 1097
-50 -270 1092
-46 -267 1078
-41 -259 1044
-40 -267 1078
-37 -273 1100
-35 -277 1120
-30 -267 1076
-28 -275 1111
-24 -275 1109
-22 -280 1131
-18 -275 1111
-15 -272 1099
-12 -278 1120
-8 -270 1089
-5 -280 1129
-2 -287 1156
1 -278 1122
4 -290 1168
7 -288 1160
11 -299 1207
14 -294 1184
18 -288 1163
21 -291 1173
24 -283 1141
28 -289 1164
33 -302 1217
35 -292 1176
38 -290 1168
44 -303 1221
48 -307 1235
52 -309 1244
54 -301 1211
61 -319 1285
63 -311 1249
68 -317 1275
70 -311 1249
77 -322 1296
80 -319 1281
81 -310 1247
92 -338 1359
96 -337 1355
93 -314 1262
100 -322 1294
103 -322 1290
112 -338 1355
106 -308 1234
0 0 0
0 0 0
0 0 0
0 0 0
0 0 0
394 -965 3858
0 0 0
0 0 0
312 -702 2803
287 -627 2503
291 -619 2473
298 -620 2476
308 -624 2491
309 -612 2441
320 -619 2469
321 -608 2425
332 -615 2449
335 -607 2416
329 -584 2324
323 -562 2236
310 -528 2099
292 -486 1931
291 -476 1891
280 -449 1785
237 -372 1476
197 -303 1202
183 -275 1092
184 -272 1079
185 -268 1064
185 -264 1047
190 -266 1056
192 -265 1049
197 -268 1061
194 -260 1027
202 -266 1050
199 -258 1022
204 -261 1030
210 -265 1045
206 -255 1008
220 -269 1063
220 -265 1046
226 -268 1056
230 -270 1062
230 -266 1046
240 -274 1078
232 -261 1027
233 -258 1014
246 -270 1059
228 -246 967
206 -219 860
169 -176 692
0 0 0
0 0 0
0 0 0
0 0 0
0 0 0
93 -88 346
90 -84 330
50 -45 176
57 -51 200
63 -56 220
70 -62 242
0 0 0
0 0 0
0 0 0
0 0 0
0 0 0
0 0 0
0 0 0
0 0 0
0 0 0
0 0 0
0 0 0
0 0 0
0 0 0
0 0 0
0 0 0
0 0 0
0 0 0
0 0 0
0 0 0
0 0 0
0 0 0
0 0 0
0 0 0
0 0 0
0 0 0
0 0 0
0 0 0
1028 -739 2795
1055 -752 2841
1075 -760 2868
1081 -758 2857
1067 -742 2794
1107 -764 2874
1056 -723 2715
1082 -735 2759
1105 -744 2790
1107 -740 2771
1091 -724 2708
1098 -723 2701
1077 -703 2625
1083 -702 2616
1100 -708 2635
1115 -712 2647
1099 -697 2587
1103 -694 2574
1094 -684 2532
1101 -683 2527
1094 -674 2490
1112 -680 2508
1125 -683 2518
1102 -664 2444
1076 -644 2368
1099 -654 2398
1061 -627 2296
1076 -631 2310
1092 -636 2324
1096 -634 2314
1111 -639 2327
1102 -629 2289
1069 -606 2202
1104 -622 2257
1104 -618 2238
1118 -622 2250
1121 -620 2238
1104 -606 2187
1114 -608 2188
1111 -602 2165
1118 -602 2162
1124 -602 2156
1127 -600 2147
1140 -603 2153
1136 -597 2129
1149 -600 2137
1130 -587 2086
1134 -586 2078
1138 -584 2069
1139 -581 2056
1132 -574 2027
1128 -569 2005
1133 -568 1997
1127 -562 1973
1126 -558 1956
-541 -250 909
-487 -226 825
-494 -231 842
-481 -226 826
-481 -228 833
-480 -228 838
-479 -229 842
-473 -228 838
-469 -227 836
-467 -227 840
-470 -230 851
-476 -234 868
-481 -238 884
-478 -238 885
-491 -246 917
-522 -264 982
-867 -441 1645
-1083 -555 2070
-1072 -552 2064
-1068 -554 2072
-1062 -554 2078
-1051 -552 2072
-1042 -551 2071
-1034 -550 2071
-1027 -550 2073
-1019 -549 2072
-1013 -550 2078
-1005 -549 2076
-995 -547 2072
-986 -546 2070
-980 -546 2075
-957 -537 2042
-961 -543 2068
-958 -545 2079
-951 -545 2081
-944 -545 2081
-936 -544 2081
-911 -533 2043
-900 -531 2035
-890 -529 2029
-891 -533 2049
-883 -532 2048
-885 -537 2069
-860 -526 2030
-859 -530 2044
-862 -535 2068
-843 -528 2042
-839 -529 2048
-825 -524 2031
-822 -526 2042
-796 -514 1997
-736 -479 1863
-751 -493 1917
-774 -512 1994
-765 -510 1989
-756 -508 1984
-766 -519 2029
-764 -522 2041
-756 -521 2038
-729 -506 1984
-730 -511 2004
-730 -516 2025
-731 -522 2048
-725 -522 2051
-709 -514 2023
-698 -511 2013
-705 -521 2051
-703 -524 2067
-696 -523 2065
-687 -521 2059
-679 -521 2058
-676 -523 2069
-665 -520 2056
-659 -520 2058
-650 -517 2050
-644 -518 2055
-639 -519 2061
-632 -518 2059
-621 -514 2043
-618 -517 2058
-610 -515 2051
-596 -509 2027
-598 -516 2057
-592 -517 2060
-584 -515 2054
-578 -515 2058
-576 -519 2072
-570 -519 2075
-562 -518 2072
-556 -518 2074
-548 -517 2069
-539 -514 2060
-545 -525 2107
-530 -517 2075
-523 -517 2073
-518 -517 2078
-513 -519 2086
-503 -515 2071
-502 -521 2094
-494 -519 2086
-487 -518 2086
-478 -515 2074
-490 -535 2156
-570 -630 2540
-559 -627 2527
-576 -654 2638
-459 -529 2134
-438 -512 2067
-413 -490 1979
-389 -469 1895
-294 -360 1455
0 0 0
0 0 0
0 0 0
-203 -265 1073
-190 -252 1024
-250 -336 1362
-207 -283 1148
-227 -315 1279
0 0 0
-637 -910 3689
0 0 0
0 0 0
0 0 0
0 0 0
0 0 0
0 0 0
0 0 0
0 0 0
-12 -24 101
-41 -75 306
-56 -102 416
-27 -53 216
-44 -85 348
-34 -68 281
-47 -95 389
-38 -79 324
-43 -92 376
-36 -78 320
-38 -86 353
-74 -166 680
-116 -263 1073
-116 -272 1110
-118 -284 1161
0 0 0
-318 -800 3262
-315 -815 3324
-305 -816 3326
-295 -814 3321
-285 -814 3319
-277 -820 3343
-268 -823 3357
-260 -827 3373
-247 -819 3341
0 0 0
-77 -284 1160
-59 -228 933
-26 -111 453
0 -10 43
-5 -33 137
-36 -177 726
-57 -286 1170
-55 -293 1196
-50 -288 1177
-47 -291 1189
-42 -277 1133
-40 -290 1184
-38 -299 1223
-34 -292 1191
-29 -285 1166
-24 -271 1106
-21 -274 1119
-20 -302 1232
-15 -275 1122
-12 -289 1180
-9 -290 1183
-5 -281 1147
-2 -277 1130
1 -283 1156
4 -278 1135
7 -278 1135
11 -279 1141
14 -276 1127
17 -274 1120
20 -275 1124
24 -280 1142
28 -285 1163
32 -286 1168
34 -275 1122
38 -285 1163
41 -280 1140
44 -279 1137
47 -276 1127
52 -285 1162
54 -279 1136
59 -286 1164
61 -282 1147
67 -289 1179
70 -288 1173
74 -290 1180
75 -282 1149
79 -286 1162
83 -285 1158
86 -286 1162
91 -289 1175
91 -278 1129
102 -304 1233
97 -276 1121
0 0 0
0 0 0
372 -985 3992
0 0 0
0 0 0
0 0 0
0 0 0
0 0 0
301 -669 2705
288 -622 2516
297 -626 2531
299 -614 2480
302 -605 2443
311 -610 2462
317 -606 2446
320 -599 2417
330 -603 2433
324 -580 2340
321 -562 2264
301 -516 2079
287 -482 1941
288 -474 1909
283 -457 1840
277 -439 1765
234 -362 1455
196 -297 1196
183 -272 1094
178 -259 1042
181 -260 1045
184 -260 1043
188 -261 1048
192 -262 1052
193 -259 1039
198 -262 1049
202 -263 1054
202 -258 1034
213 -269 1075
211 -263 1051
215 -263 1053
225 -271 1084
218 -259 1034
222 -261 1042
225 -260 1037
230 -262 1046
234 -264 1050
231 -257 1022
231 -254 1010
247 -267 1063
228 -244 969
188 -198 785
135 -138 550
163 -167 661
0 0 0
160 -159 630
0 0 0
117 -113 446
0 0 0
106 -99 393
110 -101 402
35 -29 117
31 -25 101
38 -31 126
147 -132 519
0 0 0
0 0 0
0 0 0
0 0 0
0 0 0
0 0 0
0 0 0
0 0 0
0 0 0
0 0 0
0 0 0
0 0 0
0 0 0
0 0 0
0 0 0
0 0 0
0 0 0
0 0 0
0 0 0
0 0 0
0 0 0
0 0 0
0 0 0
0 0 0
0 0 0
0 0 0
1027 -729 2793
1051 -740 2832
1065 -744 2845
1069 -741 2829
1074 -738 2816
1083 -738 2812
1052 -712 2708
1080 -724 2753
1091 -726 2757
1080 -713 2704
1095 -718 2718
1106 -719 2721
1085 -700 2646
1113 -713 2691
1101 -700 2639
1104 -697 2622
1097 -687 2585
1087 -676 2538
1083 -669 2508
1097 -672 2518
1098 -668 2499
1093 -660 2466
1074 -645 2405
1029 -613 2283
1072 -634 2360
1082 -636 2362
1098 -641 2379
1073 -622 2305
1101 -634 2346
1108 -634 2341
1106 -628 2317
1112 -628 2313
1102 -618 2273
1100 -613 2251
1134 -627 2301
1124 -618 2264
1131 -618 2259
1116 -606 2211
1115 -601 2192
1113 -596 2171
1113 -593 2154
1117 -591 2146
1126 -592 2146
1132 -592 2140
1132 -588 2125
1129 -583 2102
1135 -583 2097
1130 -576 2071
1130 -573 2056
1127 -568 2034
1131 -567 2026
1125 -561 2001
1127 -558 1989
1123 -553 1967
1112 -544 1933
-509 -232 855
-477 -219 809
-484 -224 827
-477 -221 821
-482 -225 836
-479 -225 837
-470 -222 827
-463 -220 821
-469 -224 838
-463 -223 834
-460 -223 834
-461 -225 843
-490 -240 902
-477 -235 886
-482 -239 900
-538 -268 1013
-930 -467 1765
-1081 -547 2067
-1073 -546 2067
-1064 -545 2066
-1058 -545 2071
-1053 -546 2077
-1044 -545 2077
-1035 -544 2074
-1025 -542 2069
-1022 -544 2079
-1013 -543 2078
-1002 -541 2074
-994 -540 2072
-985 -539 2070
-968 -533 2051
-956 -530 2041
-960 -536 2068
-960 -540 2084
-952 -539 2084
-942 -537 2080
-933 -536 2077
-911 -527 2044
-905 -527 2048
-894 -525 2040
-889 -525 2046
-882 -525 2047
-876 -526 2051
-851 -514 2008
-848 -516 2018
-846 -519 2032
-849 -525 2057
-840 -523 2053
-824 -518 2032
-814 -515 2025
-810 -517 2032
-746 -480 1889
-762 -494 1947
-789 -515 2033
-775 -511 2017
-761 -506 1999
-768 -514 2035
-762 -515 2038
-752 -512 2030
-730 -501 1988
-724 -501 1991
-729 -509 2022
-724 -510 2029
-720 -512 2037
-713 -511 2036
-693 -501 1999
-700 -511 2038
-705 -519 2074
-697 -518 2071
-686 -515 2060
-674 -511 2044
-665 -508 2036
-665 -513 2056
-657 -512 2053
-650 -511 2051
-642 -510 2048
-634 -509 2046
-633 -513 2065
-622 -509 2050
-622 -514 2071
-611 -510 2056
-596 -503 2027
-590 -503 2030
-595 -513 2071
-586 -510 2062
-578 -509 2060
-576 -513 2075
-568 -511 2069
-562 -511 2070
-556 -512 2075
-554 -515 2090
-543 -511 2075
-539 -514 2086
-532 -513 2084
-525 -512 2080
-517 -511 2078
-512 -512 2082
-507 -513 2087
-498 -510 2079
-494 -512 2087
-484 -509 2075
-485 -516 2105
-487 -526 2145
-567 -619 2528
-585 -648 2645
-521 -584 2388
-483 -550 2247
-438 -506 2069
-407 -477 1951
-416 -495 2027
0 0 0
0 0 0
0 0 0
0 0 0
0 0 0
0 0 0
0 0 0
0 0 0
0 0 0
0 0 0
-672 -949 3895
0 0 0
0 0 0
0 0 0
0 0 0
0 0 0
0 0 0
0 0 0
0 0 0
0 0 0
-55 -97 400
-43 -78 325
-51 -95 394
-52 -98 405
-40 -78 325
-59 -116 478
-42 -86 358
-36 -77 320
-37 -79 330
-37 -83 346
-69 -154 636
-122 -275 1135
-126 -291 1203
-132 -313 1293
-169 -409 1691
-310 -769 3173
-316 -808 3338
-305 -806 3328
-295 -805 3322
-284 -803 3318
-276 -807 3333
-269 -815 3367
-260 -817 3377
-246 -805 3326
-115 -397 1643
-81 -294 1218
-56 -216 893
-21 -91 379
2 0 3
-2 -21 88
-40 -190 788
-62 -306 1268
-59 -311 1286
-57 -317 1313
-50 -302 1251
-47 -306 1267
-43 -305 1262
-42 -320 1325
-36 -311 1288
-33 -313 1297
-30 -322 1331
-27 -337 1393
-20 -296 1224
-18 -312 1292
-14 -319 1318
-10 -322 1331
-6 -306 1265
-2 -318 1315
0 -319 1319
4 -310 1283
8 -300 1241
12 -320 1323
16 -312 1291
20 -315 1300
23 -302 1249
27 -311 1284
33 -332 1372
34 -310 1279
38 -310 1281
41 -301 1241
44 -298 1231
47 -294 1214
50 -290 1198
58 -319 1315
60 -305 1258
60 -289 1194
65 -296 1220
68 -293 1206
75 -309 1273
76 -295 1217
76 -283 1168
83 -294 1212
87 -298 1227
87 -284 1169
90 -283 1164
92 -278 1145
96 -280 1150
99 -280 1153
0 0 0
0 0 0
0 0 0
0 0 0
0 0 0
0 0 0
0 0 0
0 0 0
319 -700 2866
286 -611 2500
295 -614 2513
295 -597 2445
298 -590 2414
306 -592 2422
317 -599 2450
323 -597 2441
317 -573 2342
324 -572 2337
297 -514 2100
278 -470 1918
270 -447 1824
263 -427 1740
272 -434 1769
269 -420 1711
250 -383 1559
213 -319 1299
181 -266 1082
183 -264 1075
179 -254 1032
185 -257 1046
186 -255 1038
191 -257 1046
197 -261 1060
195 -255 1035
197 -253 1026
202 -255 1034
202 -251 1018
211 -259 1049
213 -258 1044
214 -255 1030
225 -265 1070
223 -259 1045
224 -256 1035
213 -239 967
221 -246 991
222 -243 981
233 -252 1015
235 -251 1011
227 -239 963
208 -216 870
0 0 0
174 -176 707
0 0 0
157 -154 619
0 0 0
99 -93 374
0 0 0
0 0 0
81 -73 295
55 -47 191
33 -27 110
76 -66 265
76 -65 263
0 0 0
0 0 0
0 0 0
0 0 0
0 0 0
0 0 0
0 0 0
0 0 0
0 0 0
0 0 0
0 0 0
0 0 0
0 0 0
0 0 0
0 0 0
0 0 0
0 0 0
0 0 0
0 0 0
0 0 0
0 0 0
0 0 0
0 0 0
0 0 0
0 0 0
0 0 0
1027 -721 2797
1059 -737 2856
1073 -741 2867
1082 -741 2865
1084 -736 2842
1094 -737 2843
1099 -734 2830
1082 -717 2762
1090 -717 2758
1095 -715 2746
1085 -703 2695
1091 -701 2687
1107 -706 2702
1095 -693 2648
1104 -694 2649
1084 -676 2577
1091 -675 2572
1089 -669 2545
1081 -659 2504
1111 -673 2554
1048 -630 2387
1052 -628 2377
1098 -651 2460
1109 -653 2465
1074 -628 2367
1090 -633 2381
1094 -631 2371
1092 -626 2348
1094 -622 2332
1113 -629 2352
1103 -619 2312
1117 -623 2324
1107 -613 2284
1118 -615 2289
1111 -607 2255
1123 -610 2262
1131 -610 2261
1117 -599 2214
1116 -594 2195
1115 -590 2177
1115 -587 2160
1122 -587 2156
1128 -586 2150
1139 -588 2155
1127 -578 2116
1132 -577 2108
1128 -572 2086
1122 -566 2059
1127 -565 2053
1120 -558 2023
1119 -554 2006
1116 -549 1986
1124 -550 1985
1115 -542 1954
1122 -543 1953
-530 -239 893
-498 -226 844
-492 -224 841
-489 -224 842
-484 -223 840
-471 -219 823
-472 -220 832
-465 -218 825
-466 -220 833
-472 -224 850
-457 -218 829
-473 -227 864
-484 -234 892
-473 -230 878
-478 -234 893
-545 -269 1028
-978 -486 1858
-1078 -538 2063
-1075 -540 2073
-1067 -540 2074
-1063 -541 2082
-1047 -537 2068
-1044 -538 2078
-1035 -537 2076
-1030 -538 2082
-1016 -534 2069
-1008 -534 2070
-1000 -533 2071
-993 -533 2072
-982 -530 2065
-970 -528 2058
-962 -527 2057
-964 -532 2078
-954 -530 2073
-950 -531 2081
-944 -532 2085
-929 -527 2070
-896 -512 2012
-904 -520 2047
-895 -519 2044
-883 -516 2034
-876 -515 2035
-864 -512 2024
-869 -519 2054
-857 -515 2041
-839 -508 2016
-849 -518 2057
-837 -515 2048
-833 -517 2056
-820 -512 2040
-806 -508 2025
-762 -484 1931
-780 -499 1995
-777 -502 2005
-768 -499 1998
-757 -497 1989
-768 -508 2036
-769 -513 2057
-734 -494 1982
-695 -471 1894
-731 -500 2012
-738 -509 2051
-728 -507 2042
-726 -510 2056
-713 -505 2037
-709 -506 2046
-694 -501 2024
-704 -512 2073
-693 -509 2061
-690 -511 2072
-678 -507 2056
-671 -507 2057
-664 -506 2055
-660 -508 2065
-650 -505 2054
-645 -506 2059
-639 -507 2064
-631 -505 2059
-624 -504 2057
-623 -509 2076
-613 -506 2065
-599 -499 2040
-590 -497 2031
-589 -501 2052
-581 -500 2048
-579 -504 2065
-573 -504 2067
-570 -506 2077
-564 -507 2079
-558 -507 2082
-551 -507 2083
-545 -507 2085
-539 -507 2086
-530 -505 2077
-527 -508 2092
-511 -499 2054
-512 -506 2085
-507 -507 2091
-498 -504 2078
-495 -507 2093
-484 -503 2077
-482 -507 2094
-496 -529 2186
-546 -589 2436
-586 -641 2651
-535 -593 2456
-478 -537 2225
-441 -503 2084
-423 -490 2030
-418 -491 2035
0 0 0
0 0 0
0 0 0
0 0 0
0 0 0
0 0 0
0 0 0
0 0 0
0 0 0
0 0 0
-653 -911 3788
0 0 0
0 0 0
0 0 0
0 0 0
0 0 0
0 0 0
0 0 0
0 0 0
-704 -1162 4844
-23 -43 180
-16 -32 136
-46 -84 353
-52 -98 410
-49 -94 396
-43 -85 357
-40 -81 343
-41 -85 357
-35 -74 313
-40 -87 366
-71 -155 648
-118 -262 1096
-109 -248 1040
-123 -287 1202
-164 -393 1646
-298 -731 3059
-314 -794 3322
-305 -796 3331
-294 -792 3315
-285 -794 3321
-275 -796 3329
-268 -802 3356
-259 -807 3375
-246 -796 3329
-101 -347 1453
-80 -288 1208
-61 -230 964
-22 -96 404
0 -7 33
-5 -33 140
-43 -201 843
-69 -336 1407
-60 -313 1313
-54 -300 1257
-55 -326 1364
-49 -316 1326
-46 -323 1353
-45 -340 1423
-40 -332 1391
-31 -297 1244
-29 -305 1279
-26 -323 1353
-23 -324 1356
-19 -325 1361
-14 -307 1285
-10 -306 1280
-6 -318 1333
-2 -308 1291
0 -321 1346
4 -322 1350
8 -318 1332
12 -318 1333
16 -319 1334
20 -319 1334
24 -317 1326
27 -313 1311
31 -307 1283
34 -307 1285
38 -303 1269
44 -320 1338
45 -300 1253
52 -322 1346
55 -316 1323
59 -315 1318
65 -331 1381
66 -315 1317
69 -311 1300
73 -310 1293
81 -326 1363
83 -320 1336
93 -345 1438
88 -311 1299
89 -302 1258
92 -297 1238
104 -326 1357
103 -311 1296
107 -309 1288
110 -309 1287
0 0 0
0 0 0
0 0 0
0 0 0
0 0 0
0 0 0
0 0 0
360 -803 3332
332 -719 2982
289 -609 2524
291 -598 2479
294 -590 2445
305 -596 2472
308 -589 2439
311 -580 2404
322 -588 2435
326 -581 2406
321 -561 2319
290 -495 2045
260 -434 1796
248 -406 1676
245 -393 1624
242 -380 1568
249 -384 1586
235 -355 1464
206 -305 1257
186 -270 1113
176 -251 1033
180 -252 1038
180 -247 1018
185 -250 1030
185 -246 1014
193 -253 1042
196 -253 1039
196 -248 1021
207 -258 1061
205 -252 1035
208 -252 1034
216 -258 1058
220 -260 1064
223 -259 1059
222 -254 1040
226 -255 1044
228 -254 1038
245 -269 1100
240 -260 1061
230 -246 1002
234 -247 1008
223 -233 948
201 -207 842
152 -152 621
0 0 0
209 -206 839
143 -139 565
126 -120 489
0 0 0
152 -142 576
0 0 0
105 -95 386
86 -76 309
47 -39 160
97 -84 340
111 -96 390
0 0 0
0 0 0
0 0 0
0 0 0
0 0 0
0 0 0
0 0 0
0 0 0
0 0 0
0 0 0
0 0 0
0 0 0
0 0 0
0 0 0
0 0 0
0 0 0
0 0 0
0 0 0
0 0 0
0 0 0
0 0 0
0 0 0
0 0 0
0 0 0
0 0 0
0 0 0
1046 -725 2850
1061 -730 2863
1069 -729 2858
1077 -728 2853
1089 -730 2857
1077 -717 2800
1098 -725 2831
1087 -712 2775
1097 -713 2776
1076 -694 2700
1097 -702 2728
1091 -693 2688
1086 -684 2652
1078 -674 2609
1107 -687 2656
1079 -665 2567
1059 -647 2497
1075 -653 2514
1051 -633 2437
1058 -633 2432
1051 -624 2395
1038 -612 2345
1068 -625 2394
1102 -641 2450
1105 -638 2436
1116 -640 2440
1116 -636 2420
1113 -629 2393
1112 -625 2372
1109 -619 2346
1108 -614 2325
1116 -614 2323
1122 -614 2317
1126 -612 2307
1116 -603 2268
1119 -600 2256
1111 -592 2223
1117 -592 2217
1107 -583 2179
1113 -582 2174
1113 -579 2157
1116 -577 2147
1125 -577 2146
1126 -574 2131
1126 -571 2116
1137 -573 2119
1118 -560 2069
1131 -563 2077
1125 -557 2049
1105 -544 1997
1113 -544 1997
1122 -546 1999
1106 -535 1955
1114 -535 1953
1131 -541 1970
-514 -229 867
-498 -223 845
-496 -223 848
-490 -222 844
-469 -214 814
-476 -218 833
-476 -219 839
-480 -222 851
-467 -218 836
-452 -212 815
-463 -219 841
-485 -230 887
-483 -231 890
-470 -226 874
-492 -238 921
-568 -276 1071
-1019 -499 1936
-1081 -533 2070
-1072 -532 2068
-1063 -531 2068
-1058 -532 2074
-1051 -532 2076
-1045 -532 2080
-1034 -530 2074
-1026 -529 2075
-1016 -528 2072
-1011 -529 2079
-1000 -526 2072
-991 -525 2070
-989 -528 2082
-978 -525 2076
-954 -516 2042
-965 -525 2081
-959 -526 2085
-952 -526 2086
-944 -525 2087
-927 -519 2067
-902 -509 2028
-900 -511 2039
-885 -506 2022
-887 -512 2045
-878 -510 2040
-870 -509 2040
-868 -512 2051
-854 -507 2036
-843 -505 2028
-839 -506 2035
-830 -505 2032
-833 -510 2057
-816 -504 2032
-789 -491 1983
-746 -468 1890
-764 -483 1955
-786 -501 2028
-778 -500 2026
-762 -494 2003
-759 -496 2015
-758 -499 2029
-718 -477 1942
-719 -482 1962
-738 -499 2033
-733 -499 2038
-721 -495 2022
-725 -503 2054
-717 -501 2050
-711 -501 2053
-703 -500 2050
-699 -502 2059
-691 -501 2056
-689 -504 2071
-674 -498 2046
-662 -493 2029
-661 -497 2047
-656 -499 2054
-652 -500 2062
-642 -498 2052
-639 -500 2065
-631 -499 2059
-628 -501 2071
-616 -497 2054
-614 -500 2069
-603 -496 2054
-592 -492 2039
-584 -491 2037
-587 -499 2070
-576 -495 2053
-575 -499 2072
-570 -500 2080
-563 -500 2080
-557 -500 2082
-551 -500 2083
-543 -499 2078
-539 -501 2086
-532 -501 2088
-521 -496 2069
-519 -500 2086
-505 -492 2055
-511 -504 2106
-504 -504 2107
-495 -501 2096
-488 -501 2094
-478 -496 2077
-489 -514 2153
-548 -584 2448
-557 -602 2522
-545 -597 2504
-486 -540 2264
-423 -476 2000
-403 -461 1937
-445 -516 2167
0 0 0
0 0 0
0 0 0
0 0 0
0 0 0
0 0 0
0 0 0
-293 -385 1623
0 0 0
-629 -852 3589
-656 -904 3808
0 0 0
0 0 0
0 0 0
0 0 0
0 0 0
0 0 0
0 0 0
0 0 0
0 0 0
-61 -106 449
-54 -95 406
-46 -84 357
-23 -45 192
0 0 0
-48 -94 398
-41 -82 348
-54 -110 466
-60 -125 530
-57 -120 512
-70 -152 646
-109 -240 1018
-123 -278 1178
-132 -306 1297
-155 -368 1561
-255 -619 2623
-312 -781 3308
-303 -782 3312
-293 -781 3308
-284 -783 3318
-275 -785 3328
-268 -792 3358
-258 -792 3358
-239 -765 3241
-104 -352 1494
-79 -279 1186
-62 -231 982
-26 -110 467
0 -8 39
-3 -24 107
-41 -192 817
-64 -309 1313
-61 -312 1323
-57 -312 1326
-55 -325 1381
-46 -294 1250
-44 -303 1285
-41 -311 1322
-36 -304 1290
-32 -298 1267
-31 -321 1363
-26 -315 1336
-22 -313 1329
-19 -328 1392
-14 -306 1300
-10 -309 1312
-6 -314 1331
-2 -308 1307
0 -314 1331
4 -306 1300
8 -319 1353
12 -325 1379
16 -318 1350
20 -322 1367
23 -301 1275
29 -325 1376
33 -327 1388
37 -330 1398
39 -313 1326
47 -343 1454
47 -314 1330
53 -324 1370
56 -322 1362
60 -317 1343
65 -325 1377
68 -319 1352
71 -313 1326
78 -328 1386
79 -317 1340
85 -323 1365
98 -358 1511
89 -311 1314
93 -310 1310
104 -333 1406
103 -319 1345
111 -328 1387
106 -303 1278
110 -305 1288
0 0 0
0 0 0
0 0 0
0 0 0
0 0 0
0 0 0
389 -880 3700
0 0 0
340 -727 3054
292 -607 2551
286 -579 2434
283 -559 2347
304 -587 2465
305 -576 2415
309 -569 2388
322 -580 2433
322 -567 2378
323 -557 2333
284 -478 2002
261 -431 1806
239 -386 1614
239 -379 1584
245 -379 1587
249 -380 1588
233 -347 1452
204 -299 1249
184 -263 1099
175 -246 1029
179 -247 1032
176 -239 1000
186 -249 1037
190 -250 1044
192 -249 1037
197 -250 1043
196 -246 1022
199 -245 1020
208 -253 1050
210 -252 1046
211 -249 1036
216 -251 1042
221 -253 1050
226 -256 1060
223 -248 1029
217 -238 986
233 -253 1048
227 -242 1003
227 -240 990
237 -248 1023
216 -222 917
175 -177 731
156 -155 642
0 0 0
124 -119 492
0 0 0
0 0 0
178 -167 686
120 -110 452
126 -114 470
77 -67 278
26 -20 84
59 -49 203
30 -23 97
65 -54 221
0 0 0
0 0 0
0 0 0
0 0 0
0 0 0
0 0 0
1038 -854 3463
1056 -861 3488
0 0 0
0 0 0
0 0 0
0 0 0
0 0 0
0 0 0
0 0 0
0 0 0
0 0 0
0 0 0
0 0 0
0 0 0
1089 -785 3145
1014 -725 2899
0 0 0
0 0 0
0 0 0
0 0 0
958 -656 2611
1052 -715 2841
1066 -718 2853
1075 -718 2850
1078 -714 2831
1083 -712 2818
1091 -712 2814
1093 -707 2792
1096 -704 2776
1078 -687 2705
1088 -688 2708
1100 -690 2713
1083 -674 2647
1043 -644 2526
1056 -647 2536
1057 -643 2517
1105 -667 2608
1060 -635 2480
1055 -628 2448
1030 -609 2370
1097 -644 2503
1092 -636 2469
1100 -636 2467
1098 -631 2442
1106 -631 2439
1109 -629 2427
1115 -627 2418
1113 -622 2396
1120 -622 2392
1107 -610 2344
1103 -604 2317
1121 -610 2335
1125 -608 2324
1118 -600 2292
1114 -594 2266
1112 -590 2244
1107 -583 2216
1114 -583 2211
1109 -577 2185
1115 -576 2179
1118 -574 2168
1114 -569 2144
1121 -568 2140
1126 -568 2134
1128 -565 2121
1114 -555 2079
1118 -553 2069
1127 -554 2070
1124 -550 2049
1123 -546 2031
1134 -548 2036
1107 -532 1973
1122 -536 1985
1121 -532 1968
1128 -533 1966
-515 -226 868
-494 -218 839
-495 -220 848
-493 -220 849
-489 -220 850
-484 -219 847
-466 -212 821
-469 -215 834
-472 -217 845
-465 -215 839
-472 -220 858
-467 -219 855
-480 -226 886
-483 -229 898
-478 -228 895
-589 -283 1112
-1043 -505 1984
-1076 -524 2063
-1074 -526 2075
-1065 -525 2074
-1059 -526 2077
-1048 -523 2072
-1042 -524 2076
-1031 -522 2071
-1026 -523 2077
-1017 -521 2074
-1013 -523 2084
-999 -519 2071
-992 -519 2073
-984 -518 2073
-965 -512 2050
-965 -516 2067
-963 -518 2078
-955 -517 2079
-950 -518 2084
-942 -518 2085
-928 -513 2070
-906 -505 2038
-898 -504 2036
-886 -501 2026
-882 -502 2035
-878 -504 2042
-869 -502 2039
-861 -501 2037
-853 -500 2036
-849 -502 2044
-846 -504 2054
-833 -500 2040
-826 -499 2040
-821 -500 2046
-777 -477 1954
-745 -462 1892
-766 -478 1961
-785 -494 2027
-765 -486 1995
-762 -488 2005
-769 -496 2041
-747 -486 2003
-714 -468 1930
-737 -487 2011
-737 -491 2030
-738 -497 2053
-727 -493 2041
-724 -496 2053
-722 -499 2067
-705 -492 2039
-699 -492 2041
-704 -500 2076
-690 -494 2054
-687 -496 2065
-679 -495 2063
-663 -488 2034
-662 -492 2052
-666 -500 2086
-651 -493 2060
-638 -488 2040
-632 -488 2042
-631 -492 2060
-625 -492 2062
-616 -490 2055
-612 -493 2066
-601 -488 2049
-591 -486 2039
-583 -484 2034
-584 -490 2060
-577 -489 2059
-580 -498 2094
-570 -494 2081
-562 -492 2075
-554 -491 2072
-555 -498 2099
-544 -493 2082
-540 -496 2095
-533 -495 2090
-525 -494 2087
-518 -492 2082
-516 -497 2103
-506 -493 2087
-501 -494 2093
-492 -492 2084
-488 -495 2097
-482 -495 2099
-491 -510 2165
-564 -594 2520
-566 -604 2564
-521 -564 2397
-464 -510 2167
-456 -507 2156
-462 -521 2219
-404 -463 1970
0 0 0
0 0 0
0 0 0
0 0 0
0 0 0
0 0 0
-298 -381 1627
0 0 0
0 0 0
-642 -858 3664
-636 -866 3699
-674 -933 3985
0 0 0
0 0 0
0 0 0
0 0 0
0 0 0
0 0 0
0 0 0
0 0 0
0 0 0
-52 -90 390
-25 -47 202
-17 -34 148
-8 -18 82
-28 -55 240
-52 -102 441
-70 -139 599
-75 -152 654
-72 -149 642
-75 -160 687
-124 -269 1155
-137 -304 1306
-130 -298 1279
-157 -367 1578
-228 -548 2353
-311 -769 3300
-303 -773 3319
-293 -772 3315
-284 -773 3317
-274 -773 3321
-267 -780 3349
-259 -787 3380
-239 -754 3240
-99 -331 1421
-89 -311 1337
-60 -221 949
-22 -93 402
1 -3 16
-1 -16 71
-46 -211 907
-70 -333 1430
-63 -319 1374
-57 -308 1327
-51 -298 1282
-47 -296 1274
-44 -302 1300
-39 -292 1258
-38 -309 1328
-34 -309 1331
-30 -313 1348
-26 -308 1326
-21 -293 1260
-19 -322 1386
-14 -307 1320
-10 -303 1305
-6 -307 1319
-3 -315 1356
0 -303 1304
4 -316 1359
8 -308 1326
12 -314 1348
16 -302 1300
20 -304 1304
24 -316 1358
27 -306 1316
31 -304 1305
36 -314 1350
41 -322 1383
43 -304 1306
48 -314 1349
50 -303 1301
56 -314 1347
59 -309 1327
63 -310 1328
68 -318 1362
74 -326 1399
78 -324 1391
79 -312 1336
84 -317 1360
88 -317 1356
89 -305 1305
95 -313 1342
102 -323 1384
102 -310 1329
113 -331 1416
110 -312 1334
112 -304 1300
0 0 0
0 0 0
0 0 0
0 0 0
392 -929 3958
0 0 0
0 0 0
0 0 0
0 0 0
301 -618 2630
292 -584 2485
293 -573 2438
293 -559 2379
299 -557 2369
309 -562 2387
318 -565 2400
314 -547 2321
306 -520 2209
266 -442 1876
247 -402 1705
233 -372 1577
238 -372 1576
244 -374 1586
245 -368 1558
244 -359 1521
221 -319 1349
203 -287 1215
184 -255 1080
183 -250 1059
181 -242 1024
184 -243 1028
188 -244 1031
192 -245 1035
196 -247 1040
198 -245 1035
204 -249 1049
209 -251 1059
210 -248 1046
204 -238 1001
215 -247 1037
216 -245 1030
224 -250 1051
220 -243 1018
215 -234 981
224 -240 1005
228 -241 1010
218 -227 951
235 -242 1015
231 -235 984
167 -167 698
167 -164 687
154 -150 626
0 0 0
163 -154 644
130 -121 504
0 0 0
43 -36 152
0 0 0
115 -101 421
46 -38 158
39 -31 132
48 -38 161
127 -108 448
0 0 0
0 0 0
0 0 0
0 0 0
0 0 0
0 0 0
1039 -844 3469
1035 -833 3421
0 0 0
0 0 0
0 0 0
0 0 0
0 0 0
0 0 0
0 0 0
0 0 0
0 0 0
0 0 0
0 0 0
0 0 0
0 0 0
1032 -729 2954
1051 -735 2977
0 0 0
0 0 0
0 0 0
973 -658 2653
1066 -715 2881
1072 -713 2870
1076 -710 2855
1085 -710 2852
1087 -706 2829
1105 -712 2852
1097 -701 2805
1077 -683 2729
1093 -688 2745
1080 -674 2689
1103 -683 2722
1092 -671 2671
1021 -623 2475
1048 -634 2518
1042 -626 2482
1071 -639 2529
1096 -649 2567
1091 -641 2532
1094 -638 2518
1101 -638 2513
1095 -630 2478
1104 -631 2477
1104 -626 2458
1117 -630 2467
1105 -618 2418
1116 -620 2423
1119 -618 2410
1116 -612 2384
1110 -605 2352
1121 -607 2357
1122 -603 2339
1129 -603 2335
1122 -595 2301
1119 -590 2278
1121 -587 2263
1118 -582 2240
1102 -569 2189
1115 -573 2199
1105 -564 2162
1116 -566 2165
1116 -562 2149
1121 -561 2141
1124 -559 2131
1125 -557 2117
1120 -551 2092
1110 -542 2056
1116 -542 2052
1115 -539 2035
1126 -541 2039
1138 -543 2046
1126 -534 2009
1139 -537 2016
1135 -532 1994
1127 -526 1966
-515 -223 869
-489 -213 832
-483 -212 828
-488 -215 843
-484 -215 842
-470 -210 824
-469 -211 828
-476 -215 847
-464 -211 832
-461 -211 831
-465 -214 845
-466 -215 853
-448 -209 827
-480 -225 894
-504 -237 945
-609 -289 1150
-1058 -506 2014
-1081 -520 2075
-1073 -519 2074
-1063 -518 2071
-1055 -517 2071
-1048 -517 2075
-1043 -518 2081
-1034 -517 2078
-1029 -517 2084
-1015 -514 2073
-1009 -514 2076
-1000 -513 2076
-990 -511 2070
-987 -513 2080
-969 -508 2060
-956 -504 2049
-964 -512 2082
-958 -512 2087
-953 -513 2092
-943 -511 2087
-918 -501 2048
-912 -502 2054
-898 -498 2039
-893 -498 2044
-882 -496 2035
-874 -495 2035
-872 -498 2048
-856 -492 2028
-861 -499 2056
-844 -492 2033
-836 -491 2031
-843 -499 2066
-823 -492 2036
-805 -484 2007
-787 -477 1981
-764 -467 1941
-795 -490 2037
-790 -491 2042
-771 -483 2010
-756 -477 1990
-763 -486 2028
-748 -480 2006
-732 -474 1981
-734 -479 2005
-727 -478 2003
-738 -490 2054
-729 -488 2048
-723 -488 2050
-718 -489 2056
-710 -488 2053
-699 -486 2043
-696 -488 2053
-690 -488 2055
-687 -490 2068
-672 -484 2043
-657 -477 2017
-664 -487 2058
-662 -491 2076
-648 -485 2053
-645 -487 2063
-642 -489 2075
-630 -485 2058
-624 -486 2062
-615 -483 2053
-611 -485 2061
-597 -479 2037
-590 -478 2036
-584 -478 2038
-576 -477 2034
-577 -483 2060
-580 -491 2093
-567 -486 2073
-562 -487 2079
-554 -485 2071
-550 -487 2081
-553 -495 2117
-536 -486 2079
-531 -487 2087
-521 -484 2073
-520 -488 2094
-513 -488 2092
-509 -490 2104
-497 -484 2079
-493 -487 2092
-488 -488 2097
-481 -487 2096
-514 -528 2270
-604 -628 2702
-609 -641 2759
-569 -608 2617
-541 -586 2525
-541 -594 2561
-541 -603 2600
-531 -601 2590
-514 -589 2543
-576 -671 2894
-549 -648 2799
-511 -613 2646
-540 -658 2841
-533 -660 2853
-540 -680 2939
-522 -668 2888
-576 -748 3236
-610 -807 3490
-618 -831 3595
-561 -768 3325
-519 -724 3133
-516 -731 3168
-513 -741 3210
-505 -743 3218
-495 -743 3219
-477 -730 3167
-464 -723 3137
-467 -743 3224
-465 -755 3277
-448 -744 3228
-444 -753 3268
-434 -753 3268
-422 -748 3248
-405 -736 3195
-394 -733 3183
-370 -705 3061
-352 -686 2981
-344 -689 2993
-331 -679 2952
-322 -680 2956
-291 -632 2749
-276 -615 2675
-238 -548 2384
-267 -633 2754
-311 -758 3298
-302 -760 3306
-292 -759 3304
-282 -759 3300
-274 -763 3319
-266 -769 3346
-255 -764 3324
-238 -743 3235
-204 -664 2892
-174 -591 2572
0 0 0
0 0 0
-282 -1093 4757
-266 -1083 4714
-150 -652 2840
-134 -617 2688
-117 -573 2494
-103 -536 2333
-69 -392 1709
-49 -305 1328
-43 -292 1274
-43 -319 1389
-39 -313 1366
-33 -297 1294
-29 -299 1305
-25 -293 1276
-23 -317 1381
-17 -295 1284
-15 -312 1361
-10 -309 1346
-7 -315 1374
-2 -287 1250
1 -296 1291
4 -317 1379
8 -313 1362
