VERSION 0.7
FIELDS x y z
SIZE 4 4 4
TYPE I I I
COUNT 1 1 1
WIDTH 3570
HEIGHT 1
VIEWPOINT 0.0 0.0 0.0 1.0 0.0 0.0 0.0
POINTS 3570
DATA ascii
-8 -162 1243
-5 -167 1279
-1 -161 1230
1 -170 1303
5 -169 1296
9 -166 1269
12 -167 1274
16 -166 1267
20 -165 1263
23 -165 1258
27 -163 1249
32 -171 1305
33 -160 1225
38 -165 1260
43 -172 1312
47 -170 1297
49 -166 1264
51 -159 1213
59 -172 1314
59 -163 1244
68 -178 1355
65 -161 1224
73 -170 1293
76 -169 1291
85 -180 1368
86 -175 1334
86 -166 1263
95 -177 1346
96 -171 1300
97 -166 1265
104 -172 1309
106 -169 1282
102 -156 1189
0 0 0
0 0 0
0 0 0
0 0 0
0 0 0
231 -300 2267
183 -230 1740
193 -236 1782
0 0 0
0 0 0
0 0 0
166 -182 1379
194 -209 1576
203 -213 1611
180 -184 1392
194 -195 1471
181 -177 1336
167 -160 1208
166 -155 1172
153 -140 1059
160 -144 1085
154 -135 1020
156 -135 1014
154 -130 982
159 -132 995
162 -132 997
166 -133 1002
173 -136 1025
175 -135 1018
177 -135 1015
179 -134 1009
186 -138 1032
190 -138 1037
190 -136 1020
191 -134 1006
200 -138 1037
196 -134 1001
204 -137 1027
206 -136 1019
207 -135 1010
217 -140 1043
221 -141 1050
219 -138 1026
210 -130 966
220 -134 1000
225 -136 1009
218 -129 961
215 -126 935
204 -118 875
180 -102 760
132 -73 546
147 -81 604
0 0 0
117 -62 464
0 0 0
0 0 0
0 0 0
103 -52 386
49 -22 174
1272 -660 4826
11 -2 26
49 -22 168
77 -35 267
53 -23 177
0 0 0
0 0 0
0 0 0
0 0 0
0 0 0
0 0 0
0 0 0
0 0 0
0 0 0
0 0 0
0 0 0
0 0 0
0 0 0
0 0 0
0 0 0
0 0 0
0 0 0
0 0 0
0 0 0
0 0 0
0 0 0
0 0 0
0 0 0
0 0 0
0 0 0
0 0 0
1038 -400 2846
1057 -404 2872
1068 -405 2875
1076 -404 2871
1092 -407 2887
1094 -405 2866
1096 -403 2847
1091 -397 2807
1083 -391 2763
1092 -392 2761
1097 -391 2750
1111 -393 2760
1107 -388 2727
1097 -382 2679
1103 -381 2671
1102 -378 2646
1092 -372 2599
1085 -367 2561
1101 -370 2577
1099 -366 2551
1103 -365 2537
1105 -363 2522
1105 -360 2500
1102 -357 2474
1084 -349 2413
1112 -355 2455
1103 -350 2416
1113 -351 2419
1096 -343 2362
1104 -343 2359
1109 -343 2353
1110 -341 2336
1101 -336 2298
1099 -333 2277
1103 -332 2266
1112 -333 2267
1103 -328 2231
1104 -326 2216
1109 -326 2209
1106 -323 2185
1113 -323 2182
1111 -320 2162
1119 -321 2160
1120 -319 2147
1124 -318 2138
1115 -314 2105
1112 -311 2082
1120 -312 2082
1117 -309 2061
1115 -307 2042
1116 -305 2028
1116 -303 2013
1113 -301 1994
1116 -300 1984
-486 -117 839
-472 -115 821
-485 -118 850
-476 -117 840
-479 -118 851
-463 -115 828
-460 -115 830
-468 -118 850
-477 -121 873
-466 -119 860
-493 -126 917
-490 -126 917
-534 -139 1008
-949 -249 1803
-1085 -286 2077
-1084 -288 2091
-1077 -288 2094
-1068 -287 2091
-1058 -286 2088
-1054 -287 2097
-1039 -285 2083
-1034 -286 2090
-1026 -285 2089
-1017 -284 2086
-1007 -284 2083
-999 -283 2082
-985 -281 2068
-969 -278 2051
-972 -281 2075
-971 -283 2090
-964 -283 2090
-956 -282 2090
-953 -283 2099
-943 -282 2094
-933 -281 2089
-909 -276 2053
-899 -275 2046
-893 -275 2051
-886 -275 2052
-878 -275 2049
-879 -277 2068
-872 -277 2069
-851 -272 2038
-858 -276 2071
-840 -273 2044
-845 -276 2074
-831 -274 2058
-819 -272 2045
-806 -270 2031
-797 -269 2027
-808 -275 2073
-792 -272 2049
-760 -263 1983
-763 -266 2010
-772 -271 2052
-769 -272 2063
-751 -268 2032
-749 -270 2047
-743 -270 2049
-728 -267 2026
-714 -264 2007
-722 -269 2047
-725 -273 2074
-723 -275 2091
-713 -273 2081
-708 -274 2085
-703 -274 2092
-691 -272 2074
-676 -268 2050
-652 -261 1999
-665 -269 2058
-660 -270 2063
-649 -268 2050
-648 -270 2067
-646 -272 2082
-642 -273 2092
-634 -272 2086
-623 -270 2073
-615 -269 2068
-613 -271 2084
-601 -269 2066
-601 -272 2090
-592 -270 2079
-591 -272 2098
-580 -270 2082
-571 -269 2075
-565 -269 2077
-566 -273 2105
-556 -271 2091
-552 -272 2100
-544 -271 2096
-539 -272 2102
-531 -271 2096
-526 -272 2103
-518 -271 2097
-513 -271 2102
-506 -271 2101
-503 -273 2113
-496 -273 2113
-491 -273 2119
-472 -266 2065
-454 -259 2012
-428 -248 1924
-431 -252 1961
-434 -258 2002
-402 -243 1886
-403 -246 1914
-375 -232 1808
-398 -250 1949
0 0 0
-346 -224 1747
-285 -187 1460
-250 -167 1303
-249 -169 1319
-254 -175 1365
-215 -151 1180
-184 -131 1029
-735 -531 4129
-706 -518 4032
-707 -528 4108
-738 -561 4363
-809 -626 4868
-808 -636 4952
-796 -638 4967
2 1 -4
-766 -637 4963
-749 -636 4952
-736 -637 4963
2 1 -5
-13 -12 105
-20 -19 159
-14 -14 118
-10 -10 92
-13 -14 121
-11 -13 109
-27 -29 236
-101 -108 848
-138 -150 1179
-127 -141 1108
-120 -137 1077
-115 -136 1067
-113 -137 1078
-114 -142 1114
-119 -152 1195
-135 -178 1394
-186 -251 1964
-278 -385 3006
0 0 0
-96 -144 1132
-101 -157 1229
-95 -153 1204
-82 -138 1084
-69 -120 948
-53 -97 768
-72 -137 1074
-78 -154 1206
-79 -162 1271
-69 -150 1177
-55 -126 994
-31 -78 616
-24 -66 520
-53 -144 1129
-54 -156 1225
-54 -165 1292
-47 -156 1223
-46 -163 1276
-42 -162 1267
-38 -162 1269
-32 -150 1177
-31 -164 1285
-25 -154 1205
-23 -162 1270
-19 -160 1251
-16 -158 1240
-12 -157 1228
-9 -165 1293
-5 -163 1273
-1 -158 1235
1 -166 1301
5 -161 1261
9 -160 1250
13 -165 1294
16 -161 1260
20 -162 1268
24 -164 1280
28 -165 1294
32 -169 1320
35 -164 1280
37 -159 1239
41 -158 1236
48 -170 1330
48 -157 1223
53 -164 1280
57 -165 1287
60 -162 1267
63 -160 1247
69 -166 1294
71 -161 1253
77 -168 1311
76 -157 1226
81 -160 1244
94 -178 1385
96 -174 1354
95 -165 1283
104 -175 1357
99 -160 1242
106 -165 1280
98 -147 1145
0 0 0
0 0 0
0 0 0
0 0 0
0 0 0
0 0 0
0 0 0
0 0 0
0 0 0
0 0 0
0 0 0
181 -195 1508
181 -190 1466
204 -210 1620
187 -188 1451
184 -181 1395
178 -170 1314
170 -159 1225
180 -165 1276
164 -147 1132
151 -133 1024
152 -131 1011
154 -130 1003
158 -131 1010
161 -131 1009
164 -131 1007
170 -133 1026
172 -133 1020
177 -134 1033
177 -131 1011
182 -134 1025
183 -132 1015
186 -132 1012
194 -135 1037
196 -135 1035
198 -134 1026
205 -137 1049
205 -135 1031
206 -133 1020
208 -133 1014
216 -136 1037
216 -134 1026
224 -137 1047
216 -131 997
213 -127 968
232 -136 1039
221 -129 978
233 -134 1018
227 -128 976
190 -106 803
153 -83 636
97 -51 392
0 0 0
128 -67 508
82 -41 318
114 -57 440
74 -36 278
45 -20 160
40 -18 140
1277 -648 4846
8 -1 16
10 -2 24
67 -30 232
0 0 0
0 0 0
0 0 0
0 0 0
0 0 0
0 0 0
0 0 0
0 0 0
0 0 0
0 0 0
0 0 0
0 0 0
0 0 0
0 0 0
0 0 0
0 0 0
0 0 0
0 0 0
0 0 0
0 0 0
995 -398 2918
1060 -420 3079
0 0 0
0 0 0
0 0 0
0 0 0
0 0 0
1040 -392 2853
1063 -397 2888
1071 -397 2885
1077 -396 2875
1088 -397 2877
1091 -395 2860
1093 -393 2840
1086 -387 2797
1090 -385 2780
1090 -383 2757
1095 -382 2747
1097 -379 2727
1086 -372 2675
1094 -372 2672
1082 -366 2620
1088 -365 2613
1081 -360 2573
1094 -362 2583
1106 -363 2588
1097 -358 2546
1090 -353 2510
1088 -350 2483
1111 -355 2516
1107 -351 2486
1080 -340 2405
1096 -343 2421
1107 -344 2425
1104 -341 2399
1085 -332 2338
1096 -334 2345
1097 -332 2327
1085 -326 2284
1104 -330 2306
1107 -328 2293
1093 -322 2246
1112 -326 2267
1118 -325 2263
1105 -320 2219
1089 -313 2170
1102 -315 2179
1108 -315 2174
1116 -315 2173
1106 -310 2137
1113 -310 2133
1111 -308 2113
1105 -304 2086
1114 -305 2088
1115 -304 2074
1110 -300 2048
1118 -301 2047
1110 -297 2017
1119 -298 2020
1128 -298 2021
1111 -292 1975
-482 -114 832
-483 -115 841
-477 -114 836
-472 -113 833
-467 -112 829
-475 -115 851
-470 -115 849
-466 -114 846
-475 -117 870
-463 -115 855
-483 -121 897
-467 -118 876
-540 -137 1019
-966 -247 1836
-1087 -280 2082
-1082 -281 2089
-1075 -281 2090
-1065 -280 2088
-1059 -280 2091
-1050 -279 2089
-1042 -279 2090
-1035 -279 2091
-1023 -278 2083
-1018 -278 2089
-1006 -277 2081
-999 -277 2083
-977 -272 2052
-975 -274 2064
-982 -277 2096
-976 -278 2100
-966 -277 2095
-955 -276 2088
-951 -276 2096
-948 -277 2106
-928 -273 2078
-905 -268 2044
-910 -272 2072
-896 -270 2058
-897 -272 2078
-869 -265 2028
-873 -269 2056
-856 -265 2032
-854 -267 2044
-854 -269 2062
-850 -269 2069
-844 -270 2073
-831 -268 2060
-825 -268 2063
-806 -264 2033
-801 -264 2037
-805 -268 2066
-793 -266 2054
-745 -252 1946
-774 -263 2039
-778 -267 2068
-773 -267 2073
-758 -264 2051
-752 -265 2054
-746 -265 2058
-727 -260 2023
-726 -262 2039
-734 -267 2082
-722 -265 2067
-718 -266 2075
-723 -271 2111
-709 -268 2090
-706 -269 2102
-693 -267 2083
-668 -259 2027
-669 -262 2050
-673 -266 2083
-659 -263 2060
-646 -260 2042
-644 -262 2055
-649 -267 2094
-644 -267 2100
-636 -266 2094
-621 -263 2066
-613 -262 2063
-609 -263 2072
-604 -263 2075
-597 -263 2074
-594 -265 2089
-590 -266 2098
-579 -264 2080
-578 -266 2102
-571 -266 2098
-564 -265 2096
-559 -266 2105
-550 -265 2095
-544 -265 2095
-536 -264 2092
-528 -263 2086
-531 -268 2122
-520 -266 2106
-510 -264 2091
-508 -266 2108
-503 -267 2116
-493 -265 2100
-487 -265 2103
-473 -260 2067
-453 -253 2010
-426 -241 1916
-442 -253 2015
-408 -237 1884
-425 -250 1993
-416 -248 1978
-401 -243 1933
-394 -242 1930
-326 -203 1620
0 0 0
-324 -208 1659
-267 -174 1394
-271 -180 1437
-226 -152 1220
-242 -165 1322
0 0 0
-727 -514 4089
-709 -509 4052
-701 -512 4078
-743 -552 4398
-811 -613 4883
-811 -624 4970
-795 -623 4966
-779 -622 4957
-767 -624 4970
-752 -624 4970
-738 -624 4972
-724 -624 4978
-8 -8 74
-28 -26 219
-20 -20 167
-13 -13 116
-10 -11 95
-12 -13 112
-24 -26 215
-122 -127 1021
-133 -141 1135
-120 -131 1054
-116 -130 1044
-112 -129 1035
-115 -135 1089
-111 -135 1086
-122 -153 1227
-126 -162 1304
-189 -249 1996
-269 -365 2920
-347 -485 3875
0 0 0
-93 -141 1133
-86 -136 1095
-73 -119 961
-58 -99 803
-72 -128 1032
-75 -138 1112
-79 -153 1226
-77 -154 1241
-74 -155 1248
-54 -121 972
-25 -63 512
-27 -71 576
-54 -143 1149
-53 -150 1203
-51 -152 1222
-47 -151 1210
-46 -159 1276
-44 -165 1326
-37 -153 1230
-34 -155 1244
-30 -153 1226
-27 -156 1254
-24 -161 1289
-20 -164 1312
-16 -158 1264
-12 -158 1269
-8 -156 1249
-5 -159 1276
-1 -153 1226
1 -161 1290
5 -161 1289
9 -161 1286
13 -161 1289
16 -157 1254
20 -159 1276
24 -163 1304
28 -163 1304
31 -157 1257
33 -151 1209
38 -159 1275
45 -172 1375
46 -159 1268
52 -167 1334
52 -155 1240
59 -165 1317
60 -158 1263
63 -155 1238
68 -161 1283
75 -168 1338
72 -153 1223
76 -153 1219
85 -164 1306
89 -165 1314
96 -170 1354
95 -162 1287
99 -162 1292
102 -161 1280
111 -170 1348
0 0 0
0 0 0
0 0 0
0 0 0
0 0 0
0 0 0
0 0 0
0 0 0
0 0 0
0 0 0
0 0 0
0 0 0
182 -192 1518
214 -221 1742
205 -206 1628
193 -189 1494
178 -170 1344
183 -171 1353
180 -165 1306
171 -153 1209
160 -140 1107
158 -136 1072
156 -131 1035
155 -127 1006
156 -126 995
161 -128 1009
163 -127 1001
168 -129 1014
170 -128 1005
177 -131 1034
178 -130 1022
181 -130 1022
185 -131 1026
189 -131 1029
192 -131 1028
195 -131 1030
200 -133 1040
204 -133 1046
206 -133 1038
204 -129 1009
209 -131 1021
212 -130 1019
222 -135 1054
222 -133 1037
223 -132 1028
220 -128 1001
221 -127 993
230 -131 1019
218 -122 948
219 -121 943
182 -99 770
134 -71 556
94 -48 378
106 -54 425
150 -77 601
109 -54 427
153 -76 596
106 -52 405
0 0 0
0 0 0
11 -2 26
3 1 -2
22 -8 67
38 -15 127
83 -36 286
0 0 0
0 0 0
0 0 0
0 0 0
0 0 0
0 0 0
0 0 0
0 0 0
0 0 0
0 0 0
0 0 0
0 0 0
0 0 0
0 0 0
0 0 0
0 0 0
0 0 0
0 0 0
0 0 0
1038 -406 3043
1049 -407 3047
0 0 0
0 0 0
0 0 0
0 0 0
0 0 0
1012 -373 2778
1047 -383 2848
1064 -386 2868
1077 -387 2876
1082 -386 2861
1097 -388 2876
1084 -381 2817
1088 -379 2803
1094 -378 2792
1073 -368 2714
1081 -368 2711
1083 -366 2693
1091 -366 2690
1093 -364 2670
1083 -358 2624
1086 -356 2607
1095 -357 2608
1074 -347 2536
1092 -350 2556
1101 -351 2556
1086 -344 2500
1086 -341 2481
1087 -339 2461
1099 -341 2468
1075 -331 2394
1046 -320 2311
1074 -326 2354
1080 -326 2349
1070 -321 2307
1067 -318 2283
1075 -318 2280
1082 -318 2279
1067 -312 2229
1115 -324 2312
1096 -316 2254
1096 -314 2235
1104 -314 2235
1091 -308 2191
1094 -307 2180
1104 -308 2182
1109 -308 2177
1115 -308 2171
1117 -306 2159
1116 -304 2139
1110 -301 2113
1109 -299 2094
1113 -298 2086
1119 -298 2081
1113 -294 2054
1120 -295 2053
1116 -292 2030
1124 -292 2030
1122 -290 2010
1116 -287 1985
-492 -113 850
-482 -111 839
-466 -108 817
-480 -112 848
-470 -111 836
-467 -111 837
-465 -111 839
-464 -111 843
-466 -112 854
-479 -116 884
-484 -118 901
-493 -121 925
-555 -138 1049
-989 -247 1882
-1087 -274 2082
-1081 -274 2088
-1071 -273 2085
-1064 -273 2085
-1056 -273 2086
-1050 -273 2091
-1042 -273 2090
-1034 -272 2090
-1024 -271 2087
-1013 -270 2081
-1007 -270 2084
-998 -270 2082
-981 -267 2063
-981 -269 2079
-978 -270 2089
-969 -269 2085
-967 -270 2098
-958 -270 2095
-950 -270 2095
-945 -270 2102
-925 -266 2073
-908 -263 2053
-900 -263 2051
-893 -262 2051
-890 -263 2061
-886 -264 2070
-869 -261 2048
-854 -259 2029
-853 -260 2042
-844 -259 2038
-838 -260 2043
-841 -263 2068
-827 -260 2051
-819 -260 2049
-804 -257 2027
-807 -260 2053
-813 -264 2086
-791 -259 2049
-737 -243 1925
-758 -252 1998
-772 -259 2055
-769 -260 2065
-765 -261 2073
-757 -260 2069
-751 -260 2072
-727 -254 2026
-727 -256 2044
-725 -258 2057
-720 -259 2064
-722 -262 2089
-716 -262 2091
-707 -261 2085
-702 -261 2091
-687 -258 2065
-675 -256 2049
-669 -256 2053
-667 -257 2066
-651 -254 2036
-645 -254 2039
-643 -255 2053
-646 -259 2083
-645 -261 2102
-636 -260 2094
-622 -257 2071
-617 -258 2076
-609 -257 2073
-602 -257 2070
-600 -259 2087
-601 -262 2114
-589 -259 2095
-576 -256 2070
-573 -257 2082
-572 -260 2102
-567 -261 2110
-559 -260 2103
-549 -258 2092
-545 -259 2102
-537 -258 2096
-528 -257 2085
-524 -258 2097
-521 -260 2109
-515 -260 2109
-506 -258 2100
-497 -257 2088
-493 -258 2099
-485 -257 2093
-478 -257 2090
-446 -243 1976
-421 -232 1892
-399 -223 1821
-416 -236 1924
-411 -237 1929
-385 -225 1832
-397 -235 1918
-375 -225 1839
-338 -206 1681
0 0 0
0 0 0
-267 -170 1392
-243 -157 1288
-233 -153 1258
-230 -154 1260
0 0 0
-709 -489 3990
-704 -494 4028
-705 -503 4103
-747 -542 4420
-814 -601 4903
-808 -607 4955
-793 -607 4955
-778 -606 4949
-766 -609 4969
-749 -607 4955
-737 -609 4974
-722 -609 4969
0 0 9
-20 -18 162
-11 -11 97
-12 -12 112
-10 -11 99
-9 -9 87
-29 -30 255
-113 -115 948
-126 -131 1076
-109 -116 956
-123 -135 1109
-121 -136 1118
-116 -133 1099
-124 -147 1213
-128 -156 1281
-135 -169 1392
-194 -250 2049
-274 -363 2972
-351 -479 3916
0 0 0
-86 -128 1054
-66 -103 849
-63 -102 842
-74 -123 1014
-83 -144 1184
-77 -138 1140
-75 -141 1165
-77 -152 1247
-67 -139 1148
-51 -111 917
-19 -46 389
-33 -83 686
-56 -143 1180
-54 -147 1212
-50 -148 1215
-48 -152 1253
-45 -153 1254
-41 -151 1245
-35 -143 1175
-33 -149 1224
-31 -157 1293
-25 -146 1202
-24 -159 1302
-20 -158 1301
-17 -160 1310
-12 -150 1234
-8 -151 1239
-5 -152 1244
-1 -151 1243
1 -153 1252
5 -150 1232
9 -155 1270
13 -156 1280
16 -148 1211
20 -156 1283
24 -155 1269
28 -158 1295
32 -158 1298
35 -156 1275
38 -154 1260
41 -152 1245
47 -158 1297
50 -158 1292
53 -155 1265
56 -154 1261
63 -161 1319
66 -160 1307
70 -161 1315
68 -148 1209
74 -153 1252
77 -152 1243
90 -170 1383
86 -155 1269
92 -160 1304
100 -167 1362
98 -157 1280
105 -162 1319
103 -153 1249
0 0 0
0 0 0
0 0 0
0 0 0
0 0 0
0 0 0
0 0 0
0 0 0
0 0 0
0 0 0
0 0 0
182 -192 1556
190 -196 1585
218 -220 1779
208 -204 1650
182 -174 1407
181 -169 1366
190 -174 1404
182 -163 1317
193 -170 1370
171 -147 1186
165 -138 1119
160 -132 1064
158 -127 1030
162 -128 1032
167 -129 1045
169 -128 1037
174 -131 1053
176 -130 1046
180 -130 1049
181 -129 1037
185 -130 1044
190 -131 1052
193 -131 1054
195 -130 1047
202 -133 1066
208 -135 1081
207 -132 1058
213 -134 1072
213 -132 1058
218 -133 1065
221 -133 1063
224 -133 1064
222 -130 1039
217 -125 1000
216 -123 983
222 -125 997
230 -128 1019
238 -131 1040
231 -125 994
183 -97 776
0 0 0
0 0 0
102 -51 409
0 0 0
99 -48 387
145 -71 565
74 -34 279
117 -55 440
117 -55 438
13 -3 34
9 -1 20
28 -10 89
35 -13 113
0 0 0
0 0 0
0 0 0
0 0 0
0 0 0
0 0 0
0 0 0
0 0 0
0 0 0
0 0 0
0 0 0
0 0 0
0 0 0
0 0 0
0 0 0
0 0 0
0 0 0
0 0 0
0 0 0
0 0 0
1038 -396 3044
1046 -396 3039
1041 -391 2994
0 0 0
0 0 0
0 0 0
0 0 0
999 -360 2741
1057 -377 2874
1064 -377 2867
1071 -376 2860
1076 -375 2848
1080 -373 2831
1103 -378 2866
1091 -372 2811
1091 -369 2786
1085 -364 2746
1073 -357 2693
1077 -356 2679
1060 -348 2614
1074 -349 2625
1071 -346 2594
1090 -349 2618
1085 -345 2583
1071 -338 2529
1084 -340 2540
1072 -334 2490
1065 -329 2452
1036 -318 2366
1042 -318 2361
1063 -322 2388
1084 -326 2416
1055 -315 2331
1061 -315 2325
1103 -325 2399
1043 -305 2250
1083 -315 2318
1069 -309 2269
1056 -303 2224
1036 -295 2164
1101 -312 2283
1096 -309 2254
1109 -311 2264
1105 -307 2237
1101 -304 2211
1099 -302 2191
1107 -302 2189
1102 -299 2163
1104 -298 2150
1113 -298 2152
1119 -298 2148
1111 -294 2114
1117 -294 2111
1114 -292 2089
1127 -293 2098
1125 -291 2077
1122 -288 2057
1129 -288 2053
1127 -286 2036
1128 -285 2022
1118 -281 1990
-475 -107 821
-490 -110 852
-483 -110 846
-481 -110 850
-479 -110 852
-467 -108 837
-463 -107 836
-474 -111 863
-478 -112 875
-471 -112 871
-486 -116 905
-482 -115 903
-564 -136 1065
-1021 -249 1942
-1090 -268 2090
-1081 -267 2089
-1075 -267 2093
-1063 -266 2085
-1056 -266 2087
-1050 -266 2091
-1044 -266 2095
-1029 -264 2081
-1026 -265 2092
-1015 -264 2084
-1006 -264 2083
-991 -262 2069
-981 -261 2064
-986 -264 2090
-980 -264 2095
-972 -264 2094
-963 -263 2090
-959 -264 2099
-951 -263 2098
-942 -263 2096
-924 -259 2073
-903 -255 2041
-898 -256 2048
-894 -256 2054
-888 -257 2058
-879 -256 2054
-868 -255 2046
-847 -250 2012
-845 -251 2025
-852 -255 2058
-848 -256 2067
-834 -254 2051
-839 -257 2079
-825 -255 2065
-802 -250 2022
-795 -250 2024
-797 -253 2048
-796 -254 2063
-743 -239 1942
-767 -249 2024
-782 -256 2081
-770 -254 2067
-770 -256 2087
-759 -255 2076
-745 -252 2057
-724 -247 2018
-721 -248 2028
-731 -254 2075
-724 -254 2075
-717 -253 2073
-714 -255 2085
-712 -256 2101
-705 -256 2100
-686 -251 2063
-677 -250 2058
-676 -252 2074
-671 -253 2078
-658 -250 2060
-644 -247 2036
-642 -249 2052
-649 -254 2096
-640 -253 2087
-629 -251 2074
-625 -252 2081
-614 -250 2067
-608 -250 2068
-601 -250 2069
-595 -250 2070
-596 -253 2097
-589 -253 2095
-584 -253 2099
-577 -253 2099
-571 -253 2101
-563 -253 2098
-556 -252 2096
-555 -254 2113
-546 -254 2106
-537 -252 2096
-532 -253 2101
-526 -253 2104
-517 -251 2093
-517 -255 2122
-505 -252 2100
-501 -253 2107
-493 -252 2102
-488 -253 2109
-475 -249 2081
-436 -232 1935
-421 -227 1892
-414 -226 1888
-409 -226 1891
-399 -224 1871
-382 -218 1820
-398 -230 1920
-344 -201 1687
-318 -189 1584
-352 -213 1780
-305 -187 1568
-269 -167 1402
-288 -182 1523
-257 -165 1384
-234 -153 1284
0 0 0
-702 -473 3949
-703 -481 4020
-708 -493 4121
-747 -529 4422
-816 -588 4918
-809 -593 4961
-795 -594 4966
-780 -594 4967
-766 -595 4972
-748 -592 4951
-736 -594 4968
2 1 -3
-7 -7 69
-10 -10 92
-15 -14 127
-14 -14 125
-10 -10 93
-9 -10 92
-20 -20 179
-111 -109 926
-127 -129 1088
-116 -121 1023
-121 -129 1091
-118 -129 1091
-115 -129 1089
-115 -134 1128
-125 -149 1256
-123 -151 1275
-198 -249 2093
-300 -388 3253
-355 -474 3970
-399 -549 4600
-36 -54 460
-80 -120 1017
-82 -127 1074
-87 -141 1188
-90 -152 1282
-84 -148 1249
-83 -151 1277
-76 -145 1225
-60 -122 1033
-42 -91 770
-21 -51 441
-41 -98 829
-59 -148 1249
-54 -144 1216
-51 -145 1226
-49 -149 1259
-42 -141 1192
-41 -150 1265
-36 -142 1194
-32 -140 1184
-30 -149 1252
-27 -152 1279
-24 -152 1282
-20 -151 1274
-16 -152 1279
-12 -148 1248
-8 -149 1255
-5 -146 1227
-2 -163 1368
1 -151 1271
5 -149 1254
9 -152 1281
13 -162 1358
16 -151 1267
19 -147 1232
24 -153 1286
27 -148 1243
30 -147 1237
34 -149 1249
38 -150 1261
43 -156 1311
44 -147 1236
50 -152 1278
53 -150 1261
58 -155 1300
59 -149 1247
65 -154 1289
67 -149 1247
73 -155 1301
71 -144 1204
81 -157 1311
84 -154 1287
88 -155 1299
92 -156 1307
99 -161 1341
92 -143 1198
104 -157 1307
105 -152 1272
102 -142 1188
0 0 0
0 0 0
0 0 0
0 0 0
360 -441 3654
356 -424 3512
291 -336 2780
220 -245 2034
198 -215 1780
209 -222 1838
193 -199 1652
200 -202 1671
222 -218 1805
212 -204 1688
194 -181 1504
195 -179 1481
191 -171 1413
212 -186 1536
247 -213 1756
275 -233 1919
272 -226 1861
216 -175 1445
203 -160 1325
197 -153 1261
202 -154 1268
200 -150 1237
198 -146 1202
198 -143 1177
198 -140 1157
205 -143 1179
202 -138 1138
210 -142 1165
210 -140 1148
211 -138 1133
221 -142 1170
228 -144 1186
226 -141 1159
227 -140 1147
231 -140 1148
236 -141 1153
231 -136 1114
235 -136 1115
243 -139 1137
228 -129 1053
221 -123 1004
233 -128 1046
229 -124 1015
222 -119 968
210 -111 903
181 -94 765
145 -73 600
134 -67 546
113 -55 454
0 0 0
106 -50 412
143 -68 556
92 -42 349
117 -54 441
49 -21 175
23 -8 71
15 -4 43
7 0 13
56 -23 191
0 0 0
0 0 0
0 0 0
0 0 0
0 0 0
0 0 0
0 0 0
0 0 0
0 0 0
0 0 0
0 0 0
0 0 0
0 0 0
0 0 0
0 0 0
0 0 0
0 0 0
0 0 0
0 0 0
0 0 0
0 0 0
1026 -379 2980
971 -356 2793
0 0 0
0 0 0
0 0 0
0 0 0
1034 -363 2838
1054 -368 2868
1062 -367 2862
1076 -369 2873
1078 -367 2853
1085 -367 2846
1069 -358 2779
1086 -361 2797
1080 -357 2759
1062 -348 2688
1080 -351 2711
1046 -337 2600
1092 -350 2693
1024 -325 2503
1048 -331 2540
1070 -335 2571
1064 -331 2536
1063 -328 2512
1072 -329 2512
1070 -326 2486
1038 -313 2391
1057 -317 2414
1047 -312 2371
1074 -318 2413
1136 -334 2532
1052 -307 2327
1043 -302 2288
1010 -291 2197
1074 -307 2318
1029 -292 2202
1059 -299 2249
1095 -307 2306
1107 -308 2313
1109 -307 2300
1094 -301 2251
1108 -303 2262
1097 -298 2222
1107 -299 2225
1094 -293 2181
1104 -294 2185
1109 -294 2178
1105 -291 2153
1115 -292 2156
1121 -292 2150
1119 -290 2131
1119 -288 2115
1126 -288 2112
1126 -286 2096
1125 -284 2079
1127 -283 2067
1131 -283 2059
1125 -279 2032
1130 -279 2027
1132 -278 2015
-484 -106 836
-479 -105 833
-483 -107 847
-476 -106 842
-461 -103 820
-465 -105 834
-464 -105 839
-474 -108 863
-478 -110 877
-479 -110 885
-479 -111 892
-471 -110 883
-573 -135 1083
-1030 -245 1961
-1088 -261 2087
-1082 -261 2091
-1073 -260 2090
-1069 -261 2097
-1054 -259 2085
-1050 -260 2093
-1039 -259 2085
-1029 -258 2081
-1024 -258 2088
-1017 -258 2090
-1007 -257 2087
-991 -255 2069
-990 -256 2083
-991 -258 2101
-977 -257 2089
-974 -257 2098
-964 -256 2093
-956 -256 2094
-948 -256 2092
-945 -257 2102
-930 -254 2085
-906 -250 2050
-894 -248 2040
-889 -249 2045
-891 -251 2066
-880 -250 2056
-867 -248 2044
-852 -245 2024
-847 -246 2030
-847 -248 2048
-853 -251 2079
-837 -249 2059
-835 -250 2071
-826 -249 2066
-804 -244 2030
-803 -246 2045
-797 -246 2046
-793 -247 2054
-753 -236 1970
-771 -244 2034
-772 -246 2056
-767 -247 2061
-766 -248 2076
-757 -248 2071
-742 -245 2049
-732 -244 2041
-727 -244 2044
-722 -244 2049
-724 -247 2077
-717 -247 2076
-715 -249 2091
-712 -250 2100
-705 -249 2099
-693 -247 2084
-667 -241 2027
-677 -246 2077
-671 -246 2079
-660 -245 2065
-648 -243 2050
-654 -247 2090
-650 -248 2099
-640 -247 2089
-632 -246 2082
-622 -245 2072
-615 -244 2071
-607 -244 2067
-600 -243 2066
-604 -248 2101
-596 -247 2096
-594 -249 2115
-578 -245 2081
-574 -246 2088
-568 -246 2091
-565 -247 2103
-554 -245 2089
-553 -247 2107
-543 -246 2097
-537 -246 2098
-529 -245 2092
-524 -246 2098
-517 -245 2094
-513 -246 2103
-505 -246 2100
-501 -247 2110
-500 -250 2133
-488 -247 2108
-475 -243 2080
-449 -233 1992
-442 -232 1987
-402 -214 1835
-427 -231 1977
-411 -225 1930
-408 -227 1943
-387 -218 1870
-353 -202 1731
-322 -187 1603
-325 -191 1641
0 0 0
-263 -159 1371
-228 -141 1213
-261 -163 1407
-250 -159 1368
0 0 0
-722 -474 4063
-704 -470 4030
-705 -479 4104
-755 -522 4471
-816 -574 4918
-809 -579 4965
-796 -581 4978
-781 -580 4971
-763 -578 4954
-752 -580 4975
-737 -580 4975
-723 -581 4980
-4 -4 49
-13 -12 111
-8 -8 80
-9 -9 86
-8 -8 82
-10 -10 98
-27 -26 236
-111 -108 934
-143 -142 1225
-123 -124 1076
-113 -118 1021
-118 -126 1091
-113 -124 1076
-120 -136 1176
-116 -135 1165
-125 -149 1289
0 0 0
-335 -422 3624
-381 -496 4257
-415 -557 4786
-66 -95 822
-95 -139 1202
-92 -139 1205
-88 -139 1204
-90 -147 1275
-81 -140 1208
-81 -145 1257
-72 -136 1175
-59 -117 1014
-29 -62 544
-21 -49 435
-54 -125 1083
-59 -144 1243
-55 -144 1245
-51 -142 1227
-45 -135 1164
-41 -134 1159
-41 -146 1265
-38 -146 1259
-33 -144 1242
-31 -147 1271
-25 -140 1206
-23 -145 1254
-20 -147 1270
-15 -143 1237
-12 -149 1282
-8 -143 1238
-5 -145 1252
-1 -145 1251
2 -148 1274
5 -145 1250
9 -150 1294
13 -149 1286
16 -147 1267
20 -146 1260
23 -143 1228
28 -152 1311
31 -146 1257
35 -148 1275
38 -148 1277
42 -148 1277
47 -152 1311
49 -147 1264
53 -147 1266
57 -147 1267
63 -154 1320
62 -143 1227
72 -158 1355
71 -147 1260
77 -152 1302
81 -153 1311
85 -152 1307
84 -144 1237
92 -151 1294
97 -154 1318
97 -148 1270
103 -152 1300
103 -147 1255
0 0 0
0 0 0
0 0 0
0 0 0
335 -413 3508
338 -405 3435
337 -391 3321
0 0 0
243 -265 2255
200 -212 1798
224 -232 1973
216 -218 1853
219 -215 1825
223 -214 1814
219 -205 1744
217 -199 1685
210 -188 1596
213 -187 1583
234 -201 1703
273 -230 1945
297 -245 2072
302 -245 2069
290 -230 1945
303 -236 1989
304 -232 1958
306 -229 1935
306 -225 1900
314 -227 1912
316 -224 1889
318 -222 1872
322 -221 1862
335 -226 1904
340 -226 1899
304 -199 1669
293 -188 1581
294 -186 1562
298 -185 1556
304 -186 1563
307 -185 1553
266 -158 1326
264 -154 1295
296 -171 1433
307 -175 1465
278 -156 1303
252 -139 1166
249 -135 1133
250 -134 1125
234 -124 1036
226 -118 985
222 -114 954
187 -94 791
132 -65 546
150 -73 613
130 -62 524
150 -71 599
116 -54 454
178 -83 697
56 -24 208
138 -62 523
68 -29 246
18 -5 54
1274 -582 4781
20 -6 60
68 -27 234
0 0 0
0 0 0
0 0 0
0 0 0
0 0 0
0 0 0
0 0 0
0 0 0
0 0 0
0 0 0
0 0 0
0 0 0
0 0 0
0 0 0
0 0 0
0 0 0
0 0 0
0 0 0
0 0 0
0 0 0
0 0 0
0 0 0
0 0 0
0 0 0
0 0 0
0 0 0
0 0 0
1004 -345 2758
1051 -358 2861
1062 -359 2862
1077 -361 2879
1079 -359 2856
1062 -350 2787
1097 -359 2853
1087 -353 2802
1092 -352 2788
1068 -341 2705
1067 -339 2679
1039 -327 2584
1048 -327 2584
1014 -314 2479
1072 -330 2599
1105 -338 2656
969 -294 2308
1041 -313 2459
1072 -321 2513
1084 -322 2519
1072 -316 2471
1073 -314 2452
1067 -310 2417
1092 -315 2454
1067 -306 2380
1042 -297 2304
1065 -301 2335
1088 -306 2368
1093 -305 2359
1096 -304 2348
1077 -297 2287
1102 -302 2322
1104 -300 2308
1107 -299 2297
1104 -297 2273
1109 -296 2264
1114 -296 2258
1093 -288 2197
1103 -289 2201
1107 -288 2191
1109 -287 2178
1106 -284 2156
1114 -285 2154
1123 -285 2155
1127 -285 2148
1121 -281 2119
1120 -279 2101
1125 -279 2095
1127 -278 2084
1126 -276 2066
1135 -277 2066
1125 -273 2032
1131 -273 2029
1137 -273 2025
-491 -105 849
-490 -105 854
-482 -104 846
-469 -102 829
-475 -103 845
-468 -103 839
-468 -103 847
-463 -103 842
-468 -104 858
-474 -107 876
-463 -105 863
-487 -111 913
-592 -136 1120
-1044 -242 1987
-1088 -254 2087
-1083 -254 2093
-1074 -254 2092
-1061 -252 2083
-1057 -253 2092
-1046 -252 2085
-1038 -252 2085
-1032 -252 2089
-1022 -251 2085
-1017 -252 2091
-1001 -249 2074
-992 -249 2071
-994 -251 2091
-988 -251 2096
-978 -250 2092
-974 -251 2100
-963 -250 2093
-956 -250 2095
-950 -250 2098
-944 -250 2101
-915 -244 2054
-898 -241 2031
-906 -245 2068
-903 -246 2077
-891 -245 2067
-887 -245 2074
-869 -242 2050
-849 -238 2019
-852 -241 2044
-844 -241 2043
-847 -243 2066
-844 -244 2076
-831 -242 2061
-831 -244 2079
-802 -238 2026
-783 -234 1994
-796 -240 2045
-782 -237 2027
-762 -233 1994
-769 -237 2028
-770 -239 2050
-776 -243 2085
-763 -241 2068
-767 -244 2098
-745 -240 2058
-724 -235 2020
-719 -235 2025
-724 -239 2056
-723 -241 2074
-725 -244 2100
-711 -241 2077
-706 -241 2084
-698 -241 2080
-685 -238 2061
-667 -235 2029
-677 -240 2077
-674 -242 2091
-663 -240 2077
-647 -236 2048
-649 -239 2074
-643 -239 2077
-631 -237 2061
-632 -240 2085
-623 -239 2077
-613 -238 2066
-608 -238 2071
-600 -237 2066
-605 -242 2106
-597 -241 2100
-587 -240 2090
-577 -238 2077
-574 -239 2088
-575 -242 2116
-561 -239 2091
-552 -238 2081
-552 -241 2106
-546 -241 2107
-538 -240 2102
-532 -240 2104
-524 -240 2099
-518 -240 2101
-512 -240 2103
-507 -240 2107
-501 -241 2111
-495 -241 2110
-482 -237 2082
-475 -237 2081
-431 -218 1912
-424 -217 1907
-431 -224 1967
-404 -213 1872
-412 -220 1934
-410 -222 1953
-399 -219 1930
-376 -210 1846
-327 -185 1628
0 0 0
0 0 0
-267 -158 1396
-265 -159 1407
-294 -179 1581
-253 -157 1385
0 0 0
-685 -439 3857
-708 -461 4056
-711 -471 4143
-761 -513 4508
-813 -557 4900
-808 -564 4963
-794 -565 4966
-781 -566 4978
-765 -565 4967
-751 -565 4974
-737 -565 4974
-721 -565 4968
-8 -7 71
-7 -7 71
-8 -8 81
-13 -12 115
-7 -7 75
-11 -11 105
-28 -27 246
-101 -95 844
-124 -120 1065
-107 -106 943
-109 -111 986
-101 -106 941
-98 -105 938
-101 -112 993
-104 -118 1046
-95 -112 993
0 0 0
0 0 0
-365 -463 4081
0 0 0
-97 -134 1187
-102 -146 1292
-94 -139 1231
-95 -146 1298
-84 -135 1196
-84 -140 1247
-78 -137 1215
-73 -134 1189
-54 -104 929
-23 -49 446
-34 -76 677
-60 -135 1202
-61 -147 1300
-55 -140 1246
-49 -133 1176
-46 -135 1194
-44 -140 1241
-41 -141 1247
-37 -140 1241
-33 -138 1227
-30 -140 1239
-27 -142 1260
-23 -144 1277
-18 -136 1204
-16 -146 1290
-12 -138 1219
-9 -147 1301
-5 -148 1310
-1 -138 1217
2 -141 1250
5 -146 1295
9 -141 1248
12 -142 1255
16 -142 1254
20 -146 1287
24 -144 1268
28 -146 1290
32 -149 1318
34 -141 1246
37 -140 1237
44 -150 1319
45 -142 1253
48 -141 1246
54 -147 1296
62 -158 1389
59 -140 1233
67 -152 1339
70 -149 1312
72 -145 1276
77 -147 1295
83 -153 1346
83 -146 1281
83 -138 1217
94 -151 1327
91 -140 1232
95 -141 1242
100 -142 1251
103 -143 1253
0 0 0
0 0 0
366 -469 4084
343 -425 3705
349 -419 3652
344 -401 3487
348 -395 3434
345 -379 3302
248 -264 2298
207 -214 1868
231 -233 2032
224 -220 1914
213 -204 1774
228 -213 1857
239 -218 1900
225 -201 1750
235 -206 1789
243 -208 1810
262 -220 1907
277 -227 1972
284 -229 1985
285 -225 1952
287 -222 1927
292 -221 1918
296 -220 1909
297 -217 1880
303 -217 1880
307 -216 1872
316 -219 1889
325 -221 1912
329 -220 1900
333 -220 1895
339 -220 1896
326 -207 1789
322 -202 1741
321 -198 1703
326 -198 1707
336 -201 1732
340 -200 1722
294 -170 1465
291 -166 1429
324 -183 1570
333 -185 1588
335 -184 1577
316 -171 1465
296 -158 1353
261 -137 1174
269 -139 1194
264 -135 1154
248 -125 1069
182 -89 768
160 -77 668
0 0 0
171 -81 695
100 -46 396
0 0 0
107 -47 411
88 -38 333
54 -22 196
27 -9 89
6 0 10
1275 -568 4786
17 -5 50
64 -25 221
0 0 0
0 0 0
0 0 0
0 0 0
0 0 0
0 0 0
0 0 0
0 0 0
0 0 0
0 0 0
0 0 0
0 0 0
0 0 0
0 0 0
0 0 0
0 0 0
0 0 0
0 0 0
0 0 0
0 0 0
0 0 0
0 0 0
0 0 0
0 0 0
0 0 0
0 0 0
0 0 0
1045 -350 2871
1049 -348 2854
1075 -354 2900
1066 -348 2848
1072 -348 2839
1073 -345 2816
1078 -344 2803
1064 -337 2744
1036 -326 2647
1075 -335 2722
1067 -330 2678
1061 -326 2641
1065 -325 2628
1021 -309 2497
1051 -316 2548
1087 -324 2613
1054 -312 2512
1077 -317 2545
1094 -319 2563
1098 -318 2553
1093 -315 2519
1107 -316 2531
1096 -311 2484
1082 -305 2434
1098 -308 2450
1084 -301 2397
1102 -304 2418
1115 -306 2428
1108 -302 2394
1108 -300 2373
1107 -298 2353
1109 -296 2339
1119 -297 2340
1103 -291 2289
1123 -294 2311
1123 -293 2295
1124 -291 2279
1110 -285 2232
1096 -280 2188
1103 -280 2184
1108 -280 2176
1112 -279 2168
1117 -279 2162
1124 -279 2159
1126 -277 2145
1126 -276 2129
1130 -275 2122
1123 -272 2092
1129 -272 2087
1136 -272 2084
1135 -270 2067
1134 -268 2051
1131 -266 2029
1134 -265 2019
-476 -99 824
-483 -101 842
-479 -100 840
-480 -101 849
-469 -99 835
-469 -100 842
-462 -99 835
-472 -102 860
-467 -102 857
-482 -105 891
-483 -106 901
-503 -111 944
-604 -135 1142
-1056 -238 2012
-1093 -248 2097
-1083 -248 2095
-1072 -247 2089
-1069 -248 2099
-1058 -247 2094
-1046 -245 2086
-1041 -246 2092
-1034 -246 2093
-1023 -245 2087
-1014 -244 2086
-998 -242 2069
-997 -243 2083
-995 -245 2095
-985 -244 2091
-978 -244 2093
-972 -244 2096
-965 -244 2097
-954 -243 2091
-951 -244 2101
-944 -244 2103
-932 -242 2093
-911 -238 2063
-901 -237 2055
-900 -239 2072
-885 -237 2053
-882 -238 2064
-874 -237 2062
-847 -232 2015
-837 -231 2008
-857 -238 2073
-845 -236 2061
-840 -237 2067
-835 -237 2074
-824 -236 2062
-797 -230 2014
-803 -233 2045
-801 -235 2059
-778 -230 2019
-773 -230 2022
-773 -232 2042
-776 -235 2066
-776 -237 2087
-766 -236 2079
-759 -236 2077
-749 -235 2070
-728 -230 2029
-731 -233 2057
-724 -233 2058
-718 -233 2061
-721 -236 2088
-713 -235 2085
-704 -234 2079
-695 -233 2071
-687 -233 2069
-671 -230 2040
-684 -236 2100
-670 -234 2078
-655 -231 2052
-648 -230 2052
-647 -232 2069
-646 -234 2086
-643 -235 2100
-633 -234 2089
-627 -234 2091
-610 -230 2054
-599 -228 2040
-611 -235 2104
-606 -236 2110
-595 -234 2095
-588 -234 2094
-577 -232 2077
-571 -232 2080
-564 -232 2079
-565 -235 2107
-560 -235 2113
-552 -235 2105
-550 -237 2124
-538 -234 2101
-535 -235 2116
-523 -233 2093
-520 -235 2110
-514 -234 2109
-511 -236 2126
-502 -235 2112
-490 -232 2091
-483 -232 2090
-472 -230 2070
-437 -215 1941
-429 -214 1931
-416 -210 1899
-410 -210 1898
-420 -218 1972
-404 -213 1924
-396 -212 1913
-380 -206 1864
-329 -181 1639
-306 -171 1550
-297 -168 1527
-264 -152 1378
-270 -158 1434
-269 -160 1451
-275 -166 1509
0 0 0
-706 -441 3978
-706 -448 4046
-708 -457 4127
-758 -498 4492
-815 -545 4919
-809 -551 4971
-793 -550 4962
2 1 -4
-765 -551 4972
-749 -549 4962
-734 -549 4959
-722 -551 4978
-4 -4 50
-1 -2 27
-5 -5 57
-5 -5 55
-5 -5 59
-7 -7 74
-23 -21 205
-85 -79 721
-86 -81 741
-94 -91 835
-79 -79 725
-92 -94 858
-83 -87 799
-72 -77 711
-71 -79 723
-86 -98 895
0 0 0
-237 -284 2576
0 0 0
-101 -131 1194
-100 -134 1218
-92 -128 1170
-92 -132 1203
-92 -138 1261
-87 -136 1242
-78 -127 1155
-80 -137 1244
-66 -117 1070
-43 -83 759
-23 -49 454
-46 -96 880
-62 -135 1231
-56 -131 1190
-52 -129 1172
-49 -131 1197
-46 -130 1187
-45 -140 1274
-41 -139 1260
-39 -143 1299
-33 -137 1246
-31 -142 1288
-27 -141 1283
-23 -140 1272
-20 -145 1321
-16 -141 1281
-12 -141 1283
-9 -147 1336
-5 -137 1247
-1 -139 1260
2 -137 1248
5 -144 1311
9 -138 1250
13 -139 1264
16 -139 1260
19 -136 1233
23 -137 1244
27 -139 1259
30 -136 1231
35 -141 1281
38 -140 1273
40 -132 1195
44 -135 1227
50 -142 1289
51 -135 1224
58 -144 1300
61 -142 1288
67 -147 1326
68 -141 1275
71 -139 1259
74 -139 1253
78 -140 1262
85 -145 1308
92 -150 1355
89 -139 1258
95 -144 1295
95 -138 1244
105 -146 1316
93 -125 1129
0 0 0
0 0 0
364 -455 4065
359 -433 3875
343 -402 3594
336 -381 3409
344 -379 3389
313 -335 2992
260 -270 2416
208 -209 1872
230 -226 2019
255 -245 2187
264 -247 2209
277 -253 2260
281 -251 2239
280 -245 2181
276 -235 2099
285 -238 2122
301 -247 2197
327 -263 2336
334 -262 2334
351 -271 2407
347 -263 2333
353 -262 2322
358 -261 2314
357 -255 2264
351 -246 2182
357 -246 2178
360 -244 2158
371 -247 2183
366 -240 2121
370 -238 2107
367 -232 2054
352 -219 1937
333 -203 1799
336 -202 1785
338 -200 1769
347 -202 1786
351 -202 1782
305 -172 1520
309 -172 1519
357 -196 1729
369 -201 1764
365 -195 1718
324 -171 1504
309 -161 1414
306 -157 1381
285 -144 1266
300 -150 1317
209 -102 899
0 0 0
129 -60 535
109 -50 443
101 -45 406
102 -45 402
88 -38 340
123 -54 476
96 -41 364
0 0 0
63 -25 228
15 -3 41
5 0 4
5 0 3
22 -6 67
0 0 0
0 0 0
0 0 0
0 0 0
0 0 0
0 0 0
0 0 0
0 0 0
0 0 0
0 0 0
0 0 0
0 0 0
0 0 0
0 0 0
0 0 0
0 0 0
0 0 0
0 0 0
0 0 0
0 0 0
0 0 0
0 0 0
0 0 0
0 0 0
0 0 0
0 0 0
0 0 0
1023 -334 2811
1055 -342 2873
1066 -343 2876
1087 -347 2906
1079 -341 2858
1083 -340 2842
1081 -337 2813
1083 -334 2792
1059 -324 2706
1084 -330 2746
1085 -327 2724
1066 -319 2654
1078 -320 2660
1081 -319 2645
1082 -317 2624
1085 -316 2610
1090 -315 2599
1096 -314 2591
1087 -309 2548
1116 -315 2595
1096 -308 2528
1080 -301 2471
1095 -303 2484
1105 -304 2485
1104 -301 2462
1106 -300 2448
1108 -299 2433
1106 -296 2409
1118 -297 2414
1110 -293 2378
1097 -288 2331
1107 -288 2335
1116 -289 2334
1108 -285 2300
1124 -287 2315
1121 -285 2291
1113 -281 2256
1112 -279 2236
1098 -274 2192
1099 -272 2176
1105 -272 2171
1111 -272 2167
1119 -272 2165
1132 -274 2175
1128 -271 2151
1125 -269 2129
1127 -268 2115
1132 -267 2109
1129 -265 2088
1130 -264 2075
1130 -262 2058
1131 -261 2046
1140 -262 2047
1135 -259 2023
-483 -97 836
-479 -97 836
-484 -99 849
-475 -97 840
-468 -97 835
-466 -97 837
-470 -98 850
-466 -98 850
-464 -98 853
-483 -103 894
-471 -101 877
-490 -106 919
-615 -134 1164
-1061 -233 2022
-1087 -240 2086
-1082 -241 2093
-1073 -240 2091
-1063 -240 2089
-1056 -240 2091
-1048 -239 2090
-1037 -238 2085
-1029 -238 2085
-1022 -238 2086
-1009 -236 2075
-1004 -237 2082
-1001 -238 2091
-994 -238 2094
-982 -237 2086
-978 -237 2093
-970 -237 2092
-965 -237 2099
-957 -237 2099
-951 -237 2102
-938 -235 2089
-929 -235 2086
-908 -231 2056
-905 -232 2066
-896 -231 2062
-889 -231 2063
-880 -231 2060
-860 -227 2029
-846 -225 2015
-837 -224 2008
-841 -227 2036
-849 -231 2072
-849 -233 2090
-834 -231 2072
-836 -233 2093
-802 -225 2027
-793 -225 2022
-793 -226 2040
-787 -226 2041
-781 -226 2044
-775 -226 2046
-775 -228 2064
-773 -230 2078
-763 -229 2072
-755 -228 2066
-739 -225 2043
-730 -224 2037
-722 -224 2034
-730 -228 2074
-713 -225 2045
-721 -229 2088
-713 -229 2086
-706 -229 2085
-695 -227 2074
-685 -226 2064
-679 -226 2065
-675 -227 2074
-676 -229 2096
-654 -224 2051
-647 -224 2049
-653 -228 2088
-647 -228 2092
-637 -227 2082
-627 -226 2069
-625 -227 2086
-616 -226 2077
-602 -223 2051
-599 -225 2064
-604 -229 2103
-594 -228 2093
-592 -229 2107
-580 -227 2089
-569 -225 2072
-570 -228 2099
-561 -227 2090
-556 -227 2096
-551 -228 2102
-541 -226 2089
-537 -227 2099
-531 -227 2100
-522 -226 2092
-518 -227 2099
-517 -229 2122
-506 -227 2104
-501 -228 2110
-493 -227 2103
-484 -226 2095
-469 -222 2054
-439 -210 1949
-421 -204 1895
-424 -209 1935
-439 -219 2032
-425 -215 1995
-411 -211 1959
-381 -199 1844
-367 -194 1800
-323 -173 1609
-328 -179 1662
0 0 0
0 0 0
0 0 0
-266 -154 1434
-240 -141 1317
0 0 0
-682 -414 3843
-704 -435 4037
-709 -446 4134
-763 -488 4523
-819 -533 4940
-808 -535 4963
-795 -536 4975
-778 -535 4963
-764 -535 4963
-750 -535 4967
-737 -537 4980
-723 -537 4987
-1 -1 25
-9 -8 86
-5 -5 59
-8 -7 79
-3 -3 41
-1 -1 26
-23 -21 209
-76 -68 643
-91 -84 788
-64 -61 576
-84 -81 762
-88 -88 824
-89 -91 857
-88 -92 869
-106 -114 1071
-115 -127 1194
-193 -219 2045
-228 -266 2479
-115 -140 1307
-96 -120 1129
-93 -121 1134
-95 -129 1205
-94 -132 1231
-85 -124 1165
-82 -125 1169
-83 -132 1233
-79 -132 1232
-66 -115 1074
-37 -69 648
-26 -53 500
-56 -113 1060
-61 -130 1212
-57 -130 1214
-57 -137 1283
-51 -132 1231
-47 -131 1228
-46 -138 1292
-38 -126 1178
-36 -131 1224
-33 -133 1240
-31 -139 1297
-27 -138 1287
-22 -132 1235
-19 -134 1252
-16 -138 1287
-12 -137 1276
-9 -138 1286
-4 -129 1208
-1 -132 1228
2 -141 1314
5 -140 1301
9 -134 1246
13 -139 1299
16 -134 1249
20 -134 1245
24 -137 1281
27 -134 1247
32 -140 1303
35 -138 1289
39 -138 1287
43 -140 1304
46 -137 1271
49 -135 1253
52 -134 1248
55 -131 1218
60 -136 1262
66 -140 1303
67 -135 1250
71 -136 1266
75 -136 1266
79 -138 1280
85 -142 1315
84 -134 1239
93 -142 1319
95 -138 1282
95 -134 1241
105 -142 1315
100 -130 1206
0 0 0
350 -439 4031
365 -443 4067
351 -413 3793
348 -396 3637
342 -379 3473
339 -364 3339
323 -337 3094
275 -279 2560
277 -273 2505
271 -260 2384
287 -269 2468
309 -282 2588
327 -293 2679
333 -291 2662
329 -281 2572
328 -274 2504
338 -276 2520
352 -281 2572
365 -285 2606
381 -293 2671
395 -297 2711
399 -295 2686
405 -293 2669
408 -290 2640
404 -281 2560
409 -280 2545
418 -281 2555
418 -276 2508
426 -277 2514
435 -277 2520
436 -273 2482
432 -266 2417
395 -239 2172
349 -208 1885
346 -203 1840
346 -200 1811
351 -200 1811
349 -196 1773
328 -181 1637
323 -176 1590
366 -196 1775
373 -197 1784
361 -188 1700
323 -166 1498
290 -147 1324
293 -146 1320
283 -139 1258
265 -128 1159
254 -121 1095
184 -86 779
80 -35 325
0 0 0
143 -64 580
85 -36 333
91 -38 353
83 -34 318
0 0 0
122 -51 462
45 -16 158
6 0 8
1291 -546 4848
1309 -548 4857
65 -24 224
1321 -542 4793
0 0 0
0 0 0
0 0 0
0 0 0
0 0 0
0 0 0
0 0 0
0 0 0
0 0 0
0 0 0
0 0 0
0 0 0
0 0 0
0 0 0
0 0 0
0 0 0
0 0 0
0 0 0
0 0 0
0 0 0
0 0 0
0 0 0
0 0 0
0 0 0
0 0 0
0 0 0
1038 -330 2853
1055 -333 2873
1070 -335 2888
1080 -335 2887
1091 -336 2890
1089 -333 2861
1072 -325 2789
1088 -328 2807
1096 -327 2801
1091 -323 2764
1077 -317 2704
1085 -317 2702
1090 -316 2691
1094 -315 2678
1090 -311 2644
1096 -311 2637
1090 -307 2599
1106 -309 2616
1099 -305 2579
1095 -301 2546
1089 -298 2512
1100 -299 2516
1103 -297 2501
1094 -293 2462
1103 -293 2461
1106 -292 2449
1101 -289 2418
1108 -289 2414
1102 -285 2381
1118 -288 2396
1110 -284 2360
1109 -282 2340
1106 -279 2315
1123 -281 2331
1120 -279 2308
1105 -273 2259
1120 -276 2272
1113 -272 2239
1097 -266 2190
1104 -266 2187
1108 -266 2178
1116 -266 2177
1122 -266 2173
1128 -266 2168
1135 -266 2164
1134 -264 2145
1134 -262 2129
1129 -260 2105
1125 -257 2081
1124 -256 2063
1129 -255 2057
1137 -256 2058
1128 -252 2026
1129 -251 2013
-477 -93 826
-487 -96 849
-477 -94 838
-473 -94 838
-473 -95 844
-464 -94 833
-464 -94 840
-461 -94 841
-476 -98 874
-489 -101 904
-478 -99 891
-497 -104 934
-629 -133 1190
-1067 -228 2034
-1088 -234 2090
-1078 -233 2087
-1069 -233 2085
-1064 -233 2092
-1055 -233 2088
-1044 -232 2084
-1040 -232 2092
-1031 -232 2089
-1011 -229 2065
-1000 -228 2058
-1007 -231 2088
-1004 -232 2100
-995 -231 2097
-989 -232 2102
-979 -231 2095
-974 -231 2101
-964 -230 2096
-958 -231 2101
-950 -230 2100
-946 -231 2109
-926 -228 2081
-917 -227 2077
-896 -224 2047
-899 -226 2069
-894 -226 2076
-880 -224 2059
-867 -223 2048
-846 -219 2014
-840 -219 2017
-851 -224 2061
-854 -226 2085
-840 -224 2069
-839 -226 2085
-828 -224 2076
-818 -223 2068
-791 -218 2017
-788 -219 2027
-784 -219 2035
-767 -216 2009
-762 -217 2013
-779 -223 2078
-780 -225 2097
-764 -223 2074
-755 -222 2070
-738 -219 2041
-732 -219 2042
-722 -218 2035
-724 -220 2058
-727 -223 2086
-721 -223 2089
-718 -224 2101
-710 -224 2099
-700 -223 2090
-684 -220 2060
-664 -215 2021
-674 -220 2070
-669 -221 2076
-655 -218 2054
-651 -219 2063
-646 -220 2069
-640 -220 2070
-636 -220 2077
-625 -219 2063
-624 -221 2083
-615 -220 2073
-602 -217 2052
-607 -221 2092
-601 -222 2096
-593 -221 2090
-587 -221 2092
-581 -221 2092
-572 -220 2083
-569 -221 2096
-562 -221 2098
-556 -221 2097
-549 -221 2095
-546 -222 2110
-536 -221 2094
-532 -222 2107
-527 -222 2111
-520 -222 2108
-512 -221 2105
-509 -223 2118
-502 -223 2118
-494 -222 2111
-484 -220 2093
-475 -219 2081
-444 -207 1975
-414 -196 1865
-414 -199 1894
-440 -213 2036
-406 -200 1909
-406 -203 1933
-420 -213 2033
-362 -186 1777
-361 -188 1797
-298 -158 1510
-306 -164 1573
-279 -152 1456
-260 -144 1381
-256 -144 1380
-235 -134 1290
0 0 0
-693 -410 3904
-703 -423 4031
-704 -431 4107
-761 -474 4515
-815 -516 4918
-808 -521 4967
-796 -522 4981
-780 -522 4973
-767 -523 4989
-751 -522 4975
-736 -521 4973
-722 -522 4978
-3 -2 37
-6 -5 65
-10 -8 90
-7 -6 70
-4 -4 54
-10 -9 96
-27 -23 236
-108 -94 906
-127 -113 1088
-108 -98 951
-110 -103 996
-106 -102 981
-105 -103 998
-113 -114 1103
-134 -140 1347
-135 -145 1393
-180 -199 1911
-191 -218 2087
-113 -134 1288
-102 -125 1202
-94 -119 1148
-96 -126 1214
-94 -128 1233
-88 -125 1206
-83 -123 1183
-84 -130 1249
-78 -126 1208
-61 -104 1002
-27 -51 498
-32 -62 604
-62 -122 1171
-58 -120 1155
-58 -128 1231
-54 -127 1222
-51 -129 1242
-48 -130 1247
-45 -132 1267
-39 -125 1204
-39 -135 1296
-34 -132 1268
-30 -130 1250
-26 -130 1249
-23 -132 1263
-18 -125 1204
-17 -138 1325
-13 -136 1306
-9 -134 1283
-4 -128 1224
-1 -132 1265
2 -131 1259
5 -129 1234
9 -128 1228
13 -132 1268
17 -136 1304
21 -138 1325
24 -132 1261
26 -126 1205
31 -131 1251
34 -130 1245
36 -124 1188
41 -129 1237
46 -133 1276
49 -132 1262
54 -134 1282
56 -130 1242
61 -134 1283
66 -137 1304
65 -127 1217
75 -139 1330
77 -136 1294
79 -133 1267
82 -133 1268
89 -138 1315
90 -134 1272
98 -140 1329
100 -138 1311
100 -132 1258
99 -126 1200
0 0 0
353 -431 4072
350 -414 3906
353 -404 3814
364 -404 3806
354 -382 3598
337 -353 3326
343 -349 3290
320 -316 2977
303 -291 2747
307 -288 2712
329 -300 2828
352 -314 2958
355 -309 2907
359 -305 2867
350 -291 2737
337 -274 2575
358 -285 2676
378 -294 2763
399 -305 2857
410 -307 2873
414 -303 2842
423 -304 2845
438 -309 2889
441 -305 2857
433 -294 2748
426 -284 2653
439 -288 2688
441 -284 2651
455 -288 2686
463 -288 2688
467 -285 2660
456 -274 2554
431 -255 2372
351 -204 1901
342 -195 1821
339 -190 1774
351 -194 1811
345 -188 1749
324 -174 1616
330 -175 1625
368 -192 1784
360 -185 1719
327 -166 1539
282 -141 1307
280 -138 1279
249 -120 1120
263 -126 1169
235 -110 1027
240 -112 1037
0 0 0
66 -28 267
131 -57 535
106 -45 425
0 0 0
0 0 0
0 0 0
78 -31 295
89 -35 334
44 -16 156
1274 -531 4841
1274 -525 4787
1285 -524 4770
11 -1 25
0 0 0
0 0 0
0 0 0
0 0 0
0 0 0
0 0 0
1003 -376 3402
1041 -386 3491
1125 -413 3735
0 0 0
0 0 0
0 0 0
0 0 0
0 0 0
0 0 0
0 0 0
0 0 0
0 0 0
0 0 0
0 0 0
0 0 0
0 0 0
0 0 0
0 0 0
0 0 0
0 0 0
0 0 0
1030 -319 2832
1059 -325 2884
1064 -324 2870
1078 -326 2882
1077 -323 2855
1084 -323 2846
1079 -319 2808
1086 -318 2803
1088 -316 2782
1087 -314 2756
1091 -312 2741
1091 -310 2717
1100 -310 2717
1092 -306 2672
1101 -306 2671
1090 -301 2623
1094 -300 2611
1097 -298 2596
1102 -298 2586
1098 -294 2554
1103 -294 2544
1107 -293 2534
1101 -289 2500
1114 -291 2508
1110 -287 2477
1112 -286 2461
1099 -281 2413
1111 -282 2420
1110 -280 2398
1113 -279 2386
1110 -276 2360
1126 -278 2375
1119 -275 2342
1126 -275 2339
1128 -274 2324
1118 -269 2286
1117 -268 2266
1116 -266 2245
1096 -259 2188
1109 -261 2197
1109 -259 2182
1116 -259 2178
1115 -257 2159
1127 -259 2167
1131 -258 2157
1122 -254 2123
1128 -254 2119
1132 -254 2111
1133 -252 2096
1128 -250 2072
1131 -249 2062
1131 -248 2047
1129 -246 2028
1141 -247 2034
-487 -93 844
-478 -91 834
-478 -92 840
-472 -91 836
-473 -92 843
-468 -92 841
-463 -91 838
-468 -93 853
-486 -97 893
-483 -97 895
-469 -95 875
-485 -99 912
-643 -132 1217
-1071 -222 2043
-1088 -227 2092
-1081 -227 2093
-1069 -226 2086
-1065 -227 2093
-1055 -226 2091
-1050 -226 2096
-1039 -226 2091
-1032 -226 2093
-1007 -221 2057
-1014 -225 2088
-1006 -224 2087
-1000 -224 2091
-994 -224 2094
-985 -224 2092
-980 -225 2100
-973 -224 2101
-961 -223 2091
-956 -224 2098
-954 -225 2110
-943 -224 2102
-928 -222 2086
-906 -218 2052
-907 -220 2072
-901 -220 2077
-889 -219 2065
-876 -217 2052
-867 -216 2047
-854 -215 2033
-846 -214 2031
-840 -214 2034
-848 -218 2071
-844 -219 2079
-833 -217 2069
-827 -218 2072
-814 -216 2057
-792 -212 2021
-798 -215 2054
-784 -213 2036
-777 -213 2034
-768 -212 2029
-782 -218 2085
-772 -217 2078
-766 -217 2079
-756 -216 2071
-743 -214 2056
-733 -213 2046
-725 -213 2044
-732 -216 2083
-720 -215 2068
-724 -218 2098
-715 -217 2092
-709 -217 2094
-704 -218 2102
-689 -215 2077
-669 -211 2038
-673 -214 2069
-665 -213 2066
-654 -212 2051
-648 -212 2054
-654 -216 2094
-646 -215 2088
-628 -211 2051
-625 -213 2065
-621 -214 2074
-617 -214 2081
-622 -218 2120
-610 -216 2105
-599 -214 2087
-599 -217 2111
-584 -214 2081
-579 -214 2086
-569 -213 2075
-566 -214 2087
-563 -215 2099
-555 -215 2094
-554 -217 2117
-542 -214 2095
-538 -215 2104
-536 -217 2121
-526 -216 2110
-521 -216 2116
-514 -216 2111
-508 -216 2115
-499 -215 2104
-493 -215 2106
-485 -214 2100
-472 -211 2072
-427 -194 1900
-419 -193 1890
-410 -191 1873
-416 -196 1927
-415 -199 1951
-387 -188 1847
-391 -193 1892
-372 -186 1825
-313 -159 1562
-337 -173 1705
-312 -163 1604
-243 -129 1272
-237 -128 1263
-245 -134 1325
-249 -138 1364
0 0 0
-702 -404 3961
-704 -412 4037
-708 -421 4132
-767 -464 4551
-818 -504 4942
-809 -507 4977
-794 -507 4971
-780 -507 4974
-766 -507 4979
-749 -506 4968
-736 -507 4975
-722 -507 4980
-6 -5 60
-5 -4 56
-11 -9 99
-11 -9 105
-7 -6 75
-5 -5 58
-35 -29 302
-117 -99 983
-118 -102 1013
-114 -101 1006
-121 -110 1090
-110 -103 1018
-110 -106 1050
-125 -124 1227
-120 -122 1206
-142 -148 1465
-208 -223 2198
-210 -232 2290
-116 -134 1323
-99 -119 1175
-95 -117 1158
-99 -126 1249
-91 -121 1195
-86 -119 1180
-89 -128 1272
-87 -130 1291
-74 -116 1152
-55 -92 912
-24 -44 449
-44 -81 802
-67 -128 1264
-63 -127 1252
-58 -124 1228
-56 -128 1270
-51 -124 1225
-45 -119 1181
-43 -124 1226
-41 -127 1260
-37 -126 1250
-34 -128 1266
-29 -125 1235
-26 -127 1251
-23 -127 1260
-19 -128 1267
-15 -125 1233
-12 -128 1260
-9 -131 1292
-5 -130 1282
-1 -130 1282
2 -132 1298
5 -129 1270
9 -131 1289
13 -127 1254
16 -130 1278
20 -130 1278
23 -127 1251
28 -133 1314
30 -123 1214
35 -130 1283
38 -126 1243
41 -127 1248
47 -133 1306
50 -131 1288
54 -132 1295
58 -131 1292
61 -131 1283
66 -134 1315
73 -140 1370
70 -126 1242
74 -128 1253
79 -130 1279
83 -131 1284
86 -130 1270
93 -134 1313
99 -137 1341
97 -130 1270
101 -130 1271
108 -134 1307
0 0 0
339 -402 3907
349 -401 3896
372 -414 4015
351 -379 3675
346 -362 3514
349 -355 3442
355 -351 3398
342 -329 3190
356 -334 3230
354 -323 3126
352 -313 3027
356 -309 2985
371 -314 3040
375 -310 2997
387 -313 3027
352 -278 2690
360 -278 2689
