VERSION 0.7
FIELDS x y z
SIZE 4 4 4
TYPE I I I
COUNT 1 1 1
WIDTH 3592
HEIGHT 1
VIEWPOINT 0.0 0.0 0.0 1.0 0.0 0.0 0.0
POINTS 3592
DATA ascii
-558 331 1626
-550 329 1620
-547 330 1626
-546 332 1639
-542 333 1643
-538 333 1648
-530 332 1641
-526 332 1645
-527 336 1664
-516 332 1646
-520 337 1676
-512 336 1668
-503 333 1657
-499 334 1661
-486 328 1634
-485 331 1650
-479 330 1648
-480 334 1670
-474 333 1666
-463 329 1646
-459 330 1651
-461 335 1676
-455 334 1674
-451 335 1682
-449 337 1692
-438 333 1671
-434 333 1677
-424 330 1659
-427 335 1688
-416 331 1668
-417 335 1691
-409 333 1680
-402 331 1671
-392 327 1651
-390 330 1668
-392 335 1697
-386 334 1694
-371 326 1651
-363 323 1639
-362 327 1658
-351 321 1628
-351 326 1653
-343 322 1636
-340 324 1647
-333 322 1637
-332 326 1658
-323 322 1639
-316 320 1629
-314 322 1643
-309 322 1642
-307 325 1658
-297 319 1631
-297 324 1657
-290 323 1650
-284 321 1642
-278 320 1635
-270 316 1616
-263 313 1602
-259 314 1608
-254 314 1608
-250 315 1612
-244 313 1604
-240 314 1608
-235 314 1611
-231 315 1616
-228 316 1625
-220 313 1608
-218 316 1622
-213 316 1625
-207 315 1618
-202 314 1615
-199 315 1624
-197 321 1652
-189 315 1625
-186 319 1642
-181 318 1638
-175 316 1630
-169 314 1621
-167 318 1639
-162 317 1639
-158 319 1647
-152 317 1637
-147 317 1637
-143 318 1642
-138 318 1643
-131 313 1619
-123 305 1578
-117 301 1556
-106 286 1477
-98 276 1425
-91 267 1382
-84 258 1333
-78 253 1306
-73 249 1287
-70 251 1301
-66 250 1295
-62 249 1288
-59 252 1303
-56 253 1308
-53 257 1329
-49 257 1334
-45 257 1334
-42 265 1372
-40 272 1409
-36 273 1418
-34 289 1503
-31 306 1588
-27 312 1619
-23 318 1652
-18 320 1661
-13 322 1673
-8 319 1658
-4 322 1674
0 317 1651
5 319 1661
10 322 1675
15 318 1656
19 317 1648
24 320 1666
30 322 1677
34 322 1675
39 320 1667
44 320 1666
49 319 1658
54 322 1677
59 321 1671
64 324 1688
68 321 1671
74 322 1677
79 324 1688
83 322 1674
89 326 1696
94 324 1685
97 319 1660
103 322 1675
108 322 1678
114 326 1696
117 320 1665
122 321 1672
128 324 1688
132 321 1668
138 325 1689
143 324 1688
147 323 1678
153 324 1683
158 324 1686
163 325 1692
169 327 1701
175 329 1710
180 328 1707
184 326 1694
190 328 1707
194 327 1701
200 328 1704
205 328 1703
211 330 1713
219 334 1735
224 334 1737
230 336 1742
233 332 1724
236 329 1710
245 335 1738
247 331 1716
248 326 1690
256 330 1710
263 332 1719
265 328 1698
271 330 1708
279 333 1725
281 329 1702
285 327 1696
290 328 1695
294 326 1689
296 324 1675
306 328 1697
311 329 1702
313 326 1684
319 326 1686
321 323 1670
327 325 1677
338 331 1707
339 327 1686
347 329 1698
353 330 1702
354 327 1683
360 327 1686
367 329 1697
363 321 1654
378 330 1699
380 327 1685
390 331 1704
391 328 1686
401 332 1705
404 330 1694
410 331 1698
414 330 1696
417 328 1685
426 331 1699
428 329 1688
434 330 1690
436 328 1678
449 333 1705
454 333 1704
453 329 1679
458 328 1678
469 333 1700
477 335 1709
476 331 1686
484 333 1697
491 334 1702
500 336 1712
502 335 1703
505 333 1693
515 336 1707
522 337 1714
523 335 1698
532 337 1708
539 338 1715
542 337 1705
552 339 1718
554 338 1708
561 339 1712
569 340 1720
571 338 1707
577 339 1711
580 337 1700
589 340 1711
592 339 1704
609 345 1734
640 359 1807
648 361 1813
658 363 1822
651 356 1787
655 355 1779
660 355 1778
657 351 1754
657 348 1737
656 344 1718
666 347 1730
676 349 1740
687 352 1752
690 351 1744
689 348 1727
708 354 1759
710 353 1749
721 355 1761
731 358 1770
730 354 1751
736 354 1751
739 353 1743
746 354 1745
749 353 1738
753 352 1733
765 355 1745
765 352 1730
764 349 1713
767 348 1707
760 342 1676
724 324 1585
701 312 1521
672 297 1447
589 258 1256
666 290 1410
704 305 1479
738 317 1537
779 332 1611
798 338 1637
812 342 1654
817 342 1650
815 339 1633
824 340 1639
823 338 1624
833 339 1631
833 337 1618
835 336 1611
832 333 1592
840 334 1595
834 329 1571
828 325 1548
827 323 1535
822 319 1514
826 318 1509
826 316 1498
824 314 1484
828 313 1479
830 312 1472
838 313 1475
825 307 1442
-475 185 814
-483 189 834
-482 189 838
-490 193 858
-485 193 856
-490 196 871
-495 199 887
-490 198 884
-490 199 892
-505 206 925
-477 196 881
-486 201 905
-482 200 903
-488 204 922
-496 209 944
-501 212 961
-475 202 918
-484 207 943
-497 214 976
-481 209 951
-485 212 966
-494 217 993
-492 218 997
-515 229 1052
-505 226 1040
-527 237 1093
-536 243 1121
-533 243 1124
-542 249 1152
-535 247 1145
-520 242 1123
-537 251 1169
-553 261 1214
-582 276 1287
-573 274 1279
-567 273 1276
-540 261 1224
-499 244 1142
-505 248 1164
-495 245 1150
-494 246 1158
-514 258 1216
-519 263 1239
-530 270 1275
-551 282 1337
-609 314 1491
-640 333 1581
-639 334 1591
-638 336 1602
-633 337 1606
-623 334 1594
-627 338 1618
-629 342 1637
-611 335 1606
-608 336 1613
-604 336 1615
-602 338 1625
-600 340 1635
-590 337 1622
-580 334 1611
-564 328 1583
-564 331 1596
-565 334 1615
-561 334 1618
-549 330 1599
-543 330 1598
-544 333 1616
-545 337 1635
-533 332 1615
-529 333 1621
-529 336 1635
-519 333 1622
-513 332 1620
-513 335 1637
-519 342 1673
-514 342 1675
-498 335 1639
-489 332 1627
-485 333 1632
-480 332 1631
-478 335 1644
-471 333 1639
-465 332 1633
-459 332 1634
-456 333 1640
-455 336 1656
-452 337 1663
-445 335 1656
-437 333 1648
-435 335 1659
-429 334 1655
-422 333 1650
-420 335 1662
-413 333 1653
-411 336 1668
-407 337 1672
-402 337 1674
-395 335 1666
-395 339 1687
-385 335 1667
-379 334 1663
-368 328 1635
-360 325 1623
-356 326 1630
-352 327 1635
-343 323 1614
-339 324 1621
-336 325 1627
-329 323 1618
-327 326 1631
-321 325 1628
-317 326 1635
-310 323 1623
-307 325 1631
-302 325 1632
-296 323 1626
-289 321 1614
-288 326 1639
-279 321 1614
-272 318 1602
-271 322 1622
-262 317 1597
-256 315 1591
-253 317 1601
-247 316 1594
-240 312 1577
-239 318 1607
-233 316 1599
-231 320 1616
-225 317 1603
-222 319 1616
-214 315 1592
-208 313 1585
-206 317 1606
-201 317 1606
-196 316 1602
-192 318 1611
-189 320 1624
-185 322 1635
-178 317 1610
-174 319 1622
-170 320 1624
-165 320 1625
-159 317 1609
-154 317 1613
-150 318 1620
-146 319 1622
-141 319 1622
-137 320 1629
-128 309 1575
-122 306 1560
-114 299 1523
-105 285 1452
-96 273 1388
-88 263 1340
-82 257 1309
-78 254 1293
-72 249 1268
-69 252 1284
-66 251 1281
-62 252 1284
-59 255 1299
-55 253 1291
-52 258 1316
-48 257 1309
-45 262 1338
-42 266 1355
-39 270 1380
-35 273 1393
-33 287 1468
-30 301 1539
-26 310 1586
-23 321 1642
-18 321 1644
-13 325 1662
-8 320 1639
-4 321 1646
0 321 1645
5 319 1632
10 323 1655
15 319 1635
20 324 1662
24 320 1640
29 320 1641
34 322 1651
39 323 1656
44 326 1669
48 320 1640
53 322 1651
58 323 1654
63 324 1660
68 324 1661
72 319 1634
78 324 1661
82 322 1648
88 324 1662
92 322 1651
97 323 1653
102 324 1662
107 325 1666
111 321 1642
117 324 1662
122 326 1672
127 325 1665
130 322 1647
137 326 1672
142 327 1674
146 324 1657
151 325 1665
158 329 1687
161 325 1664
167 327 1675
171 325 1666
178 329 1684
183 329 1683
186 326 1670
193 330 1687
197 327 1675
201 327 1674
209 332 1698
213 330 1689
218 330 1685
223 329 1684
228 330 1688
232 329 1682
239 331 1692
245 332 1697
248 330 1688
254 332 1695
258 330 1685
262 329 1681
264 326 1663
274 331 1689
276 328 1674
286 334 1701
285 327 1668
291 328 1670
297 330 1679
302 329 1675
307 329 1674
309 326 1658
318 330 1678
320 327 1665
326 328 1669
331 328 1667
338 330 1676
342 329 1673
347 330 1674
350 327 1660
358 330 1675
364 331 1679
368 330 1674
374 331 1677
378 330 1671
384 331 1675
390 332 1682
391 329 1664
397 329 1664
407 334 1687
406 329 1661
416 333 1682
416 329 1658
421 329 1659
427 329 1660
433 330 1663
439 331 1665
447 333 1678
452 333 1676
459 335 1683
474 341 1717
472 336 1690
477 336 1688
481 335 1683
489 337 1693
491 335 1680
500 338 1694
497 332 1664
513 340 1699
509 334 1668
514 334 1669
527 339 1692
529 337 1681
534 337 1679
540 337 1680
546 338 1682
550 337 1679
561 341 1694
566 341 1693
572 341 1694
578 342 1695
588 344 1706
594 345 1708
603 347 1718
628 358 1771
652 368 1821
647 362 1791
646 359 1771
651 359 1770
649 355 1748
642 348 1711
649 349 1715
657 350 1721
655 346 1699
670 351 1724
680 354 1734
683 352 1724
690 353 1728
697 354 1729
708 357 1741
701 351 1710
721 358 1745
730 360 1751
724 354 1721
733 356 1729
731 352 1709
743 355 1723
746 354 1714
753 355 1717
758 354 1713
762 354 1709
763 352 1696
767 351 1692
769 350 1681
747 337 1620
723 324 1554
711 317 1517
667 295 1410
576 253 1207
652 285 1357
684 296 1412
735 317 1507
779 333 1585
796 338 1607
809 341 1620
811 340 1611
812 338 1600
823 341 1610
831 342 1613
834 341 1606
831 338 1590
839 339 1592
840 337 1582
837 334 1564
834 331 1548
834 328 1535
825 323 1507
829 322 1502
830 321 1494
825 317 1474
825 315 1463
825 314 1452
802 303 1400
-480 189 822
-475 188 820
-491 196 854
-496 199 869
-485 195 855
-476 193 846
-484 197 866
-489 200 882
-483 199 877
-492 204 900
-495 206 913
-497 208 923
-497 210 931
-481 204 907
-496 212 943
-500 215 958
-486 210 938
-485 211 945
-490 214 961
-482 212 952
-487 216 971
-499 222 1001
-494 221 1000
-509 230 1039
-528 240 1087
-543 248 1125
-546 251 1140
-536 248 1128
-527 246 1120
-523 245 1121
-524 247 1131
-534 254 1162
-555 265 1217
-586 282 1295
-564 274 1259
-564 275 1267
-549 270 1245
-497 246 1137
-495 247 1140
-517 260 1202
-496 251 1164
-511 260 1209
-520 267 1239
-529 274 1273
-574 299 1393
-614 321 1502
-643 339 1586
-637 338 1585
-634 340 1592
-617 333 1563
-631 343 1614
-624 342 1611
-617 341 1607
-606 338 1593
-600 337 1590
-602 340 1610
-588 335 1587
-587 337 1598
-585 339 1608
-577 337 1601
-568 335 1592
-552 328 1562
-562 337 1606
-552 334 1591
-546 334 1591
-539 332 1586
-540 336 1604
-538 337 1612
-529 335 1603
-528 337 1616
-525 338 1622
-517 336 1615
-511 336 1613
-503 333 1603
-509 340 1639
-508 343 1653
-494 337 1625
-484 334 1612
-481 334 1616
-480 338 1633
-469 333 1611
-465 333 1615
-462 335 1624
-459 336 1630
-451 334 1623
-443 332 1611
-440 333 1620
-441 338 1643
-428 331 1612
-427 334 1629
-423 335 1633
-416 333 1624
-413 335 1634
-410 336 1642
-400 332 1623
-398 334 1634
-392 333 1629
-387 333 1633
-381 332 1626
-371 328 1608
-369 330 1620
-362 328 1611
-357 327 1609
-351 326 1603
-347 327 1607
-340 325 1600
-336 326 1604
-332 326 1608
-327 326 1608
-327 331 1631
-318 326 1612
-309 322 1591
-308 326 1612
-300 323 1595
-299 327 1616
-293 324 1606
-287 324 1603
-285 326 1616
-276 322 1596
-270 320 1586
-266 321 1593
-261 320 1591
-256 320 1589
-249 318 1579
-243 315 1567
-238 315 1568
-234 316 1572
-229 315 1568
-226 318 1582
-223 320 1594
-216 316 1576
-213 319 1588
-207 317 1580
-202 316 1575
-198 317 1583
-196 321 1603
-190 319 1592
-186 320 1599
-181 320 1597
-175 317 1583
-170 317 1585
-168 322 1611
-162 318 1594
-158 321 1605
-154 321 1606
-149 320 1601
-145 321 1610
-140 322 1613
-135 320 1606
-128 316 1586
-121 309 1550
-113 300 1504
-102 284 1424
-95 274 1376
-88 265 1330
-82 259 1297
-76 253 1271
-73 253 1271
-69 252 1266
-64 251 1259
-61 253 1272
-58 254 1276
-54 253 1269
-51 257 1292
-47 254 1277
-44 259 1303
-41 266 1339
-39 274 1376
-35 277 1394
-32 288 1447
-30 306 1539
-26 310 1563
-22 320 1610
-18 327 1646
-13 324 1630
-8 325 1637
-3 326 1645
0 322 1622
5 324 1635
10 324 1635
15 325 1637
19 325 1639
24 322 1625
29 322 1625
33 322 1623
39 325 1639
43 324 1636
48 322 1625
53 325 1638
58 325 1640
63 326 1647
67 324 1635
72 323 1628
77 325 1641
81 323 1632
87 326 1647
92 329 1658
96 324 1634
100 323 1628
106 325 1638
110 324 1636
116 327 1650
121 326 1646
127 330 1665
130 326 1644
135 327 1649
139 324 1633
144 324 1636
151 330 1662
154 326 1641
160 329 1657
165 328 1655
170 329 1659
173 325 1638
179 327 1646
185 330 1662
189 328 1653
195 330 1664
200 330 1662
210 338 1701
213 334 1683
215 331 1666
222 334 1681
226 332 1672
229 329 1655
237 334 1679
240 331 1663
247 334 1678
253 335 1687
255 332 1667
259 330 1660
266 333 1673
269 330 1659
274 330 1659
279 331 1660
281 327 1643
286 328 1644
292 328 1647
299 331 1661
305 332 1662
312 334 1672
312 329 1648
316 329 1645
326 333 1667
329 332 1660
333 331 1654
339 331 1657
343 330 1652
345 328 1639
352 330 1646
362 334 1670
365 332 1659
367 330 1646
371 329 1643
377 330 1645
391 338 1682
388 331 1648
395 333 1656
397 330 1642
405 333 1654
408 331 1645
417 334 1660
420 332 1651
426 333 1656
430 332 1649
438 335 1663
439 332 1646
444 332 1646
451 334 1652
458 335 1657
465 337 1665
470 336 1662
476 337 1665
479 336 1658
488 339 1671
492 338 1666
494 335 1653
502 338 1663
510 340 1672
516 340 1672
514 336 1650
522 338 1659
536 343 1684
537 340 1670
542 340 1669
540 336 1645
554 342 1672
552 337 1649
559 338 1655
567 340 1660
575 342 1669
581 342 1668
602 352 1714
633 366 1784
639 367 1785
638 363 1766
643 363 1762
641 358 1740
643 356 1728
642 353 1712
647 353 1709
649 351 1700
654 351 1696
659 350 1693
663 350 1690
674 353 1702
676 351 1691
692 357 1716
691 354 1700
702 356 1711
715 360 1727
713 356 1708
720 358 1712
725 357 1709
731 357 1708
726 353 1683
738 355 1694
743 355 1693
746 354 1685
750 354 1680
758 355 1684
761 354 1677
770 355 1682
769 352 1667
766 348 1646
754 341 1609
725 325 1533
707 315 1482
625 277 1299
547 240 1126
634 277 1298
680 295 1380
726 313 1464
782 335 1564
806 343 1600
806 341 1588
814 342 1592
823 344 1597
830 344 1597
823 339 1572
837 343 1587
840 342 1581
842 341 1573
838 337 1553
837 334 1539
836 332 1525
835 330 1512
826 324 1484
831 324 1482
826 320 1463
827 319 1454
827 317 1444
-491 196 840
-484 194 834
-478 193 829
-473 192 828
-493 201 868
-484 199 860
-492 203 880
-483 201 871
-486 203 883
-461 194 844
-482 204 889
-498 212 925
-500 214 937
-484 209 914
-493 213 937
-476 208 912
-496 218 958
-497 219 967
-497 221 975
-515 230 1017
-499 224 993
-502 227 1007
-514 234 1040
-528 241 1076
-560 258 1150
-547 253 1134
-540 252 1128
-530 249 1117
-532 251 1128
-526 250 1126
-528 253 1139
-526 254 1144
-550 267 1205
-578 282 1278
-562 276 1253
-568 281 1277
-545 272 1235
-520 261 1188
-502 254 1156
-505 257 1173
-511 262 1197
-511 264 1209
-520 271 1240
-530 278 1275
-586 309 1421
-624 331 1526
-638 342 1574
-629 339 1565
-631 343 1583
-619 339 1569
-616 340 1573
-612 340 1577
-606 340 1576
-604 341 1585
-595 339 1575
-589 338 1574
-582 337 1571
-579 338 1576
-575 338 1580
-564 335 1565
-561 336 1573
-554 335 1568
-548 334 1565
-549 337 1582
-539 334 1568
-533 333 1568
-541 341 1606
-527 335 1580
-532 341 1611
-525 340 1605
-516 337 1594
-517 341 1614
-510 340 1610
-504 339 1606
-500 340 1611
-506 347 1645
-494 342 1624
-482 337 1603
-477 337 1603
-474 338 1609
-465 335 1597
-465 339 1617
-458 337 1608
-448 333 1592
-442 332 1590
-433 329 1575
-435 334 1600
-431 335 1605
-423 332 1594
-420 334 1602
-420 337 1621
-414 336 1616
-410 337 1621
-400 333 1602
-398 335 1613
-392 334 1607
-386 333 1604
-383 334 1612
-378 334 1613
-372 333 1607
-369 335 1619
-361 332 1606
-356 331 1603
-346 327 1582
-342 327 1586
-335 325 1574
-332 327 1587
-331 330 1602
-322 326 1585
-320 329 1599
-317 330 1605
-310 328 1595
-307 329 1603
-301 328 1599
-295 327 1593
-289 326 1589
-287 329 1604
-278 323 1578
-275 325 1587
-270 325 1587
-265 324 1585
-255 318 1554
-252 320 1567
-250 323 1579
-240 316 1549
-237 318 1558
-233 318 1561
-228 318 1561
-224 320 1567
-220 321 1574
-215 320 1571
-210 319 1565
-205 319 1565
-202 320 1572
-198 322 1583
-192 319 1569
-186 317 1560
-185 323 1589
-179 320 1577
-175 321 1582
-170 321 1580
-165 321 1581
-160 320 1579
-155 320 1576
-153 324 1598
-148 323 1592
-142 321 1586
-139 324 1597
-133 321 1587
-125 313 1547
-117 303 1496
-110 297 1465
-101 283 1400
-93 272 1344
-86 264 1304
-80 257 1268
-76 255 1260
-72 254 1255
-68 253 1250
-64 252 1246
-60 253 1251
-57 253 1251
-53 254 1255
-50 258 1278
-47 258 1275
-44 263 1303
-41 267 1322
-38 272 1345
-34 275 1360
-32 287 1422
-29 301 1492
-26 311 1544
-22 322 1596
-17 324 1610
-13 327 1624
-8 323 1605
-3 320 1590
0 327 1624
5 323 1603
10 326 1620
14 324 1607
19 325 1615
24 323 1606
29 325 1614
33 322 1597
38 327 1623
43 325 1616
48 326 1621
52 325 1616
57 327 1626
62 325 1613
67 327 1625
71 323 1607
77 329 1636
81 326 1621
86 328 1630
92 331 1644
95 325 1613
98 321 1597
106 330 1640
109 326 1617
114 325 1612
119 328 1628
125 329 1637
130 330 1639
134 328 1630
139 329 1636
143 327 1624
149 330 1640
155 333 1653
159 330 1640
164 332 1648
169 332 1648
174 332 1647
177 328 1626
183 331 1641
189 332 1645
192 329 1631
199 332 1649
204 333 1653
209 333 1653
212 331 1640
218 332 1647
223 332 1648
229 333 1652
235 335 1660
240 335 1662
242 332 1642
247 332 1645
251 331 1641
257 332 1645
260 330 1631
268 334 1654
271 332 1642
276 331 1638
284 335 1658
285 331 1633
292 333 1647
296 332 1638
303 335 1652
305 332 1636
306 328 1617
315 332 1636
321 333 1644
325 332 1636
331 333 1640
336 333 1641
338 331 1628
344 332 1634
351 334 1641
357 335 1645
357 330 1623
363 331 1628
373 336 1650
372 330 1620
380 333 1636
385 333 1633
388 331 1625
393 332 1627
403 336 1644
404 332 1627
411 334 1636
419 337 1650
422 336 1641
425 334 1631
430 334 1631
435 334 1630
444 337 1645
448 336 1638
454 337 1641
462 339 1653
468 340 1653
473 340 1656
471 335 1627
477 336 1632
483 337 1635
490 338 1639
496 338 1640
501 339 1641
509 340 1649
516 342 1655
517 339 1639
524 340 1645
531 342 1651
534 340 1643
540 341 1644
544 340 1641
552 342 1649
561 345 1660
566 345 1658
563 340 1633
580 347 1666
597 354 1698
620 364 1748
630 367 1758
641 370 1773
639 365 1749
638 362 1730
635 358 1708
633 353 1686
638 353 1683
638 350 1668
654 356 1696
655 354 1683
664 356 1691
667 355 1683
673 355 1682
681 356 1688
681 354 1674
698 360 1702
691 353 1669
708 359 1695
715 360 1698
713 357 1679
722 358 1686
723 356 1674
734 359 1686
735 357 1673
737 355 1664
746 357 1671
756 359 1679
763 360 1680
758 355 1656
759 353 1645
767 354 1648
768 353 1638
757 345 1601
737 333 1545
704 317 1465
676 302 1394
595 264 1217
552 243 1118
626 274 1260
695 302 1390
761 329 1509
792 340 1560
802 342 1566
807 342 1564
817 344 1571
826 346 1578
826 344 1565
823 340 1547
829 340 1547
832 340 1541
837 339 1538
846 341 1543
842 337 1524
834 332 1499
833 330 1486
834 328 1477
827 324 1453
828 322 1444
-484 196 828
-492 201 848
-484 198 839
-486 201 850
-478 198 842
-496 207 881
-484 203 866
-489 206 882
-492 209 893
-493 210 901
-492 211 908
-502 217 933
-487 212 912
-499 218 941
-495 217 940
-488 216 935
-490 218 946
-469 210 913
-480 216 941
-503 228 994
-507 231 1010
-523 240 1049
-539 249 1090
-555 257 1131
-548 256 1125
-540 254 1117
-533 252 1112
-538 256 1132
-533 256 1131
-531 256 1134
-521 253 1124
-524 256 1139
-554 273 1215
-575 285 1269
-574 286 1278
-559 281 1256
-545 276 1234
-514 262 1174
-504 259 1161
-509 263 1182
-500 260 1170
-512 268 1208
-514 272 1225
-542 288 1302
-592 317 1434
-637 343 1556
-624 339 1539
-619 339 1540
-625 345 1569
-609 338 1542
-610 341 1557
-605 341 1558
-595 338 1547
-594 340 1557
-593 343 1571
-584 340 1561
-574 337 1548
-575 341 1566
-572 341 1570
-560 337 1552
-552 335 1547
-552 338 1560
-545 337 1556
-534 333 1538
-527 332 1535
-533 338 1566
-527 337 1564
-532 343 1595
-522 340 1581
-519 341 1588
-519 344 1603
-516 346 1611
-501 338 1579
-500 341 1593
-497 343 1601
-502 349 1634
-492 346 1619
-474 336 1576
-468 336 1574
-462 335 1570
-465 340 1598
-456 337 1582
-455 340 1599
-453 342 1609
-442 337 1590
-434 335 1578
-431 336 1584
-425 335 1580
-423 337 1590
-418 336 1591
-407 332 1571
-406 334 1584
-399 333 1578
-398 335 1591
-397 339 1609
-387 335 1589
-383 335 1593
-380 337 1601
-380 340 1620
-365 332 1579
-367 337 1608
-359 335 1597
-350 330 1576
-341 326 1556
-341 331 1580
-337 332 1585
-328 327 1565
-326 330 1577
-321 329 1576
-320 333 1594
-312 330 1579
-305 327 1567
-299 325 1561
-295 326 1565
-290 326 1563
-284 325 1561
-281 326 1569
-273 323 1552
-272 327 1572
-266 325 1566
-260 323 1555
-253 320 1541
-250 322 1553
-243 318 1534
-238 318 1534
-234 319 1541
-232 322 1556
-227 322 1554
-221 320 1547
-219 323 1560
-213 321 1550
-211 325 1574
-204 321 1553
-199 320 1551
-193 318 1539
-191 322 1560
-186 321 1555
-180 319 1549
-177 321 1557
-173 324 1570
-169 324 1575
-165 325 1580
-160 325 1578
-154 321 1559
-151 324 1577
-147 325 1581
-141 323 1573
-136 322 1565
-134 327 1591
-125 317 1544
-116 306 1487
-107 293 1427
-97 278 1354
-91 272 1325
-85 264 1285
-80 261 1269
-74 254 1235
-70 254 1237
-67 253 1234
-63 254 1237
-60 255 1240
-56 254 1240
-53 256 1245
-50 259 1265
-46 258 1257
-43 264 1288
-40 266 1296
-37 272 1327
-34 277 1350
-31 286 1396
-29 305 1491
-25 311 1519
-22 325 1588
-17 324 1585
-13 327 1598
-8 323 1578
-3 324 1585
0 327 1599
5 322 1577
10 325 1589
14 324 1586
19 326 1596
24 326 1596
28 324 1586
33 322 1578
38 324 1588
43 329 1608
47 327 1601
52 330 1616
57 329 1610
61 325 1591
66 327 1599
71 331 1620
76 330 1618
80 326 1595
85 328 1607
90 328 1606
94 326 1595
100 330 1615
104 329 1610
108 326 1597
113 328 1608
118 327 1602
123 329 1610
128 329 1610
133 330 1615
137 329 1609
142 329 1610
146 328 1602
152 331 1619
156 329 1608
161 329 1611
167 332 1621
173 334 1632
177 333 1628
181 331 1618
187 333 1628
192 334 1632
199 338 1649
200 332 1622
207 334 1633
210 333 1624
214 331 1617
220 333 1626
225 333 1625
230 334 1629
235 334 1627
239 333 1623
247 337 1645
251 335 1634
254 333 1622
259 333 1624
267 337 1643
269 334 1629
275 335 1633
280 336 1633
283 334 1624
290 336 1633
290 330 1607
298 334 1624
304 336 1631
304 330 1604
313 334 1625
320 337 1638
321 333 1617
328 334 1623
328 330 1601
337 334 1620
339 332 1608
342 330 1599
353 336 1627
357 335 1621
363 336 1625
366 334 1617
370 334 1614
377 335 1621
381 334 1615
387 336 1622
391 335 1615
396 335 1614
397 332 1600
405 334 1612
410 335 1612
414 334 1608
419 334 1608
424 334 1606
432 336 1616
432 333 1599
442 337 1617
442 333 1598
454 338 1621
464 342 1639
466 340 1628
472 340 1630
481 343 1644
476 336 1607
485 339 1623
490 340 1622
497 341 1627
504 342 1633
512 344 1640
513 341 1627
518 341 1625
525 342 1630
527 341 1620
535 343 1630
538 341 1620
541 340 1615
551 343 1628
557 344 1630
558 341 1616
571 346 1638
585 352 1663
606 361 1705
626 370 1747
626 366 1728
632 367 1730
630 363 1708
626 357 1681
628 356 1671
633 355 1669
642 358 1677
632 349 1636
656 359 1683
665 362 1692
668 360 1684
678 363 1695
676 359 1674
693 365 1702
683 357 1663
690 358 1665
695 358 1662
704 360 1671
704 357 1657
716 360 1669
719 360 1664
724 359 1660
729 359 1657
735 359 1658
738 358 1651
742 358 1647
747 357 1643
754 359 1647
754 356 1631
763 358 1639
770 358 1640
767 355 1621
767 352 1608
768 350 1596
728 330 1501
696 313 1422
658 294 1335
565 251 1135
590 260 1177
671 294 1329
710 309 1396
764 331 1492
798 343 1546
817 349 1570
815 346 1555
815 344 1543
817 342 1534
823 343 1535
837 347 1549
836 344 1536
830 340 1513
843 343 1525
841 340 1511
839 337 1495
835 334 1477
835 332 1465
828 327 1443
-478 196 816
-502 207 864
-491 204 852
-492 206 860
-488 205 858
-483 204 856
-497 211 887
-472 202 850
-495 213 898
-491 212 898
-484 211 891
-494 216 916
-503 221 940
-476 211 897
-491 219 933
-486 218 930
-500 225 964
-477 217 927
-495 226 970
-514 236 1015
-528 244 1051
-540 251 1084
-545 255 1101
-551 259 1122
-542 257 1112
-530 252 1096
-530 254 1105
-534 258 1122
-534 260 1133
-523 256 1118
-519 256 1119
-525 260 1141
-547 273 1197
-571 287 1260
-570 288 1269
-561 285 1258
-548 281 1239
-518 268 1183
-510 265 1173
-502 263 1164
-499 263 1167
-507 270 1198
-523 280 1245
-560 302 1344
-616 334 1493
-628 343 1533
-623 343 1534
-615 341 1530
-613 343 1538
-606 341 1533
-606 344 1548
-593 339 1526
-594 343 1545
-592 344 1554
-584 342 1545
-580 343 1550
-577 344 1556
-569 341 1547
-564 342 1549
-553 338 1532
-550 339 1539
-542 336 1530
-536 336 1530
-539 340 1552
-525 335 1527
-525 338 1542
-524 340 1554
-518 339 1551
-517 341 1563
-515 344 1575
-509 343 1572
-508 345 1583
-505 346 1590
-492 341 1568
-487 340 1567
-490 346 1594
-480 342 1577
-476 343 1582
-468 340 1570
-463 340 1572
-454 337 1560
-455 341 1580
-448 339 1573
-443 339 1574
-439 340 1577
-430 336 1562
-428 338 1572
-421 337 1567
-416 336 1566
-414 339 1578
-406 336 1565
-402 336 1570
-398 337 1572
-393 336 1571
-392 339 1587
-386 339 1585
-380 337 1579
-376 338 1583
-370 336 1578
-365 336 1579
-361 337 1582
-352 333 1564
-343 329 1545
-341 332 1559
-335 330 1554
-330 329 1550
-324 328 1545
-320 328 1548
-315 329 1549
-312 329 1555
-308 330 1560
-302 329 1553
-297 328 1552
-292 328 1550
-286 326 1544
-282 327 1548
-277 327 1546
-275 329 1561
-269 328 1555
-262 324 1537
-258 326 1546
-253 324 1539
-248 324 1539
-239 318 1512
-236 320 1521
-231 320 1520
-229 323 1538
-224 322 1532
-220 323 1537
-216 324 1545
-209 320 1525
-207 323 1539
-201 321 1532
-198 324 1545
-194 324 1548
-189 324 1549
-185 324 1549
-178 321 1532
-177 326 1559
-172 325 1554
-168 327 1564
-162 324 1548
-156 321 1537
-153 325 1555
-149 324 1554
-144 325 1555
-139 323 1548
-135 324 1555
-130 324 1554
-122 315 1508
-113 303 1451
-103 288 1380
-96 280 1342
-90 274 1312
-84 267 1279
-79 262 1258
-73 255 1223
-69 252 1209
-66 256 1229
-62 253 1215
-59 254 1220
-56 258 1237
-52 256 1229
-49 258 1241
-46 262 1259
-42 263 1262
-39 267 1285
-36 272 1308
-33 277 1330
-31 287 1383
-29 307 1480
-25 310 1495
-21 322 1552
-17 328 1580
-12 328 1578
-8 328 1580
-3 325 1568
1 327 1579
5 325 1565
10 326 1573
14 327 1575
19 325 1567
23 326 1570
28 327 1576
33 325 1566
37 328 1581
42 327 1578
46 325 1566
51 327 1577
56 328 1581
61 328 1582
65 329 1587
69 325 1567
75 329 1586
80 330 1592
83 327 1577
89 329 1589
93 329 1585
98 328 1581
102 328 1584
108 331 1597
112 329 1586
117 330 1591
121 327 1579
128 334 1610
131 330 1592
135 329 1586
140 329 1588
145 330 1593
149 329 1587
156 335 1612
160 333 1603
164 331 1596
168 330 1588
176 335 1614
176 327 1577
185 334 1609
190 334 1610
195 336 1618
200 336 1616
204 334 1608
210 336 1618
213 335 1610
217 333 1604
222 333 1600
228 334 1608
234 337 1622
238 336 1616
241 334 1604
249 338 1625
248 330 1586
257 335 1611
265 340 1633
266 335 1609
268 332 1591
276 335 1608
278 331 1589
282 331 1589
290 335 1606
290 330 1580
298 333 1596
303 333 1594
309 334 1600
312 333 1593
318 334 1599
323 335 1600
331 338 1614
335 337 1612
337 334 1594
342 334 1594
350 337 1609
350 333 1589
357 335 1595
363 336 1603
366 335 1596
371 335 1594
380 339 1612
378 332 1580
381 331 1574
391 335 1595
393 333 1583
410 343 1630
404 334 1587
413 337 1601
417 337 1597
419 335 1587
429 339 1607
436 340 1612
440 340 1608
447 342 1616
449 340 1605
458 343 1619
463 342 1616
461 338 1592
471 341 1610
467 335 1578
479 340 1601
480 337 1586
489 340 1600
497 342 1609
498 340 1596
503 339 1593
509 340 1596
519 344 1612
519 341 1596
526 342 1599
537 346 1617
542 345 1615
551 349 1628
548 343 1601
559 347 1618
565 347 1619
580 354 1646
603 364 1696
619 371 1724
628 373 1734
626 369 1713
618 361 1674
613 355 1646
621 357 1653
629 358 1657
636 360 1662
633 355 1638
647 360 1660
659 363 1675
663 363 1671
673 365 1680
671 362 1662
682 364 1673
678 359 1649
683 359 1646
689 360 1646
698 362 1656
703 362 1654
705 360 1643
714 362 1650
719 362 1648
724 362 1645
728 361 1641
729 359 1630
745 364 1651
741 360 1629
750 361 1635
752 360 1627
762 362 1636
753 356 1604
771 362 1629
772 360 1618
768 355 1595
774 356 1596
754 344 1542
720 327 1460
692 312 1393
667 299 1330
575 256 1136
610 270 1198
698 306 1360
735 321 1423
775 336 1489
804 346 1533
815 349 1541
809 344 1520
812 343 1513
819 344 1515
829 346 1522
830 345 1511
841 347 1520
838 344 1504
845 345 1505
845 343 1494
849 342 1489
836 335 1456
-481 200 821
-479 201 825
-491 207 851
-484 205 845
-494 211 870
-496 213 880
-470 203 840
-488 212 878
-495 216 897
-473 208 865
-486 215 895
-472 209 875
-500 223 934
-485 218 914
-497 224 943
-475 216 909
-496 227 956
-511 235 993
-540 250 1057
-539 251 1063
-548 257 1090
-542 255 1087
-547 259 1104
-547 261 1114
-542 260 1113
-534 258 1104
-538 262 1122
-537 263 1129
-530 261 1124
-546 271 1167
-532 266 1147
-524 264 1138
-550 278 1203
-567 289 1252
-568 291 1265
-559 288 1253
-545 284 1234
-530 278 1210
-496 262 1140
-502 267 1164
-497 266 1164
-507 273 1195
-519 282 1235
-575 314 1380
-623 343 1508
-627 347 1530
-616 344 1517
-609 342 1512
-608 345 1524
-597 341 1509
-603 347 1538
-584 339 1503
-595 348 1546
-583 344 1529
-581 345 1537
-575 344 1534
-564 341 1521
-560 341 1524
-556 341 1525
-554 343 1536
-541 338 1514
-542 341 1529
-530 337 1511
-528 338 1521
-518 335 1507
-511 334 1501
-522 343 1546
-516 342 1544
-512 343 1550
-508 344 1553
-499 340 1539
-496 342 1548
-486 338 1531
-486 341 1548
-482 342 1550
-479 343 1557
-478 345 1570
-470 343 1561
-462 341 1552
-458 341 1555
-451 339 1547
-448 341 1555
-444 341 1557
-434 337 1540
-429 337 1541
-425 337 1542
-425 341 1563
-420 341 1562
-409 335 1538
-404 335 1537
-405 340 1561
-404 343 1577
-398 341 1570
-389 338 1557
-385 338 1559
-379 337 1555
-375 337 1556
-369 336 1554
-367 339 1567
-365 341 1576
-358 339 1570
-347 333 1540
-338 328 1521
-336 331 1534
-327 327 1515
-326 330 1532
-325 334 1551
-319 332 1543
-315 332 1545
-309 331 1541
-302 329 1529
-300 331 1544
-293 329 1531
-291 331 1544
-283 327 1525
-279 328 1531
-274 327 1528
-269 327 1527
-265 327 1527
-260 326 1525
-256 327 1529
-250 325 1520
-245 325 1519
-237 321 1502
-232 320 1498
-230 322 1509
-225 321 1507
-223 325 1525
-217 323 1516
-212 322 1513
-209 324 1521
-206 327 1538
-201 325 1529
-196 325 1526
-192 325 1530
-187 325 1532
-184 328 1543
-178 324 1526
-173 324 1528
-169 324 1528
-164 323 1522
-163 330 1557
-156 326 1537
-151 325 1534
-147 326 1537
-143 326 1537
-138 326 1539
-134 325 1537
-130 327 1547
-118 309 1461
-111 301 1421
-102 289 1366
-94 277 1311
-88 271 1281
-83 266 1259
-78 262 1237
-73 257 1217
-69 256 1212
-65 255 1206
-62 256 1212
-58 255 1208
-55 257 1216
-51 255 1207
-48 259 1227
-45 258 1222
-41 261 1237
-39 267 1265
-36 271 1284
-33 278 1319
-30 288 1364
-28 309 1465
-24 308 1464
-21 319 1516
-17 329 1562
-12 329 1564
-8 328 1556
-3 325 1546
1 328 1559
5 327 1555
10 324 1541
14 325 1542
19 326 1548
23 327 1553
28 329 1562
33 329 1563
37 328 1559
42 328 1560
46 329 1563
51 329 1565
55 324 1541
60 329 1563
65 329 1562
70 331 1572
74 329 1566
78 329 1562
83 328 1560
88 331 1572
93 334 1588
97 331 1575
102 330 1570
106 328 1561
112 333 1581
115 328 1557
121 333 1581
125 331 1572
129 329 1563
134 332 1576
140 335 1591
145 334 1585
148 330 1568
153 333 1580
158 333 1582
162 332 1577
166 330 1569
172 332 1577
178 335 1591
184 338 1605
188 336 1595
193 337 1598
198 337 1600
203 338 1604
206 335 1589
210 334 1581
216 336 1594
218 332 1575
224 333 1578
230 335 1587
235 336 1589
238 333 1579
243 334 1580
251 338 1602
254 336 1592
259 336 1590
260 332 1570
264 332 1568
272 335 1585
278 336 1589
281 334 1578
286 335 1583
292 336 1586
296 336 1585
299 334 1576
306 336 1587
310 336 1583
314 334 1575
320 337 1586
325 337 1586
325 331 1559
333 335 1578
339 336 1583
342 335 1575
349 336 1581
355 338 1587
357 335 1576
361 334 1569
367 335 1574
372 336 1574
377 336 1576
382 336 1577
388 338 1582
395 339 1588
398 338 1582
405 339 1588
405 335 1568
411 337 1572
416 337 1573
422 338 1579
429 340 1584
440 345 1607
439 340 1584
446 342 1593
449 340 1584
454 341 1585
463 343 1596
464 341 1584
468 340 1578
472 340 1576
473 337 1560
486 343 1588
493 344 1594
493 341 1578
498 341 1578
508 344 1592
516 346 1599
516 343 1584
517 341 1572
525 343 1579
537 347 1600
543 348 1601
548 348 1600
557 351 1611
561 350 1607
564 349 1599
593 363 1667
610 371 1700
613 370 1693
611 365 1670
600 356 1624
605 355 1622
602 350 1599
624 360 1642
625 358 1632
628 357 1623
631 356 1618
642 359 1630
650 361 1637
662 364 1652
661 361 1635
669 363 1641
679 365 1650
683 365 1646
686 363 1638
696 366 1650
705 368 1657
707 366 1647
715 367 1650
716 366 1641
718 364 1630
722 363 1626
738 369 1648
735 364 1628
743 366 1632
745 364 1624
748 363 1617
754 364 1617
755 361 1605
758 361 1599
765 361 1600
774 363 1607
770 359 1586
778 360 1589
769 354 1559
755 345 1518
721 328 1439
697 314 1379
672 301 1320
584 260 1137
641 284 1239
703 309 1349
739 323 1408
786 341 1485
806 348 1512
814 349 1516
816 348 1508
823 349 1509
822 346 1497
828 347 1496
835 348 1498
836 346 1487
849 349 1499
846 346 1483
848 345 1475
-482 204 822
-480 204 825
-466 199 807
-484 208 844
-482 208 847
-492 214 871
-486 212 867
-485 213 872
-488 216 884
-467 208 852
-478 214 879
-485 218 899
-477 216 891
-493 224 928
-505 231 957
-498 229 951
-519 240 1000
-611 284 1186
-763 356 1491
-752 354 1483
-588 279 1169
-555 265 1111
-545 262 1100
-545 264 1110
-546 266 1119
-536 263 1108
-536 264 1116
-537 266 1127
-516 258 1092
-537 270 1146
-520 263 1119
-524 267 1136
-549 282 1200
-570 294 1257
-569 296 1265
-558 292 1250
-549 289 1240
-515 274 1174
-507 271 1165
-503 271 1167
-500 272 1169
-505 276 1191
-536 295 1274
-606 336 1453
-618 345 1495
-617 346 1505
-610 345 1501
-593 338 1473
-600 345 1503
-596 345 1507
-591 345 1507
-586 345 1507
-579 344 1504
-571 342 1497
-575 346 1520
-567 344 1512
-559 343 1507
-561 347 1526
-559 348 1533
-542 341 1502
-534 338 1492
-526 336 1485
-526 339 1500
-521 339 1500
-513 336 1490
-514 340 1510
-510 341 1513
-514 346 1537
-503 342 1522
-503 345 1535
-499 345 1538
-491 343 1531
-487 343 1533
-484 344 1540
-478 344 1539
-475 344 1543
-464 340 1523
-460 340 1526
-454 340 1525
-448 339 1521
-454 346 1557
-444 342 1540
-440 343 1543
-433 341 1537
-426 339 1528
-421 338 1528
-419 341 1540
-418 344 1553
-411 341 1544
-403 339 1534
-392 334 1511
-393 338 1534
-391 340 1542
-382 337 1528
-379 338 1535
-376 339 1541
-371 338 1540
-367 339 1545
-365 342 1557
-358 339 1545
-353 339 1547
-345 335 1530
-336 331 1513
-334 333 1523
-328 332 1517
-322 330 1511
-319 333 1522
-315 333 1524
-308 330 1513
-304 330 1513
-300 331 1517
-292 328 1504
-286 325 1493
-283 327 1501
-281 329 1515
-273 326 1497
-269 326 1502
-266 328 1509
-263 330 1520
-256 326 1503
-253 328 1512
-248 327 1508
-244 327 1511
-235 322 1486
-232 324 1495
-228 325 1500
-223 323 1493
-218 322 1489
-216 326 1509
-212 326 1510
-206 325 1505
-203 327 1513
-198 325 1506
-193 324 1503
-187 322 1493
-184 325 1507
-180 325 1510
-177 328 1523
-171 325 1511
-166 324 1504
-163 326 1516
-157 324 1506
-153 325 1509
-151 329 1529
-145 326 1516
-142 328 1527
-136 324 1510
-131 324 1508
-124 318 1483
-117 310 1442
-108 299 1390
-100 288 1340
-92 276 1284
-87 272 1267
-81 264 1229
-77 262 1220
-71 256 1192
-68 257 1199
-64 256 1195
-61 255 1189
-58 258 1201
-54 257 1199
-51 258 1205
-47 258 1206
-44 260 1213
-41 264 1231
-38 268 1250
-35 273 1275
-32 278 1297
-30 289 1353
-28 307 1438
-24 311 1455
-20 321 1502
-16 329 1542
-12 328 1538
-7 330 1546
-3 328 1537
1 329 1540
5 330 1548
10 331 1550
14 332 1553
19 331 1550
23 328 1539
27 326 1528
32 330 1546
36 326 1527
41 330 1546
46 329 1540
51 332 1558
55 332 1555
59 329 1543
64 328 1536
69 333 1560
73 330 1548
77 329 1542
81 327 1534
87 333 1562
92 333 1562
97 333 1562
101 334 1563
105 332 1555
110 331 1553
115 332 1558
119 333 1558
124 332 1557
128 330 1546
132 331 1549
137 330 1546
142 333 1558
148 335 1570
152 334 1564
155 331 1547
161 334 1562
167 337 1578
170 332 1556
175 334 1561
181 336 1572
186 336 1573
191 337 1577
196 338 1579
202 340 1590
203 334 1561
209 336 1570
211 333 1556
219 338 1579
225 340 1588
225 333 1554
234 339 1583
237 337 1573
241 335 1565
245 336 1566
250 336 1567
253 333 1554
258 333 1553
262 333 1551
273 341 1587
274 336 1565
277 335 1560
282 334 1557
289 338 1573
290 334 1553
298 337 1567
303 337 1568
304 334 1551
313 339 1573
316 337 1565
319 335 1553
327 338 1569
329 335 1556
334 335 1555
335 332 1541
347 340 1573
347 335 1552
350 333 1541
359 338 1562
367 340 1574
367 336 1554
374 338 1563
378 338 1559
381 336 1550
392 342 1576
395 340 1567
396 337 1552
403 339 1561
407 339 1559
411 338 1554
419 340 1566
422 339 1557
427 339 1557
435 342 1569
435 338 1552
437 336 1539
451 343 1573
452 340 1557
461 343 1572
463 341 1562
473 345 1579
475 343 1568
479 343 1565
485 343 1566
490 343 1566
490 340 1550
493 339 1544
502 342 1557
516 348 1584
519 347 1578
523 346 1574
529 347 1575
530 344 1562
537 346 1569
549 351 1588
558 353 1597
568 356 1610
595 370 1672
607 374 1689
608 371 1676
603 366 1648
606 364 1640
608 362 1629
613 362 1629
616 361 1621
621 361 1619
619 357 1601
632 361 1619
632 359 1605
647 364 1627
645 360 1608
652 361 1611
657 361 1610
666 363 1618
674 365 1624
683 367 1631
688 367 1629
698 369 1638
700 368 1630
709 370 1637
717 371 1641
709 365 1610
720 367 1621
726 368 1621
733 369 1623
737 368 1617
742 368 1616
743 366 1606
752 368 1612
749 364 1592
759 366 1601
762 365 1593
768 366 1593
768 363 1582
775 364 1584
772 360 1565
778 361 1564
776 357 1548
760 348 1503
721 328 1414
704 318 1371
660 296 1274
582 260 1114
654 290 1244
710 313 1340
747 327 1400
792 345 1473
804 348 1484
819 352 1501
814 348 1480
825 350 1489
830 350 1487
827 347 1471
838 350 1480
848 351 1485
837 345 1455
-487 209 831
-478 206 822
-486 210 841
-478 208 833
-477 209 838
-482 212 853
-499 221 889
-486 217 874
-484 217 876
-491 221 896
-488 221 898
-496 226 918
-490 225 915
-483 223 909
-501 233 950
-521 243 995
-585 274 1126
-812 382 1575
-870 412 1700
-818 390 1610
-669 321 1329
-547 265 1096
-546 266 1100
-542 266 1102
-541 267 1109
-538 267 1111
-533 267 1110
-527 265 1106
-519 263 1099
-505 258 1078
-520 267 1118
-525 271 1138
-546 284 1194
-568 297 1251
-569 300 1264
-561 298 1258
-545 291 1231
-514 277 1172
-505 274 1160
-498 272 1155
-491 270 1149
-504 279 1188
-549 306 1305
-602 338 1444
-610 345 1474
-605 345 1476
-608 349 1495
-599 346 1486
-591 345 1481
-584 343 1475
-579 343 1477
-579 345 1489
-571 344 1483
-570 345 1492
-569 347 1502
-561 346 1496
-553 343 1488
-545 341 1480
-547 345 1500
-540 344 1495
-537 345 1500
-533 345 1503
-518 339 1477
-516 340 1485
-513 341 1491
-512 343 1502
-506 342 1500
-505 345 1512
-495 341 1494
-491 341 1497
-500 350 1541
-486 344 1514
-482 345 1518
-477 344 1516
-465 338 1493
-471 346 1528
-462 343 1517
-455 341 1509
-448 339 1502
-446 341 1512
-445 344 1525
-434 339 1505
-438 346 1537
-434 346 1538
-420 339 1508
-415 338 1506
-411 339 1510
-413 344 1534
-408 344 1535
-397 338 1510
-391 337 1506
-388 339 1514
-384 338 1514
-381 340 1524
-374 338 1515
-371 340 1523
-368 340 1527
-364 341 1530
-359 341 1531
-358 344 1548
-351 341 1535
-344 339 1526
-335 335 1509
-328 332 1496
-325 334 1505
-320 333 1503
-314 331 1494
-308 330 1489
-306 333 1503
-303 334 1510
-299 334 1511
-293 332 1504
-287 331 1498
-281 329 1492
-278 331 1500
-272 329 1492
-266 327 1484
-262 328 1488
-258 328 1488
-252 325 1479
-248 326 1483
-246 330 1501
-240 327 1486
-234 325 1479
-231 327 1489
-227 328 1493
-222 327 1489
-217 326 1487
-214 328 1494
-209 326 1489
-204 325 1485
-201 327 1494
-196 327 1494
-191 326 1489
-188 328 1498
-182 325 1488
-180 329 1504
-175 329 1504
-170 327 1496
-165 325 1491
-161 327 1500
-157 327 1499
-154 330 1512
-148 326 1497
-144 328 1504
-140 329 1511
-134 325 1491
-131 328 1504
-125 324 1490
-114 308 1416
-107 300 1379
-99 288 1322
-91 277 1273
-84 268 1229
-80 266 1224
-75 261 1198
-71 258 1187
-67 256 1176
-64 258 1187
-60 257 1181
-57 258 1185
-53 257 1182
-50 259 1189
-47 261 1199
-44 262 1207
-41 265 1221
-38 270 1244
-35 273 1257
-32 279 1284
-29 289 1334
-28 313 1443
-24 315 1454
-20 318 1467
-16 330 1524
-12 329 1517
-7 330 1522
-3 333 1537
1 330 1526
5 328 1514
10 330 1523
14 331 1526
18 329 1520
23 333 1537
28 333 1537
32 330 1527
37 333 1537
41 328 1514
46 333 1537
50 333 1540
55 332 1536
59 332 1534
63 331 1529
68 330 1523
73 333 1539
77 334 1542
82 332 1535
87 336 1551
91 335 1546
95 331 1529
100 333 1537
105 334 1545
109 333 1537
114 336 1551
117 330 1525
121 330 1523
126 329 1521
132 335 1547
137 337 1554
141 335 1547
146 335 1549
150 335 1544
155 336 1550
160 337 1554
163 333 1536
168 334 1541
173 334 1541
178 336 1551
184 339 1562
189 338 1559
194 339 1561
197 337 1555
202 337 1554
206 337 1550
210 336 1548
215 336 1548
223 341 1572
224 336 1549
228 336 1545
233 336 1547
241 340 1566
245 340 1562
247 336 1545
250 334 1535
256 336 1545
261 337 1547
269 341 1567
271 337 1548
275 336 1543
280 337 1545
284 337 1544
291 339 1556
295 339 1553
296 334 1531
302 336 1539
308 338 1547
314 339 1553
318 338 1546
323 339 1550
328 339 1550
332 338 1546
339 340 1555
340 337 1539
346 339 1547
353 340 1553
355 339 1545
361 339 1546
364 338 1541
364 334 1521
375 339 1544
380 340 1546
384 339 1543
387 338 1536
391 337 1532
398 340 1542
403 340 1543
408 340 1543
414 341 1547
419 341 1547
427 344 1558
430 343 1552
436 343 1553
440 343 1550
450 347 1568
451 344 1554
452 342 1541
459 343 1545
461 341 1535
468 343 1543
477 345 1555
480 344 1549
489 347 1562
494 348 1562
489 341 1529
496 342 1535
505 345 1548
514 348 1559
514 345 1544
530 352 1577
531 350 1565
530 346 1546
539 349 1556
548 352 1568
560 356 1588
577 363 1618
590 368 1640
594 368 1637
595 365 1623
600 366 1623
598 361 1601
608 364 1613
606 360 1595
612 361 1596
618 361 1596
624 362 1597
635 365 1610
632 360 1588
631 357 1572
629 354 1555
646 360 1581
653 361 1585
665 365 1600
673 367 1606
675 365 1596
685 367 1606
697 371 1620
702 371 1619
708 372 1620
713 371 1617
712 368 1601
719 369 1605
730 372 1615
731 370 1605
737 371 1605
743 371 1603
744 369 1593
752 370 1597
750 367 1581
765 372 1600
760 367 1576
770 369 1583
765 364 1560
770 364 1559
778 366 1563
773 361 1540
778 361 1539
772 356 1514
752 344 1464
726 330 1401
701 317 1344
645 290 1224
591 264 1113
669 297 1251
709 313 1316
754 330 1390
790 344 1446
808 350 1468
820 353 1479
813 348 1456
818 348 1453
827 350 1459
830 349 1452
837 350 1454
-491 213 837
-484 211 830
-489 215 846
-488 215 850
-490 217 860
-487 218 862
-494 222 880
-487 220 874
-483 220 875
-483 221 881
-485 223 890
-496 229 918
-487 226 909
-507 237 953
-541 254 1025
-594 281 1134
-655 311 1260
-801 382 1552
-850 408 1659
-807 390 1588
-636 310 1262
-543 266 1086
-543 268 1094
-540 268 1097
-538 269 1103
-537 270 1108
-539 273 1122
-527 269 1105
-533 274 1128
-516 266 1099
-529 275 1136
-526 275 1139
-540 285 1180
-567 301 1249
-564 301 1254
-561 302 1256
-546 296 1233
-518 283 1179
-497 273 1141
-486 269 1125
-491 274 1147
-499 280 1174
-554 313 1317
-597 340 1431
-614 352 1483
-605 349 1475
-598 348 1471
-595 349 1476
-584 345 1462
-576 343 1455
-582 349 1482
-577 349 1482
-570 348 1479
-569 349 1488
-563 349 1487
-561 350 1495
-553 348 1489
-545 346 1479
-542 347 1485
-529 341 1462
-521 339 1455
-511 335 1440
-512 339 1457
-508 339 1460
-499 336 1450
-504 343 1478
-502 344 1487
-501 347 1499
-503 351 1521
-484 341 1476
-486 346 1499
-478 343 1489
-480 348 1511
-470 343 1493
-464 343 1491
-465 347 1510
-464 349 1521
-455 346 1510
-448 344 1501
-444 345 1505
-436 342 1496
-430 341 1491
-425 340 1491
-424 343 1502
-417 341 1495
-408 337 1478
-405 338 1486
-407 344 1512
-401 342 1505
-393 339 1493
-384 336 1480
-381 337 1485
-383 343 1512
-375 339 1498
-372 340 1504
-369 342 1512
-357 335 1483
-357 339 1501
-356 343 1519
-352 342 1518
-347 342 1519
-341 341 1514
-329 334 1482
-326 335 1486
-322 335 1488
-315 332 1477
-311 333 1481
-308 334 1488
-302 332 1480
-299 334 1487
-290 330 1470
-289 332 1483
-284 332 1481
-280 332 1483
-276 333 1490
-269 330 1476
-263 328 1467
-260 330 1476
-258 333 1490
-249 327 1465
-246 328 1469
-241 327 1464
-237 328 1473
-234 329 1479
-229 328 1474
-224 328 1473
-222 331 1489
-214 325 1462
-212 329 1478
-207 329 1479
-203 329 1479
-199 328 1479
-196 331 1492
-190 329 1483
-186 328 1481
-181 328 1480
-177 328 1479
-172 328 1482
-167 327 1475
-165 330 1490
-161 330 1493
-155 329 1487
-151 329 1487
-148 331 1495
-143 330 1495
-138 329 1487
-133 328 1485
-129 329 1489
-121 320 1449
-113 309 1399
-106 300 1357
-97 286 1293
-90 278 1258
-84 271 1229
-79 264 1197
-74 261 1183
-70 259 1171
-67 260 1176
-63 259 1175
-59 257 1166
-56 259 1172
-53 259 1172
-49 259 1172
-46 260 1178
-44 264 1199
-40 266 1209
-37 270 1226
-34 271 1233
-31 277 1259
-29 292 1327
-27 313 1424
-24 319 1453
-20 327 1488
-16 325 1480
-12 333 1514
-7 329 1499
-3 327 1491
1 332 1512
5 329 1498
10 333 1518
14 331 1508
18 330 1503
23 327 1490
28 337 1534
32 330 1504
36 333 1519
41 332 1512
45 332 1514
50 334 1522
54 332 1511
58 330 1503
62 329 1497
68 338 1539
72 332 1512
76 331 1508
80 332 1511
85 333 1519
90 333 1515
94 333 1516
99 334 1523
104 337 1535
108 335 1528
112 334 1520
117 335 1527
122 336 1530
125 332 1514
131 336 1532
135 336 1529
140 337 1533
146 339 1545
148 334 1520
153 335 1526
158 336 1527
164 339 1543
168 338 1538
172 337 1532
176 337 1532
179 334 1518
186 338 1536
192 340 1545
196 339 1540
202 343 1557
206 342 1552
206 334 1517
212 336 1526
219 339 1540
221 336 1524
225 336 1523
233 340 1541
236 338 1531
241 338 1532
244 337 1526
251 340 1541
255 339 1536
258 336 1524
262 336 1522
267 337 1524
270 335 1518
276 337 1523
285 341 1545
289 341 1543
291 338 1527
295 337 1524
297 335 1513
306 340 1534
309 338 1528
313 338 1524
320 340 1534
324 340 1532
330 341 1535
330 336 1515
334 336 1511
339 336 1513
342 335 1507
357 344 1548
354 337 1514
361 340 1528
362 336 1509
368 337 1514
373 338 1518
378 339 1519
385 340 1525
388 339 1520
391 338 1512
399 340 1523
407 343 1536
406 338 1513
414 341 1525
423 345 1541
424 342 1526
429 343 1528
437 345 1539
445 348 1551
442 342 1523
447 342 1523
456 345 1536
463 347 1541
466 345 1534
471 346 1537
472 343 1521
479 345 1529
484 345 1528
486 344 1521
489 342 1513
499 346 1527
508 349 1541
507 345 1522
515 347 1531
524 350 1542
531 351 1547
529 347 1526
541 352 1547
551 355 1561
569 364 1597
578 366 1606
580 364 1598
584 363 1591
582 359 1571
590 361 1578
589 358 1561
598 360 1570
602 359 1567
613 363 1583
616 362 1575
620 361 1571
629 364 1579
629 361 1567
632 360 1559
642 363 1571
643 360 1560
653 363 1569
659 364 1572
673 369 1590
667 363 1563
678 366 1576
702 376 1617
696 370 1590
708 374 1605
705 370 1585
709 369 1581
721 372 1593
729 374 1599
727 371 1582
729 369 1572
738 371 1578
745 372 1581
743 369 1565
753 371 1573
751 368 1557
756 367 1554
765 369 1560
766 368 1551
767 366 1540
773 366 1539
785 369 1551
777 363 1523
775 360 1508
772 356 1490
742 340 1421
718 327 1364
698 316 1315
623 280 1163
591 264 1095
671 298 1236
705 311 1288
754 331 1368
795 347 1432
816 354 1460
822 354 1459
817 350 1439
823 351 1439
831 352 1443
-482 212 820
-482 213 827
-481 214 832
-484 216 843
-487 219 854
-493 223 871
-486 221 865
-473 217 849
-490 226 887
-475 220 865
-482 225 885
-482 226 892
-517 243 964
-561 265 1053
-635 302 1201
-638 305 1216
-666 321 1281
-810 391 1569
-844 410 1647
-776 380 1527
-613 303 1216
-550 274 1100
-542 271 1092
-535 270 1087
-544 276 1114
-546 279 1127
-533 274 1109
-514 266 1078
-546 284 1154
-520 272 1107
-516 272 1107
-524 278 1135
-551 294 1202
-554 298 1219
-556 301 1235
-560 305 1254
-553 303 1248
-517 286 1176
-494 275 1135
-482 270 1115
-486 275 1135
-501 285 1180
-542 310 1286
-588 339 1407
-599 348 1447
-594 348 1447
-583 344 1433
-582 346 1444
-575 344 1439
-573 346 1447
-567 345 1445
-566 347 1455
-563 348 1461
-559 348 1462
-563 353 1486
-551 349 1468
-550 351 1480
-538 346 1460
-532 345 1456
-525 344 1453
-522 344 1457
-513 341 1445
-508 341 1447
-502 340 1443
-490 335 1423
-500 344 1464
-493 343 1459
-495 347 1479
-488 345 1474
-484 346 1477
-479 345 1477
-471 343 1466
-470 345 1479
-468 347 1486
-457 342 1468
-463 350 1503
-453 346 1487
-449 346 1490
-431 336 1445
-437 343 1480
-435 345 1489
-424 340 1468
-423 343 1480
-416 341 1475
-410 339 1468
-404 338 1465
-400 339 1468
-400 342 1483
-402 348 1509
-391 342 1487
-390 345 1499
-379 339 1474
-377 342 1488
-373 342 1491
-366 340 1482
-365 343 1496
-362 344 1502
-357 343 1500
-353 344 1502
-348 343 1501
-347 347 1516
-334 339 1484
-328 337 1476
-319 332 1456
-314 332 1455
-313 335 1471
-307 333 1461
-305 335 1473
-300 335 1471
-291 330 1450
-289 332 1459
-290 338 1489
-281 333 1467
-276 332 1462
-271 331 1460
-265 329 1451
-261 329 1454
-259 333 1470
-255 333 1472
-248 329 1456
-244 330 1461
-241 332 1467
-233 326 1443
-230 329 1456
-226 329 1457
-222 329 1459
-218 329 1458
-213 328 1455
-210 330 1465
-204 328 1458
-199 327 1452
-198 332 1474
-192 329 1461
-187 328 1460
-184 329 1465
-180 330 1469
