VERSION 0.7
FIELDS x y z
SIZE 4 4 4
TYPE I I I
COUNT 1 1 1
WIDTH 3610
HEIGHT 1
VIEWPOINT 0.0 0.0 0.0 1.0 0.0 0.0 0.0
POINTS 3610
DATA ascii
1098 -697 2188
1108 -699 2189
1117 -700 2190
1110 -691 2158
1112 -688 2147
1122 -690 2148
1125 -688 2138
1137 -691 2143
1139 -688 2131
1137 -682 2110
1137 -678 2094
1129 -669 2063
1138 -670 2064
1139 -667 2049
1141 -664 2038
1128 -653 1999
1140 -656 2005
1134 -649 1979
1133 -644 1962
1133 -641 1948
-723 -383 1202
-517 -275 865
-487 -261 822
-492 -265 836
-485 -263 830
-488 -266 842
-484 -265 841
-474 -262 830
-478 -265 843
-462 -258 821
-461 -259 825
-465 -263 840
-465 -264 845
-476 -273 873
-494 -284 912
-465 -269 865
-493 -287 926
-670 -393 1266
-1075 -635 2048
-1073 -637 2060
-1066 -637 2063
-1057 -636 2061
-1050 -636 2064
-1043 -636 2067
-1036 -636 2068
-1029 -636 2071
-1018 -633 2066
-1014 -635 2074
-1004 -632 2069
-993 -630 2063
-988 -631 2070
-976 -628 2062
-952 -616 2027
-964 -628 2069
-957 -628 2072
-948 -627 2070
-947 -631 2084
-939 -629 2083
-913 -617 2044
-899 -612 2030
-887 -608 2018
-876 -605 2010
-879 -611 2035
-878 -615 2051
-861 -608 2028
-842 -599 2000
-837 -600 2006
-837 -604 2023
-835 -608 2037
-824 -605 2028
-828 -612 2056
-810 -604 2030
-786 -590 1987
-744 -563 1897
-778 -594 2002
-769 -592 1997
-745 -578 1953
-750 -587 1985
-752 -593 2008
-754 -600 2033
-741 -595 2017
-718 -581 1973
-717 -585 1988
-727 -599 2037
-729 -606 2061
-710 -595 2027
-704 -596 2030
-700 -597 2037
-694 -598 2041
-688 -598 2044
-679 -596 2037
-684 -606 2073
-676 -604 2069
-669 -604 2069
-663 -604 2073
-656 -604 2072
-636 -591 2030
-632 -593 2039
-630 -597 2054
-625 -599 2062
-619 -599 2063
-609 -596 2054
-603 -596 2056
-598 -597 2060
-592 -597 2063
-580 -591 2044
-581 -599 2072
-572 -596 2064
-569 -599 2076
-560 -597 2067
-551 -594 2060
-547 -596 2068
-540 -595 2067
-536 -598 2079
-525 -593 2062
-516 -590 2050
-514 -595 2071
-513 -601 2092
-501 -595 2072
-495 -595 2073
-492 -599 2089
-484 -597 2084
-479 -598 2088
-487 -617 2153
-456 -585 2044
-441 -574 2005
-428 -564 1973
0 0 0
0 0 0
0 0 0
-841 -1172 4105
-843 -1192 4176
-822 -1180 4134
-807 -1177 4127
-804 -1191 4176
-801 -1204 4225
-795 -1216 4267
-782 -1215 4265
-761 -1201 4219
-692 -1112 3907
-610 -997 3504
0 0 0
0 0 0
-576 -993 3495
-570 -1000 3518
-562 -1006 3540
-592 -1079 3799
-738 -1370 4825
-4 -12 44
-707 -1365 4810
-663 -1307 4609
-7 -18 64
-6 -17 61
-649 -1364 4812
-5 -16 57
-618 -1360 4798
-609 -1372 4842
-4 -14 50
-12 -35 125
-4 -15 55
-3 -15 54
-11 -34 121
-2 -11 42
-491 -1326 4688
-454 -1263 4465
-423 -1210 4278
-410 -1210 4277
-397 -1209 4275
-385 -1211 4283
-373 -1214 4293
-360 -1212 4289
-348 -1217 4305
-335 -1214 4296
-325 -1225 4336
-311 -1222 4325
-301 -1230 4354
-289 -1237 4378
-275 -1230 4352
-276 -1294 4580
-33 -173 615
-64 -343 1216
-62 -352 1248
-62 -378 1338
-61 -392 1388
-53 -369 1306
-53 -393 1393
-47 -379 1344
-43 -383 1358
-39 -382 1355
-35 -383 1358
-31 -381 1351
-28 -387 1371
-22 -370 1310
-18 -366 1298
-15 -371 1316
-8 -293 1038
-32 -1284 4546
-18 -1260 4460
-5 -1272 4501
8 -1272 4500
21 -1284 4542
35 -1320 4671
13 -306 1082
19 -351 1242
26 -409 1448
27 -372 1316
31 -368 1304
34 -355 1258
42 -403 1425
46 -401 1419
52 -414 1462
53 -392 1387
61 -420 1486
78 -503 1776
87 -526 1860
92 -524 1850
99 -533 1881
117 -595 2101
117 -565 1994
127 -586 2067
133 -584 2061
150 -631 2226
163 -657 2317
180 -697 2457
188 -699 2462
204 -731 2576
221 -764 2691
234 -780 2745
253 -818 2879
266 -832 2926
283 -858 3018
279 -819 2881
292 -830 2917
302 -836 2938
320 -860 3023
332 -869 3052
338 -860 3019
344 -853 2993
363 -877 3078
375 -885 3105
370 -851 2984
390 -876 3071
399 -877 3073
413 -888 3110
0 0 0
394 -809 2832
426 -858 3000
448 -884 3090
441 -853 2980
443 -839 2930
420 -780 2722
345 -626 2186
325 -579 2020
270 -471 1644
240 -411 1432
234 -394 1372
216 -355 1238
219 -355 1235
243 -388 1352
254 -399 1388
245 -378 1315
237 -360 1251
241 -360 1251
245 -360 1249
237 -344 1194
233 -332 1150
248 -349 1210
256 -356 1231
232 -316 1094
251 -339 1172
256 -340 1175
235 -308 1063
234 -302 1043
238 -303 1047
210 -263 907
234 -290 1000
0 0 0
0 0 0
84 -97 334
65 -72 250
61 -67 231
68 -75 258
51 -55 188
47 -49 171
35 -35 119
33 -32 111
0 0 0
2 1 -5
1256 -1350 4606
0 0 0
0 0 0
0 0 0
0 0 0
0 0 0
0 0 0
0 0 0
0 0 0
0 0 0
0 0 0
0 0 0
0 0 0
0 0 0
0 0 0
0 0 0
0 0 0
0 0 0
0 0 0
0 0 0
0 0 0
0 0 0
0 0 0
0 0 0
0 0 0
0 0 0
0 0 0
0 0 0
0 0 0
1041 -846 2810
1074 -865 2870
1074 -858 2843
1082 -858 2840
1097 -862 2852
1099 -857 2832
1081 -836 2759
1099 -844 2780
1062 -808 2661
1069 -808 2656
1091 -818 2685
1081 -804 2637
1094 -808 2646
1067 -781 2556
1069 -777 2540
1110 -801 2614
1102 -789 2573
1102 -783 2551
1107 -782 2541
1103 -773 2509
1097 -763 2475
1115 -770 2494
1120 -768 2485
1096 -746 2410
1103 -746 2407
1116 -750 2415
1107 -738 2374
1114 -738 2371
1087 -715 2293
1080 -706 2261
1086 -705 2255
1087 -701 2238
1087 -696 2220
1108 -705 2246
1087 -687 2185
1112 -698 2217
1103 -689 2183
1106 -686 2171
1117 -688 2174
1110 -680 2144
1120 -682 2147
1127 -682 2144
1126 -677 2125
1130 -675 2116
1140 -677 2118
1132 -668 2087
1137 -667 2080
1142 -666 2073
1139 -660 2051
1131 -651 2021
1135 -650 2013
1138 -648 2003
1126 -637 1966
1127 -634 1954
1129 -632 1943
-689 -361 1146
-499 -263 836
-487 -258 822
-483 -258 822
-482 -258 826
-484 -261 836
-484 -263 842
-487 -266 854
-481 -264 850
-463 -256 824
-463 -257 831
-458 -256 828
-460 -259 837
-463 -262 849
-456 -260 843
-489 -280 912
-498 -287 934
-732 -425 1384
-1075 -628 2049
-1072 -630 2060
-1066 -630 2064
-1059 -630 2066
-1056 -632 2076
-1044 -629 2070
-1035 -628 2068
-1025 -626 2065
-1021 -628 2073
-1012 -627 2072
-999 -623 2061
-990 -621 2059
-986 -623 2068
-971 -618 2052
-955 -611 2035
-959 -619 2062
-959 -623 2077
-950 -621 2076
-942 -621 2076
-937 -621 2080
-910 -608 2038
-903 -608 2040
-894 -606 2037
-878 -600 2018
-874 -601 2026
-866 -601 2025
-860 -601 2027
-856 -602 2035
-845 -599 2027
-850 -607 2056
-829 -597 2024
-830 -602 2044
-817 -598 2031
-817 -603 2049
-770 -573 1949
-751 -563 1917
-759 -573 1955
-761 -580 1980
-726 -557 1905
-754 -584 1998
-767 -599 2050
-751 -592 2027
-738 -586 2009
-728 -583 2003
-728 -588 2020
-719 -586 2015
-720 -592 2038
-710 -589 2028
-699 -585 2017
-700 -591 2039
-694 -592 2043
-689 -592 2048
-682 -592 2047
-671 -588 2035
-672 -595 2060
-670 -598 2074
-662 -597 2070
-651 -592 2057
-638 -586 2038
-635 -590 2052
-625 -587 2041
-620 -588 2047
-614 -588 2050
-606 -586 2045
-603 -590 2058
-598 -591 2062
-589 -588 2054
-579 -584 2042
-571 -582 2037
-569 -587 2055
-566 -590 2067
-561 -592 2075
-553 -590 2068
-550 -594 2084
-541 -590 2073
-537 -593 2085
-526 -588 2068
-517 -585 2059
-515 -590 2076
-508 -589 2075
-502 -589 2075
-497 -591 2084
-488 -587 2071
-481 -587 2072
-477 -590 2081
-461 -577 2039
-434 -551 1945
-396 -509 1801
-404 -527 1865
0 0 0
0 0 0
-858 -1166 4128
-850 -1172 4151
-839 -1175 4163
-828 -1177 4171
-806 -1163 4125
-810 -1187 4210
-792 -1179 4185
-791 -1196 4244
-781 -1201 4264
-743 -1161 4125
-670 -1065 3784
-623 -1008 3581
-21 -38 136
-810 -1355 4819
-595 -1015 3610
-568 -987 3514
-559 -990 3526
-638 -1150 4095
0 -3 12
-4 -13 46
-700 -1338 4767
-685 -1337 4766
-679 -1353 4824
-8 -21 75
-1 -8 29
-8 -23 82
-9 -24 88
-9 -25 90
-3 -12 45
-3 -13 48
-10 -29 106
-3 -14 52
-2 -13 47
-4 -18 65
2 0 2
-479 -1316 4704
-446 -1262 4513
-414 -1210 4326
-397 -1197 4282
-383 -1194 4269
-371 -1194 4271
-356 -1187 4246
-346 -1195 4276
-334 -1199 4290
-321 -1199 4292
-309 -1201 4297
-298 -1208 4325
-288 -1219 4364
-276 -1223 4377
-272 -1264 4523
-44 -228 818
-65 -349 1249
-63 -353 1263
-57 -343 1229
-56 -356 1276
-50 -342 1226
-47 -352 1262
-45 -362 1298
-38 -339 1214
-37 -356 1277
-34 -370 1327
-30 -360 1292
-25 -346 1241
-22 -357 1279
-18 -365 1307
-14 -351 1259
-6 -248 888
-32 -1295 4634
-18 -1240 4438
-4 -1239 4434
8 -1245 4454
21 -1261 4510
35 -1290 4614
13 -299 1071
20 -372 1331
24 -375 1341
26 -355 1269
32 -382 1366
36 -373 1333
41 -383 1372
43 -372 1329
49 -389 1391
53 -387 1383
55 -368 1315
60 -380 1358
65 -383 1367
74 -413 1477
77 -404 1442
80 -397 1417
84 -396 1413
90 -408 1455
90 -386 1378
95 -390 1390
103 -406 1448
108 -410 1464
110 -401 1430
116 -407 1451
123 -416 1483
127 -414 1473
135 -426 1516
158 -485 1727
151 -449 1599
166 -478 1702
155 -431 1534
191 -519 1846
203 -536 1907
215 -553 1965
230 -576 2045
266 -651 2311
279 -665 2361
339 -790 2801
387 -880 3121
386 -859 3043
399 -868 3073
0 0 0
0 0 0
407 -827 2927
431 -858 3034
429 -836 2955
436 -833 2943
416 -778 2749
332 -609 2150
314 -565 1994
270 -474 1674
262 -453 1598
221 -374 1318
223 -371 1308
238 -388 1368
224 -359 1265
233 -367 1293
242 -376 1322
230 -350 1232
231 -347 1219
224 -331 1162
227 -329 1157
225 -322 1129
239 -337 1182
243 -339 1187
240 -328 1150
244 -330 1155
250 -332 1163
239 -314 1097
240 -310 1084
211 -269 941
236 -297 1037
0 0 0
0 0 0
0 0 0
0 0 0
69 -79 274
72 -80 280
66 -72 252
63 -68 237
46 -48 167
35 -35 123
52 -54 188
40 -39 138
0 0 0
41 -40 139
1273 -1354 4672
1253 -1318 4543
0 0 0
0 0 0
0 0 0
0 0 0
0 0 0
0 0 0
0 0 0
0 0 0
0 0 0
0 0 0
0 0 0
0 0 0
0 0 0
0 0 0
0 0 0
0 0 0
0 0 0
0 0 0
0 0 0
0 0 0
0 0 0
0 0 0
0 0 0
0 0 0
0 0 0
0 0 0
0 0 0
1053 -846 2842
1069 -852 2859
1067 -843 2827
1080 -847 2836
1097 -853 2853
1085 -837 2796
1105 -846 2823
1095 -831 2771
1069 -805 2681
1101 -823 2736
1075 -797 2648
1063 -783 2596
1076 -786 2603
1072 -777 2571
1101 -792 2617
1103 -788 2601
1099 -779 2569
1097 -772 2540
1100 -769 2527
1094 -759 2491
1103 -759 2490
1107 -757 2479
1091 -741 2423
1114 -751 2452
1093 -732 2387
1098 -730 2377
1087 -717 2334
1062 -696 2261
1079 -702 2278
1073 -694 2249
1116 -717 2320
1119 -714 2306
1103 -699 2256
1118 -704 2268
1126 -705 2266
1113 -692 2222
1120 -692 2218
1108 -680 2176
1111 -677 2165
1115 -676 2156
1117 -672 2142
1120 -671 2133
1133 -674 2140
1139 -674 2135
1138 -669 2116
1130 -660 2084
1128 -655 2065
1124 -648 2041
1137 -652 2051
1133 -646 2026
1136 -644 2017
1117 -629 1967
1127 -631 1971
1128 -628 1957
1131 -626 1948
-607 -315 1011
-501 -261 841
-499 -262 844
-482 -254 820
-484 -257 831
-489 -261 846
-471 -253 820
-476 -257 835
-475 -258 839
-467 -255 833
-456 -250 818
-459 -254 830
-464 -258 845
-471 -264 865
-492 -277 910
-461 -262 861
-513 -293 964
-801 -460 1516
-1078 -623 2058
-1071 -623 2060
-1066 -624 2067
-1057 -623 2066
-1052 -624 2072
-1041 -621 2065
-1032 -620 2065
-1026 -620 2068
-1020 -621 2074
-1009 -618 2068
-1001 -617 2067
-991 -615 2063
-984 -615 2065
-969 -610 2051
-940 -596 2005
-959 -612 2062
-957 -615 2075
-950 -615 2078
-940 -612 2072
-926 -608 2058
-913 -604 2047
-896 -596 2025
-886 -595 2021
-876 -592 2015
-877 -597 2034
-862 -591 2017
-861 -595 2032
-850 -592 2023
-850 -597 2041
-844 -597 2044
-834 -594 2037
-825 -592 2034
-813 -588 2022
-803 -585 2014
-777 -571 1967
-756 -560 1931
-769 -574 1982
-747 -562 1942
-760 -577 1996
-745 -571 1976
-755 -583 2021
-756 -589 2041
-736 -578 2006
-721 -571 1983
-720 -575 1999
-719 -580 2018
-721 -586 2041
-703 -577 2010
-697 -577 2013
-695 -581 2027
-694 -585 2045
-690 -587 2053
-677 -581 2035
-675 -585 2050
-672 -588 2062
-673 -594 2085
-660 -589 2067
-651 -587 2061
-634 -577 2028
-636 -584 2055
-631 -586 2062
-625 -586 2066
-619 -586 2066
-603 -577 2037
-603 -583 2057
-598 -584 2063
-592 -585 2067
-575 -574 2031
-576 -582 2059
-572 -584 2068
-568 -586 2077
-560 -584 2071
-558 -589 2089
-548 -585 2075
-535 -577 2051
-532 -582 2067
-525 -581 2066
-520 -582 2071
-511 -579 2063
-507 -581 2071
-503 -584 2080
-494 -581 2072
-486 -579 2067
-483 -583 2079
-479 -585 2090
-467 -579 2067
0 0 0
-394 -503 1797
0 0 0
0 0 0
0 0 0
-873 -1174 4203
-835 -1139 4081
-838 -1161 4160
-820 -1153 4132
-796 -1136 4074
-809 -1173 4208
-800 -1178 4227
-796 -1191 4275
-836 -1272 4567
-762 -1178 4231
-651 -1023 3679
-629 -1006 3617
-21 -37 135
-795 -1316 4735
-591 -997 3588
-570 -979 3526
-565 -990 3565
-686 -1224 4407
-5 -13 50
-8 -20 73
-704 -1333 4803
-6 -15 57
-22 -47 171
-13 -30 111
-17 -40 147
-31 -71 257
-17 -42 152
-13 -35 128
-13 -36 130
-8 -25 91
-6 -21 78
-5 -19 69
-3 -13 49
-3 -14 54
-1 -10 36
2 0 1
-472 -1324 4787
-447 -1293 4676
-419 -1251 4525
-392 -1208 4371
-372 -1186 4291
-355 -1171 4238
-340 -1165 4214
-330 -1173 4243
-319 -1176 4258
-307 -1180 4271
-295 -1182 4278
-286 -1197 4335
-277 -1213 4391
-278 -1281 4636
-50 -255 925
-56 -299 1085
-59 -333 1206
-53 -318 1151
-50 -320 1161
-47 -324 1175
-42 -313 1135
-42 -336 1219
-37 -322 1167
-32 -311 1129
-30 -327 1186
-27 -326 1180
-23 -329 1192
-20 -336 1219
-17 -336 1216
-12 -321 1163
-7 -274 994
-32 -1280 4634
-18 -1250 4523
-5 -1255 4542
8 -1251 4528
22 -1280 4630
37 -1332 4819
13 -298 1079
18 -327 1183
23 -360 1303
25 -333 1206
30 -342 1237
36 -370 1339
37 -342 1236
42 -356 1289
45 -348 1260
49 -353 1278
57 -378 1367
60 -376 1361
61 -355 1285
67 -367 1327
73 -378 1366
78 -383 1385
81 -379 1368
88 -393 1420
88 -374 1349
96 -389 1403
102 -397 1432
107 -403 1452
108 -389 1403
117 -407 1467
114 -380 1370
117 -376 1355
129 -403 1453
124 -375 1349
149 -437 1574
147 -417 1499
136 -375 1349
149 -400 1438
164 -428 1539
0 0 0
0 0 0
0 0 0
0 0 0
0 0 0
370 -832 2985
397 -873 3128
407 -876 3137
0 0 0
0 0 0
409 -823 2946
411 -809 2893
411 -793 2835
401 -758 2710
317 -586 2096
298 -539 1926
278 -494 1763
240 -418 1491
235 -401 1431
212 -354 1264
207 -340 1214
195 -313 1117
206 -327 1165
215 -335 1194
215 -329 1172
224 -339 1205
219 -325 1155
229 -335 1189
225 -323 1148
231 -327 1161
231 -322 1142
240 -331 1172
239 -324 1148
245 -327 1159
250 -329 1165
256 -333 1177
241 -309 1093
241 -305 1076
246 -306 1081
246 -303 1068
0 0 0
0 0 0
0 0 0
71 -79 281
68 -75 266
73 -80 281
57 -61 214
53 -55 196
36 -35 125
84 -88 309
34 -32 114
44 -43 153
37 -34 122
30 -27 97
0 0 0
0 0 0
0 0 0
0 0 0
0 0 0
0 0 0
0 0 0
0 0 0
0 0 0
0 0 0
0 0 0
0 0 0
0 0 0
0 0 0
0 0 0
0 0 0
0 0 0
0 0 0
0 0 0
0 0 0
0 0 0
0 0 0
0 0 0
0 0 0
0 0 0
0 0 0
0 0 0
0 0 0
1042 -829 2816
1070 -844 2866
1070 -837 2838
1084 -841 2849
1088 -837 2831
1070 -817 2760
1055 -799 2696
1101 -827 2790
1062 -791 2665
1100 -813 2736
1081 -793 2664
1090 -794 2662
1112 -803 2692
1109 -795 2662
1094 -779 2603
1100 -777 2595
1106 -776 2587
1096 -763 2542
1105 -764 2540
1096 -752 2499
1091 -743 2465
1105 -747 2476
1100 -738 2443
1108 -739 2442
1042 -690 2276
1073 -706 2325
1035 -676 2223
1067 -692 2275
1130 -728 2389
1099 -703 2303
1111 -706 2310
1094 -691 2256
1123 -705 2299
1128 -703 2289
1122 -695 2260
1115 -686 2228
1114 -681 2208
1110 -674 2181
1120 -676 2184
1116 -669 2159
1118 -666 2147
1124 -666 2141
1134 -667 2143
1139 -666 2136
1132 -658 2107
1128 -652 2082
1138 -653 2084
1128 -644 2052
1122 -637 2024
1121 -632 2007
1116 -626 1983
1117 -623 1969
1124 -623 1967
1127 -621 1957
1119 -613 1929
-568 -291 947
-506 -261 849
-491 -255 830
-479 -250 817
-489 -256 839
-487 -257 843
-469 -249 818
-463 -247 814
-469 -252 830
-467 -252 832
-464 -252 834
-462 -252 836
-466 -257 851
-472 -262 869
-462 -257 855
-488 -273 911
-523 -295 984
-888 -504 1684
-1077 -616 2058
-1071 -616 2062
-1069 -618 2073
-1058 -616 2069
-1048 -614 2065
-1040 -614 2066
-1037 -616 2076
-1022 -611 2063
-1021 -614 2077
-1007 -610 2065
-1001 -611 2069
-996 -611 2075
-987 -610 2074
-972 -605 2059
-951 -596 2031
-960 -606 2066
-956 -608 2076
-950 -608 2079
-942 -607 2079
-922 -599 2052
-916 -599 2055
-906 -597 2050
-893 -592 2037
-892 -596 2052
-867 -584 2013
-872 -591 2041
-857 -586 2024
-848 -584 2020
-842 -584 2023
-840 -588 2037
-840 -592 2053
-827 -587 2039
-818 -585 2035
-804 -580 2020
-765 -557 1940
-753 -552 1925
-767 -567 1980
-748 -558 1948
-740 -556 1944
-763 -578 2023
-764 -584 2045
-756 -583 2044
-739 -574 2017
-728 -570 2004
-712 -563 1979
-722 -575 2025
-720 -580 2042
-711 -577 2034
-706 -578 2040
-701 -580 2047
-691 -576 2037
-700 -589 2084
-682 -580 2052
-673 -577 2044
-673 -583 2066
-673 -588 2086
-659 -582 2067
-648 -577 2051
-636 -572 2035
-631 -573 2040
-624 -573 2042
-621 -576 2053
-616 -577 2058
-608 -576 2056
-603 -577 2061
-597 -577 2061
-589 -576 2059
-579 -572 2046
-579 -578 2071
-575 -581 2080
-568 -580 2079
-563 -581 2084
-556 -581 2084
-545 -575 2066
-541 -578 2076
-534 -577 2074
-526 -575 2070
-522 -578 2082
-515 -578 2081
-510 -578 2084
-500 -575 2073
-491 -571 2059
-489 -576 2078
-483 -577 2084
-476 -576 2082
-434 -532 1923
-410 -510 1843
-374 -471 1705
0 0 0
0 0 0
0 0 0
-882 -1173 4248
-864 -1166 4226
-831 -1138 4127
-816 -1135 4117
-804 -1135 4119
-816 -1170 4247
-807 -1175 4267
0 0 0
0 0 0
0 0 0
-604 -940 3417
0 0 0
-12 -22 83
-793 -1299 4728
-589 -984 3582
-567 -965 3513
-567 -983 3579
-697 -1230 4482
-7 -16 62
-5 -13 50
-708 -1325 4830
-10 -24 88
-22 -47 172
-28 -61 223
-13 -32 118
-14 -34 127
-11 -29 107
-9 -24 91
-13 -34 125
-10 -28 104
-11 -31 114
-3 -12 47
-2 -10 38
-1 -10 39
0 -6 23
1 -3 12
0 -6 25
2 0 -1
-445 -1312 4799
-424 -1291 4725
-393 -1240 4536
-362 -1181 4323
-344 -1163 4258
-329 -1157 4236
-320 -1168 4274
-306 -1163 4259
-298 -1182 4329
-292 -1211 4435
-294 -1276 4673
-4 -32 120
-43 -217 797
-56 -293 1074
-57 -315 1154
-55 -327 1199
-50 -315 1153
-48 -327 1200
-44 -325 1190
-40 -319 1171
-35 -308 1128
-32 -305 1119
-29 -308 1128
-26 -311 1139
-23 -321 1177
-19 -320 1172
-15 -306 1121
-12 -311 1139
-8 -303 1112
-3 -215 789
0 0 0
0 0 0
0 0 0
0 0 0
9 -251 921
14 -314 1151
17 -313 1145
21 -315 1155
25 -330 1210
28 -319 1169
32 -320 1171
36 -331 1211
41 -346 1264
42 -321 1176
46 -325 1189
51 -337 1233
54 -331 1209
60 -345 1263
63 -338 1237
66 -336 1227
70 -341 1247
74 -339 1240
78 -341 1244
88 -368 1342
85 -342 1250
95 -367 1338
95 -353 1286
101 -357 1303
105 -358 1304
110 -362 1318
118 -375 1368
126 -390 1422
127 -380 1383
129 -373 1359
128 -357 1301
135 -367 1335
135 -358 1302
163 -421 1531
176 -443 1610
0 0 0
0 0 0
0 0 0
386 -881 3196
395 -880 3192
395 -859 3114
391 -832 3014
0 0 0
0 0 0
0 0 0
397 -773 2797
349 -665 2407
302 -563 2038
285 -520 1878
264 -472 1704
242 -424 1530
245 -421 1522
208 -350 1262
199 -329 1186
189 -306 1103
188 -299 1079
194 -304 1095
195 -300 1080
200 -303 1089
205 -306 1100
208 -305 1095
209 -302 1085
212 -301 1081
220 -309 1108
220 -303 1089
223 -304 1089
231 -310 1111
230 -304 1088
237 -309 1106
233 -299 1068
245 -310 1108
241 -302 1079
224 -276 986
245 -298 1063
260 -313 1115
0 0 0
0 0 0
0 0 0
67 -72 259
86 -94 334
67 -71 254
34 -34 121
56 -58 206
0 0 0
0 0 0
25 -22 79
43 -40 144
35 -33 116
1292 -1331 4693
0 0 0
0 0 0
0 0 0
0 0 0
0 0 0
0 0 0
0 0 0
0 0 0
0 0 0
0 0 0
0 0 0
0 0 0
0 0 0
0 0 0
0 0 0
0 0 0
0 0 0
0 0 0
0 0 0
0 0 0
0 0 0
0 0 0
0 0 0
0 0 0
0 0 0
0 0 0
0 0 0
1051 -827 2843
1063 -829 2847
1068 -827 2835
1080 -829 2839
1083 -824 2820
1097 -829 2833
1065 -797 2723
1108 -823 2808
1087 -801 2730
1086 -794 2702
1102 -800 2718
1094 -788 2674
1108 -792 2686
1098 -779 2638
1112 -783 2648
1105 -773 2610
1081 -750 2529
1113 -767 2583
1091 -746 2510
1075 -730 2452
1094 -737 2473
1108 -742 2486
1053 -699 2341
1095 -722 2415
1088 -713 2380
1063 -692 2306
1072 -692 2304
1083 -695 2311
1082 -689 2288
1114 -705 2337
1111 -699 2313
1111 -694 2294
1128 -700 2311
1111 -685 2256
1125 -689 2267
1123 -684 2246
1114 -674 2210
1102 -662 2169
1115 -666 2176
1112 -660 2153
1121 -661 2153
1120 -656 2136
1130 -658 2138
1131 -655 2123
1120 -644 2086
1132 -647 2092
1121 -637 2056
1115 -630 2029
1114 -626 2012
1115 -622 1998
1119 -621 1989
1118 -617 1973
1128 -619 1976
1125 -613 1955
1138 -617 1963
-528 -268 880
-497 -253 835
-489 -251 828
-493 -254 841
-486 -252 835
-485 -253 840
-468 -246 817
-479 -253 843
-471 -250 834
-474 -253 846
-463 -249 832
-461 -249 835
-458 -249 836
-474 -260 872
-472 -260 875
-481 -267 900
-539 -301 1015
-954 -536 1810
-1077 -609 2059
-1069 -608 2060
-1067 -611 2073
-1057 -609 2068
-1050 -609 2071
-1038 -606 2063
-1032 -606 2067
-1027 -607 2075
-1018 -606 2073
-1009 -604 2070
-1001 -604 2071
-989 -601 2063
-982 -601 2065
-970 -597 2056
-951 -590 2033
-961 -600 2071
-954 -600 2073
-950 -601 2080
-946 -603 2090
-926 -595 2063
-911 -589 2047
-906 -590 2051
-881 -578 2012
-884 -584 2036
-880 -586 2044
-875 -587 2052
-866 -585 2046
-845 -575 2014
-849 -583 2042
-834 -577 2024
-831 -579 2035
-827 -581 2042
-818 -579 2038
-800 -571 2012
-766 -551 1943
-759 -551 1943
-768 -562 1983
-773 -570 2014
-752 -559 1978
-750 -562 1991
-762 -576 2041
-757 -577 2048
-743 -571 2028
-704 -546 1940
-708 -553 1969
-721 -569 2025
-718 -572 2038
-701 -562 2007
-698 -566 2020
-695 -568 2031
-691 -570 2040
-687 -572 2047
-686 -576 2064
-679 -576 2064
-673 -576 2066
-666 -576 2068
-662 -578 2075
-649 -572 2056
-641 -571 2054
-634 -570 2054
-626 -568 2048
-618 -567 2043
-618 -573 2068
-605 -567 2046
-602 -570 2059
-601 -575 2078
-591 -571 2067
-579 -566 2047
-587 -579 2099
-570 -569 2062
-566 -571 2072
-563 -575 2088
-555 -573 2081
-553 -578 2100
-537 -567 2063
-532 -569 2070
-529 -573 2085
-520 -569 2073
-516 -572 2085
-507 -570 2077
-500 -568 2071
-495 -570 2081
-484 -564 2059
-481 -568 2076
-472 -565 2065
-433 -526 1922
-399 -490 1794
-390 -487 1782
-396 -500 1831
0 0 0
0 0 0
0 0 0
0 0 0
0 0 0
0 0 0
0 0 0
0 0 0
0 0 0
0 0 0
0 0 0
0 0 0
-601 -926 3407
0 0 0
-9 -18 68
-780 -1265 4657
-584 -965 3555
-564 -949 3496
-562 -963 3547
-658 -1148 4232
-30 -58 215
-21 -43 159
-708 -1310 4833
-15 -32 121
-19 -41 155
-13 -30 114
-16 -38 140
-13 -31 118
-14 -34 127
-23 -55 205
-20 -49 184
-12 -32 122
-9 -27 103
-3 -13 50
-4 -15 56
-1 -9 33
-1 -10 40
0 -7 29
-480 -1316 4871
-460 -1300 4812
-435 -1269 4695
-404 -1219 4514
-374 -1167 4320
-330 -1068 3952
-303 -1016 3761
-298 -1037 3839
-309 -1118 4141
-322 -1212 4488
-335 -1315 4871
-10 -54 201
-307 -1316 4873
-1 -15 58
-12 -68 255
-45 -237 879
-61 -333 1236
-53 -312 1157
-53 -330 1226
-49 -327 1213
-46 -329 1220
-41 -320 1186
-37 -319 1182
-35 -330 1223
-32 -333 1237
-28 -337 1251
-25 -345 1279
-21 -331 1229
-17 -333 1236
-13 -321 1191
-9 -310 1148
-6 -324 1200
-1 -257 953
0 0 0
4 -264 980
7 -299 1107
10 -300 1111
14 -317 1174
18 -330 1222
22 -328 1214
26 -329 1221
29 -330 1221
33 -328 1215
37 -331 1226
40 -328 1213
43 -327 1211
46 -322 1191
50 -324 1199
54 -327 1211
59 -334 1234
59 -318 1175
62 -314 1162
69 -329 1215
72 -327 1208
78 -339 1252
80 -333 1229
83 -327 1209
87 -329 1215
90 -329 1214
96 -337 1244
101 -342 1262
104 -338 1248
107 -338 1245
107 -324 1195
110 -324 1194
119 -338 1246
120 -333 1226
126 -339 1250
139 -362 1333
0 0 0
0 0 0
0 0 0
0 0 0
0 0 0
387 -875 3212
395 -871 3194
385 -828 3036
384 -807 2958
0 0 0
0 0 0
320 -628 2299
336 -647 2368
281 -528 1934
279 -514 1882
253 -456 1668
254 -449 1642
248 -429 1569
248 -422 1543
224 -373 1363
189 -309 1127
182 -292 1066
187 -294 1072
191 -296 1078
192 -293 1066
198 -296 1079
200 -295 1073
207 -300 1093
207 -296 1076
216 -304 1103
214 -296 1076
221 -301 1094
223 -300 1087
230 -305 1107
232 -303 1097
233 -300 1087
228 -290 1048
232 -291 1052
238 -294 1062
235 -287 1037
244 -294 1060
233 -276 997
235 -276 994
0 0 0
0 0 0
0 0 0
79 -85 308
0 0 0
0 0 0
0 0 0
0 0 0
0 0 0
0 0 0
24 -20 74
27 -24 87
26 -22 81
0 0 0
0 0 0
0 0 0
0 0 0
0 0 0
0 0 0
0 0 0
0 0 0
0 0 0
0 0 0
0 0 0
0 0 0
0 0 0
0 0 0
0 0 0
0 0 0
0 0 0
0 0 0
0 0 0
0 0 0
1035 -856 2997
1042 -854 2987
1081 -879 3071
0 0 0
0 0 0
0 0 0
0 0 0
1052 -819 2847
1065 -822 2854
1066 -816 2832
1080 -820 2843
1075 -810 2803
1086 -812 2806
1110 -822 2841
1091 -802 2769
1091 -796 2742
1091 -790 2719
1104 -793 2727
1114 -794 2725
1097 -776 2661
1086 -762 2611
1106 -771 2636
1088 -752 2571
1073 -736 2513
1084 -739 2518
1070 -724 2463
1079 -724 2462
1111 -741 2514
1061 -702 2380
1102 -724 2452
1072 -699 2365
1074 -696 2351
1099 -708 2386
1104 -706 2376
1121 -711 2392
1105 -697 2340
1111 -696 2333
1117 -695 2327
1115 -689 2304
1126 -692 2309
1120 -683 2277
1128 -683 2275
1126 -678 2253
1118 -669 2220
1110 -660 2185
1112 -657 2172
1116 -655 2164
1113 -649 2141
1125 -652 2147
1126 -649 2132
1126 -644 2114
1130 -643 2106
1108 -627 2050
1119 -629 2054
1112 -621 2025
1116 -620 2017
1123 -620 2014
1122 -616 1998
1109 -605 1959
1125 -610 1973
1130 -609 1966
1130 -606 1952
-511 -256 853
-498 -251 838
-510 -258 864
-488 -249 833
-498 -255 856
-486 -251 842
-472 -245 824
-468 -245 824
-474 -249 841
-469 -248 838
-448 -238 807
-457 -245 830
-470 -253 859
-469 -254 865
-475 -259 881
-492 -270 921
-557 -307 1049
-1001 -556 1902
-1072 -599 2051
-1074 -604 2072
-1061 -600 2062
-1054 -601 2065
-1046 -600 2064
-1043 -602 2075
-1031 -599 2069
-1023 -598 2067
-1012 -596 2063
-1009 -598 2073
-1000 -597 2072
-992 -596 2071
-986 -597 2076
-964 -587 2046
-962 -590 2057
-959 -592 2069
-953 -593 2072
-948 -594 2079
-938 -592 2075
-921 -585 2053
-907 -580 2039
-893 -576 2025
-896 -582 2049
-879 -575 2028
-871 -574 2025
-864 -573 2026
-862 -576 2039
-855 -576 2040
-845 -574 2034
-843 -577 2047
-832 -573 2037
-820 -570 2027
-819 -574 2043
-797 -562 2005
-767 -546 1948
-763 -547 1954
-772 -558 1996
-763 -556 1990
-754 -554 1984
-759 -563 2018
-763 -570 2045
-755 -569 2044
-724 -551 1979
-708 -543 1954
-722 -558 2010
-716 -558 2013
-718 -565 2038
-711 -565 2039
-711 -570 2058
-699 -565 2044
-695 -567 2051
-688 -567 2053
-681 -566 2050
-664 -557 2022
-666 -564 2047
-662 -566 2055
-656 -567 2061
-650 -567 2063
-641 -564 2053
-631 -561 2044
-628 -564 2056
-620 -563 2053
-614 -563 2054
-615 -569 2080
-605 -566 2070
-599 -566 2072
-593 -566 2074
-575 -556 2035
-571 -557 2043
-571 -564 2067
-568 -567 2081
-563 -569 2089
-552 -564 2073
-549 -567 2086
-536 -560 2060
-534 -565 2079
-526 -563 2073
-522 -565 2082
-513 -563 2076
-505 -561 2068
-501 -563 2078
-491 -559 2063
-489 -564 2082
-482 -563 2079
-473 -560 2072
-469 -562 2081
-500 -607 2248
-493 -607 2249
-455 -569 2108
0 0 0
-406 -522 1934
-401 -523 1939
-349 -462 1716
0 0 0
0 0 0
0 0 0
0 0 0
0 0 0
0 0 0
0 0 0
0 0 0
0 0 0
0 0 0
0 0 0
0 0 0
-582 -950 3541
-565 -940 3504
-552 -935 3487
0 0 0
-113 -201 753
-93 -171 639
-710 -1301 4854
-26 -52 196
-40 -81 306
-35 -73 275
-38 -80 302
-33 -72 271
-30 -67 250
-39 -87 328
-40 -93 350
-33 -79 297
-43 -104 389
-42 -105 396
-65 -164 614
-59 -153 575
-46 -124 466
0 0 0
-341 -927 3469
-326 -915 3427
-311 -900 3369
-299 -895 3352
-290 -896 3356
-279 -893 3344
-271 -899 3366
-262 -902 3381
-253 -906 3396
-245 -916 3432
-32 -135 507
-22 -100 378
1 -4 18
0 -10 39
-6 -41 154
-37 -194 730
-55 -297 1115
-58 -336 1260
-55 -338 1267
-50 -328 1232
-47 -335 1257
-47 -363 1362
-40 -335 1256
-38 -351 1315
-30 -314 1179
-28 -335 1256
-24 -331 1243
-21 -333 1250
-17 -323 1212
-14 -342 1284
-10 -345 1293
-5 -295 1106
-3 -340 1276
0 0 0
4 -293 1098
0 0 0
11 -313 1174
15 -343 1286
18 -329 1232
24 -360 1347
28 -361 1353
31 -349 1307
35 -349 1308
39 -352 1317
42 -347 1300
49 -369 1380
49 -341 1275
56 -362 1356
57 -345 1290
61 -345 1293
67 -355 1330
67 -334 1248
73 -347 1298
75 -338 1265
79 -338 1264
82 -334 1249
88 -344 1285
92 -347 1296
91 -329 1227
96 -334 1247
99 -332 1239
103 -332 1239
108 -337 1257
108 -326 1215
111 -323 1203
111 -312 1163
113 -308 1150
126 -333 1242
0 0 0
0 0 0
0 0 0
0 0 0
0 0 0
390 -893 3315
390 -871 3232
375 -818 3035
361 -769 2852
344 -714 2648
331 -673 2494
318 -631 2340
318 -617 2285
312 -594 2199
273 -507 1876
264 -480 1776
267 -476 1761
276 -483 1787
274 -470 1737
262 -441 1628
214 -353 1303
186 -300 1109
182 -288 1064
187 -291 1074
189 -290 1069
192 -289 1067
194 -287 1058
203 -296 1089
203 -292 1074
205 -290 1065
212 -295 1086
216 -296 1086
214 -289 1060
217 -288 1058
220 -289 1060
230 -298 1092
237 -303 1109
236 -296 1084
235 -291 1066
238 -291 1064
237 -286 1046
243 -289 1056
236 -277 1013
225 -261 952
221 -253 923
0 0 0
0 0 0
0 0 0
0 0 0
0 0 0
0 0 0
0 0 0
0 0 0
0 0 0
26 -22 82
22 -18 66
65 -61 223
0 0 0
0 0 0
0 0 0
0 0 0
0 0 0
0 0 0
0 0 0
0 0 0
0 0 0
0 0 0
0 0 0
0 0 0
0 0 0
0 0 0
0 0 0
0 0 0
0 0 0
0 0 0
0 0 0
1077 -889 3153
1073 -878 3111
1084 -879 3110
1085 -872 3083
1063 -847 2992
0 0 0
0 0 0
0 0 0
1041 -801 2818
1061 -810 2846
1081 -819 2873
1085 -815 2857
1079 -803 2814
1088 -804 2812
1093 -801 2801
1090 -793 2767
1089 -786 2739
1099 -787 2740
1093 -776 2700
1089 -767 2666
1083 -758 2629
1094 -759 2631
1073 -739 2558
1064 -728 2515
1110 -754 2603
1082 -729 2514
1040 -695 2395
1051 -698 2401
1089 -718 2467
1079 -706 2422
1096 -713 2441
1088 -703 2404
1089 -698 2385
1111 -708 2414
1118 -707 2409
1108 -696 2368
1115 -695 2363
1116 -691 2345
1120 -690 2336
1124 -687 2325
1116 -678 2289
1113 -671 2264
1116 -669 2252
1136 -677 2275
1119 -662 2224
1115 -655 2196
1117 -652 2183
1116 -648 2165
1114 -642 2144
1119 -642 2138
1123 -640 2128
1125 -637 2114
1112 -626 2075
1119 -626 2072
1120 -623 2058
1119 -618 2040
1115 -613 2017
1119 -611 2008
1130 -614 2014
1127 -608 1993
1137 -610 1994
1144 -610 1992
1141 -605 1972
-520 -258 869
-493 -246 831
-500 -251 848
-498 -251 851
-482 -245 831
-472 -241 818
-480 -246 839
-467 -241 822
-476 -247 844
-465 -243 831
-460 -242 829
-475 -251 862
-484 -258 886
-468 -251 863
-473 -255 878
-481 -261 901
-577 -315 1088
-1039 -571 1974
-1075 -594 2059
-1069 -594 2063
-1066 -597 2074
-1057 -595 2072
-1047 -593 2068
-1037 -592 2066
-1029 -591 2066
-1022 -591 2069
-1015 -591 2069
-1004 -588 2064
-996 -588 2065
-986 -586 2060
-980 -586 2065
-956 -576 2031
-961 -583 2057
-956 -584 2064
-957 -589 2084
-951 -589 2086
-940 -586 2079
-916 -576 2045
-904 -572 2035
-894 -570 2028
-883 -567 2021
-873 -564 2015
-874 -569 2034
-870 -571 2042
-854 -564 2021
-836 -557 1997
-842 -565 2028
-842 -569 2045
-837 -570 2051
-824 -566 2037
-809 -561 2020
-801 -559 2017
-759 -534 1928
-764 -542 1959
-777 -555 2009
-770 -555 2010
-765 -556 2014
-772 -566 2054
-770 -569 2067
-753 -561 2040
-735 -553 2011
-714 -541 1971
-703 -538 1959
-722 -557 2032
-716 -557 2034
-711 -558 2039
-691 -547 2001
-691 -552 2021
-696 -561 2057
-690 -562 2060
-686 -564 2069
-672 -558 2047
-663 -555 2039
-664 -562 2065
-652 -557 2049
-647 -557 2053
-640 -557 2053
-633 -556 2051
-622 -552 2038
-624 -560 2068
-619 -561 2075
-609 -558 2063
-601 -556 2059
-591 -553 2048
-586 -554 2052
-587 -561 2081
-580 -560 2079
-569 -556 2064
-562 -555 2063
-560 -559 2077
-555 -561 2086
-546 -558 2076
-531 -549 2043
-530 -554 2065
-524 -554 2066
-521 -558 2081
-515 -559 2085
-508 -558 2084
-500 -556 2078
-490 -551 2060
-489 -557 2084
-484 -559 2091
-471 -552 2065
-526 -624 2336
-604 -726 2718
-554 -675 2528
-523 -646 2420
-435 -546 2047
-409 -520 1951
-387 -499 1873
-352 -462 1734
0 0 0
0 0 0
0 0 0
0 0 0
0 0 0
0 0 0
0 0 0
0 0 0
0 0 0
0 0 0
0 0 0
-619 -982 3702
-576 -931 3510
-562 -925 3490
-551 -925 3489
0 0 0
0 0 0
-96 -174 660
0 0 0
0 0 0
-75 -146 554
-34 -70 268
-52 -106 402
-41 -86 328
-55 -118 446
-56 -123 466
-41 -95 360
-36 -85 322
-48 -115 438
-71 -171 650
-101 -248 939
-93 -235 890
0 0 0
0 0 0
-324 -872 3302
-318 -881 3338
-305 -874 3314
-296 -875 3315
-286 -876 3319
-277 -876 3322
-268 -882 3342
-260 -887 3364
-252 -893 3387
-245 -904 3426
0 0 0
-33 -143 544
-5 -34 130
0 -13 53
-2 -25 95
-40 -210 796
-60 -319 1212
-58 -332 1260
-54 -327 1241
-50 -325 1234
-49 -342 1299
-45 -343 1304
-42 -353 1342
-35 -326 1238
-34 -346 1316
-29 -341 1295
-26 -347 1316
-22 -342 1299
-18 -342 1299
-14 -334 1269
-8 -280 1063
-5 -292 1108
-1 -231 875
1 -268 1017
4 -272 1034
7 -282 1069
12 -339 1285
16 -365 1385
19 -338 1282
22 -322 1222
28 -362 1372
32 -359 1360
35 -345 1306
41 -362 1372
42 -343 1298
49 -365 1383
54 -371 1405
57 -364 1378
60 -358 1355
65 -362 1370
64 -334 1264
71 -349 1322
78 -369 1395
81 -360 1362
88 -374 1415
93 -380 1438
98 -380 1438
100 -373 1411
106 -378 1428
100 -343 1296
109 -359 1357
106 -338 1278
113 -347 1310
120 -359 1353
112 -322 1213
107 -298 1125
0 0 0
0 0 0
0 0 0
0 0 0
0 0 0
0 0 0
0 0 0
0 0 0
0 0 0
372 -802 3013
319 -670 2516
322 -660 2478
317 -636 2387
325 -638 2393
330 -634 2377
310 -582 2180
279 -513 1921
266 -479 1792
274 -483 1809
281 -486 1818
280 -474 1775
273 -455 1700
206 -335 1251
197 -314 1175
184 -288 1075
186 -286 1068
189 -286 1066
190 -282 1052
196 -287 1069
199 -287 1071
202 -287 1069
207 -290 1078
209 -287 1068
213 -288 1073
221 -295 1096
222 -292 1084
225 -291 1081
230 -294 1092
233 -294 1088
239 -297 1100
236 -289 1071
243 -294 1087
243 -289 1070
240 -283 1045
237 -275 1014
228 -262 966
210 -237 874
165 -183 677
0 0 0
0 0 0
140 -149 549
0 0 0
0 0 0
105 -106 391
0 0 0
109 -108 397
1267 -1291 4720
14 -10 39
43 -38 141
64 -59 217
0 0 0
0 0 0
0 0 0
0 0 0
0 0 0
1063 -983 3569
1058 -968 3513
1096 -993 3601
0 0 0
0 0 0
0 0 0
0 0 0
0 0 0
0 0 0
0 0 0
0 0 0
0 0 0
0 0 0
1065 -869 3119
1077 -871 3123
1084 -869 3112
1068 -849 3037
1091 -859 3072
0 0 0
0 0 0
0 0 0
1046 -797 2836
1070 -808 2872
1068 -799 2839
1080 -802 2846
1082 -797 2824
1096 -801 2834
1094 -793 2803
1082 -778 2750
1100 -785 2770
1091 -773 2723
1075 -755 2657
1074 -748 2631
1078 -745 2617
1052 -722 2532
1086 -740 2593
1061 -717 2510
1088 -730 2551
1085 -723 2523
1087 -719 2507
1073 -704 2452
1096 -715 2484
1105 -715 2484
1084 -697 2416
1104 -705 2439
1097 -696 2405
1104 -695 2400
1109 -693 2390
1113 -691 2380
1110 -684 2353
1113 -682 2342
1121 -683 2340
1114 -673 2305
1124 -675 2308
1115 -665 2271
1125 -667 2273
1105 -651 2215
1104 -646 2195
1102 -641 2174
1109 -641 2170
1110 -637 2155
1114 -636 2146
1127 -639 2154
1120 -631 2123
1120 -627 2108
1112 -619 2076
1117 -618 2070
1110 -610 2041
1125 -615 2052
1136 -617 2056
1125 -608 2022
1145 -615 2041
1137 -607 2013
1139 -605 2001
1137 -600 1981
1137 -597 1967
-533 -261 891
-490 -242 827
-491 -244 835
-486 -242 831
-480 -241 827
-473 -238 821
-476 -242 834
-461 -235 813
-471 -242 836
-470 -243 842
-470 -244 848
-471 -246 856
-476 -250 872
-463 -245 854
-482 -257 897
-474 -254 889
-605 -326 1142
-1058 -575 2014
-1077 -589 2065
-1069 -588 2065
-1060 -587 2065
-1054 -587 2068
-1044 -585 2065
-1035 -584 2064
-1031 -585 2071
-1025 -586 2077
-1014 -584 2070
-1003 -581 2063
-997 -581 2068
-989 -581 2068
-979 -579 2063
-955 -569 2030
-952 -570 2039
-963 -581 2079
-949 -577 2067
-948 -580 2081
-938 -578 2076
-913 -567 2039
-907 -567 2043
-900 -567 2045
-884 -561 2024
-885 -565 2043
-878 -565 2044
-866 -562 2035
-863 -564 2044
-840 -553 2008
-833 -553 2008
-830 -555 2019
-835 -563 2048
-826 -561 2045
-811 -556 2027
-782 -540 1971
-758 -527 1928
-782 -548 2006
-781 -552 2023
-772 -550 2017
-773 -556 2039
-764 -554 2034
-763 -558 2050
-740 -545 2007
-729 -542 1994
-718 -538 1983
-730 -552 2037
-726 -554 2045
-729 -561 2072
-710 -551 2038
-693 -543 2010
-690 -546 2022
-693 -552 2048
-679 -547 2029
-677 -550 2044
-670 -549 2041
-662 -548 2039
-656 -549 2042
-652 -550 2050
-649 -553 2062
-639 -550 2052
-632 -549 2050
-625 -549 2050
-621 -551 2060
-611 -547 2047
-606 -549 2055
-601 -550 2059
-594 -549 2058
-586 -547 2053
-585 -553 2075
-580 -554 2078
-574 -554 2083
-569 -555 2088
-558 -551 2072
-553 -552 2078
-545 -551 2075
-537 -548 2067
-530 -549 2068
-529 -554 2089
-525 -556 2098
-515 -553 2087
-509 -553 2090
-504 -554 2095
-493 -549 2074
-487 -549 2077
-480 -549 2077
-486 -562 2129
-571 -669 2534
-649 -771 2923
-611 -736 2791
-597 -729 2766
-497 -616 2338
-448 -563 2137
0 0 0
0 0 0
0 0 0
0 0 0
0 0 0
0 0 0
0 0 0
0 0 0
0 0 0
0 0 0
0 0 0
0 0 0
0 0 0
-641 -1005 3834
-576 -921 3513
-563 -916 3495
-552 -914 3491
0 0 0
-142 -247 947
-124 -221 847
0 0 0
-73 -138 528
-57 -110 421
-58 -115 441
-62 -125 480
-46 -96 368
-59 -125 480
-49 -107 413
-47 -105 404
-37 -85 329
-37 -89 342
-74 -176 677
0 0 0
0 0 0
0 0 0
-313 -808 3097
-327 -870 3337
-317 -869 3331
-306 -867 3326
-296 -867 3324
-286 -866 3320
-277 -869 3331
-269 -873 3351
-260 -879 3371
-252 -885 3397
-244 -891 3420
0 0 0
-48 -198 761
-15 -75 288
0 -11 44
-1 -20 78
-38 -198 761
-61 -324 1246
-54 -306 1177
-49 -298 1143
-47 -303 1163
-48 -332 1278
-45 -343 1319
-41 -340 1306
-35 -320 1230
-36 -359 1380
-29 -332 1275
-26 -344 1322
-21 -334 1282
-18 -333 1280
-12 -295 1132
-10 -329 1263
-5 -286 1101
-1 -262 1007
0 -308 1183
4 -321 1233
8 -322 1235
12 -358 1374
16 -340 1305
20 -351 1346
23 -337 1292
28 -352 1352
30 -333 1279
35 -341 1306
39 -347 1330
41 -325 1247
50 -367 1407
52 -354 1357
57 -360 1378
59 -348 1335
64 -353 1351
72 -375 1438
74 -363 1390
78 -365 1397
84 -370 1418
84 -353 1351
90 -363 1390
94 -362 1386
102 -376 1436
101 -357 1367
115 -392 1498
113 -369 1408
114 -361 1379
120 -365 1394
0 0 0
0 0 0
0 0 0
0 0 0
0 0 0
0 0 0
0 0 0
0 0 0
0 0 0
0 0 0
0 0 0
0 0 0
347 -739 2808
310 -643 2444
318 -645 2448
319 -633 2404
325 -630 2390
332 -631 2392
337 -627 2379
304 -554 2099
288 -512 1942
295 -515 1950
307 -526 1991
310 -521 1971
270 -444 1681
216 -348 1317
192 -304 1148
180 -279 1055
182 -277 1047
189 -283 1070
195 -286 1081
194 -281 1061
197 -281 1058
202 -284 1069
203 -280 1055
212 -288 1086
213 -285 1071
218 -288 1083
220 -286 1076
228 -292 1097
228 -287 1079
229 -286 1072
229 -281 1052
244 -295 1107
241 -289 1080
238 -280 1049
238 -277 1035
250 -288 1075
229 -259 967
194 -216 806
0 0 0
143 -154 576
0 0 0
0 0 0
0 0 0
0 0 0
0 0 0
0 0 0
0 0 0
52 -48 181
34 -30 112
0 0 0
48 -42 157
0 0 0
0 0 0
0 0 0
0 0 0
0 0 0
1057 -966 3550
1057 -956 3511
1073 -961 3527
0 0 0
0 0 0
0 0 0
0 0 0
0 0 0
0 0 0
0 0 0
0 0 0
0 0 0
0 0 0
1060 -856 3107
1074 -859 3115
1080 -856 3104
1066 -837 3032
1078 -840 3038
0 0 0
0 0 0
0 0 0
1039 -782 2817
1069 -798 2873
1071 -793 2850
1085 -797 2862
1087 -792 2839
1086 -784 2810
1092 -783 2802
1098 -781 2791
1072 -756 2699
1069 -748 2669
1081 -751 2674
1057 -728 2591
1088 -744 2644
1081 -734 2605
1076 -725 2570
1075 -719 2544
1085 -720 2546
1100 -725 2560
1103 -722 2546
1091 -708 2495
1101 -710 2497
1090 -698 2453
1099 -698 2450
1114 -703 2464
1108 -695 2430
1112 -693 2420
1117 -691 2410
1111 -682 2378
1111 -677 2357
1122 -680 2362
1105 -665 2307
1107 -662 2293
1114 -661 2288
1104 -652 2251
1106 -648 2237
1100 -641 2206
1090 -631 2169
1105 -635 2181
1115 -637 2183
1113 -632 2163
1114 -629 2148
1121 -628 2144
1126 -628 2138
1128 -625 2124
1129 -621 2110
1130 -618 2095
1126 -612 2071
1129 -610 2062
1133 -609 2053
1135 -606 2041
1130 -600 2016
1134 -599 2008
1147 -602 2017
1147 -599 2002
1148 -596 1989
-538 -261 901
-487 -237 822
-494 -242 840
-486 -239 831
-480 -238 827
-479 -239 833
-479 -240 838
-471 -238 831
-465 -236 827
-472 -241 845
-461 -237 833
-468 -242 851
-458 -238 840
-460 -240 849
-475 -250 884
-481 -255 902
-638 -340 1206
-1068 -573 2034
-1079 -583 2070
-1073 -583 2074
-1057 -578 2059
-1053 -580 2069
-1042 -578 2064
-1037 -578 2069
-1027 -577 2066
-1020 -576 2067
-1016 -578 2077
-1005 -576 2071
-993 -573 2062
-985 -572 2061
-975 -570 2057
-958 -564 2039
-962 -570 2063
-958 -572 2071
-953 -573 2077
-946 -572 2078
-938 -572 2080
-917 -563 2049
-907 -560 2043
-895 -558 2035
-884 -555 2026
-883 -558 2041
-864 -550 2014
-866 -555 2036
-842 -544 1998
-852 -555 2038
-839 -551 2025
-833 -551 2028
-831 -554 2041
-813 -546 2015
-809 -548 2023
-779 -532 1965
-734 -505 1869
-765 -530 1964
-780 -545 2022
-770 -543 2015
-778 -553 2054
-766 -549 2040
-762 -550 2048
-745 -542 2020
-728 -535 1994
-729 -541 2017
-726 -543 2026
-722 -545 2036
-717 -546 2041
-711 -546 2043
-697 -540 2022
-690 -539 2021
-691 -545 2044
-686 -546 2052
-672 -540 2029
-663 -538 2023
-662 -542 2042
-653 -540 2034
-653 -545 2053
-648 -546 2060
-640 -545 2057
-632 -543 2053
-625 -542 2051
-620 -544 2058
-619 -548 2076
-607 -544 2060
-601 -544 2063
-599 -547 2077
-586 -542 2057
-573 -535 2032
-578 -546 2074
-568 -542 2061
-568 -549 2088
-561 -547 2084
-548 -541 2061
-546 -545 2078
-538 -544 2075
-532 -544 2075
-531 -549 2096
-518 -542 2072
-513 -544 2081
-506 -543 2077
-496 -539 2064
-492 -542 2074
-485 -540 2069
-479 -542 2075
-489 -560 2145
-595 -689 2643
-618 -725 2783
-614 -731 2806
-514 -620 2382
-491 -602 2312
-420 -522 2007
0 0 0
-337 -432 1661
0 0 0
0 0 0
0 0 0
0 0 0
0 0 0
0 0 0
0 0 0
0 0 0
0 0 0
0 0 0
0 0 0
-623 -967 3732
-578 -914 3529
-561 -902 3486
-552 -906 3500
0 0 0
-148 -255 989
0 0 0
0 0 0
-37 -71 277
-55 -105 407
-67 -131 509
-25 -53 208
-36 -76 295
-18 -41 163
-38 -82 320
-35 -80 311
-33 -77 300
-40 -94 366
-83 -194 752
-113 -268 1043
-118 -288 1117
0 0 0
-315 -805 3124
-324 -852 3307
-316 -857 3325
-306 -858 3329
-296 -856 3322
-286 -855 3320
-276 -856 3323
-268 -862 3348
-261 -870 3377
-251 -870 3380
-242 -872 3387
-72 -277 1077
-58 -237 921
-27 -122 477
-2 -19 77
-2 -21 83
-39 -197 767
-55 -292 1136
-53 -297 1157
-48 -286 1111
-45 -291 1133
-47 -324 1262
-47 -347 1349
-41 -338 1315
-38 -341 1326
-33 -336 1308
-31 -349 1357
-27 -353 1374
-22 -337 1310
-18 -339 1317
-13 -307 1195
-8 -269 1045
0 0 0
-1 -256 994
1 -274 1067
0 0 0
8 -354 1375
12 -353 1371
15 -331 1284
20 -355 1377
24 -339 1316
28 -343 1334
32 -349 1356
36 -346 1344
38 -333 1292
44 -351 1362
50 -367 1424
53 -357 1386
58 -359 1392
63 -367 1423
63 -346 1340
69 -354 1372
74 -357 1383
84 -387 1499
79 -345 1338
87 -361 1400
89 -352 1363
91 -345 1336
95 -345 1336
107 -376 1455
107 -358 1385
110 -355 1371
113 -353 1363
113 -339 1311
0 0 0
0 0 0
0 0 0
0 0 0
385 -1006 3878
0 0 0
0 0 0
382 -914 3522
0 0 0
0 0 0
337 -746 2870
327 -704 2709
329 -691 2659
307 -629 2420
318 -638 2453
314 -616 2367
325 -623 2394
330 -620 2379
333 -612 2348
344 -618 2372
335 -591 2265
338 -584 2240
399 -678 2595
395 -658 2521
276 -450 1722
202 -321 1228
183 -285 1091
184 -281 1075
182 -273 1046
191 -283 1080
190 -276 1056
196 -280 1070
196 -276 1052
203 -282 1074
205 -280 1068
208 -279 1064
212 -281 1070
215 -281 1069
219 -281 1070
217 -275 1045
224 -280 1064
232 -285 1083
234 -285 1080
230 -276 1045
231 -273 1034
242 -282 1067
239 -275 1040
240 -272 1029
221 -247 934
204 -225 850
180 -195 737
0 0 0
178 -189 712
0 0 0
163 -168 635
0 0 0
134 -134 506
0 0 0
73 -69 260
49 -45 169
17 -13 49
93 -87 327
0 0 0
0 0 0
0 0 0
0 0 0
0 0 0
0 0 0
1073 -970 3608
1056 -945 3511
1076 -953 3540
0 0 0
0 0 0
0 0 0
0 0 0
0 0 0
0 0 0
0 0 0
0 0 0
0 0 0
0 0 0
0 0 0
1074 -850 3120
1072 -840 3083
1077 -837 3067
1075 -828 3031
0 0 0
0 0 0
0 0 0
1046 -778 2837
1059 -781 2846
1072 -785 2856
1075 -781 2837
1085 -782 2838
1087 -777 2816
1108 -786 2845
1087 -765 2766
1070 -746 2697
1059 -733 2646
1065 -731 2637
1035 -705 2539
1106 -748 2692
1041 -699 2510
1073 -715 2564
1082 -715 2563
1105 -726 2597
1099 -716 2559
1106 -716 2554
1087 -698 2488
1099 -701 2494
1111 -703 2500
1105 -695 2467
1100 -686 2434
1119 -694 2457
1106 -681 2409
1118 -683 2414
1113 -676 2383
1105 -666 2346
1086 -651 2288
1091 -649 2279
1106 -653 2291
1125 -661 2314
1094 -638 2232
1103 -639 2232
1099 -633 2206
1107 -633 2204
1099 -625 2171
1104 -624 2164
1112 -624 2163
1113 -621 2148
1121 -621 2145
1127 -621 2141
1138 -623 2145
1137 -619 2126
1135 -614 2106
1139 -612 2097
1136 -607 2075
1138 -605 2065
1130 -597 2034
1139 -598 2035
1139 -595 2019
1146 -595 2016
1141 -588 1991
1142 -586 1979
-551 -264 923
-512 -247 864
-482 -233 820
-491 -239 842
-484 -237 835
-481 -237 837
-481 -239 844
-473 -236 836
-470 -236 837
-472 -238 847
-461 -234 833
-468 -239 852
-472 -243 866
-471 -244 871
-480 -250 894
-495 -259 929
-677 -357 1280
-1081 -574 2060
-1075 -574 2064
-1067 -574 2066
-1061 -574 2069
-1050 -572 2064
-1041 -570 2062
-1034 -570 2065
-1029 -571 2072
-1022 -571 2073
-1014 -570 2073
-1007 -570 2076
-993 -566 2064
-986 -566 2065
-976 -564 2061
-950 -553 2022
-957 -561 2055
-964 -568 2086
-953 -566 2080
-948 -567 2087
-942 -567 2089
-921 -559 2059
-908 -555 2049
-894 -550 2034
-888 -551 2038
-885 -553 2048
-876 -551 2044
-867 -550 2040
-855 -546 2029
-848 -546 2030
-839 -544 2026
-842 -550 2051
-837 -551 2057
-818 -543 2028
-812 -543 2031
-785 -530 1983
-733 -498 1867
-776 -532 1994
-770 -532 1996
-754 -525 1974
-762 -535 2012
-768 -544 2047
-760 -542 2044
-750 -540 2036
-719 -522 1971
-731 -535 2023
-734 -543 2052
-721 -537 2033
-717 -539 2042
-710 -538 2041
-685 -525 1990
-697 -539 2045
-689 -537 2040
-687 -541 2055
-672 -533 2030
-658 -527 2008
-658 -533 2030
-660 -539 2055
-650 -536 2048
-645 -538 2053
-635 -534 2041
-629 -534 2043
-626 -537 2056
-618 -536 2054
-617 -541 2072
-609 -539 2066
-599 -536 2057
-597 -539 2072
-590 -539 2071
-581 -537 2064
-577 -539 2072
-568 -536 2063
-566 -540 2081
-557 -537 2071
-548 -535 2062
-545 -538 2075
-542 -542 2092
-532 -538 2077
-521 -533 2060
-518 -536 2074
-515 -540 2088
-506 -537 2079
-500 -537 2079
-492 -536 2076
-488 -538 2086
-480 -536 2077
-478 -541 2100
-580 -665 2580
-629 -730 2834
-608 -715 2778
-504 -602 2341
-449 -544 2116
0 0 0
0 0 0
0 0 0
-311 -400 1559
0 0 0
0 0 0
0 0 0
0 0 0
0 0 0
0 0 0
0 0 0
0 0 0
0 0 0
0 0 0
0 0 0
-591 -923 3607
-588 -935 3655
0 0 0
-118 -198 776
-171 -290 1137
0 0 0
0 0 0
-75 -138 543
-22 -45 178
-50 -96 380
-36 -73 290
-40 -83 326
-49 -101 398
-32 -69 274
-46 -100 394
-37 -85 335
-46 -107 420
-80 -184 725
-116 -273 1074
-107 -260 1024
0 0 0
0 0 0
-324 -842 3306
-316 -847 3326
-306 -847 3328
-296 -846 3322
-285 -845 3319
-276 -847 3327
-268 -852 3350
-260 -857 3366
-251 -861 3383
-237 -845 3321
-70 -270 1061
-58 -233 920
-35 -154 609
-4 -28 112
-4 -30 120
-43 -215 848
-54 -283 1114
-50 -280 1101
-49 -288 1136
-43 -277 1092
-43 -294 1158
-42 -308 1214
-41 -329 1296
-36 -320 1258
-32 -320 1259
-31 -351 1382
-25 -326 1281
-23 -345 1356
-19 -348 1371
-12 -298 1174
-8 -265 1043
-6 -315 1240
-2 -305 1202
1 -261 1028
4 -305 1201
8 -314 1235
12 -347 1365
16 -333 1311
18 -311 1224
25 -361 1418
28 -344 1350
31 -335 1318
36 -342 1343
40 -341 1341
43 -340 1334
49 -351 1378
55 -368 1443
57 -354 1388
60 -346 1358
63 -339 1330
72 -364 1427
70 -333 1306
77 -352 1379
81 -348 1365
90 -372 1459
89 -347 1360
91 -343 1344
102 -366 1435
104 -361 1414
110 -365 1431
111 -354 1388
116 -359 1403
110 -328 1283
0 0 0
0 0 0
405 -1112 4344
395 -1052 4106
0 0 0
0 0 0
373 -907 3538
0 0 0
334 -769 2996
297 -665 2590
297 -649 2528
307 -653 2543
313 -650 2532
312 -632 2461
321 -636 2474
319 -617 2401
331 -628 2440
335 -622 2418
337 -612 2379
342 -609 2366
342 -596 2313
320 -546 2118
326 -546 2115
321 -527 2041
273 -439 1701
203 -320 1239
178 -274 1062
183 -277 1072
186 -276 1070
185 -271 1047
190 -274 1058
193 -272 1053
198 -276 1066
199 -272 1051
201 -270 1044
206 -273 1054
209 -274 1056
212 -274 1055
213 -270 1041
223 -279 1073
219 -271 1041
227 -277 1063
227 -272 1047
229 -271 1042
230 -268 1029
242 -279 1072
230 -261 1000
241 -271 1037
248 -275 1052
225 -246 941
0 0 0
121 -127 485
0 0 0
0 0 0
0 0 0
127 -127 485
0 0 0
111 -107 409
79 -75 286
66 -61 234
35 -30 114
82 -75 287
94 -85 325
0 0 0
0 0 0
0 0 0
0 0 0
0 0 0
1061 -948 3568
1052 -930 3499
1060 -928 3489
0 0 0
0 0 0
0 0 0
0 0 0
0 0 0
0 0 0
0 0 0
0 0 0
0 0 0
0 0 0
0 0 0
0 0 0
1082 -839 3114
1051 -807 2995
0 0 0
0 0 0
0 0 0
0 0 0
1034 -761 2807
1057 -772 2845
1068 -773 2845
1078 -774 2847
1087 -774 2845
1117 -789 2895
1080 -757 2774
1061 -738 2701
1083 -747 2733
1077 -737 2693
1090 -740 2700
1118 -753 2746
1077 -720 2621
1077 -714 2597
1103 -727 2639
1107 -724 2626
1099 -713 2584
1102 -710 2569
1102 -705 2547
1100 -698 2520
1098 -692 2495
1098 -687 2474
1096 -681 2448
1103 -681 2444
1118 -685 2456
1113 -678 2426
1103 -667 2383
1104 -663 2365
1081 -644 2297
1102 -653 2324
1090 -641 2280
1068 -624 2215
1039 -603 2137
1104 -637 2254
1113 -638 2253
1100 -626 2209
1098 -621 2187
1094 -615 2163
1107 -618 2171
1117 -620 2174
1113 -614 2150
1121 -614 2148
1128 -614 2144
1129 -611 2129
1138 -612 2129
1136 -608 2111
1131 -601 2085
1138 -601 2081
1136 -596 2061
1139 -595 2051
1140 -592 2038
1140 -588 2022
1137 -583 2002
1141 -582 1993
1145 -581 1985
-544 -258 913
-495 -236 837
-485 -232 826
-490 -236 840
-479 -232 829
-483 -235 842
-470 -230 824
-465 -229 822
-467 -232 832
-466 -232 837
-462 -232 835
-464 -234 846
-464 -235 851
-475 -243 878
-472 -243 880
-504 -261 946
-741 -386 1403
-1075 -564 2050
-1076 -568 2069
-1068 -567 2069
-1063 -568 2075
-1056 -568 2077
-1045 -566 2073
-1035 -564 2070
-1031 -565 2076
-1019 -562 2069
-1011 -562 2070
-1002 -560 2067
-993 -559 2066
-987 -560 2070
-977 -558 2066
-952 -547 2028
-961 -556 2065
-959 -559 2078
-950 -558 2075
-947 -560 2086
-936 -557 2078
-916 -549 2050
-903 -545 2038
-898 -546 2044
-885 -542 2031
-882 -544 2042
-879 -546 2051
-869 -544 2045
-860 -543 2042
-848 -539 2031
-846 -542 2044
-834 -539 2033
-832 -542 2048
-811 -532 2012
-806 -533 2019
-769 -513 1944
-779 -524 1986
-776 -526 1996
-780 -533 2024
-765 -526 2003
-771 -535 2038
-767 -537 2045
-748 -528 2013
-740 -527 2011
-720 -517 1977
-718 -520 1990
-732 -535 2047
-723 -532 2040
-713 -530 2032
-707 -530 2034
-691 -523 2009
-700 -535 2055
-697 -537 2066
-686 -534 2055
