VERSION 0.7
FIELDS x y z
SIZE 4 4 4
TYPE I I I
COUNT 1 1 1
WIDTH 3573
HEIGHT 1
VIEWPOINT 0.0 0.0 0.0 1.0 0.0 0.0 0.0
POINTS 3573
DATA ascii
146 266 2319
153 268 2335
159 266 2321
166 267 2323
173 267 2330
182 270 2357
188 269 2348
200 276 2407
206 274 2390
213 274 2391
219 273 2380
227 275 2400
237 278 2426
242 276 2408
248 275 2395
256 276 2407
264 277 2412
268 274 2384
277 276 2401
281 273 2381
292 277 2409
299 277 2413
302 273 2377
312 276 2405
322 279 2426
329 278 2421
338 280 2436
340 275 2397
347 276 2398
354 276 2400
363 277 2414
369 277 2406
373 274 2382
389 281 2441
388 275 2391
398 277 2408
401 274 2384
408 274 2382
416 275 2386
419 272 2366
421 269 2333
421 265 2297
432 267 2316
442 269 2332
446 267 2317
459 271 2348
466 271 2350
473 271 2347
484 273 2369
494 275 2382
503 276 2390
511 277 2396
522 278 2411
522 275 2380
532 276 2390
543 278 2405
549 277 2399
554 277 2392
565 278 2405
583 284 2453
574 276 2380
589 279 2413
598 281 2422
605 280 2417
617 282 2436
618 279 2410
629 281 2423
637 282 2427
653 285 2459
674 291 2507
685 293 2521
689 291 2505
694 290 2495
702 290 2494
695 284 2441
692 280 2405
683 274 2349
654 259 2223
658 258 2211
691 268 2298
728 280 2396
744 283 2424
750 283 2419
766 286 2446
763 282 2411
776 284 2428
776 281 2401
788 283 2414
786 280 2384
792 279 2379
792 277 2354
790 274 2327
786 270 2293
789 268 2279
788 266 2256
787 263 2230
788 261 2212
791 260 2200
787 256 2168
793 256 2165
792 254 2142
788 250 2111
796 251 2113
792 248 2086
796 247 2076
792 243 2049
801 244 2052
802 243 2037
797 239 2007
802 239 2002
798 236 1975
812 238 1991
815 237 1981
820 237 1977
813 233 1944
820 233 1945
824 233 1937
827 232 1927
835 232 1931
841 232 1929
850 233 1934
862 234 1944
871 235 1948
903 242 2004
946 252 2083
975 258 2129
1030 270 2233
1043 272 2242
1071 277 2286
1088 280 2302
1107 283 2325
1105 280 2303
1117 281 2309
1127 282 2312
1126 280 2292
1135 280 2292
1139 280 2283
1164 284 2316
1126 273 2222
1123 270 2199
1135 271 2206
1137 270 2193
1148 271 2196
1153 271 2191
1144 267 2157
1138 264 2129
1136 262 2110
1140 261 2101
1147 261 2097
1140 258 2069
1137 256 2048
1135 254 2030
1133 252 2011
-493 118 856
-511 123 893
-504 122 887
-510 124 905
-492 121 879
-490 121 881
-494 123 896
-483 120 883
-474 119 873
-493 124 914
-501 127 936
-499 127 940
-772 197 1463
-1024 262 1957
-1025 264 1973
-972 252 1886
-860 224 1681
-748 197 1474
-719 190 1428
-721 192 1442
-728 195 1468
-728 196 1478
-708 192 1451
-694 190 1433
-688 189 1432
-681 188 1428
-642 179 1356
-574 161 1224
-517 146 1110
-487 139 1055
-494 142 1079
-486 140 1070
-506 147 1121
-496 145 1109
-483 142 1088
-481 143 1095
-497 148 1140
-500 150 1157
-502 152 1170
-493 150 1158
-497 152 1177
-503 155 1202
-507 158 1222
-506 159 1231
-508 160 1244
-516 164 1277
-577 184 1438
-804 258 2021
-822 266 2084
-818 267 2093
-807 265 2083
-810 268 2109
-795 265 2089
-789 265 2091
-789 267 2110
-782 267 2111
-771 266 2102
-756 263 2079
-757 265 2102
-748 264 2094
-742 264 2097
-735 264 2098
-732 265 2109
-720 263 2094
-715 263 2102
-714 265 2119
-704 264 2109
-694 262 2099
-689 263 2106
-678 261 2091
-677 263 2110
-676 265 2129
-663 262 2108
-661 264 2123
-647 261 2103
-642 261 2106
-639 263 2119
-634 263 2125
-623 261 2112
-618 262 2115
-607 260 2103
-602 260 2107
-592 259 2096
-585 258 2095
-582 259 2106
-579 261 2120
-577 263 2139
-565 260 2118
-558 260 2115
-554 261 2125
-545 260 2118
-539 259 2118
-538 262 2142
-526 259 2121
-520 259 2122
-515 260 2129
-505 258 2113
-503 260 2131
-493 258 2117
-491 261 2140
-499 268 2201
-514 279 2296
-519 286 2351
-514 287 2364
-519 293 2418
-515 295 2434
-507 295 2431
-490 289 2387
-482 288 2378
-472 286 2365
-463 285 2356
-459 287 2373
-447 283 2348
-445 287 2375
-437 286 2369
-430 286 2371
-421 284 2358
-426 292 2425
-432 301 2504
-407 289 2402
-386 279 2320
-386 283 2357
-391 292 2431
-393 299 2490
-382 296 2469
-379 299 2498
-391 314 2624
-381 313 2612
-375 314 2622
-356 304 2544
-343 299 2500
-332 296 2472
-336 306 2562
-330 307 2574
-313 298 2496
-302 294 2466
-292 292 2448
-282 289 2421
-272 286 2396
-270 291 2438
-271 299 2513
-269 306 2566
-259 303 2542
-249 299 2511
-246 305 2564
-236 301 2532
-232 306 2572
-221 301 2532
-215 303 2549
-198 288 2426
-181 273 2300
-171 269 2265
-163 266 2241
-159 270 2279
-147 260 2194
-133 247 2083
-127 247 2080
-121 248 2088
-104 225 1895
-95 217 1828
-88 213 1799
-84 216 1824
-79 215 1815
-75 221 1861
-70 220 1859
-65 223 1885
-62 229 1934
-57 231 1950
-53 240 2025
-50 254 2146
-46 263 2221
-40 268 2272
-33 266 2252
-27 267 2261
-21 269 2276
-14 274 2323
-7 267 2263
-1 270 2286
5 268 2272
11 269 2281
18 270 2293
24 268 2275
31 271 2300
38 268 2274
45 274 2327
51 270 2288
58 271 2297
64 268 2274
71 270 2289
77 268 2271
83 266 2254
92 273 2316
98 270 2296
104 269 2281
111 270 2293
116 266 2257
125 272 2309
131 271 2301
136 268 2272
144 270 2291
150 268 2274
158 272 2306
164 270 2296
172 272 2309
179 272 2312
187 274 2329
196 278 2361
203 277 2356
209 277 2353
218 279 2371
223 277 2351
230 277 2357
237 277 2352
247 281 2387
251 277 2353
259 279 2367
264 277 2353
278 284 2416
279 278 2364
286 278 2358
292 277 2353
298 276 2346
305 277 2350
315 279 2370
325 282 2392
330 280 2377
339 282 2390
343 279 2371
350 279 2369
361 283 2400
364 279 2367
373 281 2384
375 277 2352
382 277 2350
390 278 2356
395 277 2345
398 274 2321
406 275 2328
411 274 2318
423 277 2347
423 272 2306
428 272 2298
438 273 2310
446 274 2317
449 272 2298
460 274 2318
464 273 2304
473 274 2313
486 277 2341
496 279 2355
507 281 2374
513 280 2367
519 280 2363
523 278 2350
532 279 2357
537 278 2347
546 279 2356
558 282 2376
552 275 2317
579 285 2403
577 281 2362
591 284 2391
588 279 2349
603 283 2382
611 284 2384
610 280 2350
632 287 2407
637 286 2397
644 285 2393
665 292 2445
668 289 2425
687 294 2467
697 296 2477
709 298 2492
709 294 2465
699 287 2402
698 284 2371
674 271 2264
640 255 2126
672 265 2210
708 277 2307
733 283 2362
746 286 2381
756 287 2388
766 288 2394
776 289 2400
773 285 2369
780 285 2364
788 285 2366
792 284 2354
792 281 2332
794 279 2314
795 277 2296
791 273 2261
788 270 2231
792 269 2222
794 267 2207
791 264 2178
792 262 2161
793 260 2143
788 257 2111
794 256 2108
789 253 2077
795 253 2072
796 251 2057
795 249 2037
795 246 2018
802 247 2019
799 244 1994
799 242 1976
802 241 1967
806 240 1958
807 239 1944
807 237 1929
811 236 1921
820 237 1926
821 236 1913
825 235 1907
829 235 1899
832 234 1890
843 235 1900
850 235 1900
868 239 1925
879 240 1934
919 249 2005
946 255 2049
979 262 2103
1029 273 2195
1054 278 2229
1077 282 2261
1095 285 2280
1113 288 2301
1114 286 2284
1107 282 2253
1117 283 2254
1112 280 2228
1132 283 2249
1120 278 2210
1125 278 2202
1132 278 2199
1141 278 2200
1147 278 2195
1158 279 2198
1142 273 2153
1145 272 2140
1144 270 2123
1145 269 2108
1151 269 2105
1165 270 2115
1161 268 2092
1166 267 2084
1156 263 2051
-495 121 857
-499 123 872
-503 125 884
-506 126 897
-492 123 878
-488 123 878
-478 121 866
-475 121 867
-486 125 894
-487 126 903
-482 125 900
-499 130 940
-744 194 1410
-960 252 1833
-878 232 1689
-740 197 1435
-664 178 1297
-658 177 1295
-672 182 1335
-688 188 1376
-685 188 1380
-686 190 1394
-675 188 1382
-663 186 1369
-633 178 1316
-576 163 1208
-515 147 1088
-487 140 1038
-487 141 1045
-496 145 1074
-488 143 1065
-508 150 1118
-512 152 1135
-492 147 1100
-492 148 1108
-498 151 1131
-489 149 1120
-509 156 1175
-497 154 1159
-502 157 1180
-529 166 1253
-508 161 1213
-509 162 1227
-508 163 1234
-508 164 1245
-517 168 1277
-566 185 1412
-799 263 2009
-820 272 2079
-810 271 2073
-805 271 2078
-804 273 2094
-796 272 2090
-790 272 2094
-785 273 2100
-775 271 2093
-769 271 2095
-762 271 2095
-755 271 2096
-744 269 2082
-740 270 2092
-741 272 2113
-731 271 2107
-727 272 2115
-719 271 2111
-713 271 2116
-700 269 2096
-693 268 2094
-697 272 2129
-685 270 2114
-672 268 2095
-670 269 2108
-665 269 2114
-662 271 2126
-652 269 2116
-643 268 2111
-638 269 2116
-627 267 2103
-626 269 2119
-615 267 2108
-608 266 2105
-602 266 2107
-593 265 2097
-581 262 2078
-580 265 2100
-574 265 2102
-571 267 2116
-565 267 2119
-556 265 2109
-551 266 2116
-543 265 2109
-539 266 2120
-534 266 2125
-528 267 2129
-522 267 2129
-509 263 2104
-508 266 2127
-506 268 2145
-492 264 2115
-493 268 2147
-490 269 2160
-501 279 2240
-499 282 2262
-500 286 2297
-498 288 2319
-495 291 2342
-485 289 2324
-471 284 2291
-475 291 2344
-460 286 2307
-453 286 2306
-442 283 2285
-439 285 2304
-429 283 2289
-426 286 2312
-418 285 2305
-418 289 2341
-423 297 2411
-418 299 2424
-394 287 2325
-368 273 2212
-371 280 2270
-366 280 2276
-353 275 2239
-350 279 2265
-359 290 2363
-369 305 2481
-365 307 2499
-362 311 2535
-346 303 2469
-332 297 2423
-317 289 2361
-315 295 2405
-312 298 2436
-298 291 2377
-291 291 2375
-291 298 2437
-278 292 2388
-267 287 2348
-254 280 2295
-246 279 2288
-239 279 2286
-234 281 2299
-225 278 2277
-225 286 2343
-219 287 2353
-207 279 2291
-202 282 2314
-194 280 2296
-185 276 2269
-176 273 2241
-169 272 2235
-160 268 2201
-155 271 2229
-140 254 2090
-131 250 2052
-134 268 2203
-133 277 2280
-106 235 1933
-92 214 1761
-88 219 1798
-82 216 1774
-78 218 1792
-73 220 1813
-69 223 1840
-65 227 1867
-62 235 1938
-57 237 1957
-51 238 1966
-48 247 2042
-45 264 2180
-39 270 2231
-33 268 2210
-27 271 2242
-20 274 2261
-14 273 2256
-7 273 2257
-1 270 2234
5 273 2255
11 273 2256
18 269 2229
24 272 2249
31 274 2269
37 273 2260
44 272 2255
51 274 2265
58 277 2295
64 276 2281
70 273 2263
76 272 2249
83 273 2264
90 272 2254
96 273 2263
103 274 2268
109 273 2261
116 272 2253
123 275 2278
129 273 2261
136 274 2271
143 275 2281
147 269 2230
157 276 2285
164 276 2286
170 275 2275
177 276 2289
184 277 2294
194 281 2326
201 282 2333
206 279 2315
214 280 2325
222 282 2339
228 281 2330
232 278 2307
242 282 2336
245 278 2300
251 277 2293
259 278 2302
269 281 2329
278 283 2348
280 279 2311
288 280 2320
296 281 2329
305 283 2345
309 280 2322
322 286 2367
325 283 2341
327 279 2307
338 282 2333
349 285 2362
349 280 2319
356 280 2319
365 281 2328
373 282 2335
375 279 2307
387 283 2337
393 282 2332
396 280 2310
405 281 2320
402 274 2266
412 276 2283
415 274 2263
424 275 2272
431 275 2274
444 280 2307
447 277 2286
450 275 2266
456 274 2261
470 279 2299
479 280 2305
483 278 2294
496 282 2321
500 280 2308
506 280 2304
511 279 2293
527 284 2335
528 280 2306
536 281 2310
548 284 2330
560 286 2350
558 282 2313
564 282 2311
585 288 2365
588 286 2347
590 284 2326
601 286 2343
602 283 2317
614 285 2337
632 290 2376
642 291 2385
649 291 2383
654 291 2376
669 294 2402
679 295 2410
702 302 2464
709 302 2464
711 299 2443
704 293 2392
703 290 2363
692 283 2301
669 270 2199
657 263 2138
685 272 2207
718 282 2291
736 286 2322
754 290 2356
760 290 2352
767 290 2349
773 289 2343
779 289 2339
787 289 2338
789 287 2324
798 288 2325
796 284 2297
796 282 2277
793 279 2247
796 277 2235
794 274 2205
793 271 2183
790 268 2156
797 268 2155
796 266 2133
795 263 2110
796 261 2093
796 259 2074
794 257 2051
795 255 2035
796 253 2020
796 251 2001
799 250 1992
796 247 1968
797 245 1952
805 246 1956
803 244 1934
805 243 1924
810 242 1918
813 241 1909
812 239 1890
815 238 1882
820 238 1879
822 237 1868
828 237 1866
834 237 1863
837 236 1856
853 239 1875
866 241 1889
878 242 1899
904 248 1942
949 258 2022
984 266 2080
1017 273 2133
1040 277 2164
1061 281 2190
1095 288 2244
1104 289 2244
1098 285 2215
1114 288 2231
1118 287 2222
1118 285 2205
1123 284 2196
1135 285 2203
1143 286 2202
1152 286 2202
1156 285 2193
1153 283 2172
1155 282 2159
1160 281 2152
1160 279 2137
1160 278 2120
1163 277 2110
1178 279 2121
1178 277 2106
1176 275 2087
-499 125 865
-514 130 898
-499 127 878
-502 128 890
-488 125 872
-487 126 876
-484 126 876
-479 125 874
-484 127 891
-499 132 925
-494 131 923
-503 134 945
-649 174 1230
-707 190 1350
-634 172 1221
-609 166 1181
-600 165 1172
-606 167 1194
-616 171 1222
-622 174 1243
-636 179 1282
-642 182 1305
-621 177 1271
-573 164 1183
-514 149 1069
-485 141 1016
-494 144 1043
-498 147 1061
-511 151 1097
-495 148 1072
-501 150 1093
-486 147 1068
-494 150 1095
-500 153 1119
-482 149 1086
-488 152 1108
-506 158 1159
-507 160 1172
-490 155 1142
-488 156 1147
-490 158 1162
-481 156 1149
-500 163 1205
-506 166 1228
-487 161 1195
-514 171 1271
-563 189 1403
-792 267 1990
-813 276 2062
-811 277 2073
-810 279 2090
-798 277 2077
-795 278 2087
-785 277 2080
-780 277 2086
-774 277 2089
-766 277 2087
-755 275 2074
-753 276 2088
-748 277 2094
-735 274 2078
-731 275 2085
-725 275 2088
-716 274 2083
-716 276 2102
-706 275 2092
-703 276 2105
-691 274 2090
-692 277 2112
-684 276 2110
-671 273 2089
-676 278 2127
-661 274 2102
-660 277 2121
-645 273 2095
-644 275 2112
-636 274 2109
-631 275 2114
-623 274 2112
-616 273 2108
-605 272 2095
-603 273 2112
-595 272 2105
-587 272 2102
-578 270 2092
-574 271 2102
-568 271 2103
-565 273 2116
-559 273 2120
-548 271 2102
-543 271 2109
-533 269 2096
-535 273 2129
-523 270 2106
-518 271 2112
-516 273 2133
-510 273 2133
-501 272 2123
-496 272 2129
-489 272 2127
-487 274 2146
-487 278 2176
-484 280 2193
-486 284 2232
-476 283 2219
-471 283 2225
-469 286 2250
-459 284 2232
-457 287 2256
-444 283 2226
-438 283 2230
-435 285 2249
-427 284 2244
-421 284 2243
-417 286 2259
-409 285 2256
-406 288 2274
-411 296 2342
-413 302 2391
-388 289 2287
-370 280 2221
-370 285 2262
-362 284 2255
-350 279 2218
-346 281 2234
-353 293 2325
-357 302 2399
-348 300 2383
-326 287 2283
-318 285 2270
-311 285 2267
-305 285 2274
-303 290 2310
-304 297 2368
-297 297 2368
-280 287 2286
-281 295 2355
-270 290 2316
-252 279 2225
-244 276 2207
-238 276 2210
-233 279 2228
-227 279 2233
-219 277 2219
-213 277 2219
-205 276 2206
-201 278 2231
-195 279 2233
-186 276 2212
-180 277 2218
-174 276 2214
-165 272 2185
-160 275 2205
-150 268 2152
-139 259 2078
-135 264 2116
-145 296 2377
-138 295 2369
-100 226 1814
-91 217 1742
-86 219 1759
-82 222 1780
-77 221 1778
-72 221 1778
-68 224 1803
-63 227 1829
-61 237 1910
-57 243 1958
-52 248 2000
-47 249 2005
-43 262 2112
-39 275 2216
-33 276 2230
-26 274 2211
-20 280 2259
-13 276 2225
-7 274 2210
-1 274 2214
5 276 2232
11 274 2212
18 277 2235
24 272 2200
30 271 2185
37 273 2205
43 274 2212
49 273 2207
56 272 2197
63 279 2252
69 276 2232
76 276 2233
83 277 2240
88 274 2214
94 273 2205
102 278 2248
108 276 2229
114 273 2212
120 273 2209
126 274 2213
133 275 2221
140 276 2232
146 274 2215
153 275 2221
160 277 2238
168 278 2253
174 278 2247
181 278 2250
192 284 2301
198 284 2296
205 285 2305
210 283 2288
216 282 2280
222 281 2271
233 285 2309
235 281 2269
243 282 2279
250 282 2282
256 282 2279
261 279 2257
272 285 2302
276 282 2276
284 283 2289
290 282 2282
300 286 2309
304 283 2284
309 281 2269
320 285 2303
329 287 2319
334 285 2307
340 285 2301
350 288 2323
350 282 2279
357 283 2281
367 284 2296
370 282 2277
376 281 2271
382 281 2267
396 286 2307
394 280 2254
397 277 2237
405 278 2241
416 281 2268
421 280 2255
429 281 2265
439 283 2277
448 285 2291
449 281 2263
457 282 2266
463 281 2264
466 279 2242
479 283 2273
486 283 2276
496 285 2289
499 283 2272
510 285 2289
515 284 2281
523 284 2282
525 282 2264
537 285 2285
543 284 2279
554 287 2297
560 286 2290
568 287 2297
583 291 2328
578 285 2280
592 288 2307
599 288 2304
604 287 2296
616 290 2315
622 289 2311
624 287 2293
650 296 2358
647 291 2321
662 295 2350
680 299 2385
688 300 2387
689 297 2365
697 298 2367
705 298 2368
703 294 2336
698 289 2294
698 286 2271
678 275 2181
666 268 2122
686 273 2163
724 285 2259
741 289 2291
760 294 2325
762 292 2310
765 291 2295
774 291 2298
781 291 2298
787 291 2294
792 290 2285
794 288 2269
794 286 2248
793 283 2223
793 281 2204
793 278 2182
795 277 2169
797 275 2155
796 272 2132
798 271 2118
792 267 2083
796 265 2073
792 262 2046
795 261 2034
796 259 2021
797 258 2005
795 255 1981
796 253 1966
798 252 1954
800 251 1944
794 247 1913
802 247 1914
802 246 1899
806 245 1893
803 242 1869
809 242 1868
811 241 1858
821 242 1864
817 239 1840
826 240 1844
824 238 1826
828 237 1819
843 240 1839
848 240 1833
860 242 1846
882 246 1877
906 251 1914
932 256 1953
968 265 2014
1010 274 2084
1011 273 2069
1046 280 2125
1057 281 2132
1093 289 2187
1096 288 2176
1111 290 2189
1125 292 2200
1134 292 2201
1141 292 2198
1149 293 2197
1153 291 2186
1151 289 2166
1153 288 2153
1167 290 2163
1160 286 2135
1165 286 2128
1173 286 2127
1186 287 2135
1187 286 2120
1192 285 2114
-509 131 882
-505 130 881
-504 131 887
-500 131 886
-483 127 862
-491 130 883
-486 129 880
-490 131 894
-494 133 908
-487 132 903
-486 132 906
-504 138 948
-591 162 1120
-602 166 1149
-599 166 1152
-592 165 1147
-585 164 1142
-572 162 1127
-571 162 1132
-572 164 1144
-567 163 1142
-555 161 1127
-516 151 1056
-489 144 1008
-499 147 1037
-495 147 1037
-508 152 1074
-503 151 1070
-477 145 1024
-504 154 1091
-497 153 1084
-497 154 1093
-493 154 1094
-512 161 1145
-509 160 1146
-500 159 1136
-530 170 1215
-490 158 1132
-496 161 1154
-496 162 1164
-504 166 1194
-500 166 1194
-507 169 1222
-508 171 1233
-509 172 1246
-512 174 1264
-563 193 1402
-783 270 1967
-818 284 2073
-802 280 2051
-803 283 2070
-790 280 2055
-781 280 2052
-766 276 2029
-776 282 2073
-766 281 2066
-753 278 2051
-752 280 2067
-745 280 2066
-740 280 2071
-736 281 2079
-726 280 2071
-726 282 2090
-713 279 2074
-708 280 2079
-699 279 2072
-698 281 2091
-694 281 2097
-683 280 2086
-674 278 2079
-672 280 2093
-665 280 2093
-658 279 2092
-654 280 2100
-648 280 2102
-638 279 2091
-629 277 2084
-628 280 2103
-619 279 2097
-609 277 2086
-612 281 2118
-600 278 2099
-588 276 2081
-584 276 2088
-581 278 2104
-577 279 2114
-566 277 2098
-561 277 2101
-553 276 2096
-550 278 2112
-541 276 2100
-534 276 2099
-532 278 2118
-529 280 2131
-520 278 2119
-511 277 2112
-506 277 2117
-500 278 2121
-492 277 2114
-485 276 2112
-487 280 2146
-482 281 2153
-478 282 2164
-469 281 2154
-467 284 2177
-463 285 2189
-447 279 2146
-445 282 2167
-440 282 2172
-435 283 2180
-425 281 2163
-424 285 2192
-419 285 2198
-411 284 2191
-408 287 2212
-399 285 2201
-398 289 2231
-402 296 2290
-401 301 2326
-380 290 2241
-360 279 2162
-345 273 2111
-338 272 2107
-326 267 2072
-322 269 2084
-328 279 2165
-341 295 2290
-325 287 2232
-311 280 2178
-303 279 2168
-297 279 2168
-287 275 2138
-284 278 2168
-281 281 2189
-274 281 2190
-264 277 2159
-266 285 2226
-253 279 2174
-249 281 2194
-237 275 2145
-234 278 2172
-229 280 2187
-221 278 2172
-218 282 2207
-210 280 2187
-202 277 2169
-198 281 2197
-187 274 2147
-183 277 2172
-175 275 2152
-171 278 2178
-163 275 2155
-156 274 2152
-150 274 2152
-141 270 2117
-145 289 2266
-154 320 2516
-130 286 2243
-96 223 1750
-90 222 1738
-85 220 1723
-81 223 1749
-75 220 1728
-71 223 1748
-67 227 1787
-63 230 1810
-59 237 1867
-57 248 1951
-52 255 2008
-47 256 2016
-42 264 2076
-38 277 2179
-32 278 2186
-26 279 2201
-19 273 2152
-13 279 2197
-7 278 2195
0 271 2132
5 278 2191
11 277 2183
17 276 2176
24 276 2177
30 278 2196
37 279 2203
43 278 2198
49 280 2207
56 279 2206
63 281 2216
68 276 2182
75 280 2209
82 280 2211
89 282 2229
94 280 2213
101 280 2215
107 278 2199
113 278 2200
119 277 2191
126 278 2198
133 280 2216
138 277 2192
146 280 2209
151 277 2191
155 274 2163
167 284 2242
170 278 2197
179 281 2222
187 285 2249
195 285 2256
202 287 2271
209 288 2274
214 285 2255
221 286 2258
228 286 2261
235 287 2269
238 283 2234
246 284 2244
249 280 2213
260 285 2248
266 284 2246
270 281 2221
278 283 2234
287 286 2256
292 284 2243
297 283 2232
306 285 2247
310 283 2233
321 286 2258
328 287 2265
335 287 2263
343 289 2276
346 285 2249
354 286 2259
355 282 2222
362 282 2222
375 287 2262
379 285 2246
383 283 2233
393 286 2251
396 283 2229
403 283 2230
410 284 2233
418 285 2239
418 280 2204
434 286 2251
439 285 2243
441 282 2220
450 284 2229
456 283 2227
469 287 2257
473 286 2243
478 285 2237
488 286 2248
493 286 2241
498 285 2234
507 286 2242
516 287 2253
522 287 2248
528 287 2246
542 291 2275
540 286 2235
551 288 2255
564 291 2277
567 289 2262
568 286 2238
577 288 2247
592 291 2276
601 293 2286
605 291 2271
613 292 2276
618 291 2267
629 293 2282
638 294 2288
646 294 2290
658 297 2309
676 302 2345
682 301 2340
686 300 2327
702 303 2356
705 302 2343
706 299 2321
697 293 2267
704 293 2267
700 288 2230
674 275 2124
670 270 2089
703 281 2172
725 287 2218
748 294 2265
758 295 2273
767 296 2279
772 295 2269
776 294 2259
785 294 2264
785 292 2243
792 292 2241
800 292 2243
802 290 2227
798 287 2196
800 285 2181
799 282 2157
795 278 2127
797 277 2114
794 273 2086
799 273 2082
796 270 2056
794 267 2030
797 266 2020
798 264 2006
797 262 1985
797 260 1968
798 258 1955
798 256 1938
802 255 1930
803 254 1918
802 252 1899
800 249 1878
801 247 1864
812 249 1875
807 246 1846
811 245 1841
815 245 1835
822 245 1836
821 243 1818
820 241 1802
829 242 1806
831 241 1796
837 241 1794
854 244 1817
861 244 1818
872 246 1825
889 249 1848
908 253 1873
947 262 1937
970 266 1969
989 270 1992
1021 276 2041
1067 287 2117
1097 293 2161
1116 296 2181
1124 297 2180
1136 298 2187
1143 298 2184
1144 296 2170
1140 293 2146
1149 294 2146
1158 294 2146
1158 293 2130
1162 292 2123
1172 292 2123
1182 293 2126
1189 293 2123
1199 294 2126
-506 133 877
-495 131 864
-495 131 870
-500 133 885
-489 131 872
-484 131 870
-485 132 879
-478 131 872
-478 131 879
-480 133 890
-485 135 905
-507 141 952
-571 160 1081
-601 169 1146
-609 173 1171
-599 171 1162
-582 167 1137
-555 160 1092
-537 156 1066
-526 154 1051
-504 148 1014
-492 146 998
-486 145 995
-484 146 999
-510 154 1060
-495 151 1037
-495 152 1046
-507 156 1078
-492 153 1056
-496 155 1074
-518 162 1128
-502 159 1103
-518 165 1148
-505 162 1129
-498 161 1121
-503 163 1141
-483 158 1105
-490 161 1130
-518 172 1205
-501 167 1175
-507 170 1199
-510 173 1218
-524 179 1261
-512 176 1242
-484 168 1186
-515 179 1272
-559 196 1393
-778 274 1953
-807 286 2044
-804 287 2054
-796 287 2052
-794 288 2065
-791 289 2076
-777 287 2058
-771 287 2061
-763 286 2059
-757 286 2060
-748 285 2055
-743 285 2060
-728 282 2036
-733 286 2071
-716 282 2041
-718 285 2066
-710 284 2063
-699 282 2051
-695 283 2060
-685 281 2049
-685 284 2071
-685 287 2091
-668 282 2060
-667 284 2078
-657 283 2066
-651 283 2070
-648 284 2082
-641 284 2079
-631 282 2070
-625 282 2071
-620 283 2077
-613 282 2077
-606 282 2074
-596 280 2061
-596 282 2084
-591 283 2092
-583 282 2085
-577 282 2087
-575 284 2105
-570 285 2111
-558 282 2088
-550 281 2084
-542 280 2080
-539 282 2092
-537 284 2110
-524 280 2086
-519 281 2089
-513 281 2094
-509 282 2101
-500 280 2092
-494 280 2092
-489 281 2100
-489 284 2126
-481 283 2119
-479 286 2140
-469 284 2124
-466 286 2141
-463 288 2159
-452 284 2135
-448 286 2146
-438 284 2132
-434 285 2145
-429 286 2150
-424 287 2158
-414 284 2140
-407 284 2138
-409 289 2183
-396 284 2145
-394 287 2170
-389 289 2179
-389 293 2216
-390 299 2260
-365 285 2155
-337 268 2026
-331 268 2025
-326 268 2029
-324 271 2056
-316 270 2044
-313 272 2065
-310 275 2087
-306 276 2096
-307 283 2150
-300 282 2143
-295 283 2151
-285 280 2128
-274 275 2093
-272 279 2121
-266 279 2128
-261 280 2131
-256 281 2144
-250 281 2144
-241 279 2127
-238 282 2152
-231 281 2143
-225 281 2146
-219 282 2153
-211 279 2132
-208 284 2169
-202 283 2167
-194 281 2152
-185 277 2122
-180 279 2134
-173 277 2122
-167 278 2127
-162 280 2144
-156 280 2144
-149 280 2145
-149 290 2223
-149 303 2323
-149 318 2442
-123 276 2121
-92 219 1681
-89 224 1719
-83 221 1694
-79 223 1711
-75 225 1729
-71 228 1750
-66 229 1756
-62 233 1790
-59 241 1854
-56 252 1940
-52 258 1983
-47 262 2016
-42 269 2071
-38 279 2151
-32 282 2168
-25 280 2153
-19 279 2151
-13 282 2175
-7 280 2161
0 279 2152
5 283 2178
11 277 2137
17 279 2154
24 280 2160
30 279 2155
36 278 2143
42 278 2143
49 281 2168
54 276 2131
61 281 2171
67 278 2144
74 280 2164
81 283 2187
86 281 2165
93 281 2172
100 282 2180
105 281 2168
113 283 2188
118 280 2163
126 284 2195
131 283 2185
136 280 2164
145 285 2197
150 283 2184
158 285 2199
162 280 2164
170 284 2197
178 286 2207
185 287 2214
192 289 2230
197 286 2212
206 290 2240
209 285 2197
220 290 2243
225 289 2232
229 286 2209
239 290 2235
243 287 2213
252 289 2233
258 289 2234
264 289 2227
268 286 2210
276 287 2217
281 286 2208
286 285 2195
295 287 2216
304 289 2231
304 283 2183
316 288 2222
322 288 2219
330 289 2229
335 288 2222
339 286 2202
342 283 2182
355 288 2219
359 287 2207
368 288 2217
375 289 2222
379 287 2209
389 290 2228
387 283 2177
398 286 2200
406 287 2207
413 288 2213
414 284 2181
421 284 2185
437 290 2230
440 288 2215
441 284 2183
449 285 2191
456 286 2193
469 290 2224
474 289 2214
476 286 2193
479 284 2177
495 290 2219
509 294 2249
507 289 2214
516 290 2220
529 294 2248
529 290 2220
536 290 2219
546 292 2233
549 290 2217
557 291 2222
564 291 2221
569 290 2215
577 291 2220
591 295 2246
598 295 2244
606 295 2247
605 292 2221
612 291 2218
623 294 2234
635 296 2252
656 302 2299
663 303 2299
673 304 2307
679 304 2305
674 298 2261
682 299 2264
694 301 2279
700 301 2277
714 304 2297
715 301 2276
709 296 2234
702 290 2188
672 275 2073
674 273 2060
702 282 2124
728 290 2183
749 295 2224
761 297 2236
770 298 2241
773 297 2228
778 296 2221
780 294 2207
794 297 2224
792 294 2199
796 292 2189
800 292 2181
802 290 2165
801 287 2144
801 285 2124
801 282 2104
802 280 2088
795 276 2051
798 275 2041
797 272 2021
795 269 1997
801 269 1995
797 266 1969
801 265 1960
797 262 1935
798 260 1920
798 258 1903
799 257 1891
801 255 1878
804 254 1871
807 253 1862
808 252 1848
807 250 1831
812 249 1827
811 247 1809
811 246 1796
818 246 1796
822 245 1789
827 245 1786
827 244 1773
831 243 1766
837 243 1765
847 244 1773
855 245 1775
865 246 1783
876 248 1791
896 252 1818
931 260 1874
954 265 1907
999 275 1982
1057 289 2080
1090 296 2130
1105 299 2143
1118 300 2150
1124 300 2146
1129 299 2139
1138 300 2140
1136 297 2120
1137 296 2106
1150 297 2114
1161 298 2119
1168 298 2116
1173 298 2109
1183 299 2112
1197 300 2120
-492 132 851
-507 137 885
-493 134 866
-489 133 866
-493 135 879
-491 136 883
-489 136 885
-486 136 886
-476 134 875
-487 137 902
-477 136 890
-503 143 945
-568 163 1076
-598 172 1141
-600 174 1154
-592 173 1147
-560 164 1093
-528 156 1039
-496 148 984
-480 144 960
-495 149 997
-497 151 1009
-498 152 1019
-482 148 993
-499 154 1037
-486 151 1018
-500 156 1056
-482 152 1025
-484 154 1039
-496 158 1073
-502 161 1094
-495 160 1087
-500 162 1106
-512 167 1143
-471 155 1061
-490 163 1112
-477 160 1092
-512 172 1182
-518 175 1205
-508 173 1191
-526 181 1245
-503 174 1199
-508 177 1224
-508 178 1233
-505 179 1236
-514 183 1268
-557 200 1387
-767 276 1926
-797 289 2019
-801 293 2047
-796 293 2052
-789 293 2052
-781 292 2049
-770 290 2039
-763 290 2037
-757 290 2041
-750 289 2040
-744 290 2043
-734 288 2035
-722 286 2019
-727 290 2054
-718 289 2046
-709 288 2039
-704 288 2047
-698 288 2049
-694 289 2056
-681 286 2038
-675 286 2039
-670 286 2044
-668 289 2060
-662 288 2061
-650 286 2045
-648 288 2060
-640 287 2056
-631 285 2046
-624 285 2045
-630 290 2087
-615 286 2060
-604 284 2045
-593 282 2031
-598 287 2069
-590 286 2064
-580 284 2051
-581 287 2077
-573 287 2074
-564 285 2064
-561 287 2076
-554 286 2074
-549 287 2080
-539 285 2067
-534 285 2073
-523 282 2053
-516 282 2052
-516 285 2077
-512 286 2087
-507 287 2094
-495 284 2072
-490 284 2077
-486 286 2088
-480 286 2089
-474 286 2091
-469 287 2098
-467 289 2115
-464 291 2132
-453 288 2111
-446 287 2109
-440 287 2111
-437 290 2127
-432 290 2133
-420 286 2106
-417 289 2124
-415 291 2145
-406 289 2132
-401 290 2136
-395 290 2139
-389 290 2144
-387 293 2167
-388 299 2213
-394 309 2284
-361 288 2128
-334 272 2009
-317 262 1937
-306 258 1908
-309 265 1964
-305 266 1971
-301 268 1986
-290 263 1954
-286 264 1960
-299 281 2090
-296 285 2115
-287 282 2098
-286 287 2132
-275 282 2101
-271 284 2117
-264 284 2113
-257 282 2102
-252 283 2113
-244 281 2097
-240 283 2113
-234 283 2114
-230 286 2135
-221 283 2109
-215 283 2117
-209 283 2112
-203 283 2119
-198 285 2131
-191 284 2125
-184 283 2117
-177 281 2104
-169 278 2083
-165 280 2100
-159 281 2103
-153 281 2105
-151 288 2162
-148 295 2209
-144 300 2247
-142 311 2332
-113 260 1950
-88 214 1600
-88 226 1696
-84 227 1705
-78 226 1693
-73 225 1691
-69 228 1714
-65 231 1735
-61 235 1764
-58 244 1836
-55 254 1910
-52 265 1992
-47 271 2038
-42 273 2057
-37 279 2097
-31 285 2142
-25 286 2154
-19 285 2149
-13 285 2150
-7 284 2141
0 280 2110
5 281 2119
11 287 2161
17 285 2152
23 283 2132
29 282 2127
36 282 2130
42 285 2147
48 285 2146
55 288 2170
60 280 2112
67 284 2142
73 284 2143
80 285 2152
86 285 2149
91 282 2126
99 286 2156
105 286 2161
110 284 2141
117 286 2160
124 286 2158
131 287 2170
135 283 2136
141 284 2141
147 283 2137
153 283 2135
159 282 2127
167 285 2152
173 285 2152
183 291 2196
187 287 2163
195 290 2189
201 289 2178
206 287 2168
215 290 2192
219 288 2171
229 292 2205
232 288 2176
241 291 2195
247 290 2190
251 288 2172
256 286 2160
264 288 2172
268 286 2157
276 287 2167
282 287 2162
290 289 2176
298 290 2188
302 287 2167
307 286 2157
311 285 2145
324 290 2188
328 288 2173
330 284 2141
334 283 2128
342 284 2138
349 285 2144
356 285 2145
362 285 2142
370 286 2151
379 288 2165
383 286 2152
390 287 2155
395 286 2150
403 287 2158
409 287 2153
420 290 2180
423 288 2160
426 285 2139
434 286 2150
445 289 2172
448 287 2156
454 287 2153
465 290 2172
470 289 2165
480 291 2179
492 294 2204
496 293 2193
504 293 2196
506 291 2179
512 291 2174
522 293 2188
527 292 2181
531 290 2170
537 290 2168
541 289 2157
553 292 2178
564 294 2194
566 292 2176
581 296 2206
579 292 2171
593 295 2200
602 297 2209
609 297 2207
620 299 2221
621 296 2202
641 302 2245
648 302 2244
662 306 2269
668 306 2267
669 303 2243
671 301 2227
684 303 2245
692 304 2249
701 305 2255
724 312 2306
717 306 2258
713 301 2224
714 299 2204
697 289 2129
662 272 2002
667 271 1996
702 283 2083
732 293 2151
752 298 2188
771 302 2221
776 302 2214
779 300 2202
786 300 2201
794 301 2202
797 300 2192
799 298 2177
807 298 2179
804 295 2151
799 290 2118
803 290 2110
801 286 2085
798 283 2060
798 281 2041
792 277 2008
800 277 2010
796 273 1981
800 273 1975
796 269 1947
802 269 1945
796 265 1915
800 265 1908
802 263 1896
797 260 1870
803 260 1868
806 259 1859
802 256 1835
802 254 1819
804 252 1808
810 253 1807
817 253 1807
814 250 1786
820 250 1785
824 250 1780
820 247 1757
825 247 1754
828 246 1746
830 245 1736
834 245 1732
843 245 1736
855 247 1747
863 248 1749
883 252 1777
885 251 1767
945 266 1873
991 277 1948
1028 286 2007
1060 293 2053
1090 299 2095
1108 302 2114
1117 303 2115
1122 302 2109
1130 303 2107
1134 302 2100
1147 303 2108
1152 303 2102
1173 307 2124
1173 305 2108
1183 306 2111
1187 305 2103
-494 135 855
-500 138 871
-502 139 881
-493 137 872
-486 136 866
-488 138 877
-489 139 885
-465 133 848
-480 138 881
-478 138 885
-483 140 901
-520 151 976
-553 162 1046
-573 169 1094
-561 166 1078
-542 162 1050
-502 151 980
-477 144 938
-483 147 957
-483 148 964
-490 151 987
-489 151 992
-503 157 1028
-497 156 1024
-480 151 997
-497 158 1040
-494 158 1043
-490 158 1042
-497 161 1065
-503 164 1087
-492 161 1071
-508 168 1116
-501 166 1109
-487 163 1087
-499 168 1123
-496 168 1126
-513 175 1174
-505 174 1166
-506 175 1177
-511 178 1198
-518 182 1225
-540 191 1287
-518 184 1247
-505 181 1226
-491 177 1202
-516 188 1275
-553 202 1376
-763 281 1916
-791 293 2004
-784 293 2003
-782 294 2015
-783 297 2035
-766 292 2008
-757 292 2004
-757 294 2022
-749 293 2018
-735 290 1999
-732 291 2010
-722 290 2001
-723 292 2022
-714 291 2017
-714 293 2034
-704 292 2025
-700 293 2032
-689 291 2021
-685 292 2030
-675 290 2020
-671 291 2027
-664 290 2027
-655 289 2019
-651 290 2026
-646 290 2030
-638 289 2026
-640 293 2055
-632 292 2050
-626 292 2053
-616 290 2042
-606 288 2028
-598 287 2024
-599 291 2049
-590 289 2041
-582 288 2034
-579 290 2046
-574 291 2054
-568 290 2055
-555 287 2031
-556 290 2059
-546 288 2044
-544 290 2060
-538 290 2063
-532 290 2062
-522 288 2051
-514 287 2045
-512 289 2062
-505 289 2060
-498 288 2054
-494 289 2065
-489 290 2070
-484 291 2079
-479 291 2085
-472 290 2078
-465 290 2076
-459 290 2079
-452 289 2075
-448 291 2085
-442 291 2090
-440 293 2109
-432 292 2101
-425 291 2097
-416 290 2084
-414 292 2105
-408 293 2108
-401 292 2104
-399 295 2129
-389 292 2109
-385 294 2123
-378 293 2119
-397 313 2262
-391 313 2264
-359 293 2117
-335 278 2009
-313 264 1912
-315 271 1961
-311 272 1971
-298 266 1926
-291 265 1922
-287 266 1930
-280 265 1925
-293 282 2049
-290 285 2071
-288 289 2100
-281 288 2094
-274 287 2091
-268 288 2094
-260 285 2075
-253 285 2074
-251 289 2104
-242 286 2083
-236 286 2083
-232 288 2101
-226 287 2099
-220 288 2103
-213 287 2097
-205 284 2072
-199 283 2073
-193 284 2080
-187 284 2077
-182 286 2094
-174 282 2065
-167 281 2059
-162 282 2067
-157 283 2075
-152 286 2097
-148 291 2131
-146 298 2188
-139 297 2182
-132 296 2170
-103 242 1776
-88 220 1610
-86 226 1660
-82 229 1679
-75 223 1633
-72 228 1669
-68 229 1681
-64 232 1704
-60 237 1744
-58 248 1819
-55 260 1915
-51 268 1968
-46 271 1993
-41 276 2034
-37 286 2103
-31 288 2123
-25 288 2120
-19 286 2110
-12 287 2111
-6 287 2115
0 284 2094
5 285 2098
11 288 2126
17 287 2113
23 288 2127
29 287 2115
35 286 2107
41 284 2092
48 287 2118
53 282 2084
60 286 2114
66 285 2100
73 288 2125
79 287 2121
84 286 2111
91 287 2119
98 289 2137
103 286 2113
108 284 2093
116 288 2125
122 288 2127
128 287 2122
133 286 2111
140 288 2126
146 288 2123
152 286 2115
159 288 2130
163 285 2101
172 288 2130
179 291 2146
185 289 2135
192 291 2149
198 291 2147
204 290 2141
214 295 2179
220 295 2179
227 296 2185
230 291 2152
237 293 2160
247 297 2192
250 293 2159
259 296 2183
263 293 2164
270 294 2171
276 293 2165
281 292 2153
288 293 2163
291 290 2137
297 290 2135
303 289 2131
311 291 2143
312 286 2106
319 287 2111
325 286 2109
333 288 2122
340 288 2123
343 286 2102
352 288 2122
355 285 2098
364 288 2116
363 282 2074
381 291 2139
382 287 2111
389 288 2117
396 288 2117
403 289 2122
411 290 2128
415 289 2119
418 286 2100
432 291 2137
436 290 2125
448 293 2152
452 292 2143
460 293 2146
469 294 2157
474 294 2154
484 296 2166
485 292 2140
499 297 2173
501 294 2154
506 294 2150
511 293 2140
523 296 2164
524 293 2140
534 295 2156
534 292 2129
540 291 2126
548 292 2130
557 293 2138
569 296 2159
572 295 2146
583 297 2161
591 297 2165
600 299 2172
608 300 2178
613 299 2170
616 297 2158
638 305 2211
643 304 2204
650 304 2202
649 300 2175
656 300 2176
671 304 2201
682 306 2214
697 310 2240
700 308 2227
707 308 2225
715 309 2228
715 306 2206
719 305 2196
712 299 2153
690 287 2067
656 270 1944
666 272 1955
711 288 2068
741 297 2134
758 301 2162
776 306 2193
778 304 2179
785 304 2178
790 304 2172
792 302 2156
801 302 2160
806 302 2155
807 300 2137
806 297 2115
809 296 2104
805 292 2075
801 288 2046
800 286 2027
799 283 2005
797 280 1984
801 279 1976
800 277 1958
802 275 1944
800 272 1923
804 272 1916
797 267 1884
802 267 1879
803 266 1867
797 262 1838
803 262 1836
808 261 1832
806 259 1811
808 258 1801
811 257 1793
810 255 1776
815 254 1773
816 253 1762
816 251 1747
819 251 1740
822 250 1732
821 248 1716
827 248 1715
833 248 1714
838 248 1711
843 248 1708
857 250 1723
861 250 1718
884 255 1750
911 261 1790
945 269 1844
982 278 1902
1025 288 1970
1053 294 2008
1072 297 2029
1077 297 2023
1105 303 2061
1126 306 2083
1140 308 2094
1151 309 2098
1163 311 2105
1164 309 2091
1178 311 2101
1187 312 2101
-496 139 858
-508 143 886
-510 144 896
-495 141 876
-495 142 883
-490 141 880
-489 141 884
-475 138 866
-484 142 888
-485 143 897
-486 144 906
-502 149 943
-527 158 997
-536 161 1022
-504 153 968
-513 156 994
-476 146 928
-497 153 977
-487 151 965
-493 154 985
-489 154 983
-480 152 974
-528 168 1078
-496 159 1022
-483 155 1002
-495 160 1035
-494 161 1042
-499 164 1060
-515 170 1103
-502 167 1084
-480 161 1045
-502 169 1102
-487 165 1079
-507 173 1131
-492 169 1107
-515 178 1167
-502 175 1148
-495 174 1143
-515 182 1198
-519 184 1216
-502 180 1186
-498 180 1189
-507 184 1219
-540 198 1310
-501 185 1225
-514 191 1267
-553 207 1377
-752 282 1886
-783 296 1983
-784 299 2003
-778 299 2005
-775 300 2015
-759 296 1991
-758 298 2005
-750 297 2003
-749 299 2018
-734 296 1997
-731 297 2006
-722 296 1999
-711 293 1987
-717 299 2025
-707 297 2014
-697 295 2004
-685 293 1989
-677 292 1985
-677 294 2006
-674 296 2016
-666 294 2010
-668 298 2038
-644 290 1986
-646 294 2011
-645 296 2027
-636 294 2019
-624 292 2003
-619 292 2008
-622 296 2037
-617 297 2042
-605 294 2024
-594 292 2011
-589 292 2013
-585 293 2025
-581 294 2031
-577 295 2038
-571 295 2041
-559 292 2021
-556 293 2033
-548 292 2027
-540 291 2021
-539 294 2040
-534 294 2047
-524 292 2031
-518 292 2035
-509 290 2023
-504 291 2029
-501 292 2041
-494 292 2041
-490 293 2048
-483 293 2047
-480 294 2059
-472 293 2054
-470 296 2072
-462 294 2063
-448 289 2027
-447 293 2054
-441 292 2054
-436 293 2059
-432 294 2071
-426 295 2073
-418 293 2062
-406 289 2037
-403 291 2049
-395 289 2041
-394 293 2066
-387 293 2066
-379 291 2053
-377 293 2075
-377 298 2112
-378 304 2155
-377 309 2186
-353 294 2082
-326 276 1955
-307 265 1880
-295 259 1836
-292 261 1851
-288 262 1862
-275 256 1818
-276 262 1859
-279 269 1912
-278 274 1947
-284 285 2029
-280 287 2046
-276 289 2062
-268 287 2044
-256 281 2003
-256 286 2043
-249 285 2034
-245 288 2054
-239 288 2054
-236 291 2077
-225 285 2033
-223 290 2073
-217 290 2072
-209 287 2054
-203 288 2059
-200 291 2084
-190 286 2047
-184 286 2048
-178 285 2042
-172 285 2044
-164 282 2021
-162 288 2064
-155 286 2054
-149 287 2058
-147 294 2107
-147 306 2200
-133 290 2086
-123 282 2024
-96 233 1670
-87 222 1590
-84 227 1630
-81 230 1650
-76 230 1649
-71 229 1643
-67 232 1667
-63 233 1677
-59 238 1711
-57 248 1787
-54 258 1858
-50 268 1928
-46 278 2002
-41 279 2007
-36 288 2076
-30 289 2081
-24 291 2100
-18 287 2072
-12 290 2094
-6 286 2061
0 289 2084
5 288 2075
11 287 2072
17 290 2096
23 288 2076
29 285 2057
35 287 2073
41 291 2099
47 288 2081
54 291 2101
59 286 2066
65 288 2083
72 290 2096
77 289 2089
84 290 2098
89 287 2076
96 290 2098
100 286 2063
107 286 2069
114 290 2094
119 288 2078
127 290 2098
130 285 2061
137 286 2070
142 285 2057
153 294 2125
158 291 2104
164 292 2107
170 291 2104
176 292 2108
183 293 2119
191 295 2132
197 296 2139
202 293 2121
209 295 2131
217 297 2148
223 297 2142
232 300 2166
232 292 2112
241 296 2139
247 296 2137
256 299 2161
259 295 2129
265 295 2131
269 292 2105
276 293 2114
280 291 2100
285 290 2093
293 291 2100
296 288 2079
304 290 2090
310 290 2094
316 290 2090
323 291 2098
326 288 2076
327 284 2044
332 282 2032
339 284 2042
345 284 2041
349 282 2028
357 284 2041
371 290 2085
378 290 2086
383 289 2078
391 291 2091
398 291 2094
400 288 2073
407 289 2075
417 291 2094
429 295 2121
434 295 2117
443 296 2128
447 295 2118
453 295 2116
460 295 2117
461 292 2094
477 298 2134
479 295 2113
489 298 2132
494 297 2124
502 298 2130
509 298 2133
518 299 2141
524 299 2138
528 298 2127
527 294 2100
534 294 2099
548 299 2130
557 300 2138
558 297 2118
569 299 2134
578 301 2143
582 300 2133
594 302 2152
598 301 2142
602 300 2133
612 302 2142
622 303 2152
631 304 2160
635 303 2149
638 302 2138
657 308 2179
646 299 2119
664 305 2156
677 307 2174
682 307 2169
685 305 2154
707 312 2203
723 316 2230
727 315 2219
724 310 2187
716 304 2144
717 302 2125
689 287 2020
653 270 1897
678 278 1952
721 293 2055
747 301 2110
766 306 2145
772 305 2139
779 306 2139
786 306 2138
789 304 2127
794 304 2123
802 304 2123
811 305 2128
802 300 2086
812 301 2093
806 296 2060
803 293 2033
801 290 2010
797 286 1983
801 285 1976
800 283 1956
804 282 1949
799 278 1920
800 276 1906
797 273 1883
802 273 1879
802 271 1864
802 269 1849
801 267 1831
807 267 1829
805 264 1810
803 262 1790
802 260 1773
809 260 1773
811 259 1763
813 258 1755
814 256 1743
814 254 1728
819 254 1724
820 253 1714
822 252 1704
826 251 1699
828 250 1690
834 250 1688
841 251 1689
850 252 1694
851 251 1684
862 252 1692
878 255 1710
907 262 1755
932 267 1789
965 275 1839
983 279 1859
1016 286 1907
1038 290 1933
1069 297 1977
1123 310 2061
1143 314 2082
1153 315 2086
1172 318 2104
1174 317 2092
1185 318 2096
-494 141 854
-495 142 862
-497 143 872
-494 143 873
-500 146 891
-503 147 902
-486 143 879
-489 145 891
-470 140 863
-482 145 891
-489 148 910
-490 149 920
-490 150 928
-502 154 957
-506 156 971
-488 152 944
-491 154 958
-490 154 962
-485 154 960
-503 160 1004
-502 161 1010
-490 158 994
-482 157 985
-506 165 1042
-506 166 1051
-507 168 1061
-491 164 1036
-510 171 1083
-509 172 1091
-506 172 1094
-496 169 1080
-519 178 1139
-494 171 1093
-508 177 1132
-498 175 1120
-522 184 1184
-507 180 1158
-515 184 1188
-487 176 1133
-512 186 1199
-537 196 1270
-502 185 1197
-518 192 1245
-547 204 1325
-507 191 1239
-512 194 1264
-551 210 1371
-747 286 1874
-782 302 1978
-775 301 1978
-772 303 1989
-771 305 2003
-767 305 2010
-757 304 2003
-749 303 1999
-737 301 1986
-735 302 1999
-724 300 1987
-717 300 1987
-711 300 1988
-705 300 1989
-699 300 1992
-690 298 1983
-678 295 1967
-675 297 1979
-680 302 2014
-672 301 2010
-662 299 1998
-651 297 1987
-652 300 2009
-641 297 1995
-637 299 2003
-631 298 2004
-625 298 2006
-615 296 1993
-613 298 2009
-611 300 2022
-593 294 1983
-588 294 1988
-586 297 2004
-583 298 2017
-582 301 2036
-567 296 2003
-559 295 1999
-560 298 2024
-552 297 2019
-542 295 2005
-535 294 2001
-532 296 2015
-525 296 2013
-521 297 2022
-515 297 2023
-507 295 2013
-506 298 2038
-501 298 2040
-492 297 2029
-484 296 2024
-480 297 2034
-473 296 2031
-472 299 2050
-459 295 2023
-454 295 2029
-447 295 2024
-442 295 2027
-437 296 2036
-430 295 2032
-421 293 2016
-412 291 2004
-410 293 2024
-408 296 2046
-400 295 2037
-390 292 2014
-386 293 2028
-378 291 2015
-372 292 2018
-369 294 2034
-366 296 2048
-367 302 2090
-366 306 2123
-353 300 2082
-324 280 1943
-304 268 1858
-293 263 1825
-292 266 1850
-281 262 1819
-273 260 1804
-277 268 1866
-277 273 1903
-280 282 1961
-281 288 2010
-277 290 2022
-268 287 1998
-262 286 1997
-258 288 2013
-256 293 2047
-246 288 2013
-241 289 2020
-233 286 1999
-233 294 2054
-221 287 2004
-219 291 2035
-211 288 2020
-208 292 2044
-199 288 2017
-192 286 2007
-188 288 2021
-181 286 2006
-174 285 2001
-169 286 2009
-165 289 2027
-157 286 2008
-154 290 2035
-149 292 2050
-150 305 2147
-143 304 2138
-129 287 2017
-118 275 1936
-95 234 1647
-86 224 1573
-85 234 1643
-80 232 1628
-74 229 1607
-70 232 1630
-66 234 1648
-62 235 1656
-58 241 1695
-56 250 1758
-52 257 1810
-48 265 1868
-46 284 2003
-41 286 2017
-36 290 2048
-30 292 2059
-24 293 2066
-18 294 2074
-12 291 2057
-6 290 2050
0 291 2058
5 291 2054
11 293 2072
17 293 2067
22 287 2029
29 291 2057
34 287 2029
41 291 2057
46 289 2046
53 291 2057
59 293 2068
65 292 2064
71 292 2067
77 292 2062
83 291 2061
90 295 2089
95 292 2066
101 293 2070
107 293 2072
112 290 2053
117 287 2034
124 291 2058
130 291 2056
137 292 2067
144 294 2081
148 290 2055
155 293 2072
162 295 2087
168 294 2081
176 298 2109
184 300 2121
188 297 2104
194 297 2101
199 295 2087
207 298 2108
214 299 2117
220 298 2110
225 297 2100
232 298 2105
239 300 2120
247 302 2135
252 300 2118
255 296 2095
264 299 2114
267 296 2094
275 298 2107
279 296 2088
285 296 2090
288 293 2067
294 293 2067
301 293 2071
306 292 2061
310 291 2051
313 287 2028
325 293 2065
328 290 2046
335 291 2051
340 290 2048
344 289 2034
347 286 2017
356 289 2035
366 292 2054
377 295 2081
377 290 2045
387 293 2066
391 292 2055
402 296 2081
410 297 2090
411 293 2060
418 294 2068
424 294 2066
439 300 2106
437 294 2068
451 299 2102
453 297 2083
459 296 2080
464 296 2075
470 296 2073
479 297 2085
484 297 2080
493 298 2090
499 298 2089
505 298 2085
516 301 2105
524 302 2110
529 301 2103
535 301 2104
537 299 2087
545 299 2090
549 298 2082
567 305 2125
568 301 2102
574 301 2100
583 303 2111
590 303 2110
602 306 2131
607 306 2125
609 303 2109
619 305 2117
616 300 2084
633 305 2120
633 302 2097
631 298 2069
655 307 2127
660 306 2120
676 310 2148
681 310 2143
691 311 2151
702 313 2165
713 315 2175
723 317 2185
723 314 2164
728 313 2157
725 309 2128
712 301 2068
685 287 1970
668 277 1902
691 284 1950
735 300 2056
751 303 2080
770 309 2115
772 307 2101
784 309 2113
789 308 2106
792 307 2096
798 307 2092
799 305 2076
806 305 2077
807 303 2061
812 302 2055
803 296 2013
808 296 2010
801 291 1975
799 288 1953
802 287 1943
804 286 1931
802 283 1909
801 280 1891
802 279 1878
801 276 1859
800 274 1842
804 273 1837
808 273 1830
804 269 1805
801 266 1784
803 265 1775
812 266 1780
810 264 1761
809 262 1745
811 260 1734
811 259 1722
811 257 1707
818 258 1708
816 255 1691
821 255 1689
824 254 1680
825 253 1671
826 252 1659
833 252 1659
843 253 1667
845 252 1658
846 251 1646
860 254 1662
874 256 1677
894 260 1701
913 264 1724
932 268 1748
962 275 1791
992 282 1833
1057 298 1939
1094 307 1992
1121 313 2027
1142 317 2049
1168 322 2081
1176 322 2079
-494 144 854
-495 145 862
-490 144 859
-505 149 892
-505 150 900
-489 146 877
-486 146 879
-482 146 878
-475 145 871
-491 150 908
-473 146 880
-477 148 896
-480 150 907
-471 148 897
-494 156 948
-481 153 931
-499 159 974
-490 157 962
-511 165 1011
-508 165 1014
-492 161 989
-501 165 1016
-506 167 1033
-504 168 1037
-487 163 1010
-493 166 1030
-491 167 1035
-492 168 1045
-492 169 1054
-502 174 1083
-502 175 1092
-498 175 1093
-512 181 1132
-514 183 1145
-505 181 1136
-512 185 1161
-504 183 1152
-505 184 1163
-512 188 1190
-502 186 1175
-502 187 1187
-498 187 1187
-512 194 1231
-513 195 1243
-518 199 1267
-511 198 1260
-555 216 1381
-734 287 1841
-767 302 1940
-759 301 1936
-762 305 1961
-768 309 1994
-751 305 1967
-741 304 1960
-747 308 1994
-735 306 1980
-723 303 1966
-705 298 1935
-707 301 1956
-718 309 2006
-707 307 1996
-698 305 1987
-687 303 1976
-673 300 1955
-673 302 1973
-671 304 1987
-666 304 1991
-656 302 1981
-646 300 1969
-642 301 1976
-635 301 1975
-639 305 2007
-628 303 1992
-619 301 1984
-618 304 2003
-610 303 1997
-601 301 1989
-592 300 1982
-581 297 1964
-580 299 1982
-580 303 2006
-575 303 2008
-560 298 1981
-547 295 1956
-545 297 1971
-544 299 1987
-540 300 1998
-536 301 2004
-528 300 1999
-518 297 1983
-520 302 2017
-513 302 2015
-505 300 2009
-502 302 2018
-495 301 2015
-490 301 2020
-479 298 2001
-478 301 2022
-475 303 2036
-467 302 2030
-458 300 2018
-451 299 2013
-442 297 2001
-434 296 1993
-433 299 2014
-422 295 1991
-418 297 2002
-409 294 1986
-403 294 1988
-394 292 1976
-392 294 1991
-389 297 2009
-381 295 1999
-373 294 1989
-372 297 2013
-363 295 1998
-358 295 2004
-356 299 2029
-361 308 2091
-346 300 2038
-327 289 1963
-313 282 1916
-303 278 1889
-295 275 1872
-286 272 1849
-282 273 1862
-275 271 1850
-272 274 1868
-280 287 1958
-278 292 1990
-270 289 1975
-264 288 1968
-261 292 1995
-253 289 1977
-250 292 2000
-243 290 1986
-236 289 1977
-232 291 1994
-228 293 2008
-220 290 1990
-216 293 2006
-209 291 1997
-204 292 2006
-196 289 1981
-193 294 2017
-187 292 2009
-178 288 1978
-174 291 2000
-168 290 1992
-162 290 1995
-155 288 1983
-151 291 1999
-148 296 2040
-149 310 2137
-138 300 2067
-125 285 1964
-113 271 1865
-89 226 1551
-85 226 1552
-83 232 1597
-77 229 1576
-73 231 1589
-70 236 1624
-65 235 1621
-61 237 1636
-58 244 1684
-55 251 1734
-51 259 1790
-48 269 1854
-46 285 1971
-41 295 2042
-35 295 2037
-30 295 2039
-24 294 2033
-18 294 2034
-12 295 2043
-6 295 2040
0 293 2025
5 292 2022
11 293 2026
17 295 2041
23 295 2040
29 296 2049
34 293 2031
40 295 2041
46 296 2049
52 296 2052
57 291 2015
64 293 2031
69 290 2012
75 293 2026
82 294 2038
87 292 2026
94 295 2047
100 297 2055
106 297 2060
112 296 2048
116 290 2013
122 292 2022
130 295 2046
135 294 2034
141 295 2043
148 297 2060
155 298 2063
159 296 2048
165 295 2041
172 297 2057
179 299 2070
185 299 2070
192 299 2074
197 298 2068
202 297 2055
209 298 2063
217 301 2082
222 299 2074
228 299 2073
237 303 2098
247 308 2130
248 301 2083
252 299 2070
261 303 2095
265 300 2078
272 300 2079
278 300 2078
281 297 2057
290 301 2079
293 297 2055
298 296 2049
304 296 2048
308 294 2031
312 293 2022
322 297 2050
323 292 2016
333 296 2042
335 292 2014
342 293 2022
351 295 2037
357 295 2035
362 295 2033
371 297 2049
379 299 2059
382 296 2038
389 297 2046
397 298 2052
405 300 2065
406 296 2036
421 302 2080
421 298 2051
431 301 2068
437 300 2067
442 300 2060
447 299 2056
