VERSION 0.7
FIELDS x y z
SIZE 4 4 4
TYPE I I I
COUNT 1 1 1
WIDTH 3589
HEIGHT 1
VIEWPOINT 0.0 0.0 0.0 1.0 0.0 0.0 0.0
POINTS 3589
DATA ascii
-348 343 1522
-341 341 1515
-333 338 1500
-334 343 1523
-321 335 1488
-320 337 1500
-313 335 1492
-309 335 1493
-305 336 1499
-297 332 1481
-297 336 1500
-289 332 1484
-286 334 1493
-281 334 1491
-275 332 1484
-271 332 1483
-265 330 1476
-262 331 1483
-258 333 1490
-255 334 1495
-247 330 1479
-243 330 1478
-239 331 1484
-234 330 1479
-232 332 1492
-226 330 1485
-221 329 1479
-217 330 1484
-215 333 1500
-208 330 1486
-205 331 1492
-199 329 1480
-195 329 1483
-192 331 1494
-185 328 1479
-183 331 1492
-178 330 1487
-174 331 1496
-171 334 1509
-166 332 1499
-160 330 1492
-156 330 1490
-152 331 1497
-148 332 1500
-143 330 1492
-139 332 1501
-135 333 1508
-129 328 1486
-123 324 1466
-115 315 1428
-106 302 1368
-98 289 1309
-90 278 1258
-85 274 1241
-80 268 1214
-75 264 1196
-71 261 1184
-67 259 1176
-64 260 1179
-60 261 1181
-57 260 1180
-53 259 1172
-50 262 1188
-47 261 1185
-44 264 1199
-41 268 1215
-38 273 1240
-35 278 1263
-32 283 1285
-29 293 1332
-28 318 1447
-24 319 1453
-20 326 1481
-16 335 1523
-12 338 1538
-7 335 1525
-3 335 1524
1 333 1518
5 334 1520
10 333 1515
14 332 1512
18 329 1497
23 336 1529
27 335 1524
32 336 1531
36 333 1516
41 337 1538
45 335 1528
50 339 1543
55 337 1533
59 338 1541
63 336 1529
68 338 1540
73 337 1538
77 336 1533
82 337 1537
86 335 1527
91 337 1536
94 334 1522
100 337 1535
104 337 1536
108 336 1530
113 337 1534
117 335 1526
123 339 1545
128 341 1555
132 338 1538
136 337 1536
140 337 1536
145 337 1535
150 339 1543
154 338 1540
160 340 1549
164 340 1547
169 339 1544
173 339 1542
179 342 1556
183 341 1550
188 342 1553
192 340 1548
196 340 1546
199 337 1531
206 340 1545
210 341 1547
213 338 1536
220 342 1551
224 341 1548
230 342 1552
235 343 1556
237 340 1542
240 337 1529
246 339 1537
253 342 1552
256 340 1541
258 337 1525
262 336 1520
268 338 1531
273 339 1532
278 339 1532
283 340 1536
290 342 1547
289 336 1520
297 340 1535
302 341 1540
303 337 1520
312 341 1541
315 339 1530
318 338 1524
324 340 1531
328 339 1527
334 340 1532
333 335 1507
347 344 1548
347 340 1528
355 343 1541
362 345 1549
363 342 1535
368 342 1537
373 342 1537
375 340 1526
385 345 1546
385 341 1528
387 338 1516
398 344 1539
404 345 1543
408 345 1542
416 348 1554
418 345 1541
428 349 1559
430 347 1549
432 345 1538
441 349 1554
442 346 1540
448 347 1544
450 344 1532
458 347 1543
458 344 1527
466 346 1537
469 344 1528
477 347 1540
476 343 1519
487 347 1539
489 345 1529
497 348 1538
507 351 1554
515 354 1563
513 349 1540
521 351 1550
526 351 1547
540 358 1575
541 355 1561
540 351 1543
551 355 1561
576 368 1617
588 372 1634
586 368 1612
597 372 1628
593 366 1603
597 365 1597
601 365 1594
605 364 1591
608 363 1583
616 365 1590
616 362 1576
629 367 1594
623 360 1565
628 360 1563
640 364 1579
650 367 1591
657 368 1593
666 371 1602
667 368 1590
671 368 1587
680 370 1595
691 373 1605
707 379 1631
705 375 1611
713 377 1617
714 374 1604
716 373 1596
727 376 1607
729 374 1599
734 374 1595
736 372 1587
746 375 1595
746 373 1584
749 371 1577
756 372 1580
758 371 1571
760 369 1563
772 373 1575
773 371 1564
773 368 1551
777 368 1547
772 363 1526
785 367 1538
787 365 1530
787 363 1520
769 352 1472
723 329 1373
711 322 1340
683 307 1277
587 262 1088
672 298 1236
721 319 1319
758 333 1376
800 349 1441
810 351 1448
827 356 1468
821 352 1447
830 354 1452
838 355 1454
-476 209 810
-481 213 826
-479 213 828
-483 216 841
-476 214 835
-475 215 840
-486 221 866
-501 229 898
-501 230 906
-474 219 863
-481 224 883
-491 230 909
-490 231 913
-519 246 975
-555 264 1050
-615 294 1172
-659 317 1266
-799 386 1548
-844 410 1647
-807 395 1588
-638 315 1265
-551 274 1101
-542 271 1092
-537 270 1091
-536 272 1097
-540 275 1115
-535 275 1113
-534 276 1119
-544 283 1150
-533 279 1136
-499 263 1071
-525 278 1136
-548 292 1196
-557 299 1225
-560 303 1242
-559 305 1251
-548 301 1236
-518 286 1178
-494 275 1133
-495 278 1145
-495 280 1156
-501 285 1180
-547 313 1298
-605 349 1449
-605 351 1461
-595 348 1449
-598 352 1469
-586 348 1454
-581 348 1454
-580 350 1464
-572 348 1457
-571 350 1467
-568 351 1473
-566 352 1479
-560 351 1478
-554 350 1476
-553 353 1486
-546 351 1481
-538 349 1475
-528 345 1459
-525 346 1464
-515 343 1452
-515 345 1465
-507 343 1456
-499 341 1449
-498 343 1458
-497 346 1471
-494 347 1477
-489 346 1476
-491 350 1497
-486 350 1498
-476 346 1482
-475 349 1493
-472 350 1500
-461 345 1480
-465 351 1508
-460 351 1510
-450 347 1492
-438 341 1467
-441 346 1493
-437 347 1497
-433 347 1498
-427 346 1495
-425 348 1505
-415 344 1487
-409 342 1483
-406 344 1489
-403 345 1497
-403 348 1512
-394 345 1499
-387 342 1487
-378 338 1470
-378 343 1492
-372 341 1485
-369 342 1492
-363 341 1488
-358 341 1486
-357 344 1502
-354 345 1506
-351 347 1516
-343 343 1501
-338 343 1500
-335 344 1508
-329 343 1502
-319 337 1475
-317 339 1489
-311 337 1481
-306 337 1480
-304 339 1491
-298 337 1484
-292 336 1477
-287 335 1476
-282 335 1474
-279 335 1477
-271 332 1462
-271 336 1484
-265 334 1474
-260 334 1475
-252 329 1455
-249 331 1462
-245 332 1466
-244 336 1485
-239 335 1480
-231 330 1460
-227 329 1459
-223 330 1461
-219 331 1469
-215 332 1472
-211 332 1472
-207 333 1477
-202 332 1475
-198 332 1476
-193 331 1473
-188 330 1468
-185 332 1475
-181 332 1475
-177 332 1479
-172 332 1480
-166 329 1467
-162 330 1470
-159 331 1476
-155 333 1485
-151 333 1485
-146 333 1484
-140 329 1468
-137 331 1480
-133 332 1484
-130 335 1494
-121 322 1439
-114 315 1405
-104 299 1337
-95 286 1278
-90 281 1256
-84 274 1225
-79 269 1202
-74 264 1180
-70 260 1163
-67 263 1173
-63 262 1170
-59 261 1166
-56 261 1167
-53 260 1165
-49 261 1170
-46 264 1183
-43 265 1185
-40 267 1194
-37 271 1212
-35 279 1249
-31 282 1265
-28 289 1296
-27 314 1407
-24 322 1445
-20 326 1461
-16 337 1511
-12 338 1518
-7 333 1497
-3 335 1503
1 337 1515
5 334 1500
10 336 1508
14 335 1505
18 336 1511
23 336 1512
27 335 1506
31 332 1493
36 338 1518
41 336 1512
45 336 1511
49 335 1506
54 337 1515
59 338 1520
63 337 1515
68 339 1522
72 340 1528
77 338 1521
80 335 1508
85 337 1515
90 337 1515
95 340 1527
99 339 1521
102 334 1501
108 340 1526
111 335 1505
116 337 1512
121 339 1522
126 341 1529
129 336 1509
135 338 1519
140 340 1526
144 340 1524
148 339 1522
153 339 1523
158 341 1529
161 338 1517
166 338 1519
171 339 1523
176 340 1525
180 340 1524
185 341 1529
192 344 1543
196 344 1543
200 342 1534
204 342 1533
209 343 1537
212 340 1523
217 340 1524
222 341 1527
226 341 1527
228 337 1509
236 343 1532
241 343 1532
244 341 1526
249 342 1527
253 341 1523
257 341 1522
262 340 1520
266 341 1521
272 342 1528
277 343 1529
278 339 1511
284 340 1517
289 340 1517
292 339 1511
300 342 1524
303 341 1520
311 345 1534
314 343 1526
317 342 1520
321 340 1514
327 342 1520
329 340 1510
335 341 1516
342 344 1526
344 341 1511
348 341 1510
353 340 1509
358 342 1513
365 343 1520
367 341 1510
371 341 1509
381 346 1530
381 342 1510
389 344 1521
389 341 1505
396 343 1514
403 345 1522
407 344 1517
417 349 1538
420 347 1530
420 344 1513
425 344 1514
434 347 1528
441 349 1535
446 349 1534
449 348 1527
455 350 1533
454 345 1510
461 346 1517
465 346 1514
473 349 1524
474 346 1511
482 349 1522
486 348 1517
488 346 1510
500 351 1531
505 352 1531
509 351 1528
515 352 1530
522 354 1537
527 353 1534
531 353 1532
537 354 1535
550 359 1556
562 364 1575
577 370 1602
577 367 1586
574 362 1564
580 363 1567
587 364 1569
594 365 1573
601 367 1579
603 365 1570
609 366 1570
615 366 1572
621 367 1573
618 362 1550
617 359 1536
626 361 1545
641 367 1567
638 362 1546
647 365 1555
656 367 1563
665 369 1570
665 367 1558
674 369 1565
694 377 1599
701 378 1600
699 374 1583
708 376 1589
718 379 1599
718 376 1585
725 377 1589
726 375 1578
728 374 1570
731 372 1562
735 372 1559
744 374 1565
750 374 1565
755 375 1564
759 374 1559
762 373 1553
764 371 1545
767 370 1538
774 371 1541
773 368 1527
772 366 1513
776 365 1508
774 362 1494
783 364 1499
780 360 1482
754 346 1420
725 331 1355
718 325 1332
678 305 1248
603 270 1100
691 308 1253
733 324 1320
772 340 1380
804 351 1426
817 355 1439
822 355 1436
828 355 1436
-485 216 826
-482 216 826
-484 218 836
-495 224 861
-476 217 834
-481 220 849
-500 231 891
-479 222 860
-493 230 890
-499 234 908
-484 228 888
-499 237 923
-520 248 970
-574 275 1077
-631 304 1193
-631 306 1203
-667 325 1282
-807 395 1562
-842 415 1643
-776 385 1526
-613 306 1215
-547 275 1093
-540 274 1088
-539 275 1094
-540 277 1104
-538 278 1108
-531 276 1105
-537 281 1124
-531 280 1121
-527 279 1121
-538 287 1155
-528 284 1143
-543 294 1185
-557 303 1225
-561 308 1245
-557 307 1246
-541 301 1221
-518 290 1178
-513 289 1176
-511 290 1182
-486 279 1135
-498 287 1173
-538 312 1277
-586 342 1402
-604 355 1457
-591 350 1439
-585 349 1437
-583 351 1444
-576 349 1439
-573 350 1444
-569 350 1448
-567 352 1456
-561 351 1454
-557 351 1456
-554 352 1462
-548 351 1459
-544 351 1461
-540 352 1466
-532 350 1458
-522 346 1442
-518 346 1446
-508 343 1432
-510 347 1452
-501 344 1439
-497 344 1441
-495 346 1451
-499 351 1475
-498 353 1486
-491 352 1481
-487 352 1483
-482 352 1484
-475 350 1477
-468 349 1472
-459 344 1456
-459 348 1474
-460 352 1492
-453 350 1484
-442 345 1464
-434 343 1455
-433 345 1465
-437 351 1495
-424 345 1468
-422 347 1479
-416 345 1472
-411 345 1473
-409 347 1481
-404 346 1481
-395 343 1467
-395 346 1482
-395 350 1499
-382 343 1469
-379 344 1475
-377 346 1485
-369 343 1474
-364 342 1471
-363 345 1485
-361 348 1498
-352 343 1478
-352 347 1498
-348 348 1500
-341 345 1490
-331 340 1469
-326 339 1465
-319 336 1453
-318 340 1473
-308 333 1443
-306 337 1459
-302 336 1458
-296 335 1453
-293 336 1458
-286 333 1446
-286 338 1468
-281 337 1466
-276 336 1462
-271 336 1460
-266 335 1457
-262 335 1458
-259 337 1468
-253 335 1460
-249 335 1462
-246 336 1467
-237 331 1444
-234 332 1448
-229 331 1448
-226 333 1454
-220 330 1444
-218 334 1460
-212 332 1452
-210 335 1466
-207 336 1471
-201 334 1461
-196 334 1462
-192 334 1464
-187 333 1460
-183 333 1461
-178 332 1457
-175 334 1467
-171 335 1472
-166 333 1463
-162 334 1470
-158 334 1467
-153 332 1461
-149 333 1467
-145 333 1466
-141 335 1473
-136 334 1471
-132 335 1474
-127 331 1457
-119 322 1421
-112 313 1381
-103 299 1318
-94 286 1259
-89 281 1240
-82 272 1199
-78 268 1182
-73 265 1170
-69 263 1161
-65 260 1147
-63 263 1160
-58 260 1147
-55 261 1152
-52 261 1150
-49 264 1163
-46 263 1162
-43 268 1182
-39 268 1182
-37 275 1216
-34 280 1237
-30 279 1231
-28 290 1282
-26 308 1362
-22 314 1387
-19 322 1424
-16 339 1499
-11 339 1499
-7 337 1493
-3 335 1486
1 334 1480
5 337 1494
10 335 1484
14 337 1491
18 338 1500
23 339 1501
27 337 1494
32 338 1500
36 339 1504
40 337 1493
45 338 1499
49 339 1501
54 339 1503
58 337 1494
63 339 1504
67 338 1500
72 341 1512
75 337 1496
81 341 1510
84 336 1489
88 337 1494
93 339 1504
97 338 1497
102 340 1505
106 336 1490
112 341 1513
115 337 1494
120 340 1507
124 339 1500
129 339 1501
134 341 1512
138 340 1506
141 337 1493
147 341 1508
152 341 1512
154 337 1490
161 342 1515
167 344 1523
171 343 1518
174 342 1513
180 345 1526
182 339 1500
188 341 1510
191 339 1499
197 343 1515
199 338 1496
205 340 1504
209 339 1498
215 342 1511
219 342 1511
224 343 1513
227 340 1501
233 343 1514
237 342 1508
243 343 1514
245 341 1502
251 342 1507
256 343 1511
258 340 1499
264 341 1504
269 342 1506
272 340 1498
277 341 1500
281 340 1497
287 342 1506
294 346 1519
294 341 1497
301 343 1505
302 339 1487
309 342 1500
311 340 1490
318 342 1501
324 343 1504
326 341 1492
337 347 1521
335 341 1494
344 345 1512
345 342 1497
352 344 1506
359 347 1518
361 345 1506
364 343 1498
369 344 1500
373 342 1494
383 348 1515
386 346 1508
387 343 1495
393 345 1500
397 344 1498
401 344 1494
406 344 1495
412 346 1501
421 349 1515
427 350 1519
425 345 1495
438 352 1524
439 349 1510
441 347 1500
444 345 1493
454 349 1509
457 348 1504
463 349 1507
466 348 1500
475 351 1513
474 347 1494
483 350 1507
482 347 1491
491 350 1503
498 351 1507
503 351 1507
508 352 1508
512 351 1503
520 354 1514
522 351 1503
532 355 1518
546 362 1545
558 366 1562
558 363 1547
567 366 1559
573 366 1560
568 360 1531
584 367 1561
585 365 1549
585 362 1536
597 366 1552
603 367 1554
614 370 1568
610 365 1543
619 368 1553
615 362 1529
620 362 1527
630 366 1540
639 368 1548
642 367 1542
650 369 1548
662 373 1563
662 370 1548
669 371 1552
674 371 1551
685 374 1562
691 375 1563
703 379 1578
706 378 1572
709 376 1564
724 381 1584
718 376 1559
720 374 1551
731 377 1561
731 375 1549
739 376 1553
743 376 1549
747 375 1544
748 373 1534
758 376 1544
753 371 1520
764 374 1530
764 371 1518
767 371 1514
773 371 1513
766 365 1488
778 368 1499
778 366 1489
778 364 1476
790 367 1487
786 363 1470
759 348 1406
729 333 1340
711 322 1297
673 303 1218
622 279 1117
703 313 1254
738 327 1307
775 341 1363
815 357 1423
822 358 1424
-504 227 857
-495 224 848
-494 225 853
-481 221 836
-478 221 838
-491 228 867
-492 230 875
-484 227 868
-475 224 857
-511 243 930
-508 242 931
-529 254 977
-583 281 1085
-617 299 1158
-635 310 1199
-636 312 1211
-686 339 1317
-794 394 1536
-830 414 1617
-771 387 1515
-603 305 1194
-543 277 1085
-551 283 1108
-544 281 1102
-545 283 1113
-539 282 1112
-523 276 1087
-536 284 1123
-532 284 1122
-539 290 1147
-527 285 1130
-525 286 1135
-543 298 1185
-542 299 1191
-534 297 1184
-544 304 1217
-552 311 1245
-523 297 1189
-484 277 1110
-535 308 1236
-505 293 1178
-497 290 1169
-531 312 1260
-582 344 1391
-591 352 1425
-588 353 1430
-583 353 1430
-575 350 1423
-576 354 1438
-562 348 1417
-562 351 1430
-558 351 1431
-555 352 1438
-545 348 1423
-549 354 1448
-539 350 1433
-542 355 1455
-529 349 1433
-526 350 1440
-523 351 1446
-519 351 1448
-508 347 1431
-504 347 1434
-495 344 1421
-493 346 1429
-488 345 1428
-491 350 1452
-488 351 1456
-484 352 1461
-477 349 1453
-476 352 1464
-470 351 1462
-464 350 1457
-460 350 1459
-453 348 1454
-452 351 1467
-449 352 1472
-441 349 1460
-436 348 1460
-433 350 1467
-433 353 1482
-427 351 1476
-419 349 1465
-413 348 1462
-411 350 1472
-405 349 1468
-396 344 1450
-393 346 1458
-388 345 1458
-389 349 1476
-381 347 1466
-377 347 1468
-377 350 1483
-368 346 1466
-368 351 1488
-362 349 1481
-356 347 1474
-352 348 1479
-347 347 1476
-346 351 1493
-340 349 1485
-328 341 1453
-320 338 1440
-315 337 1437
-310 336 1435
-310 340 1454
-304 339 1448
-299 338 1446
-294 337 1443
-290 338 1445
-288 339 1453
-281 336 1441
-277 337 1447
-273 337 1447
-269 338 1450
-262 334 1435
-261 339 1455
-255 336 1443
-250 335 1442
-246 335 1443
-241 334 1439
-235 332 1430
-233 335 1443
-227 332 1432
-225 336 1448
-219 333 1438
-215 333 1438
-210 332 1434
-206 333 1438
-203 335 1449
-198 333 1440
-194 335 1447
-190 334 1445
-185 333 1442
-182 334 1448
-177 334 1444
-173 335 1452
-168 333 1443
-165 335 1451
-160 334 1450
-157 335 1455
-152 334 1448
-147 334 1448
-144 336 1460
-140 337 1465
-135 335 1455
-132 337 1466
-126 334 1453
-118 324 1407
-111 316 1372
-101 299 1300
-93 288 1250
-87 280 1216
-82 274 1191
-77 271 1178
-72 264 1146
-69 266 1158
-65 263 1145
-61 262 1138
-58 263 1143
-54 261 1135
-52 264 1150
-48 260 1133
-45 265 1156
-42 266 1159
-39 266 1157
-36 273 1192
-33 276 1203
-31 285 1242
-28 289 1261
-26 309 1347
-22 315 1376
-19 323 1411
-15 337 1472
-11 338 1478
-7 337 1475
-2 334 1461
1 341 1490
5 335 1465
10 338 1476
14 340 1487
18 340 1486
23 338 1480
27 337 1471
31 339 1484
36 338 1479
40 339 1484
44 339 1483
48 337 1475
53 336 1470
57 334 1462
62 338 1479
66 341 1490
70 337 1473
75 340 1486
79 338 1480
83 338 1477
87 337 1474
92 339 1480
96 338 1476
100 335 1463
106 341 1491
110 340 1488
114 337 1475
119 339 1483
122 337 1473
128 342 1495
131 339 1480
137 343 1497
141 341 1488
144 337 1474
149 339 1481
155 343 1499
160 344 1502
163 341 1490
168 342 1493
172 341 1488
178 345 1504
181 342 1492
185 342 1490
189 340 1484
196 345 1504
199 342 1490
203 341 1488
209 344 1501
212 342 1492
217 343 1492
220 340 1482
226 343 1495
230 342 1490
234 342 1490
240 344 1498
247 348 1515
249 344 1494
251 341 1480
255 340 1476
260 341 1480
265 342 1484
270 343 1488
274 342 1484
280 344 1493
281 339 1471
286 340 1474
293 344 1489
294 339 1469
302 343 1487
308 346 1496
311 344 1489
312 340 1471
318 341 1476
327 346 1496
327 342 1477
330 340 1467
341 347 1496
341 342 1475
345 342 1475
352 344 1483
353 341 1468
360 343 1479
365 344 1482
369 344 1478
374 344 1478
379 345 1482
384 345 1482
388 344 1478
393 345 1482
398 346 1482
404 346 1485
407 345 1480
415 348 1491
423 351 1503
422 347 1483
426 346 1479
430 346 1476
435 347 1479
444 350 1493
447 349 1487
453 349 1488
455 348 1480
465 352 1497
461 346 1469
472 350 1488
481 354 1501
478 348 1477
488 352 1491
489 349 1478
497 352 1489
499 350 1480
503 349 1477
511 352 1486
515 352 1484
530 359 1513
532 357 1503
544 362 1522
556 366 1540
566 370 1553
568 368 1545
565 363 1521
567 361 1515
567 358 1500
578 362 1514
579 360 1504
590 364 1519
593 363 1513
608 369 1537
610 367 1528
612 365 1520
615 364 1514
621 365 1516
626 365 1515
632 366 1517
630 362 1499
652 372 1538
646 366 1511
652 366 1512
664 370 1527
675 373 1538
684 376 1547
693 378 1553
697 378 1550
696 374 1534
709 379 1551
703 373 1524
711 375 1530
719 376 1534
724 376 1534
733 378 1539
734 376 1529
741 377 1532
738 373 1514
754 379 1535
756 377 1526
753 373 1507
760 374 1509
766 375 1509
766 372 1497
768 371 1491
771 370 1485
775 369 1480
778 369 1476
778 367 1464
781 365 1458
787 366 1458
777 359 1429
752 346 1372
738 337 1336
717 326 1289
657 297 1170
651 292 1151
717 320 1259
754 334 1315
789 348 1366
-492 225 836
-486 224 833
-486 225 838
-486 226 845
-487 227 852
-477 224 841
-485 229 862
-491 233 879
-522 249 941
-536 257 974
-568 275 1041
-581 282 1073
-609 297 1133
-632 311 1185
-625 309 1180
-624 310 1188
-722 360 1384
-800 402 1547
-819 414 1595
-757 385 1485
-593 304 1174
-546 282 1089
-545 283 1096
-542 284 1098
-547 288 1117
-543 288 1119
-553 295 1148
-537 288 1124
-522 282 1100
-548 298 1165
-521 285 1116
-524 289 1133
-524 291 1141
-518 289 1137
-520 292 1151
-532 301 1189
-527 301 1187
-523 300 1187
-510 295 1168
-502 293 1160
-498 292 1160
-500 296 1176
-526 313 1246
-576 345 1378
-587 355 1416
-586 357 1426
-582 356 1427
-571 352 1413
-569 354 1420
-560 351 1410
-556 351 1412
-553 352 1417
-545 350 1411
-550 356 1436
-539 351 1419
-537 353 1429
-535 355 1436
-530 354 1436
-520 350 1421
-516 351 1425
-508 348 1415
-508 351 1429
-493 344 1401
-490 345 1407
-488 346 1413
-483 346 1414
-484 350 1431
-478 348 1425
-481 354 1449
-474 352 1443
-474 355 1457
-469 355 1458
-463 354 1454
-458 353 1453
-450 350 1443
-453 356 1467
-449 356 1470
-433 347 1432
-433 351 1449
-428 350 1449
-425 351 1453
-424 354 1465
-414 349 1447
-417 355 1474
-414 357 1481
-403 351 1459
-395 348 1446
-392 349 1454
-391 352 1465
-381 347 1447
-380 350 1459
-372 347 1448
-370 349 1457
-367 350 1463
-361 348 1457
-355 347 1453
-353 349 1464
-349 349 1464
-339 344 1442
-341 350 1469
-334 347 1458
-327 344 1447
-319 341 1435
-314 340 1429
-314 344 1449
-304 339 1427
-304 343 1448
-297 340 1435
-295 343 1447
-288 339 1431
-285 341 1439
-278 338 1429
-274 338 1429
-269 337 1424
-266 338 1431
-263 339 1438
-258 339 1439
-254 339 1436
-246 334 1418
-241 333 1414
-242 340 1443
-234 335 1422
-231 336 1428
-225 334 1421
-222 335 1426
-217 334 1422
-215 338 1440
-207 333 1417
-207 338 1442
-199 333 1419
-196 335 1430
-191 334 1424
-189 336 1435
-183 333 1422
-179 334 1428
-176 336 1437
-172 337 1440
-167 335 1432
-162 334 1430
-157 333 1423
-155 336 1438
-150 335 1433
-145 334 1430
-143 338 1448
-137 333 1426
-134 337 1444
-128 334 1430
-124 333 1428
-118 327 1405
-111 320 1375
-100 300 1288
-92 287 1230
-87 282 1210
-81 275 1178
-76 270 1159
-72 268 1149
-68 264 1134
-64 264 1134
-61 264 1131
-58 263 1130
-54 263 1130
-51 263 1129
-48 266 1142
-44 264 1133
-42 270 1160
-39 272 1170
-36 272 1170
-33 278 1195
-30 281 1208
-27 292 1256
-25 306 1318
-22 318 1368
-19 331 1427
-15 339 1460
-11 338 1456
-7 340 1466
-2 341 1469
1 338 1458
5 336 1450
10 342 1477
14 335 1444
18 339 1461
22 339 1461
27 339 1465
31 336 1450
35 338 1458
39 337 1456
44 341 1473
48 339 1463
52 339 1462
57 340 1467
61 339 1461
65 339 1462
70 339 1465
74 340 1467
78 340 1465
82 338 1458
87 340 1469
92 341 1472
96 340 1466
100 341 1470
105 341 1471
109 340 1466
113 341 1473
116 336 1448
121 337 1455
127 343 1481
131 342 1476
135 342 1474
140 342 1474
144 343 1477
148 341 1469
154 346 1490
159 346 1490
163 345 1487
167 344 1482
171 343 1479
177 347 1494
181 346 1490
185 345 1484
188 342 1473
193 344 1478
197 344 1480
201 343 1474
205 342 1472
210 343 1475
213 341 1467
218 341 1466
222 342 1469
229 345 1480
233 345 1479
237 344 1478
241 343 1474
245 342 1468
253 347 1490
256 345 1480
258 343 1469
264 345 1476
267 343 1468
273 346 1480
276 344 1471
282 345 1478
286 344 1473
290 344 1473
296 346 1480
297 342 1461
302 343 1466
308 344 1470
312 344 1469
315 342 1460
320 343 1464
321 339 1447
331 345 1472
336 346 1473
340 346 1471
342 343 1460
348 345 1467
354 347 1473
359 347 1472
364 348 1477
369 348 1476
372 347 1471
378 348 1477
378 344 1460
383 345 1459
390 347 1468
399 351 1483
402 349 1478
406 349 1475
408 347 1467
411 345 1458
422 351 1482
424 349 1473
428 349 1470
431 347 1461
437 348 1466
442 349 1469
445 348 1463
452 350 1468
460 353 1480
463 352 1475
465 349 1465
470 350 1466
479 353 1478
484 353 1478
487 352 1472
492 353 1474
495 352 1468
501 352 1469
510 356 1482
509 352 1464
517 355 1475
525 357 1482
543 365 1518
547 365 1514
558 369 1531
557 366 1515
558 363 1502
558 360 1488
566 362 1496
569 361 1490
576 362 1494
582 363 1498
594 368 1514
596 366 1506
600 365 1502
605 366 1502
614 368 1510
614 365 1497
625 369 1511
631 370 1513
638 371 1516
635 367 1495
640 367 1496
645 367 1494
655 370 1506
664 372 1513
665 370 1501
670 370 1501
686 377 1525
685 373 1508
693 375 1514
705 379 1528
702 375 1509
712 377 1519
723 380 1529
717 375 1506
725 376 1510
734 378 1515
736 377 1507
743 378 1510
744 376 1499
747 375 1495
748 373 1485
763 378 1504
761 375 1488
766 375 1485
765 372 1473
768 371 1467
773 371 1465
780 372 1466
781 370 1456
778 367 1441
781 366 1436
787 367 1436
780 361 1412
757 348 1359
734 335 1307
718 326 1269
640 289 1122
671 301 1168
719 321 1243
-484 224 822
-487 227 833
-496 232 855
-485 228 842
-507 240 887
-483 230 852
-491 235 872
-510 245 913
-565 273 1019
-614 298 1115
-645 315 1180
-618 304 1140
-628 311 1168
-602 299 1127
-636 318 1200
-661 332 1256
-740 374 1418
-780 397 1508
-786 402 1529
-726 374 1425
-592 308 1172
-545 285 1086
-549 289 1104
-534 283 1081
-545 291 1113
-539 289 1108
-539 291 1118
-523 284 1094
-509 279 1073
-505 278 1074
-529 293 1133
-519 290 1121
-520 292 1133
-511 289 1122
-508 290 1126
-511 293 1140
-525 304 1183
-521 303 1182
-513 301 1175
-502 296 1159
-502 299 1170
-499 299 1172
-527 318 1249
-559 339 1336
-581 355 1401
-577 355 1401
-578 358 1416
-572 358 1414
-569 359 1420
-560 355 1409
-546 350 1388
-549 354 1407
-538 350 1390
-544 357 1421
-535 353 1408
-527 351 1401
-529 355 1420
-523 354 1416
-516 352 1410
-510 351 1406
-504 350 1405
-491 344 1381
-489 345 1388
-487 347 1395
-483 347 1400
-478 347 1398
-479 350 1413
-472 348 1407
-472 352 1422
-469 353 1428
-470 356 1444
-466 357 1447
-459 355 1440
-458 357 1452
-450 355 1444
-448 356 1451
-441 354 1443
-426 346 1410
-423 347 1414
-422 350 1428
-419 350 1432
-418 353 1444
-416 355 1454
-409 353 1445
-396 345 1415
-397 351 1438
-389 347 1424
-390 351 1444
-389 355 1458
-385 355 1460
-378 353 1453
-373 352 1451
-369 352 1453
-362 350 1444
-357 349 1442
-353 349 1443
-348 348 1440
-347 352 1455
-340 349 1445
-335 348 1443
-329 346 1436
-323 345 1431
-318 344 1429
-310 340 1413
-305 339 1408
-302 341 1417
-298 340 1416
-294 341 1419
-289 339 1414
-287 342 1425
-281 341 1421
-276 340 1417
-271 338 1411
-267 339 1416
-264 340 1420
-257 336 1407
-254 337 1412
-250 338 1414
-245 337 1411
-241 337 1412
-236 336 1410
-232 337 1411
-230 340 1427
-222 334 1403
-220 336 1412
-216 337 1414
-212 337 1415
-208 338 1421
-201 333 1399
-199 336 1416
-193 334 1407
-190 336 1413
-186 336 1416
-181 334 1409
-177 334 1407
-171 332 1399
-170 337 1423
-165 336 1417
-160 333 1407
-158 338 1429
-153 336 1418
-148 336 1418
-145 337 1424
-139 333 1407
-135 334 1413
-132 337 1424
-127 335 1419
-122 331 1400
-115 325 1376
-107 313 1324
-98 298 1262
-91 287 1214
-84 278 1175
-80 275 1163
-75 271 1146
-71 267 1130
-67 263 1115
-64 265 1124
-60 264 1118
-57 266 1127
-54 265 1123
-50 262 1112
-47 263 1114
-44 265 1125
-41 269 1142
-38 272 1153
-35 275 1166
-33 280 1189
-29 282 1199
-27 293 1245
-25 311 1321
-22 317 1349
-18 325 1384
-15 339 1443
-11 338 1439
-7 339 1444
-2 338 1437
1 336 1430
5 340 1447
9 338 1441
14 339 1443
18 340 1449
22 339 1443
26 339 1444
31 340 1447
35 339 1442
39 340 1446
43 337 1436
48 341 1451
52 340 1447
56 340 1450
60 340 1448
65 339 1444
69 342 1458
74 342 1457
77 340 1447
82 342 1456
86 339 1444
91 342 1458
94 339 1443
99 340 1449
105 347 1477
108 341 1453
112 340 1447
117 343 1459
121 342 1457
126 344 1464
129 342 1455
133 340 1446
138 342 1453
142 342 1453
148 345 1467
153 347 1474
156 344 1463
161 346 1471
166 347 1475
169 344 1460
174 346 1470
180 348 1476
180 340 1444
188 346 1470
191 344 1460
194 343 1455
201 346 1469
206 348 1477
210 346 1470
213 345 1463
215 342 1449
221 344 1459
226 345 1463
230 344 1458
235 345 1462
238 344 1456
243 345 1460
248 345 1460
254 348 1472
257 346 1461
261 345 1458
265 345 1458
270 346 1463
273 343 1451
277 343 1449
281 343 1447
288 346 1462
290 343 1449
297 346 1460
301 346 1458
304 344 1449
311 348 1465
314 346 1457
320 347 1462
320 343 1444
322 340 1430
331 345 1451
332 342 1435
342 348 1461
343 344 1445
351 348 1458
351 343 1439
358 346 1448
360 343 1439
370 349 1460
372 347 1450
376 347 1451
382 348 1455
385 347 1449
395 352 1469
396 348 1453
398 347 1446
406 350 1457
409 349 1452
412 347 1445
418 349 1451
425 350 1456
429 350 1456
434 351 1457
436 349 1447
440 348 1443
443 348 1440
455 354 1464
458 352 1457
461 351 1451
465 351 1449
469 350 1445
477 353 1456
485 356 1467
487 354 1457
492 354 1457
499 356 1464
500 353 1453
504 353 1448
511 354 1455
520 358 1468
532 363 1487
551 373 1526
550 368 1507
549 365 1491
548 361 1475
556 363 1482
559 362 1476
567 364 1484
572 364 1483
574 363 1476
587 368 1494
590 367 1490
588 363 1471
601 368 1491
600 365 1475
605 365 1475
615 368 1487
622 370 1490
631 372 1497
632 370 1488
642 373 1498
642 370 1486
647 370 1485
649 369 1477
655 369 1479
667 373 1492
662 368 1470
671 370 1476
684 375 1493
693 377 1501
693 374 1489
701 376 1493
709 378 1498
711 376 1491
718 378 1494
714 373 1473
731 379 1497
736 379 1494
739 378 1489
736 374 1471
745 377 1478
745 374 1467
751 375 1466
762 378 1477
762 375 1464
767 375 1462
765 372 1448
765 370 1437
776 373 1447
774 369 1431
784 372 1439
781 368 1423
786 368 1421
788 367 1414
778 360 1386
748 344 1322
732 335 1284
718 326 1249
633 286 1092
-480 225 814
-497 234 849
-483 229 832
-489 233 849
-483 231 845
-505 243 890
-531 257 943
-597 290 1068
-665 325 1198
-665 327 1207
-649 321 1188
-636 316 1172
-627 314 1165
-634 319 1188
-627 318 1182
-690 351 1311
-742 380 1422
-765 394 1476
-769 399 1497
-751 392 1472
-619 325 1223
-549 291 1094
-551 293 1106
-546 293 1106
-544 293 1109
-538 292 1107
-549 300 1139
-544 299 1137
-536 297 1129
-531 296 1127
-540 303 1156
-523 296 1129
-525 299 1143
-513 294 1125
-508 293 1123
-518 301 1156
-525 307 1181
-515 304 1169
-507 301 1160
-500 299 1154
-501 301 1165
-500 303 1174
-535 327 1266
-563 346 1344
-573 354 1379
-570 355 1384
-568 357 1391
-563 356 1391
-553 353 1378
-550 354 1384
-540 350 1370
-541 354 1387
-536 353 1385
-539 357 1405
-529 354 1392
-524 353 1391
-520 353 1394
-515 353 1394
-511 353 1396
-503 350 1386
-494 347 1375
-488 346 1372
-486 347 1378
-479 346 1373
-478 348 1382
-474 348 1387
-471 349 1392
-466 349 1390
-467 352 1405
-462 352 1405
-459 352 1409
-459 356 1426
-455 356 1427
-449 355 1423
-446 356 1427
-445 359 1442
-429 349 1404
-424 349 1403
-418 347 1398
-418 350 1413
-418 354 1430
-410 351 1418
-409 354 1430
-401 351 1417
-394 348 1409
-395 352 1427
-388 350 1419
-384 350 1422
-383 353 1434
-378 353 1432
-375 354 1438
-368 352 1431
-362 350 1425
-358 350 1427
-351 348 1417
-347 348 1418
-344 349 1426
-342 351 1433
-340 354 1447
-333 350 1432
-328 350 1432
-321 347 1421
-315 345 1415
-309 344 1408
-302 340 1396
-298 340 1397
-296 343 1409
-290 340 1397
-286 340 1399
-282 341 1402
-278 341 1403
-273 340 1400
-267 338 1393
-264 339 1399
-258 337 1389
-255 338 1393
-252 340 1402
-246 338 1395
-243 339 1399
-237 336 1388
-234 338 1396
-228 335 1384
-225 337 1395
-221 337 1396
-216 336 1392
-213 337 1397
-211 340 1411
-204 336 1393
-200 336 1396
-195 335 1390
-191 335 1391
-188 337 1401
-184 337 1400
-182 341 1417
-177 339 1411
-171 336 1397
-168 337 1404
-163 337 1402
-160 338 1409
-156 338 1408
-150 334 1393
-147 337 1404
-143 336 1402
-139 338 1412
-135 337 1408
-132 340 1419
-127 339 1416
-121 333 1393
-114 326 1360
-106 315 1315
-97 299 1251
-89 285 1191
-84 280 1169
-79 275 1147
-74 271 1133
-70 267 1118
-67 267 1114
-63 266 1110
-60 265 1106
-56 264 1105
-53 264 1105
-50 265 1110
-47 266 1113
-44 267 1117
-41 269 1128
-38 273 1142
-35 276 1154
-32 279 1169
-29 285 1194
-27 294 1232
-25 312 1308
-22 324 1358
-18 328 1376
-15 338 1418
-11 343 1441
-6 340 1427
-2 336 1410
1 339 1424
5 339 1423
9 339 1424
14 340 1428
18 340 1431
22 340 1427
26 339 1424
30 340 1428
35 341 1432
39 342 1439
43 338 1421
48 343 1441
51 340 1430
56 343 1441
60 343 1441
64 340 1427
68 338 1422
73 341 1433
78 345 1450
81 340 1427
86 342 1438
89 338 1419
94 343 1442
97 339 1425
103 343 1442
107 343 1443
111 343 1439
115 340 1430
119 341 1431
123 341 1432
127 341 1431
132 341 1431
138 345 1450
141 342 1436
146 345 1450
149 343 1439
156 348 1459
160 346 1453
163 345 1448
168 346 1452
172 346 1452
179 351 1470
181 346 1451
186 348 1460
188 344 1440
192 343 1439
197 344 1441
202 345 1447
206 344 1441
211 346 1447
216 347 1453
220 346 1449
224 346 1449
229 347 1451
233 347 1450
236 345 1441
237 340 1422
243 343 1433
248 343 1434
253 344 1437
257 344 1436
262 346 1442
265 343 1429
271 346 1442
274 344 1435
281 348 1449
283 344 1433
288 345 1437
292 345 1435
296 345 1433
299 343 1424
304 344 1429
310 346 1436
315 347 1440
319 346 1435
325 348 1442
331 349 1449
334 348 1443
336 345 1431
337 342 1418
345 347 1435
352 349 1445
353 346 1430
362 350 1446
363 346 1431
369 349 1440
375 350 1444
377 347 1432
384 350 1442
388 350 1442
388 346 1423
395 348 1432
406 354 1456
406 350 1441
410 350 1439
413 349 1431
417 348 1429
423 349 1432
423 346 1419
431 349 1431
439 352 1439
440 349 1429
448 352 1438
451 351 1433
458 353 1440
461 352 1435
466 352 1436
467 350 1423
478 355 1443
485 356 1449
488 355 1444
493 356 1445
497 356 1443
505 358 1451
509 358 1448
514 358 1447
529 365 1477
534 366 1478
542 368 1485
542 364 1470
544 363 1462
541 358 1442
555 364 1466
558 363 1458
559 361 1449
573 367 1471
574 365 1461
578 364 1459
587 367 1469
597 370 1480
596 367 1464
606 370 1477
611 370 1476
619 372 1482
622 371 1476
622 369 1464
634 373 1479
631 368 1459
634 367 1454
644 370 1464
645 368 1454
650 368 1454
652 367 1445
666 372 1464
675 374 1472
682 376 1476
684 374 1468
694 377 1478
698 377 1474
709 380 1486
709 378 1474
713 377 1470
726 381 1485
731 381 1483
737 382 1484
743 383 1484
741 379 1468
751 382 1478
756 382 1475
751 377 1454
761 379 1461
760 377 1449
762 375 1440
770 377 1445
776 378 1446
772 373 1427
771 371 1415
777 371 1415
782 371 1413
789 372 1415
789 370 1404
790 368 1395
774 359 1357
745 343 1296
728 333 1256
-475 225 806
-498 237 850
-487 233 838
-475 229 824
-498 241 870
-558 272 982
-634 310 1125
-703 346 1256
-707 349 1272
-684 340 1240
-660 330 1206
-653 329 1203
-648 328 1202
-643 328 1202
-657 336 1237
-690 356 1310
-731 379 1398
-760 396 1466
-790 415 1536
-762 402 1492
-648 345 1281
-558 299 1111
-552 298 1107
-542 294 1095
-542 296 1106
-540 297 1111
-530 293 1097
-552 307 1153
-541 303 1138
-526 297 1116
-540 307 1154
-521 298 1124
-529 305 1151
-529 307 1161
-527 308 1166
-528 310 1176
-519 307 1166
-508 303 1152
-508 305 1162
-503 304 1159
-504 307 1172
-503 309 1180
-536 331 1269
-563 350 1343
-570 357 1371
-566 357 1374
-562 357 1376
-556 356 1372
-552 356 1375
-544 354 1368
-549 360 1393
-536 354 1372
-536 357 1384
-527 354 1374
-523 354 1375
-518 354 1375
-515 355 1381
-515 357 1392
-505 354 1379
-497 351 1369
-489 348 1362
-484 348 1361
-475 344 1347
-476 348 1363
-470 346 1359
-471 350 1377
-469 352 1383
-467 354 1393
-460 351 1383
-456 351 1386
-452 351 1387
-454 356 1408
-452 358 1416
-442 353 1399
-446 360 1427
-438 357 1418
-426 351 1392
-420 349 1387
-415 348 1385
-408 347 1379
-409 351 1398
-404 350 1395
-401 352 1403
-399 353 1411
-394 352 1406
-388 351 1404
-385 352 1409
-378 350 1401
-374 350 1403
-375 355 1422
-371 355 1423
-361 350 1404
-360 352 1415
-354 351 1412
-349 350 1408
-346 351 1413
-343 352 1417
-338 351 1416
-333 351 1416
-328 349 1410
-328 354 1431
-319 349 1413
-311 345 1395
-308 346 1401
-302 345 1395
-297 343 1392
-292 342 1386
-286 340 1378
-286 345 1400
-280 342 1390
-275 342 1390
-271 341 1387
-265 340 1382
-262 341 1388
-259 342 1391
-254 340 1387
-249 340 1384
-247 342 1396
-240 338 1380
-235 337 1378
-231 337 1376
-226 336 1374
-224 339 1387
-218 336 1374
-215 338 1383
-211 338 1385
-208 340 1390
-203 338 1385
-198 337 1383
-194 337 1382
-190 337 1382
-188 341 1400
-181 336 1380
-177 335 1377
-174 337 1385
-173 343 1409
-166 338 1388
-162 337 1386
-160 342 1407
-153 336 1385
-151 340 1399
-147 340 1400
-141 338 1391
-138 339 1396
-134 339 1397
-131 343 1416
-126 339 1399
-118 329 1358
-112 323 1333
-104 311 1283
-95 295 1218
-89 289 1191
-83 280 1153
-78 274 1131
-73 271 1118
-70 269 1110
-66 269 1110
-62 266 1099
-59 265 1093
-55 264 1090
-53 266 1097
-49 264 1091
-46 267 1104
-43 267 1103
-40 270 1116
-37 272 1125
-35 275 1138
-32 280 1158
-29 286 1185
-26 295 1222
-24 312 1293
-21 318 1316
-18 329 1366
-15 342 1418
-10 340 1411
-6 342 1418
-2 343 1422
1 337 1399
5 343 1422
9 339 1407
14 343 1423
18 340 1412
22 340 1409
26 339 1405
30 337 1397
34 340 1409
38 340 1411
43 343 1423
47 342 1421
51 342 1420
55 342 1421
60 343 1425
63 340 1412
68 342 1421
73 345 1432
76 343 1424
80 342 1418
84 338 1402
89 343 1422
93 343 1424
98 344 1428
101 342 1417
106 345 1431
110 342 1419
115 344 1429
119 345 1430
123 343 1424
127 344 1424
130 342 1416
136 346 1436
139 343 1423
145 347 1440
149 346 1435
155 350 1448
158 348 1441
162 346 1433
166 346 1433
171 347 1437
176 348 1441
180 348 1439
186 352 1456
189 350 1447
193 349 1444
197 348 1438
200 346 1429
203 344 1423
209 347 1433
213 346 1431
218 347 1434
220 344 1420
225 345 1425
231 348 1435
234 346 1426
237 344 1420
241 344 1420
246 345 1422
251 347 1428
258 349 1439
259 345 1420
262 343 1412
267 345 1419
269 342 1408
278 348 1431
277 341 1401
285 346 1423
288 344 1414
292 344 1410
301 350 1435
303 347 1424
307 347 1422
310 346 1417
315 346 1416
319 346 1416
325 348 1425
328 346 1415
334 348 1423
338 348 1422
341 347 1417
348 349 1424
350 347 1415
357 349 1425
360 348 1419
364 348 1419
372 351 1430
376 351 1430
378 349 1419
381 347 1413
389 351 1427
390 348 1414
396 350 1419
399 348 1412
404 349 1414
412 352 1426
414 350 1416
424 354 1434
422 349 1413
430 353 1426
437 355 1434
440 354 1428
446 354 1430
443 349 1408
455 355 1429
459 355 1428
459 351 1413
467 354 1424
473 355 1427
474 353 1416
485 358 1434
485 355 1421
491 356 1424
498 357 1428
501 356 1423
504 356 1420
524 366 1462
530 367 1464
531 365 1454
536 365 1453
542 366 1456
546 366 1453
545 362 1436
554 365 1449
562 367 1456
567 367 1454
568 365 1443
567 362 1429
576 365 1439
580 364 1435
587 366 1441
591 365 1438
602 369 1451
606 369 1450
618 373 1465
624 374 1466
623 371 1452
628 371 1452
631 370 1445
630 367 1432
635 367 1430
644 370 1439
649 370 1438
656 371 1442
666 374 1451
671 374 1451
676 375 1451
683 376 1452
685 374 1446
694 376 1452
701 378 1456
713 382 1469
728 387 1487
741 391 1502
740 389 1490
735 383 1468
738 382 1461
740 381 1455
742 379 1446
746 379 1444
751 379 1441
761 382 1450
759 378 1434
765 379 1435
770 379 1434
772 378 1426
773 376 1418
777 376 1413
781 375 1409
789 377 1413
792 376 1408
797 376 1407
783 368 1372
786 367 1367
773 358 1333
-494 237 837
-479 231 817
-499 242 859
-522 254 904
-589 289 1029
-666 328 1172
-720 356 1277
-712 354 1272
-696 348 1252
-678 341 1229
-660 334 1205
-656 334 1208
-657 337 1219
-642 331 1200
-644 334 1213
-653 341 1239
-690 362 1319
-726 383 1399
-777 413 1510
-754 403 1477
-678 365 1338
-565 307 1125
-550 300 1104
-542 298 1096
-544 301 1107
-542 302 1113
-538 301 1113
-535 302 1117
-535 304 1126
-532 304 1129
-529 305 1132
-520 301 1120
-531 310 1154
-533 313 1169
-528 312 1167
-521 310 1161
-512 307 1150
-505 305 1145
-506 308 1157
-500 306 1152
-499 308 1159
-512 318 1200
-544 340 1285
-564 355 1345
-564 358 1357
-557 356 1350
-555 358 1359
-549 356 1356
-540 353 1346
-537 354 1350
-531 352 1346
-530 355 1355
-525 354 1355
-517 352 1348
-512 351 1347
-515 356 1366
-510 356 1367
-499 351 1349
-500 354 1364
-492 351 1355
-484 349 1346
-478 347 1342
-478 350 1355
-468 346 1338
-469 350 1355
-466 351 1360
-464 353 1369
-460 352 1370
-457 354 1376
-452 353 1373
-448 353 1376
-446 354 1383
-445 357 1393
-438 355 1387
-440 360 1409
-432 357 1398
-420 350 1371
-412 347 1362
-410 349 1371
-406 349 1373
-408 354 1393
-403 354 1392
-399 354 1392
-397 356 1402
-394 357 1407
-383 350 1383
-380 352 1391
-377 353 1394
-378 358 1415
-372 355 1408
-367 355 1407
-362 355 1406
-359 355 1409
-353 353 1404
-347 352 1398
-345 354 1409
-341 355 1411
-334 352 1400
-329 351 1397
-325 351 1398
-320 350 1395
-314 348 1388
-308 346 1380
-302 343 1372
-297 343 1369
-293 342 1369
-289 343 1374
-286 344 1378
-281 343 1375
-279 346 1386
-274 345 1382
-264 337 1355
-263 341 1369
-261 344 1381
-257 344 1383
-250 340 1368
-248 342 1378
-244 342 1379
-238 340 1368
-234 340 1372
-229 338 1364
-228 344 1386
-221 339 1369
-218 340 1375
-212 338 1364
-208 338 1364
-204 338 1366
-202 341 1378
-197 339 1370
-191 336 1360
-188 337 1364
-185 339 1374
-180 338 1370
-178 341 1382
-172 338 1371
-168 339 1374
-165 341 1382
-160 337 1370
-156 338 1372
-152 338 1373
-149 341 1386
-146 342 1391
-141 340 1382
-137 341 1386
-134 345 1403
-128 339 1378
-124 340 1383
-116 329 1340
-109 320 1303
-102 310 1261
-93 295 1203
-86 284 1156
-82 280 1141
-77 276 1123
-72 269 1097
-69 270 1098
-65 266 1083
-61 266 1084
-58 266 1082
-55 268 1092
-52 267 1088
-49 268 1092
-46 267 1088
-43 268 1093
-39 268 1092
-37 271 1106
-34 276 1125
-31 278 1136
-28 283 1157
-26 290 1186
-24 310 1267
-21 315 1289
-17 327 1337
-14 341 1396
-10 344 1408
-6 339 1389
-2 340 1391
1 341 1396
5 341 1396
9 341 1395
13 341 1397
17 339 1387
22 340 1394
26 339 1389
30 338 1384
34 339 1390
38 343 1405
42 342 1399
46 342 1401
50 341 1396
55 343 1406
58 340 1392
63 343 1406
68 346 1417
71 342 1402
76 346 1420
80 345 1413
84 344 1407
89 345 1415
93 345 1413
96 343 1407
101 347 1419
104 343 1403
109 344 1410
113 345 1412
118 346 1416
122 344 1410
127 348 1425
131 347 1419
135 346 1414
139 345 1414
143 345 1411
147 344 1409
153 349 1428
154 342 1396
159 344 1405
164 347 1418
169 348 1421
173 346 1416
180 352 1438
181 347 1418
186 347 1418
190 348 1419
195 350 1428
201 352 1436
201 345 1409
207 348 1421
212 349 1424
214 346 1411
218 345 1405
224 347 1414
230 351 1429
231 346 1410
236 347 1414
237 342 1393
244 346 1408
247 344 1401
253 347 1411
259 349 1419
262 348 1414
265 347 1409
269 346 1403
273 346 1404
277 345 1400
279 343 1391
286 346 1404
290 346 1402
295 347 1405
299 347 1404
307 350 1418
305 344 1391
313 348 1407
317 348 1407
323 349 1412
322 344 1387
327 345 1392
336 350 1411
341 350 1412
343 348 1402
347 348 1404
350 347 1398
357 349 1405
363 352 1414
365 349 1404
370 350 1406
370 346 1390
384 355 1424
387 353 1418
389 351 1409
393 351 1405
397 351 1404
397 347 1389
406 351 1406
411 352 1406
415 352 1405
419 351 1401
428 355 1416
429 352 1404
440 358 1426
436 351 1398
445 355 1412
446 352 1399
461 360 1431
455 353 1400
463 355 1409
465 354 1403
471 355 1407
481 359 1420
482 356 1409
481 353 1393
487 354 1397
499 359 1418
511 364 1437
516 365 1439
522 366 1440
527 366 1441
530 366 1437
527 361 1415
537 364 1428
545 366 1435
547 365 1427
544 360 1408
560 367 1436
560 364 1422
561 363 1414
571 366 1426
576 366 1426
580 366 1423
586 367 1425
589 366 1419
597 368 1427
605 370 1433
611 371 1436
614 370 1430
619 370 1428
630 374 1443
627 370 1424
632 370 1423
641 372 1431
637 367 1410
654 375 1436
650 370 1416
663 374 1432
665 373 1425
676 376 1436
682 377 1438
691 379 1444
695 380 1443
698 379 1437
715 385 1460
731 391 1480
733 390 1473
746 394 1488
736 386 1456
738 384 1448
738 382 1437
741 381 1431
749 383 1436
751 382 1429
754 381 1424
764 383 1432
765 381 1422
764 379 1409
771 379 1411
767 375 1393
777 378 1401
778 376 1393
779 375 1384
786 375 1385
782 372 1369
790 373 1372
788 370 1358
-480 233 813
-492 240 840
-553 271 951
-637 314 1103
-716 354 1249
-722 359 1268
-713 357 1262
-703 354 1255
-689 349 1238
-673 343 1220
-661 339 1206
-647 334 1191
-655 340 1214
-649 339 1213
-646 339 1215
-644 340 1221
-652 346 1246
-696 372 1341
-752 404 1459
-760 411 1486
-706 384 1393
-582 319 1156
-543 300 1089
-543 302 1097
-545 305 1109
-541 304 1109
-536 304 1109
-541 309 1129
-549 315 1154
-532 308 1128
-532 310 1136
-532 312 1147
-514 303 1116
-514 306 1127
-498 298 1101
-506 305 1126
-530 321 1189
-515 315 1166
-505 311 1152
-501 311 1154
-499 311 1158
-519 326 1216
-545 345 1287
-557 355 1327
-552 354 1326
-553 358 1340
-550 359 1346
-543 357 1340
-539 357 1342
-527 352 1324
-523 352 1326
-522 354 1335
-518 354 1336
-519 357 1351
-514 357 1351
-506 354 1341
-504 355 1349
-488 347 1318
-488 350 1331
-483 349 1329
-476 347 1324
-477 351 1338
-467 346 1322
-467 350 1337
-460 347 1329
-457 348 1334
-463 356 1363
-455 353 1355
-452 354 1360
-446 353 1355
-446 356 1370
-441 355 1367
-442 359 1383
-435 356 1376
-434 359 1388
-425 355 1373
-419 354 1369
-411 350 1356
-411 354 1373
-401 349 1353
-404 355 1378
-403 357 1389
-396 356 1383
-391 354 1380
-384 352 1370
-381 353 1376
-374 350 1366
-374 354 1381
-371 355 1387
-364 353 1380
-360 353 1380
-358 355 1390
-356 357 1400
-347 352 1382
-345 354 1390
-342 355 1395
-335 353 1386
-329 351 1379
-325 350 1378
-324 354 1395
-318 352 1385
-311 349 1376
-303 345 1359
-303 349 1376
-297 347 1369
-291 345 1362
-284 342 1350
-283 345 1363
-277 343 1357
-273 342 1355
-271 344 1365
-264 341 1353
-261 343 1359
-257 343 1359
-253 343 1362
-249 343 1362
-245 342 1360
-241 342 1361
-236 341 1358
-232 342 1361
-225 336 1340
-223 340 1354
-219 340 1356
-216 342 1364
-209 337 1345
-206 337 1347
-202 339 1352
-198 339 1353
-196 341 1363
-190 338 1350
-186 338 1352
-183 340 1360
-180 342 1367
-175 339 1358
-170 338 1355
-168 343 1374
-164 342 1370
-158 338 1356
-155 340 1366
-151 341 1367
-147 340 1365
-144 341 1371
-138 339 1360
-134 338 1357
-131 341 1369
-127 341 1370
-123 341 1373
-115 330 1328
-109 322 1296
-100 309 1242
-92 295 1188
-87 289 1164
-81 280 1125
-76 275 1105
-72 274 1103
-68 270 1086
-64 269 1081
-61 268 1080
-57 266 1069
-55 267 1075
-51 267 1076
-48 267 1076
-45 267 1075
-42 269 1083
-40 272 1096
-36 273 1100
-34 277 1116
-31 280 1129
-28 284 1146
-25 292 1177
-23 310 1251
-20 318 1284
-17 329 1328
-14 341 1379
-10 342 1381
-6 345 1397
-2 342 1382
1 340 1377
5 341 1378
9 345 1394
13 341 1380
17 342 1382
22 343 1387
26 343 1386
30 344 1390
34 345 1396
38 344 1393
43 348 1409
46 343 1388
50 344 1391
54 343 1386
58 343 1387
62 343 1386
67 346 1402
71 343 1387
75 346 1399
79 346 1401
83 344 1390
87 345 1395
92 346 1399
95 343 1386
100 345 1394
103 344 1389
109 347 1403
113 347 1403
115 341 1379
121 345 1396
126 349 1411
129 347 1401
132 344 1388
137 346 1399
140 342 1382
146 346 1399
150 347 1400
153 345 1392
158 345 1393
163 349 1408
170 353 1425
171 348 1404
175 346 1397
179 347 1402
183 346 1396
187 347 1398
193 349 1406
198 350 1412
199 345 1391
204 347 1399
208 347 1396
213 347 1398
217 348 1401
220 346 1392
227 350 1409
228 345 1386
234 348 1399
236 346 1389
241 346 1390
245 346 1390
252 350 1405
255 348 1396
260 350 1404
263 348 1397
264 344 1379
273 349 1401
274 346 1387
280 348 1393
287 351 1405
289 349 1395
291 346 1383
295 346 1384
302 350 1398
308 352 1405
308 347 1385
316 350 1399
317 347 1383
323 349 1391
325 347 1384
333 351 1399
333 346 1380
340 349 1389
344 349 1388
345 346 1375
351 347 1380
355 348 1382
360 348 1383
372 355 1411
374 354 1402
375 351 1391
379 350 1386
387 353 1399
392 354 1402
395 354 1398
400 354 1398
402 352 1391
406 352 1388
413 354 1396
417 354 1395
419 352 1385
419 349 1373
429 353 1388
436 356 1398
440 355 1394
442 353 1386
448 355 1392
449 352 1380
459 357 1397
462 356 1393
463 353 1381
470 355 1389
475 355 1387
484 359 1400
488 359 1400
495 361 1405
506 366 1424
516 370 1438
515 365 1420
517 364 1413
524 366 1419
529 366 1419
529 363 1406
532 362 1401
544 367 1420
552 370 1428
548 364 1403
552 364 1402
564 369 1420
568 368 1416
567 365 1401
568 362 1391
576 365 1400
590 371 1421
595 371 1421
595 368 1408
601 369 1410
598 365 1390
613 371 1413
617 371 1411
619 369 1405
622 369 1400
624 367 1392
638 373 1412
643 372 1410
646 372 1405
645 369 1391
659 374 1410
661 373 1404
660 370 1390
676 376 1413
692 382 1434
696 382 1431
710 387 1448
722 391 1460
733 394 1471
730 390 1455
737 391 1458
732 386 1435
735 385 1430
732 381 1414
738 382 1413
740 381 1407
750 383 1416
754 383 1411
755 381 1403
755 379 1392
769 383 1407
767 380 1392
778 383 1402
781 382 1397
779 379 1382
776 376 1368
784 377 1370
786 376 1364
786 374 1354
-506 249 856
-587 290 1001
-701 347 1203
-751 374 1298
-728 364 1268
-721 363 1266
-704 357 1246
-694 354 1238
-678 348 1218
-661 341 1196
-654 339 1193
-655 342 1204
-645 339 1195
-644 340 1202
-647 344 1216
-643 343 1218
-634 341 1211
-660 357 1270
-717 390 1392
-745 408 1457
-716 394 1411
-641 356 1274
-552 309 1105
-541 304 1092
-543 308 1105
-543 309 1113
-535 307 1107
-531 307 1107
-557 324 1171
-538 315 1140
-531 313 1133
-529 314 1140
-509 304 1106
-514 309 1125
-533 322 1175
-510 311 1136
-507 311 1137
-511 316 1155
-506 315 1154
-503 315 1158
-508 321 1179
-529 336 1238
-547 350 1291
-544 351 1296
-549 356 1318
-539 353 1305
-539 355 1316
-534 355 1315
-532 356 1324
-523 353 1312
-521 354 1319
-513 351 1310
-509 352 1313
-505 352 1315
-507 356 1330
-502 356 1332
-498 356 1333
-493 355 1331
-484 352 1321
-479 351 1318
-476 351 1322
-471 350 1320
-468 352 1327
-459 348 1312
-453 346 1309
-453 349 1320
-455 354 1341
-453 356 1348
-452 358 1358
-445 356 1350
-439 354 1345
-435 354 1348
-437 359 1366
-430 357 1360
-429 360 1372
-425 360 1374
-414 354 1353
-405 350 1338
-402 350 1341
-400 352 1350
-402 357 1371
-392 353 1353
-388 352 1354
-386 354 1362
-381 353 1358
-380 356 1371
-372 353 1359
-369 353 1362
-367 356 1372
-362 355 1371
-359 356 1374
-356 357 1382
-349 354 1371
-346 355 1374
-342 355 1376
-339 357 1383
-331 352 1368
-329 355 1378
-325 355 1380
-321 355 1380
-315 353 1375
-308 350 1361
-302 347 1353
-298 348 1354
-291 344 1340
-286 343 1336
-282 343 1340
-280 345 1349
-276 345 1348
-271 344 1344
-268 346 1352
-265 346 1357
-258 342 1341
-256 345 1351
-250 343 1344
-249 346 1359
-246 348 1365
-239 343 1348
-234 342 1345
-228 340 1337
-226 342 1344
-221 341 1340
-216 339 1334
-213 341 1341
-208 339 1335
-203 337 1330
-198 336 1323
-196 340 1339
-194 342 1349
-188 339 1339
-185 341 1347
-183 344 1358
-177 340 1342
-175 344 1360
-171 343 1358
-166 342 1355
-163 343 1359
-157 341 1350
-153 340 1348
-149 341 1350
-146 342 1354
-143 344 1363
-138 342 1357
-134 341 1355
-130 343 1362
-128 347 1376
-122 342 1356
-115 334 1325
-107 322 1278
-99 308 1223
-90 293 1165
-85 286 1137
-79 279 1110
-75 276 1097
-71 273 1083
-67 271 1076
-64 271 1076
-60 267 1062
-57 269 1068
-54 267 1063
-51 269 1069
-48 268 1066
-45 268 1067
-42 269 1069
-39 273 1085
-36 273 1087
-33 276 1099
-30 280 1114
-28 284 1132
