VERSION 0.7
FIELDS x y z
SIZE 4 4 4
TYPE I I I
COUNT 1 1 1
WIDTH 3598
HEIGHT 1
VIEWPOINT 0.0 0.0 0.0 1.0 0.0 0.0 0.0
POINTS 3598
DATA ascii
430 329 1716
434 329 1712
441 330 1719
446 330 1717
457 334 1736
459 332 1725
459 328 1703
474 335 1741
477 333 1730
485 335 1740
488 334 1731
487 330 1708
499 334 1729
503 333 1725
512 336 1738
519 337 1740
524 337 1739
525 334 1724
539 339 1751
536 334 1723
542 334 1723
548 335 1726
562 340 1750
562 337 1735
573 340 1749
574 338 1734
584 341 1749
586 339 1737
588 337 1724
600 341 1745
600 338 1726
618 345 1761
629 348 1778
651 357 1822
670 364 1857
666 359 1829
668 357 1817
661 350 1781
656 344 1751
666 347 1762
677 350 1776
682 350 1773
686 349 1768
697 352 1780
703 352 1780
712 354 1786
713 351 1771
716 350 1763
726 352 1775
736 354 1782
741 354 1780
741 351 1764
756 356 1785
752 351 1760
761 353 1766
764 352 1759
765 350 1746
766 348 1735
777 350 1745
774 346 1723
754 335 1666
734 324 1607
712 311 1545
657 286 1414
599 258 1277
683 293 1447
717 305 1507
760 322 1586
791 332 1638
805 336 1653
812 337 1655
819 337 1655
831 340 1667
833 339 1658
838 339 1655
839 337 1644
842 336 1637
842 334 1624
827 326 1584
826 323 1570
826 321 1556
821 317 1535
823 316 1527
823 314 1517
826 313 1510
819 309 1486
821 308 1478
823 307 1472
808 299 1434
854 315 1505
819 300 1433
-500 191 857
-482 185 832
-494 191 860
-482 187 844
-487 190 859
-500 197 890
-487 193 873
-500 199 903
-473 189 861
-494 199 906
-487 197 901
-495 202 921
-493 202 925
-499 206 944
-499 207 950
-494 206 949
-486 204 940
-484 204 943
-487 207 956
-497 212 984
-490 211 977
-499 216 1004
-495 215 1003
-494 216 1009
-509 224 1047
-486 216 1009
-519 232 1085
-530 238 1118
-540 244 1149
-545 248 1168
-546 250 1180
-551 254 1199
-574 266 1261
-582 272 1289
-576 271 1285
-573 271 1289
-542 259 1230
-506 243 1157
-495 240 1143
-504 246 1173
-496 244 1165
-518 256 1225
-525 261 1253
-527 264 1269
-553 279 1342
-608 309 1490
-636 326 1571
-652 336 1624
-648 337 1629
-638 334 1619
-632 334 1617
-633 337 1634
-626 336 1632
-627 339 1648
-617 336 1636
-610 335 1633
-612 339 1653
-606 338 1651
-591 333 1627
-592 336 1646
-580 332 1627
-568 328 1609
-574 334 1640
-567 333 1637
-560 332 1632
-552 330 1625
-546 329 1622
-542 330 1626
-542 333 1643
-532 330 1630
-528 330 1633
-529 334 1655
-524 334 1656
-512 329 1633
-513 333 1654
-517 339 1684
-508 337 1674
-500 334 1665
-487 329 1639
-491 335 1670
-481 332 1655
-475 331 1652
-468 329 1647
-468 333 1665
-461 331 1658
-460 334 1673
-462 339 1701
-450 334 1678
-451 339 1701
-442 335 1685
-432 332 1669
-432 336 1689
-425 334 1680
-423 336 1695
-414 333 1679
-410 334 1683
-402 331 1673
-399 333 1681
-393 332 1680
-390 334 1690
-380 329 1666
-371 326 1651
-365 325 1647
-360 325 1649
-357 327 1658
-346 321 1627
-343 323 1639
-340 324 1648
-335 324 1648
-330 324 1648
-324 323 1645
-322 325 1656
-316 324 1654
-309 323 1645
-304 321 1640
-303 326 1664
-295 323 1649
-288 321 1639
-282 319 1631
-278 319 1634
-275 322 1648
-264 315 1611
-258 313 1601
-253 313 1603
-247 311 1595
-244 313 1603
-241 315 1617
-234 312 1602
-231 314 1613
-228 317 1631
-224 318 1633
-217 314 1617
-213 316 1625
-208 315 1621
-203 315 1619
-198 315 1624
-196 319 1644
-191 318 1638
-186 319 1644
-181 318 1638
-175 316 1629
-172 319 1646
-166 317 1636
-163 321 1657
-158 319 1650
-152 317 1639
-148 319 1651
-142 317 1638
-137 316 1635
-132 315 1627
-123 306 1582
-118 304 1572
-108 289 1493
-98 275 1425
-91 265 1372
-84 258 1332
-79 255 1318
-75 252 1305
-70 251 1296
-67 252 1303
-63 250 1296
-60 254 1316
-56 253 1313
-53 257 1330
-49 257 1331
-46 261 1353
-42 265 1373
-40 272 1410
-36 277 1438
-34 291 1508
-31 309 1603
-27 308 1598
-23 318 1654
-18 323 1680
-14 324 1684
-9 322 1673
-4 320 1663
0 320 1662
5 320 1665
10 321 1671
15 320 1666
20 323 1682
25 323 1678
30 325 1691
34 321 1668
39 324 1685
44 322 1678
49 320 1667
54 323 1681
59 324 1685
64 324 1684
68 320 1666
74 324 1687
80 327 1703
84 324 1688
89 325 1692
94 326 1698
97 319 1661
104 326 1696
109 326 1696
113 323 1683
119 325 1689
123 324 1688
129 326 1697
135 329 1712
140 328 1704
143 325 1689
148 323 1683
155 328 1704
159 327 1700
164 327 1698
170 329 1709
174 326 1696
180 328 1705
183 325 1688
190 329 1708
195 329 1708
200 328 1704
205 328 1705
211 330 1712
215 328 1702
221 330 1716
229 334 1735
233 332 1726
241 337 1749
245 335 1736
249 334 1732
252 331 1715
257 331 1717
262 330 1711
266 330 1708
271 329 1705
273 325 1686
281 328 1701
288 331 1716
289 327 1692
294 327 1693
302 330 1707
308 331 1711
309 327 1690
316 329 1699
321 329 1699
329 332 1714
333 330 1705
334 326 1685
338 325 1677
348 330 1703
352 329 1697
354 326 1682
362 329 1698
365 327 1686
371 328 1688
379 331 1703
384 330 1700
390 331 1702
394 331 1700
402 333 1711
405 331 1701
407 329 1689
417 332 1705
424 334 1713
425 331 1695
429 330 1691
438 333 1705
440 331 1693
452 335 1717
449 329 1685
457 332 1696
467 335 1713
467 332 1694
481 338 1725
481 334 1705
488 335 1710
492 335 1706
500 336 1713
505 336 1712
509 336 1706
518 338 1716
520 336 1705
525 336 1706
534 338 1716
531 333 1689
541 336 1702
546 336 1699
559 340 1722
568 343 1735
573 343 1733
570 338 1705
582 342 1725
579 337 1698
589 340 1712
607 347 1746
613 347 1746
624 350 1761
643 358 1799
655 361 1814
658 360 1805
659 357 1791
665 358 1792
655 350 1749
659 348 1741
663 348 1737
672 350 1744
683 353 1757
688 352 1755
696 353 1759
703 355 1763
701 351 1742
714 355 1759
727 358 1774
724 354 1752
731 355 1754
739 356 1757
740 353 1745
748 355 1750
752 354 1744
755 353 1736
756 351 1725
767 353 1735
772 353 1731
773 351 1719
778 351 1718
775 347 1697
747 332 1621
731 323 1572
699 307 1492
640 279 1354
585 253 1227
690 296 1436
717 306 1482
760 322 1558
802 338 1633
808 338 1632
818 340 1639
827 342 1645
824 338 1626
835 341 1636
833 337 1619
842 339 1625
843 337 1614
841 334 1597
828 327 1561
831 326 1553
828 323 1536
830 322 1528
827 319 1511
825 316 1497
818 312 1473
828 313 1479
828 311 1468
807 302 1420
831 309 1451
-476 185 815
-488 190 842
-488 192 848
-491 194 861
-489 194 863
-471 188 837
-487 196 873
-485 196 875
-483 196 878
-489 200 897
-476 196 878
-477 197 887
-485 202 909
-472 198 892
-494 208 940
-505 214 969
-485 207 938
-482 206 938
-479 206 940
-499 216 987
-488 213 972
-507 222 1018
-487 215 986
-501 223 1023
-500 224 1030
-526 237 1091
-532 241 1112
-536 244 1130
-531 244 1129
-534 247 1143
-523 243 1129
-539 252 1173
-560 264 1228
-579 275 1281
-571 273 1274
-570 274 1283
-545 264 1236
-522 255 1195
-505 248 1164
-496 245 1153
-530 264 1243
-519 260 1227
-518 262 1237
-532 271 1280
-549 282 1333
-604 312 1479
-651 338 1608
-638 334 1590
-638 337 1603
-632 336 1603
-626 336 1602
-622 336 1606
-617 336 1606
-615 337 1615
-608 336 1612
-606 338 1621
-603 339 1627
-592 336 1615
-581 332 1599
-584 336 1621
-582 338 1633
-566 332 1603
-563 333 1609
-562 335 1620
-556 334 1619
-545 331 1605
-543 333 1614
-537 332 1610
-537 335 1628
-533 335 1631
-528 335 1632
-527 338 1647
-520 336 1642
-513 335 1638
-515 340 1661
-511 340 1664
-503 338 1656
-488 331 1622
-481 330 1618
-480 333 1634
-475 333 1635
-476 337 1656
-467 333 1641
-457 330 1624
-456 332 1639
-451 333 1641
-452 337 1664
-448 337 1667
-440 335 1659
-436 336 1663
-429 334 1655
-424 334 1656
-419 334 1658
-411 332 1646
-413 337 1673
-406 335 1666
-400 335 1663
-397 337 1674
-392 336 1673
-386 335 1671
-377 331 1652
-368 328 1636
-357 323 1610
-354 324 1617
-352 327 1633
-346 326 1629
-343 327 1637
-336 326 1630
-332 326 1635
-329 328 1643
-324 327 1640
-314 323 1618
-309 322 1616
-305 323 1624
-303 326 1639
-296 323 1626
-291 323 1624
-287 324 1628
-277 318 1599
-275 321 1617
-268 318 1602
-261 316 1593
-258 318 1603
-254 318 1606
-247 315 1591
-241 313 1583
-238 316 1596
-233 316 1595
-230 318 1607
-226 319 1614
-220 317 1604
-215 317 1603
-213 321 1624
-206 317 1607
-202 319 1617
-196 316 1601
-193 318 1614
-187 317 1610
-183 319 1618
-178 318 1614
-173 318 1613
-169 318 1615
-165 320 1627
-160 319 1624
-156 320 1629
-151 319 1625
-145 317 1611
-142 321 1632
-136 318 1617
-130 315 1603
-123 311 1582
-117 305 1553
-106 290 1476
-96 273 1392
-89 265 1347
-83 260 1325
-77 253 1288
-73 252 1285
-70 252 1284
-66 253 1290
-62 252 1282
-58 253 1289
-55 253 1291
-52 256 1308
-48 258 1315
-45 262 1335
-42 264 1345
-39 274 1399
-35 275 1404
-33 291 1488
-31 308 1577
-27 313 1602
-23 321 1640
-18 322 1647
-13 325 1665
-8 324 1660
-4 325 1664
0 324 1656
5 324 1657
10 325 1665
15 322 1647
20 323 1657
25 326 1671
29 324 1661
34 325 1666
39 325 1667
44 323 1656
48 322 1648
54 326 1668
58 323 1654
63 325 1663
68 326 1671
73 323 1655
78 325 1666
83 324 1660
88 325 1665
93 325 1664
97 322 1651
102 325 1667
108 327 1674
113 327 1675
116 322 1650
122 325 1666
127 326 1671
131 322 1651
137 326 1672
143 328 1681
147 326 1672
152 328 1679
156 324 1660
162 327 1675
166 326 1670
171 326 1670
178 330 1691
180 325 1662
186 326 1668
193 329 1684
197 329 1683
202 328 1677
209 332 1699
214 332 1697
219 331 1692
225 334 1706
231 335 1712
235 332 1699
238 330 1685
247 335 1712
248 330 1685
255 333 1702
260 333 1701
262 329 1679
267 329 1676
271 328 1672
279 331 1688
283 331 1687
285 327 1667
290 327 1668
298 331 1685
306 334 1701
308 330 1681
313 330 1680
316 329 1672
326 334 1699
328 330 1677
332 330 1676
335 328 1666
344 331 1683
348 331 1678
353 330 1674
355 328 1662
361 328 1665
370 332 1682
375 332 1683
381 333 1685
387 334 1691
388 330 1671
389 327 1655
398 330 1668
406 332 1680
407 329 1663
412 330 1664
421 333 1680
422 329 1662
432 333 1680
436 332 1675
447 337 1697
448 334 1680
454 334 1682
463 337 1697
464 335 1682
469 334 1680
478 337 1691
482 337 1689
491 339 1701
488 333 1671
496 335 1679
501 335 1678
509 337 1686
515 338 1690
521 338 1690
526 338 1689
531 338 1688
536 338 1686
545 340 1696
544 337 1677
563 345 1717
562 341 1695
577 347 1725
573 341 1696
580 342 1699
588 344 1707
593 344 1705
603 347 1717
632 360 1784
650 367 1816
652 366 1806
652 362 1787
644 355 1750
648 354 1745
649 352 1731
641 345 1695
658 350 1722
662 350 1719
673 353 1731
676 351 1722
688 355 1739
689 353 1727
700 356 1739
713 359 1754
705 353 1720
713 354 1725
716 353 1717
729 356 1733
729 354 1718
738 355 1725
746 357 1729
746 354 1715
755 356 1722
759 355 1715
760 353 1703
765 353 1701
775 355 1708
770 350 1684
779 352 1689
766 343 1649
743 331 1586
728 322 1540
698 307 1465
617 269 1284
596 258 1230
693 299 1421
727 311 1478
768 326 1549
797 336 1597
806 338 1601
824 343 1625
834 345 1632
834 343 1619
832 340 1602
834 339 1594
842 340 1598
840 337 1583
844 337 1578
837 332 1552
833 328 1533
827 324 1511
828 322 1500
824 319 1482
819 315 1463
827 316 1465
824 313 1449
825 311 1440
-469 185 802
-483 192 834
-484 193 842
-496 199 869
-478 193 843
-492 199 874
-489 199 876
-487 200 879
-481 198 874
-496 206 909
-503 210 928
-490 206 911
-484 204 907
-498 211 941
-476 203 906
-481 207 922
-484 209 936
-485 211 944
-486 212 953
-498 219 986
-500 222 997
-497 221 998
-476 214 964
-509 230 1039
-526 239 1083
-548 250 1137
-540 248 1129
-537 249 1132
-525 245 1116
-524 246 1122
-524 247 1131
-531 252 1155
-553 264 1213
-577 278 1275
-569 276 1268
-569 277 1278
-545 268 1236
-519 257 1185
-493 246 1138
-504 253 1171
-516 261 1210
-514 262 1215
-520 267 1240
-528 273 1270
-566 294 1373
-618 324 1512
-636 335 1570
-636 338 1584
-628 336 1578
-629 339 1594
-624 339 1595
-622 341 1603
-620 342 1613
-612 341 1608
-604 339 1600
-602 341 1610
-584 333 1578
-587 338 1600
-584 338 1605
-582 341 1617
-572 337 1603
-556 331 1573
-556 334 1590
-549 332 1583
-544 332 1585
-539 332 1584
-542 337 1611
-530 332 1588
-529 335 1604
-523 334 1599
-524 338 1621
-513 334 1603
-517 339 1631
-508 337 1620
-513 343 1652
-502 339 1636
-494 337 1624
-485 334 1613
-476 332 1602
-478 336 1626
-476 338 1637
-471 338 1636
-467 338 1640
-449 329 1597
-447 331 1609
-444 333 1616
-441 334 1624
-444 340 1654
-433 335 1629
-430 336 1638
-419 332 1618
-422 337 1646
-412 333 1627
-409 335 1637
-403 334 1634
-398 334 1636
-393 334 1635
-388 333 1634
-381 332 1627
-376 332 1628
-368 329 1616
-367 333 1634
-360 330 1623
-354 329 1617
-347 327 1611
-341 326 1604
-338 327 1611
-335 329 1621
-326 325 1604
-326 330 1629
-318 326 1611
-312 325 1605
-307 325 1608
-304 326 1613
-299 326 1612
-291 322 1596
-290 327 1619
-283 324 1605
-278 324 1607
-273 323 1603
-267 322 1597
-261 321 1591
-255 319 1585
-247 315 1567
-244 316 1573
-242 320 1589
-235 316 1574
-229 315 1567
-227 318 1585
-223 320 1593
-219 321 1600
-213 319 1589
-210 321 1601
-206 322 1606
-199 318 1588
-196 321 1605
-189 317 1586
-186 320 1601
-180 318 1590
-177 320 1600
-174 324 1622
-167 319 1598
-162 318 1592
-158 320 1604
-154 321 1606
-150 322 1614
-145 323 1616
-139 319 1599
-134 319 1600
-128 315 1580
-120 307 1541
-115 305 1528
-103 287 1438
-96 277 1389
-87 264 1323
-82 260 1304
-76 254 1274
-72 252 1264
-68 252 1265
-65 255 1278
-61 251 1257
-58 254 1277
-55 257 1290
-51 258 1295
-47 255 1283
-44 261 1313
-42 268 1347
-38 271 1365
-35 275 1384
-32 287 1446
-30 303 1526
-26 311 1565
-22 320 1613
-18 328 1654
-13 326 1641
-8 325 1636
-3 321 1620
0 325 1640
5 322 1625
10 327 1647
15 326 1646
20 326 1645
24 326 1644
29 320 1614
34 325 1640
39 325 1640
44 326 1644
48 326 1643
53 326 1647
57 322 1623
63 326 1645
68 329 1658
73 327 1651
77 325 1639
81 324 1634
87 327 1650
92 327 1652
96 324 1632
101 327 1648
106 327 1648
110 324 1635
116 326 1645
121 329 1659
125 326 1647
130 325 1637
136 327 1651
140 326 1643
145 326 1646
152 331 1670
155 328 1652
161 329 1660
168 335 1687
171 330 1662
177 332 1675
178 326 1641
184 327 1650
193 335 1689
195 329 1659
201 332 1670
204 328 1654
212 334 1680
217 333 1678
221 332 1670
224 329 1658
231 332 1668
238 335 1685
242 334 1680
244 330 1660
249 330 1657
255 331 1664
262 334 1676
265 332 1668
269 331 1660
275 332 1665
280 332 1665
286 333 1671
291 333 1670
296 333 1671
297 329 1650
303 330 1654
309 332 1661
313 330 1653
319 331 1657
322 329 1646
333 335 1676
331 329 1644
337 329 1645
340 327 1637
351 333 1666
351 328 1640
355 328 1636
361 329 1642
367 330 1644
372 330 1646
384 336 1676
381 329 1639
388 331 1648
393 331 1647
406 338 1681
409 336 1670
409 332 1648
419 336 1668
418 331 1645
424 332 1647
424 328 1629
432 331 1641
439 332 1647
443 331 1642
450 333 1647
459 336 1662
468 339 1675
473 338 1673
480 340 1678
483 339 1672
486 337 1664
488 335 1653
490 333 1641
504 339 1669
508 338 1666
514 339 1666
521 340 1671
533 345 1693
528 338 1658
539 342 1677
543 341 1672
543 338 1656
559 345 1688
564 344 1684
566 342 1674
575 345 1685
580 345 1682
580 341 1665
608 355 1732
629 364 1772
644 370 1799
651 370 1800
649 366 1779
643 360 1747
640 355 1720
641 353 1709
645 352 1705
652 353 1707
651 349 1687
658 350 1692
669 353 1704
680 356 1717
685 356 1714
690 356 1712
701 359 1724
709 360 1728
709 357 1714
716 358 1716
721 358 1712
728 358 1714
726 355 1696
734 356 1699
744 358 1709
753 360 1715
751 357 1697
755 356 1692
760 356 1688
761 354 1676
767 354 1677
766 351 1660
778 354 1673
776 351 1655
770 346 1630
736 328 1545
717 318 1492
686 302 1416
601 263 1230
612 266 1243
699 301 1408
733 314 1466
777 331 1542
804 340 1584
815 342 1593
824 344 1599
827 343 1592
829 342 1584
835 342 1583
832 339 1566
838 339 1564
840 338 1557
841 336 1547
833 331 1520
828 327 1500
826 324 1484
826 322 1474
825 320 1461
831 321 1462
823 315 1436
-473 189 809
-476 191 821
-497 201 863
-483 196 845
-490 200 864
-485 199 861
-486 201 869
-484 201 873
-497 208 904
-488 205 893
-480 203 886
-477 203 887
-496 212 928
-489 210 922
-487 211 925
-495 216 948
-501 220 968
-495 218 964
-493 219 967
-494 221 977
-494 222 983
-496 224 996
-510 232 1032
-532 243 1084
-552 254 1135
-549 254 1138
-538 251 1125
-530 249 1115
-530 250 1124
-519 247 1111
-526 252 1134
-530 255 1153
-558 271 1223
-583 284 1288
-567 279 1264
-562 278 1263
-539 269 1220
-509 256 1163
-509 257 1172
-509 260 1183
-508 261 1191
-505 261 1194
-518 270 1235
-538 282 1293
-580 306 1406
-632 336 1546
-635 340 1567
-632 341 1573
-623 338 1563
-621 340 1573
-610 337 1558
-618 343 1592
-599 336 1559
-599 339 1573
-599 341 1586
-594 341 1588
-589 341 1588
-585 341 1593
-574 338 1578
-571 339 1585
-561 336 1572
-558 337 1578
-550 335 1569
-543 333 1565
-536 332 1560
-533 333 1566
-536 338 1593
-533 339 1599
-530 340 1604
-522 338 1596
-522 342 1614
-517 341 1614
-515 343 1626
-500 336 1594
-505 343 1625
-500 343 1627
-492 341 1620
-482 337 1604
-478 338 1608
-470 336 1598
-464 335 1596
-461 336 1602
-463 341 1627
-453 337 1611
-443 333 1593
-442 335 1605
-435 334 1601
-433 336 1612
-426 335 1606
-422 335 1609
-421 338 1625
-413 336 1614
-410 337 1622
-404 336 1616
-398 335 1612
-395 337 1622
-391 337 1627
-386 337 1626
-377 333 1608
-378 338 1634
-371 336 1627
-360 331 1602
-354 329 1594
-346 327 1583
-340 325 1577
-337 327 1587
-335 329 1598
-329 328 1593
-326 329 1600
-321 329 1601
-314 327 1592
-312 329 1603
-306 329 1600
-299 326 1590
-296 328 1598
-290 327 1594
-283 324 1583
-282 328 1600
-275 326 1591
-267 321 1568
-263 322 1573
-258 321 1571
-253 321 1573
-246 318 1556
-242 319 1560
-239 321 1573
-233 319 1564
-229 320 1567
-225 321 1574
-220 320 1569
-216 321 1576
-211 320 1573
-206 319 1569
-202 321 1577
-197 319 1569
-192 320 1572
-189 322 1586
-186 325 1600
-180 323 1589
-175 322 1587
-170 321 1583
-167 324 1596
-163 324 1599
-157 322 1588
-153 323 1594
-147 321 1585
-143 322 1590
-139 323 1595
-134 323 1597
-125 313 1547
-119 308 1524
-110 298 1474
-100 280 1385
-93 274 1351
-86 265 1309
-80 257 1267
-77 258 1276
-71 252 1244
-68 254 1256
-65 256 1268
-61 256 1266
-57 254 1255
-53 254 1257
-50 257 1272
-47 258 1278
-44 261 1292
-41 269 1333
-38 273 1353
-34 275 1363
-32 288 1428
-29 303 1502
-26 312 1549
-22 321 1592
-18 329 1631
-13 324 1609
-8 326 1618
-3 325 1613
0 322 1598
5 327 1625
10 328 1628
15 328 1630
19 326 1619
24 325 1617
29 324 1611
33 321 1595
38 325 1613
43 327 1626
48 327 1624
53 328 1631
58 328 1631
62 329 1635
66 325 1616
72 328 1632
76 325 1617
81 329 1634
86 328 1630
91 330 1638
95 327 1625
100 327 1627
106 331 1647
109 325 1617
114 327 1624
119 328 1628
125 329 1636
130 330 1640
135 331 1643
140 331 1643
145 331 1646
150 331 1645
154 330 1639
159 330 1639
165 332 1650
168 329 1633
173 330 1639
180 334 1656
185 334 1657
186 327 1623
194 333 1653
198 331 1643
203 331 1642
208 331 1642
212 331 1641
220 335 1662
224 334 1653
227 331 1638
235 335 1661
239 334 1656
242 332 1644
249 335 1658
251 331 1639
254 329 1627
261 331 1637
269 335 1659
271 331 1638
277 333 1644
280 331 1635
286 332 1639
293 335 1654
296 332 1641
304 336 1658
306 332 1639
311 332 1640
314 330 1630
321 333 1644
324 331 1632
335 338 1664
339 336 1655
340 332 1635
345 333 1638
348 331 1627
356 334 1640
360 332 1634
365 333 1638
372 335 1646
375 333 1633
379 332 1630
387 335 1645
393 336 1646
393 331 1624
399 332 1628
407 335 1642
411 334 1635
420 337 1650
420 334 1632
430 338 1649
429 333 1626
438 336 1641
441 335 1634
452 339 1655
452 336 1636
460 338 1644
465 338 1645
469 337 1639
475 338 1642
480 338 1643
486 339 1644
493 340 1649
497 339 1646
505 341 1652
509 340 1649
517 342 1657
520 341 1649
522 339 1639
530 341 1648
537 342 1651
539 340 1641
547 342 1648
555 344 1657
553 340 1635
564 343 1650
569 343 1649
579 346 1661
594 352 1690
626 367 1762
633 369 1768
636 367 1758
636 364 1743
650 369 1763
629 354 1691
635 354 1692
645 357 1701
648 355 1694
648 353 1679
653 353 1677
664 356 1690
670 356 1691
666 351 1665
688 360 1705
694 360 1705
696 359 1695
699 357 1689
705 358 1688
719 362 1708
717 358 1688
727 361 1697
721 355 1669
735 359 1688
739 359 1683
742 357 1674
744 356 1666
751 357 1668
758 358 1670
763 357 1666
759 353 1644
767 354 1649
770 353 1641
775 353 1638
775 351 1626
757 340 1575
734 328 1514
715 317 1463
673 296 1365
586 256 1178
623 271 1244
701 303 1391
743 319 1463
783 334 1530
813 345 1576
819 345 1575
824 345 1573
825 343 1562
830 343 1561
834 343 1557
838 342 1552
840 341 1544
834 336 1521
836 335 1513
838 334 1506
837 332 1493
829 326 1467
828 324 1455
823 320 1436
-473 192 808
-473 193 816
-474 194 822
-482 199 843
-464 193 818
-497 207 883
-482 202 862
-489 206 880
-482 204 875
-483 206 883
-488 209 900
-489 211 908
-485 211 908
-492 215 928
-483 212 917
-484 214 927
-485 216 935
-498 223 969
-487 219 954
-499 226 985
-505 230 1005
-524 240 1051
-547 252 1107
-558 259 1138
-554 259 1138
-547 257 1132
-533 252 1113
-535 255 1126
-533 255 1130
-526 254 1125
-524 255 1130
-525 257 1141
-548 270 1200
-578 286 1277
-569 284 1268
-561 282 1260
-546 276 1236
-550 280 1256
-511 262 1177
-503 260 1168
-486 253 1138
-512 269 1210
-514 271 1223
-544 289 1308
-589 315 1426
-631 340 1543
-631 342 1554
-623 341 1550
-616 339 1544
-624 347 1581
-604 338 1541
-600 339 1547
-601 342 1562
-595 341 1560
-600 347 1589
-585 341 1564
-580 341 1564
-579 343 1576
-573 342 1574
-563 339 1561
-548 333 1536
-548 336 1549
-545 337 1555
-541 337 1558
-532 335 1549
-533 338 1567
-531 340 1575
-526 340 1577
-519 338 1571
-524 344 1602
-517 343 1596
-508 340 1586
-500 338 1576
-500 341 1593
-494 340 1591
-503 350 1637
-490 344 1612
-473 336 1574
-468 335 1572
-464 336 1578
-464 339 1592
-455 336 1581
-453 339 1592
-450 339 1598
-442 337 1587
-432 333 1569
-429 334 1576
-425 335 1583
-421 335 1584
-416 335 1585
-414 337 1597
-405 334 1582
-405 338 1601
-401 339 1606
-394 336 1596
-390 337 1600
-384 336 1596
-380 337 1602
-372 333 1587
-370 336 1600
-365 336 1600
-355 331 1576
-347 328 1563
-345 331 1578
-345 334 1597
-337 332 1585
-331 330 1577
-324 328 1570
-320 328 1570
-313 326 1563
-313 331 1588
-305 327 1569
-301 328 1575
-298 330 1585
-290 326 1564
-285 326 1565
-283 328 1577
-279 329 1583
-272 327 1572
-266 325 1565
-262 326 1568
-256 323 1558
-249 321 1547
-245 321 1548
-239 320 1542
-237 323 1557
-229 318 1535
-226 321 1548
-224 323 1562
-217 321 1552
-212 320 1547
-210 323 1565
-204 322 1556
-201 324 1567
-194 321 1552
-192 324 1571
-187 323 1566
-183 324 1570
-177 323 1564
-174 324 1573
-170 326 1584
-164 322 1564
-159 322 1563
-157 327 1588
-151 324 1573
-147 325 1581
-143 327 1590
-136 322 1568
-132 322 1568
-125 318 1545
-117 309 1502
-107 293 1425
-99 282 1371
-91 273 1326
-85 265 1291
-79 260 1263
-74 255 1239
-70 253 1233
-67 254 1236
-63 255 1240
-60 255 1243
-57 257 1253
-53 256 1247
-50 258 1258
-47 262 1279
-43 264 1288
-40 265 1295
-37 274 1337
-34 276 1345
-31 285 1393
-29 304 1484
-25 309 1510
-21 321 1569
-17 327 1598
-13 327 1601
-8 325 1591
-3 327 1599
0 326 1592
5 326 1593
10 331 1621
14 327 1600
19 327 1602
24 328 1603
29 329 1608
33 325 1592
38 328 1608
43 331 1622
47 327 1603
52 330 1618
57 329 1613
61 328 1607
66 327 1601
70 325 1590
75 325 1590
80 326 1597
85 326 1598
90 329 1613
94 328 1604
100 330 1615
104 329 1610
109 330 1615
114 329 1611
118 327 1602
124 331 1621
128 330 1613
131 326 1597
138 331 1618
142 330 1616
147 330 1617
153 332 1624
156 330 1613
161 329 1610
169 336 1643
171 331 1618
177 333 1627
182 334 1632
187 334 1635
193 335 1638
197 334 1632
202 334 1634
208 337 1647
212 335 1638
215 333 1624
221 334 1628
228 338 1649
234 340 1657
236 335 1637
239 332 1621
247 337 1643
248 331 1614
255 335 1631
260 335 1633
266 336 1636
271 336 1637
273 332 1618
282 338 1644
282 332 1616
289 335 1631
297 338 1644
299 335 1629
303 335 1626
311 338 1641
308 329 1600
319 336 1632
322 334 1620
321 327 1589
334 336 1632
337 334 1622
345 337 1635
343 330 1601
349 332 1609
360 337 1634
361 334 1618
365 334 1614
371 334 1617
380 338 1633
381 334 1615
391 339 1638
392 336 1621
396 335 1616
404 337 1626
405 335 1612
411 335 1614
418 337 1623
425 339 1631
430 339 1630
434 338 1626
439 338 1624
444 338 1625
450 339 1629
455 339 1626
462 341 1633
464 338 1622
474 342 1639
477 340 1629
480 340 1624
486 340 1626
489 338 1617
497 340 1625
504 342 1630
508 342 1629
518 345 1642
521 344 1637
523 341 1623
531 343 1633
535 342 1627
541 343 1629
551 346 1643
552 344 1630
557 344 1630
562 344 1627
578 351 1658
581 349 1651
612 364 1722
620 367 1730
633 371 1749
633 368 1732
629 362 1705
627 358 1685
638 361 1699
633 356 1670
644 358 1682
646 357 1673
658 361 1690
666 362 1694
676 365 1704
672 360 1681
675 359 1673
679 358 1668
681 356 1659
698 362 1685
697 359 1668
706 361 1675
711 361 1672
718 361 1674
716 358 1656
725 359 1662
727 358 1654
733 359 1654
738 359 1652
746 360 1656
746 357 1642
750 357 1637
762 360 1649
764 358 1641
767 357 1633
767 355 1621
772 354 1617
777 354 1616
774 351 1598
755 340 1544
733 328 1487
704 313 1416
661 292 1319
581 255 1149
654 285 1285
705 305 1375
747 321 1447
794 339 1527
814 346 1553
815 344 1544
823 345 1546
823 343 1534
836 346 1548
829 341 1522
842 345 1535
839 341 1517
844 341 1515
839 337 1495
837 335 1481
837 332 1469
831 328 1447
-465 191 794
-485 200 835
-475 197 823
-481 201 841
-493 207 868
-490 207 869
-478 204 855
-494 211 889
-481 207 873
-467 202 855
-467 203 859
-479 210 889
-480 211 898
-499 221 941
-504 224 957
-484 217 926
-496 224 956
-493 224 958
-496 226 972
-514 236 1015
-524 242 1042
-542 252 1087
-544 255 1100
-550 259 1120
-546 258 1121
-535 255 1107
-533 256 1113
-541 261 1137
-538 261 1140
-527 258 1126
-517 255 1115
-528 262 1146
-549 274 1202
-572 287 1262
-563 285 1254
-559 284 1254
-547 281 1238
-513 265 1170
-508 264 1169
-505 265 1173
-507 268 1188
-510 271 1203
-518 277 1233
-555 299 1334
-605 328 1465
-630 344 1538
-626 345 1542
-608 338 1512
-618 346 1550
-607 342 1536
-603 343 1540
-599 343 1544
-589 340 1530
-593 345 1554
-577 338 1527
-578 341 1544
-578 344 1558
-573 344 1558
-566 343 1555
-558 341 1546
-552 340 1544
-541 336 1528
-538 337 1534
-538 340 1548
-526 335 1530
-531 341 1559
-529 343 1569
-519 340 1554
-520 344 1575
-515 344 1576
-513 345 1584
-503 342 1570
-505 346 1590
-487 337 1552
-491 343 1579
-498 351 1618
-481 343 1582
-469 338 1558
-462 336 1552
-463 340 1571
-458 340 1574
-453 340 1574
-447 339 1569
-442 338 1570
-437 338 1571
-432 338 1571
-427 337 1568
-426 340 1584
-419 339 1576
-413 337 1572
-409 338 1578
-404 338 1578
-396 335 1566
-396 339 1584
-389 337 1576
-391 342 1603
-381 338 1583
-378 339 1590
-369 336 1574
-372 343 1607
-355 331 1555
-353 334 1567
-349 334 1570
-342 332 1561
-336 331 1557
-328 328 1543
-326 330 1553
-320 329 1551
-317 330 1556
-314 332 1567
-308 330 1560
-303 330 1557
-296 327 1548
-294 330 1563
-289 330 1559
-284 329 1556
-279 329 1559
-273 327 1552
-268 326 1546
-264 327 1551
-259 327 1552
-253 324 1539
-246 322 1528
-245 326 1549
-239 324 1542
-233 322 1532
-230 324 1540
-224 322 1532
-224 328 1561
-216 324 1543
-210 322 1533
-207 323 1540
-202 322 1537
-196 321 1530
-191 320 1525
-189 324 1547
-186 326 1555
-180 324 1549
-176 325 1554
-169 321 1534
-167 326 1558
-163 325 1554
-158 324 1551
-153 324 1550
-150 326 1563
-144 325 1556
-140 324 1554
-135 325 1560
-131 325 1559
-123 317 1518
-114 305 1463
-105 292 1399
-96 279 1339
-90 273 1309
-83 263 1263
-79 262 1255
-73 256 1226
-70 256 1229
-67 257 1232
-62 253 1216
-59 255 1224
-56 257 1233
-52 258 1237
-49 259 1245
-46 263 1262
-42 261 1254
-39 267 1281
-37 274 1316
-33 277 1334
-31 291 1398
-29 307 1479
-25 317 1527
-21 327 1573
-17 331 1596
-12 330 1589
-8 327 1574
-3 325 1564
1 326 1572
5 328 1583
10 328 1580
14 330 1592
19 327 1576
24 329 1588
28 328 1583
33 331 1596
37 328 1580
42 330 1594
47 332 1599
52 329 1587
57 331 1599
61 331 1597
66 331 1599
70 331 1596
74 327 1580
80 331 1595
84 330 1592
89 328 1585
94 330 1591
98 328 1582
103 329 1589
108 332 1603
113 331 1598
118 332 1600
123 333 1605
126 329 1585
132 332 1600
136 331 1594
142 334 1610
146 333 1607
149 328 1583
157 335 1614
160 333 1603
165 332 1601
170 334 1607
176 336 1617
178 331 1596
186 337 1622
190 335 1615
195 336 1616
200 336 1619
203 333 1604
209 335 1612
212 333 1602
220 338 1624
223 335 1612
229 336 1615
232 334 1606
235 332 1596
245 338 1626
246 333 1601
252 335 1609
257 335 1609
263 337 1617
267 336 1614
268 331 1587
272 330 1584
278 332 1593
286 336 1610
289 334 1602
293 333 1594
300 336 1608
303 333 1596
308 334 1598
315 337 1610
323 339 1624
324 336 1606
327 334 1594
334 336 1608
342 339 1619
343 335 1601
347 335 1598
350 333 1590
358 336 1603
363 336 1604
365 334 1589
370 334 1589
375 334 1590
385 339 1612
386 336 1596
393 337 1603
398 337 1601
406 340 1615
410 339 1609
412 337 1597
418 337 1600
427 341 1618
427 337 1597
435 340 1609
439 339 1604
445 340 1607
446 337 1592
461 344 1626
464 343 1619
471 344 1625
468 339 1597
476 341 1606
482 342 1609
480 337 1585
491 341 1604
500 344 1617
503 343 1609
511 345 1621
514 344 1613
516 342 1601
522 342 1604
528 343 1606
538 346 1620
540 344 1610
541 342 1596
559 350 1634
561 348 1623
560 344 1604
577 352 1640
604 365 1699
626 375 1744
628 373 1733
627 369 1715
627 366 1699
614 356 1648
620 356 1648
628 358 1654
633 358 1653
636 357 1646
643 357 1648
649 358 1650
666 364 1677
677 368 1691
679 366 1682
681 364 1672
686 364 1670
682 359 1645
696 363 1663
695 360 1648
704 362 1655
711 363 1658
715 362 1652
723 364 1658
726 363 1649
724 359 1632
735 362 1642
739 362 1639
747 363 1643
750 362 1636
760 364 1644
755 359 1621
761 360 1621
765 359 1615
771 359 1615
767 355 1594
775 356 1598
779 356 1593
779 354 1581
750 338 1510
723 324 1444
703 313 1392
637 281 1250
586 257 1140
664 290 1284
711 308 1364
757 326 1442
800 343 1514
810 345 1521
810 343 1510
820 345 1516
825 345 1515
829 344 1510
835 344 1509
840 345 1508
839 342 1494
844 342 1491
835 336 1464
838 336 1459
-482 201 823
-480 201 825
-483 204 837
-484 205 846
-480 205 844
-477 205 846
-481 208 860
-498 216 896
-481 210 872
-492 216 899
-480 212 884
-486 216 901
-478 213 893
-484 218 912
-480 217 910
-490 223 937
-495 226 954
-504 232 978
-527 244 1032
-538 250 1062
-545 255 1083
-553 260 1108
-541 257 1093
-545 260 1109
-544 261 1116
-528 255 1091
-540 263 1125
-535 262 1125
-529 261 1120
-549 273 1174
-526 263 1132
-526 265 1143
-548 277 1199
-569 290 1255
-562 288 1251
-564 291 1266
-550 286 1243
-506 265 1153
-504 266 1159
-491 261 1139
-507 271 1186
-505 272 1192
-520 282 1236
-565 309 1356
-621 342 1503
-629 349 1536
-621 347 1530
-619 348 1537
-599 340 1502
-597 341 1509
-592 341 1511
-586 340 1509
-585 342 1520
-585 345 1534
-580 345 1534
-571 342 1524
-557 337 1502
-565 344 1536
-559 344 1536
-558 346 1547
-539 337 1508
-535 337 1511
-535 340 1525
-526 337 1515
-520 336 1512
-520 339 1526
-518 341 1535
-516 342 1545
-505 339 1528
-512 346 1565
-507 346 1566
-503 347 1569
-492 342 1549
-489 343 1555
-480 340 1545
-479 343 1558
-472 341 1551
-469 342 1558
-461 340 1548
-459 342 1557
-458 345 1573
-450 342 1561
-441 339 1547
-435 338 1545
-432 339 1549
-425 337 1543
-424 340 1559
-424 343 1574
-413 339 1554
-409 339 1558
-403 338 1553
-398 338 1553
-393 337 1553
-390 339 1560
-385 339 1560
-380 338 1560
-377 340 1568
-372 339 1566
-367 338 1564
-367 343 1587
-356 337 1559
-347 333 1543
-338 329 1522
-331 326 1510
-330 330 1529
-328 332 1542
-322 331 1538
-319 332 1544
-316 334 1552
-310 332 1544
-305 332 1544
-302 333 1552
-294 330 1537
-288 328 1527
-284 328 1531
-280 329 1536
-278 332 1551
-271 329 1538
-267 329 1540
-258 324 1517
-255 326 1526
-250 325 1522
-244 324 1515
-239 323 1511
-234 321 1506
-228 320 1500
-225 322 1509
-221 323 1515
-218 324 1522
-213 323 1516
-209 324 1524
-205 325 1527
-200 324 1523
-195 323 1518
-192 326 1536
-187 324 1526
-183 326 1535
-179 326 1535
-173 324 1525
-169 324 1526
-165 326 1537
-162 328 1547
-157 327 1543
-152 328 1546
-147 326 1537
-145 331 1561
-140 329 1555
-134 326 1542
-129 325 1535
-121 316 1492
-111 303 1431
-102 289 1364
-96 282 1331
-90 276 1302
-83 266 1255
-77 261 1233
-72 254 1203
-69 255 1205
-65 256 1209
-62 257 1213
-58 257 1215
-55 259 1224
-51 257 1216
-48 259 1228
-46 264 1248
-42 265 1254
-39 266 1259
-36 274 1298
-33 278 1317
-30 289 1370
-28 310 1471
-24 311 1477
-21 322 1527
-17 330 1565
-12 330 1566
-7 325 1542
-3 328 1556
1 328 1560
5 328 1557
10 327 1552
14 329 1563
19 330 1569
24 331 1572
28 332 1577
33 330 1569
37 332 1577
42 329 1563
47 333 1584
51 329 1564
56 331 1573
60 328 1558
65 332 1578
69 328 1560
75 333 1582
79 331 1572
84 333 1584
89 333 1584
92 330 1571
98 333 1582
102 333 1583
107 334 1586
110 328 1559
116 332 1576
122 335 1592
126 333 1585
130 331 1572
134 332 1575
141 336 1598
143 331 1573
149 332 1578
153 332 1579
159 334 1585
164 334 1587
169 336 1595
173 335 1589
176 331 1572
185 339 1609
187 335 1590
194 338 1603
196 335 1587
200 333 1581
207 336 1596
211 335 1589
218 338 1604
221 336 1592
226 337 1595
229 334 1582
236 337 1598
239 336 1590
243 334 1579
251 339 1606
254 336 1588
258 335 1584
264 337 1595
268 336 1589
274 338 1598
276 334 1580
278 332 1566
288 337 1593
293 338 1596
298 338 1593
300 335 1582
305 335 1580
312 337 1591
314 335 1579
321 337 1589
324 335 1579
328 335 1575
334 336 1580
343 340 1602
346 339 1593
347 335 1574
354 337 1585
361 339 1594
364 337 1582
365 334 1567
373 337 1580
377 336 1575
385 339 1589
392 341 1596
395 339 1588
397 337 1579
406 341 1593
409 339 1586
410 336 1570
415 336 1571
426 341 1592
430 341 1589
433 340 1583
436 338 1574
443 340 1582
454 344 1601
453 340 1581
459 341 1585
461 339 1573
473 344 1597
481 346 1605
479 341 1583
483 340 1577
488 341 1578
500 345 1599
507 347 1604
506 343 1587
513 345 1592
516 343 1583
524 345 1592
531 347 1599
537 347 1599
545 349 1606
545 346 1592
552 348 1597
560 350 1605
571 353 1619
591 362 1661
614 373 1711
611 368 1686
608 363 1662
606 359 1640
611 359 1640
609 355 1619
611 353 1608
626 359 1633
625 355 1615
639 360 1638
642 359 1632
650 361 1637
663 365 1654
668 365 1654
674 365 1653
677 364 1646
684 365 1648
691 366 1652
696 366 1650
706 368 1658
708 367 1650
707 364 1633
714 365 1636
720 365 1634
722 363 1626
733 366 1637
739 367 1638
744 366 1634
750 367 1634
750 364 1621
757 365 1624
759 364 1614
763 363 1609
766 362 1603
776 364 1611
774 361 1595
768 356 1570
781 359 1583
781 357 1570
775 352 1546
748 337 1481
714 320 1402
695 310 1354
622 275 1202
585 257 1120
678 296 1290
718 312 1356
775 334 1453
807 346 1502
823 351 1521
818 347 1501
831 350 1512
832 348 1503
836 348 1498
842 348 1497
846 348 1494
848 347 1486
845 343 1470
-481 203 821
-491 209 844
-496 212 860
-478 205 834
-483 209 850
-479 208 849
-494 216 883
-489 215 879
-486 215 880
-479 213 874
-508 227 934
-481 217 892
-491 222 917
-486 221 914
-481 220 913
-499 230 954
-511 237 985
-590 275 1146
-732 342 1433
-725 341 1429
-577 274 1146
-546 261 1094
-541 260 1092
-549 266 1117
-542 264 1112
-531 260 1098
-543 268 1131
-534 265 1123
-530 265 1123
-524 263 1118
-503 255 1083
-523 266 1134
-552 283 1207
-565 292 1245
-571 297 1269
-561 293 1257
-548 289 1238
-512 272 1168
-503 269 1156
-497 268 1153
-490 266 1145
-503 275 1186
-533 293 1268
-598 331 1435
-616 343 1489
-618 347 1508
-603 341 1484
-598 341 1484
-596 343 1493
-601 348 1519
-591 345 1507
-588 346 1514
-584 347 1517
-578 346 1515
-579 349 1530
-566 344 1510
-571 350 1539
-559 345 1518
-546 340 1497
-543 341 1504
-538 341 1505
-530 338 1495
-528 340 1506
-522 339 1502
-518 339 1504
-517 342 1517
-515 344 1527
-511 344 1530
-504 343 1524
-510 350 1559
-497 344 1533
-492 344 1535
-490 345 1542
-479 341 1526
-473 340 1522
-473 343 1537
-465 341 1528
-461 341 1529
-454 339 1523
-452 341 1533
-453 345 1553
-446 344 1548
-442 344 1550
-433 341 1536
-431 343 1547
-423 340 1537
-419 341 1538
-417 343 1550
-409 340 1537
-409 344 1557
-399 339 1538
-395 339 1538
-391 340 1544
-384 338 1536
-383 341 1552
-378 341 1551
-375 342 1558
-370 342 1555
-364 340 1551
-358 339 1546
-356 342 1561
-346 337 1536
-338 333 1521
-330 330 1506
-329 334 1525
-327 336 1535
-322 335 1532
-310 328 1501
-309 331 1518
-305 332 1522
-304 336 1541
-294 329 1510
-289 328 1508
-286 330 1516
-284 333 1530
-273 326 1498
-270 327 1507
-269 331 1524
-261 327 1507
-254 323 1490
-252 326 1505
-247 326 1504
-243 326 1506
-241 329 1521
-232 323 1493
-227 323 1491
-223 324 1497
-218 322 1490
-214 323 1492
-213 328 1520
-206 324 1500
-201 323 1495
-197 324 1502
-193 325 1506
-190 327 1516
-186 327 1517
-181 327 1515
-179 330 1534
-173 328 1521
-169 329 1529
-162 324 1505
-159 327 1521
-156 330 1533
-150 327 1521
-147 329 1531
-142 329 1532
-138 331 1540
-132 327 1525
-127 325 1512
-117 310 1442
-109 301 1402
-100 288 1343
-93 278 1294
-87 271 1263
-81 264 1232
-76 261 1213
-71 256 1194
-68 255 1188
-65 258 1200
-61 258 1202
-58 257 1199
-54 256 1195
-51 257 1198
-48 259 1210
-45 263 1227
-41 264 1231
-38 267 1248
-35 273 1274
-32 279 1304
-30 292 1366
-28 310 1451
-24 313 1462
-20 319 1495
-16 331 1548
-12 331 1548
-7 328 1535
-3 331 1551
1 327 1531
5 329 1542
10 329 1541
14 331 1553
19 330 1546
23 333 1561
28 332 1556
32 329 1543
37 331 1549
42 333 1558
46 331 1552
51 331 1552
56 335 1571
59 328 1538
64 332 1555
68 329 1541
73 331 1553
78 332 1558
81 327 1532
88 334 1564
92 334 1564
97 334 1566
101 333 1560
105 330 1546
110 331 1553
115 332 1558
118 329 1543
124 334 1565
129 333 1561
133 334 1562
137 332 1555
143 336 1572
148 335 1569
153 336 1575
156 333 1558
161 333 1556
165 333 1557
173 338 1584
177 337 1579
179 334 1560
187 339 1585
191 338 1582
195 336 1571
201 339 1585
206 340 1589
209 337 1575
214 337 1575
220 339 1583
225 340 1589
228 337 1574
234 340 1587
238 339 1580
244 340 1589
246 337 1571
253 340 1584
254 335 1563
259 335 1564
265 337 1569
272 340 1582
273 335 1560
279 336 1566
285 338 1575
289 338 1572
294 339 1575
295 334 1554
301 335 1558
307 337 1567
315 340 1581
317 337 1567
317 333 1544
326 337 1564
332 339 1572
334 336 1557
339 336 1558
345 337 1563
347 335 1549
357 340 1572
360 338 1565
361 335 1550
371 340 1570
379 343 1585
380 339 1568
390 344 1590
386 337 1553
396 341 1571
398 338 1560
403 339 1562
408 339 1562
414 340 1566
422 343 1578
425 341 1569
435 346 1589
436 343 1573
441 342 1571
444 342 1567
449 342 1566
456 343 1573
458 341 1561
467 345 1577
478 349 1594
483 349 1594
479 343 1565
483 342 1561
491 344 1570
496 344 1568
498 342 1559
509 347 1578
508 342 1557
522 349 1585
531 351 1596
531 348 1580
544 353 1603
539 347 1573
542 346 1567
552 349 1580
565 354 1603
589 366 1654
602 371 1674
610 373 1681
613 371 1675
605 363 1635
608 362 1629
612 362 1627
614 360 1615
622 361 1621
626 361 1617
626 358 1603
632 358 1604
635 358 1598
648 362 1615
658 364 1626
657 361 1611
671 366 1631
679 368 1635
692 372 1653
693 370 1641
694 367 1629
700 368 1629
711 371 1640
720 373 1648
716 368 1626
720 367 1621
728 369 1626
732 368 1621
740 369 1624
744 369 1620
748 368 1615
752 368 1611
749 364 1592
762 368 1606
767 367 1603
772 367 1602
774 366 1594
777 365 1587
780 364 1581
777 360 1561
780 359 1556
782 358 1548
776 353 1524
742 335 1445
712 320 1375
688 307 1318
614 272 1167
595 262 1122
683 299 1279
723 315 1345
770 333 1420
812 349 1487
818 349 1488
826 351 1492
820 346 1469
840 353 1495
833 347 1470
844 350 1479
844 348 1467
-475 204 810
-479 207 824
-480 208 831
-492 214 859
-485 212 852
-481 212 852
-488 216 871
-484 216 870
-492 221 891
-487 219 888
-490 222 901
-485 221 899
-487 224 910
-494 228 930
-494 229 936
-516 241 985
-566 266 1090
-819 385 1587
-860 407 1680
-810 386 1595
-656 315 1302
-545 264 1091
-551 268 1111
-537 264 1093
-540 267 1107
-538 267 1110
-539 269 1122
-528 266 1109
-523 265 1106
-516 263 1102
-547 280 1175
-526 272 1140
-547 284 1196
-567 297 1250
-565 298 1255
-561 298 1257
-550 294 1243
-514 277 1172
-500 271 1149
-498 272 1154
-486 268 1136
-500 277 1178
-545 304 1295
-611 343 1463
-607 343 1468
-606 345 1478
-605 347 1488
-598 346 1484
-590 344 1477
-584 343 1475
-585 346 1492
-571 341 1469
-580 349 1506
-568 344 1488
-563 344 1488
-555 342 1481
-557 346 1500
-547 342 1485
-543 343 1490
-539 343 1493
-535 343 1494
-531 344 1497
-519 339 1478
-520 342 1495
-510 339 1481
-503 337 1476
-511 346 1514
-501 342 1500
-499 344 1509
-493 342 1504
-494 347 1524
-485 343 1511
-482 345 1518
-471 340 1500
-467 341 1502
-466 343 1514
-464 345 1524
-456 342 1513
-453 343 1520
-447 342 1517
-442 342 1515
-438 342 1519
-435 343 1525
-429 343 1523
-423 341 1518
-414 337 1500
-412 339 1512
-414 345 1538
-406 342 1527
-397 338 1510
-396 341 1523
-389 339 1517
-390 344 1537
-381 340 1521
-375 339 1519
-368 336 1508
-367 340 1525
-365 342 1534
-363 345 1548
-356 342 1536
-349 339 1526
-341 336 1512
-335 335 1508
-331 335 1511
-325 334 1505
-322 335 1512
-315 332 1499
-314 336 1517
-307 334 1508
-300 331 1495
-300 336 1518
-290 329 1490
-287 331 1499
-285 333 1511
-280 333 1507
-277 335 1517
-270 331 1504
-262 328 1488
-262 332 1510
-254 328 1491
-250 329 1494
-245 329 1494
-239 325 1480
-236 327 1489
-232 329 1498
-229 330 1503
-222 327 1490
-219 328 1498
-216 330 1506
-210 327 1494
-204 325 1484
-200 326 1490
-197 329 1503
-192 327 1496
-188 328 1498
-183 327 1494
-179 327 1496
-175 328 1503
-171 329 1506
-166 327 1499
-161 326 1495
-157 328 1505
-153 328 1503
-150 332 1525
-144 328 1504
-140 329 1512
-135 328 1507
-131 329 1511
-125 326 1495
-115 310 1423
-108 302 1386
-98 285 1308
-92 279 1281
-86 273 1252
-80 264 1212
-75 260 1196
-71 259 1188
-67 257 1182
-64 257 1179
-60 257 1181
-57 257 1180
-54 259 1189
-50 259 1192
-47 261 1201
-44 264 1215
-41 263 1211
-38 269 1237
-35 275 1265
-31 276 1269
-29 290 1335
-28 315 1451
-23 311 1433
-20 319 1473
-16 334 1541
-12 332 1531
-7 333 1538
-3 328 1515
1 331 1529
5 332 1535
10 326 1507
14 331 1528
19 333 1539
23 335 1547
28 334 1543
32 333 1537
37 333 1538
41 331 1531
46 334 1543
49 327 1510
55 333 1541
60 337 1555
64 333 1541
68 334 1544
72 331 1532
77 333 1538
82 332 1536
87 337 1557
92 337 1555
95 331 1529
100 335 1547
104 333 1536
108 332 1532
113 332 1536
119 336 1552
122 332 1535
128 336 1550
132 333 1538
137 335 1546
141 335 1548
148 339 1567
149 332 1533
155 335 1545
160 335 1546
166 339 1565
171 339 1564
175 339 1563
179 338 1559
184 337 1555
190 341 1571
195 341 1571
197 336 1549
202 338 1555
207 338 1559
211 337 1554
219 342 1577
220 337 1553
225 337 1552
229 336 1547
237 342 1574
242 341 1570
245 340 1562
249 339 1558
253 337 1551
258 339 1557
263 339 1559
269 340 1562
269 335 1540
275 336 1544
280 337 1545
285 338 1549
289 337 1547
296 339 1554
300 339 1553
304 338 1547
311 341 1561
316 341 1560
319 339 1552
326 342 1563
328 339 1548
332 339 1548
336 338 1543
340 337 1541
347 340 1551
351 339 1545
356 339 1548
364 342 1560
364 338 1539
367 337 1534
376 341 1551
378 338 1537
383 338 1539
387 337 1534
397 342 1556
399 340 1545
400 337 1529
409 341 1546
416 343 1554
418 340 1541
429 345 1564
425 338 1532
439 346 1564
444 346 1565
445 343 1551
451 344 1555
453 342 1544
465 347 1567
461 341 1535
470 344 1551
477 346 1558
483 347 1560
481 342 1538
489 344 1548
499 348 1562
502 347 1555
503 344 1542
519 352 1575
518 348 1558
525 349 1563
527 347 1553
531 347 1549
541 350 1563
548 351 1567
572 364 1622
581 366 1631
589 368 1639
595 369 1639
595 366 1625
602 367 1628
602 364 1614
603 361 1600
601 357 1581
617 363 1607
617 360 1593
627 363 1605
636 366 1614
628 358 1579
627 355 1561
641 360 1583
651 363 1593
659 364 1600
658 361 1583
674 367 1609
678 367 1604
695 373 1629
692 369 1610
705 373 1626
702 369 1606
720 375 1633
715 370 1608
714 367 1594
729 372 1612
728 369 1597
738 371 1606
745 372 1608
745 370 1596
747 368 1587
754 369 1590
758 368 1584
761 367 1578
769 369 1582
773 368 1577
772 365 1563
778 366 1564
781 365 1557
778 361 1539
776 358 1523
785 359 1528
770 350 1487
738 334 1414
712 320 1354
682 304 1286
592 263 1107
604 266 1121
686 301 1265
724 315 1324
786 340 1427
807 348 1456
818 350 1463
825 351 1465
828 350 1460
838 352 1466
838 350 1455
-466 202 794
-492 215 845
-479 210 829
-479 211 834
-502 223 881
-486 217 859
-483 217 861
-481 217 864
-489 222 886
-476 218 868
-492 226 904
-516 238 956
-504 234 939
-507 237 953
-540 254 1022
-578 273 1103
-647 307 1245
-816 389 1582
-845 405 1651
-808 390 1591
-639 311 1267
-552 271 1105
-543 268 1094
-538 267 1093
-537 268 1100
-538 271 1110
-539 273 1121
-524 267 1098
-526 270 1113
-529 273 1128
-510 266 1097
-526 275 1140
-547 288 1194
-565 300 1245
-559 299 1242
-550 296 1232
-549 297 1239
-516 282 1175
-497 273 1141
-501 277 1160
-478 267 1117
-501 281 1180
-548 309 1301
-604 344 1447
-608 349 1470
-603 348 1469
-601 350 1478
-597 350 1481
-586 346 1465
-579 345 1461
-582 349 1482
-574 347 1476
-574 350 1489
-565 347 1479
-562 348 1483
-555 346 1479
-553 348 1488
-547 347 1485
-541 346 1483
-536 346 1482
-525 342 1467
-518 340 1461
-517 342 1473
-506 338 1455
-507 341 1471
-503 342 1476
-502 344 1487
-498 345 1489
-497 347 1500
-495 349 1510
-486 346 1499
-482 346 1502
-473 343 1489
-471 345 1499
-465 343 1493
-465 346 1508
-463 349 1520
-452 344 1499
-448 345 1504
-443 343 1500
-441 346 1512
-434 344 1503
-429 343 1504
-421 341 1494
-417 341 1495
-409 338 1485
-408 341 1497
-411 347 1524
-403 344 1514
-397 343 1508
-388 339 1493
-384 339 1496
-382 341 1507
-377 341 1504
-370 339 1497
-367 340 1504
-362 339 1501
-360 342 1514
-355 342 1514
-354 345 1530
-347 342 1518
-340 340 1510
-333 337 1497
-328 337 1498
-321 334 1484
-320 338 1502
-314 337 1498
-306 333 1481
-304 335 1494
-295 330 1470
-296 336 1500
-291 335 1493
-286 334 1491
-280 332 1484
-273 330 1473
-273 335 1497
-264 330 1474
-261 331 1480
-257 331 1482
-253 332 1488
-246 328 1471
-241 327 1464
-237 328 1471
-233 328 1471
-228 327 1468
-225 330 1481
-220 329 1477
-215 328 1473
-212 329 1478
-208 329 1482
-203 328 1477
-197 327 1471
-196 331 1490
-188 326 1469
-186 329 1481
-183 331 1493
-178 330 1489
-173 329 1483
-168 328 1483
-165 331 1494
-159 326 1475
-156 331 1495
-151 329 1488
-147 328 1485
-141 327 1477
-139 331 1497
-134 331 1497
-129 329 1490
-123 324 1466
-112 307 1392
-106 300 1357
-96 283 1282
-90 276 1250
-85 272 1232
-80 267 1211
-75 263 1190
-70 257 1164
-67 258 1170
-63 260 1177
-60 258 1171
-56 259 1172
-53 261 1183
-50 262 1189
-46 260 1181
-44 266 1207
-41 267 1212
-38 271 1231
-35 275 1250
-31 279 1268
-30 295 1342
-28 316 1436
-24 317 1443
-20 325 1481
-16 330 1500
-12 336 1530
-7 333 1516
-3 333 1518
1 333 1517
5 330 1504
10 331 1505
14 331 1507
18 333 1517
23 331 1507
27 334 1520
32 333 1518
36 335 1528
40 331 1509
45 332 1514
49 331 1506
55 337 1536
59 335 1527
64 337 1538
68 335 1526
72 336 1529
77 335 1525
81 333 1517
86 335 1528
90 333 1517
95 336 1532
99 333 1518
103 332 1511
109 337 1534
113 335 1526
118 337 1535
122 337 1534
128 340 1548
131 337 1534
136 338 1537
141 338 1539
144 334 1520
150 338 1539
153 336 1529
158 337 1532
161 334 1519
168 338 1539
172 337 1532
179 341 1552
179 334 1517
188 341 1549
190 337 1532
196 340 1546
201 339 1543
208 344 1563
208 336 1528
214 339 1539
220 342 1551
224 341 1548
229 341 1548
233 340 1541
238 341 1547
243 342 1550
245 337 1528
250 338 1533
253 337 1525
258 336 1523
263 337 1527
269 339 1536
273 338 1532
279 340 1539
281 337 1524
286 338 1529
293 341 1542
295 338 1527
302 340 1537
306 339 1533
308 337 1520
315 340 1533
319 339 1530
323 338 1525
331 342 1539
332 339 1525
335 337 1517
340 337 1517
345 338 1519
349 337 1514
354 337 1515
365 344 1545
367 341 1531
371 340 1526
375 339 1523
382 342 1534
385 340 1526
390 341 1526
396 342 1533
397 339 1518
401 338 1512
412 344 1536
416 343 1534
424 346 1547
427 345 1539
428 342 1524
436 344 1535
441 345 1535
442 342 1523
451 345 1535
446 338 1503
460 345 1531
461 342 1521
465 342 1517
479 349 1547
477 344 1524
482 344 1523
486 344 1521
491 343 1518
495 343 1515
507 348 1537
512 349 1538
524 353 1557
525 350 1544
534 353 1556
531 348 1533
543 353 1553
554 357 1568
570 364 1598
583 369 1621
591 371 1627
588 366 1602
589 364 1591
597 365 1597
606 368 1608
601 362 1578
612 365 1593
620 367 1599
621 365 1589
621 362 1573
625 362 1571
625 359 1556
634 361 1564
645 365 1579
651 365 1579
647 360 1555
673 371 1604
678 372 1604
681 371 1597
681 368 1582
698 374 1608
701 373 1602
706 373 1601
719 377 1615
721 375 1607
723 374 1598
719 369 1577
730 372 1588
731 370 1576
745 375 1594
740 369 1570
750 372 1579
753 371 1572
759 371 1573
763 371 1568
767 370 1563
765 367 1548
772 368 1549
777 368 1548
783 368 1548
778 363 1525
785 365 1528
786 363 1518
781 358 1495
