VERSION 0.7
FIELDS x y z
SIZE 4 4 4
TYPE I I I
COUNT 1 1 1
WIDTH 3759
HEIGHT 1
VIEWPOINT 0.0 0.0 0.0 1.0 0.0 0.0 0.0
POINTS 3759
DATA ascii
-585 -115 2093
-585 -116 2119
-572 -115 2095
-569 -116 2107
-563 -116 2110
-560 -116 2122
-549 -115 2106
-548 -116 2125
-539 -116 2118
-530 -115 2106
-523 -115 2106
-520 -116 2119
-511 -115 2110
-506 -116 2114
-499 -116 2114
-495 -116 2123
-488 -116 2119
-472 -114 2078
-464 -113 2070
-438 -108 1981
-431 -108 1980
-426 -108 1982
-411 -106 1939
-386 -101 1850
-358 -95 1739
-393 -106 1938
-376 -103 1883
-386 -107 1963
0 0 0
0 0 0
0 0 0
0 0 0
0 0 0
0 0 0
-696 -217 3941
-706 -224 4066
-714 -230 4185
-798 -262 4757
-820 -274 4977
-808 -275 4994
-792 -275 4981
-776 -274 4977
-762 -274 4978
-750 -276 4998
-736 -276 5002
1 1 0
-10 -3 91
-13 -4 109
-6 -2 64
-8 -3 80
-2 0 37
-5 -2 62
-20 -8 183
-51 -23 446
-49 -23 437
-53 -25 484
-65 -32 602
-89 -45 833
-102 -53 977
-98 -52 968
-125 -69 1265
-214 -121 2213
-262 -153 2782
-225 -136 2471
-106 -66 1213
-104 -67 1236
-96 -64 1184
-95 -65 1206
-96 -69 1267
-87 -65 1203
-86 -67 1234
-80 -65 1195
-79 -67 1240
-77 -68 1256
-73 -68 1247
-70 -68 1259
-62 -64 1187
-64 -70 1290
-57 -66 1220
-53 -66 1209
-50 -67 1236
-47 -67 1231
-43 -67 1228
-38 -64 1179
-36 -68 1245
-31 -64 1177
-22 -52 964
-110 -270 4859
-89 -251 4518
-75 -248 4460
-62 -249 4471
-52 -261 4690
-6 -57 1048
-4 -66 1212
0 -67 1223
2 -71 1297
6 -70 1277
9 -70 1274
13 -67 1227
16 -68 1247
20 -70 1274
24 -70 1279
28 -71 1290
32 -71 1297
37 -75 1354
41 -74 1336
43 -71 1292
45 -68 1244
47 -66 1208
55 -72 1310
55 -68 1228
60 -69 1245
68 -74 1344
70 -72 1305
66 -64 1158
78 -73 1318
79 -70 1273
83 -70 1274
85 -69 1243
85 -66 1202
91 -68 1234
95 -69 1239
99 -69 1243
108 -72 1304
0 0 0
0 0 0
355 -223 3949
350 -213 3774
352 -208 3679
364 -209 3691
346 -192 3405
355 -192 3400
355 -187 3310
357 -183 3238
353 -177 3120
374 -182 3219
366 -174 3073
376 -175 3083
396 -180 3172
404 -179 3157
387 -168 2955
375 -159 2798
399 -166 2917
412 -168 2947
421 -168 2952
432 -169 2968
437 -168 2942
444 -167 2931
453 -167 2934
443 -161 2817
434 -155 2706
440 -154 2696
435 -150 2616
455 -154 2688
467 -155 2714
476 -156 2715
473 -152 2652
426 -134 2346
353 -109 1913
339 -103 1806
342 -103 1795
351 -104 1812
354 -103 1799
340 -97 1701
358 -101 1763
385 -107 1870
373 -103 1785
359 -97 1692
304 -81 1412
259 -67 1181
230 -59 1036
260 -66 1156
192 -48 839
172 -42 738
154 -37 650
121 -28 503
0 0 0
95 -21 379
0 0 0
162 -36 641
105 -22 408
0 0 0
0 0 0
33 -5 114
1266 -284 4821
1269 -282 4777
9 0 19
7 0 12
0 0 0
0 0 0
0 0 0
0 0 0
0 0 0
0 0 0
0 0 0
0 0 0
0 0 0
0 0 0
0 0 0
0 0 0
1030 -196 3285
1027 -194 3242
0 0 0
0 0 0
0 0 0
0 0 0
0 0 0
0 0 0
0 0 0
0 0 0
0 0 0
0 0 0
0 0 0
0 0 0
0 0 0
1037 -174 2859
1055 -175 2881
1060 -175 2869
1076 -176 2886
1081 -176 2873
1094 -176 2881
1086 -174 2834
1078 -171 2788
1088 -171 2791
1090 -170 2771
1085 -168 2734
1079 -166 2696
1087 -166 2691
1100 -167 2700
1090 -164 2654
1102 -165 2661
1087 -161 2601
1093 -161 2593
1095 -160 2576
1097 -159 2559
1103 -159 2553
1101 -158 2528
1096 -156 2495
1097 -155 2475
1098 -154 2458
1109 -155 2462
1109 -154 2443
1102 -152 2408
1101 -151 2388
1110 -151 2388
1110 -150 2367
1107 -149 2344
1092 -146 2292
1080 -143 2249
1079 -142 2230
1059 -139 2172
1053 -137 2143
1053 -136 2127
1046 -134 2096
1050 -134 2087
1053 -134 2078
1047 -132 2049
1057 -133 2054
1052 -131 2028
1055 -131 2019
1054 -130 2001
1066 -131 2010
1054 -128 1971
1065 -129 1978
1065 -128 1963
1056 -127 1932
1071 -128 1945
1076 -127 1939
1069 -126 1912
-491 -46 854
-489 -46 857
-478 -45 845
-482 -46 857
-473 -45 848
-464 -45 838
-466 -45 848
-469 -46 860
-473 -47 874
-489 -49 910
-490 -49 919
-529 -53 1000
-863 -89 1641
-1089 -113 2087
-1088 -114 2101
-1082 -114 2105
-1073 -114 2103
-1062 -113 2099
-1058 -114 2105
-1050 -114 2106
-1041 -113 2104
-1035 -113 2107
-1026 -113 2106
-1014 -113 2097
-1007 -113 2099
-1003 -113 2109
-992 -113 2101
-985 -113 2103
-978 -113 2105
-969 -112 2101
-964 -113 2108
-956 -112 2107
-949 -112 2110
-939 -112 2102
-917 -110 2070
-914 -111 2080
-905 -110 2076
-893 -110 2067
-888 -110 2073
-885 -110 2082
-880 -111 2087
-862 -109 2063
-863 -110 2082
-860 -111 2093
-844 -109 2071
-845 -110 2092
-836 -110 2088
-820 -109 2064
-820 -110 2083
-809 -109 2073
-799 -109 2064
-784 -107 2044
-787 -109 2071
-784 -109 2082
-785 -110 2103
-775 -110 2094
-767 -110 2094
-752 -108 2070
-740 -108 2055
-731 -107 2050
-733 -109 2076
-739 -110 2112
-721 -109 2081
-722 -110 2102
-712 -109 2092
-711 -110 2112
-697 -109 2090
-689 -109 2087
-685 -109 2095
-677 -109 2089
-663 -108 2066
-670 -110 2112
-655 -108 2084
-649 -109 2088
-647 -109 2103
-635 -109 2086
-627 -108 2081
-621 -108 2081
-619 -109 2098
-612 -109 2097
-598 -108 2071
-588 -107 2059
-588 -108 2083
-589 -109 2110
-582 -109 2106
-573 -109 2097
-573 -110 2121
-563 -109 2108
-554 -109 2100
-557 -111 2135
-547 -110 2125
-535 -109 2102
-532 -110 2115
-524 -109 2111
-514 -109 2096
-508 -109 2099
-506 -109 2114
-498 -109 2108
-493 -110 2116
-484 -109 2103
-475 -108 2094
-439 -101 1963
-422 -99 1913
-428 -101 1963
-414 -99 1926
-414 -101 1955
-407 -101 1951
-407 -102 1979
-386 -98 1905
-332 -86 1663
-368 -96 1870
-375 -100 1936
-333 -90 1744
0 0 0
0 0 0
0 0 0
0 0 0
-697 -206 3951
-709 -213 4083
-713 -218 4177
-800 -249 4772
-822 -260 4987
1 1 0
2 1 -1
2 1 0
-764 -261 4994
-750 -261 5000
-737 -262 5012
-721 -261 4998
-9 -3 84
-10 -3 89
-11 -4 101
-7 -2 72
-6 -2 68
-6 -2 68
-24 -9 212
-62 -26 536
-56 -25 499
-51 -23 469
-60 -28 559
-85 -40 798
-88 -43 854
-102 -51 1007
-124 -65 1258
-230 -123 2371
-271 -150 2873
-240 -137 2626
-109 -64 1255
-102 -62 1214
-102 -64 1249
-95 -62 1213
-97 -66 1286
-91 -65 1255
-85 -63 1221
-84 -64 1250
-76 -61 1189
-76 -64 1238
-70 -62 1211
-70 -66 1274
-62 -61 1193
-60 -63 1224
-59 -65 1269
-52 -61 1188
-52 -66 1274
-46 -62 1210
-44 -64 1246
-41 -66 1285
-37 -65 1258
-32 -63 1216
-25 -57 1102
2 1 2
-88 -236 4485
-75 -235 4467
-62 -237 4501
-53 -255 4838
-7 -58 1123
-4 -64 1232
-1 -65 1245
2 -65 1252
6 -65 1246
9 -63 1215
13 -63 1220
16 -60 1162
20 -64 1237
24 -65 1253
29 -68 1314
32 -67 1284
36 -69 1315
40 -68 1300
43 -68 1296
45 -65 1251
50 -66 1271
52 -64 1234
58 -67 1282
62 -68 1292
63 -65 1240
67 -65 1242
72 -67 1272
78 -69 1309
80 -67 1282
82 -66 1254
90 -69 1321
94 -70 1330
91 -64 1226
104 -71 1353
110 -73 1380
98 -62 1181
0 0 0
329 -203 3787
354 -211 3948
349 -202 3767
350 -196 3660
353 -192 3581
359 -190 3541
357 -183 3415
361 -180 3362
353 -172 3201
354 -168 3129
372 -172 3200
361 -163 3030
373 -164 3053
390 -168 3119
392 -165 3068
388 -160 2965
376 -152 2812
399 -157 2919
408 -158 2919
422 -160 2958
425 -158 2919
438 -160 2949
451 -161 2977
454 -159 2943
440 -151 2794
430 -145 2682
438 -145 2679
447 -146 2690
447 -143 2641
471 -149 2735
475 -147 2709
474 -145 2662
428 -128 2362
359 -106 1945
335 -97 1781
340 -97 1784
343 -96 1772
354 -98 1801
358 -98 1793
365 -98 1800
386 -102 1878
389 -102 1862
352 -90 1660
261 -65 1207
242 -60 1102
220 -53 988
0 0 0
191 -45 831
0 0 0
107 -23 449
139 -31 578
155 -34 638
0 0 0
54 -10 205
0 0 0
110 -22 426
116 -23 444
69 -13 254
12 0 33
1270 -271 4835
1281 -270 4821
1312 -274 4882
1325 -274 4874
0 0 0
0 0 0
0 0 0
0 0 0
0 0 0
0 0 0
0 0 0
0 0 0
0 0 0
0 0 0
0 0 0
0 0 0
1026 -186 3274
1031 -185 3254
0 0 0
0 0 0
0 0 0
0 0 0
0 0 0
0 0 0
0 0 0
0 0 0
1018 -169 2942
0 0 0
0 0 0
0 0 0
0 0 0
1053 -168 2903
1050 -166 2866
1062 -166 2873
1076 -167 2885
1085 -167 2882
1090 -167 2872
1085 -165 2833
1084 -163 2805
1079 -161 2766
1077 -160 2737
1076 -159 2712
1101 -161 2752
1074 -156 2661
1089 -157 2673
1079 -154 2626
1089 -155 2630
1093 -154 2615
1088 -153 2583
1100 -153 2588
1089 -150 2541
1106 -152 2560
1093 -149 2510
1088 -147 2477
1086 -146 2451
1092 -146 2446
1106 -147 2456
1103 -145 2431
1113 -146 2432
1097 -143 2379
1101 -142 2368
1102 -142 2351
1103 -141 2335
1107 -140 2325
1105 -139 2302
1105 -138 2286
1071 -133 2197
1050 -130 2137
1051 -129 2123
1058 -129 2120
1053 -128 2093
1058 -128 2087
1059 -127 2074
1062 -127 2064
1061 -126 2045
1057 -125 2022
1061 -124 2014
1068 -124 2013
1055 -122 1973
1063 -122 1975
1069 -122 1971
1075 -122 1966
1059 -120 1924
1062 -120 1914
1058 -118 1893
-483 -43 840
-482 -43 846
-486 -43 858
-472 -42 839
-475 -43 851
-463 -42 837
-455 -42 828
-458 -42 840
-490 -46 906
-484 -45 901
-484 -46 908
-529 -50 1000
-871 -84 1657
-1092 -107 2094
-1084 -107 2094
-1079 -107 2100
-1071 -107 2101
-1063 -107 2100
-1060 -107 2110
-1050 -107 2107
-1041 -107 2106
-1033 -107 2105
-1026 -107 2106
-1016 -106 2102
-1013 -107 2113
-1004 -106 2110
-995 -106 2108
-985 -106 2104
-979 -106 2107
-968 -106 2101
-963 -106 2106
-955 -106 2105
-952 -106 2115
-943 -106 2112
-918 -104 2074
-906 -103 2062
-899 -103 2064
-897 -104 2075
-892 -104 2081
-883 -104 2077
-870 -103 2066
-866 -103 2071
-856 -103 2065
-852 -103 2073
-855 -104 2100
-838 -103 2075
-831 -103 2076
-821 -103 2067
-812 -102 2064
-812 -103 2082
-789 -101 2039
-774 -100 2020
-779 -101 2050
-786 -103 2088
-778 -103 2084
-776 -104 2097
-770 -104 2101
-754 -102 2076
-737 -101 2047
-727 -101 2040
-727 -102 2060
-733 -103 2095
-723 -103 2087
-723 -104 2106
-710 -103 2087
-715 -104 2122
-702 -104 2106
-698 -104 2113
-687 -103 2100
-678 -103 2095
-669 -103 2088
-663 -103 2090
-650 -101 2068
-651 -103 2093
-641 -102 2084
-634 -102 2082
-622 -101 2065
-619 -102 2077
-623 -103 2112
-612 -103 2098
-591 -100 2045
-596 -102 2087
-595 -103 2107
-588 -103 2104
-578 -102 2094
-570 -102 2089
-570 -103 2112
-565 -104 2117
-556 -103 2107
-551 -103 2113
-546 -104 2119
-537 -103 2110
-531 -103 2112
-522 -103 2104
-521 -104 2126
-516 -104 2130
-503 -103 2103
-500 -103 2116
-493 -103 2116
-486 -103 2115
-471 -101 2075
-429 -93 1917
-446 -98 2019
-413 -92 1898
-426 -97 1982
-437 -101 2065
-373 -87 1789
-399 -94 1937
-392 -94 1932
-402 -98 2010
-385 -95 1956
-335 -84 1728
0 0 0
0 0 0
-263 -69 1428
0 0 0
0 0 0
-704 -196 3992
-720 -204 4151
-726 -209 4255
-799 -235 4764
-1 0 22
0 0 18
-4 0 41
-4 0 42
-1 0 25
-2 0 29
-2 0 33
-3 0 40
-8 -2 77
-17 -5 138
-9 -2 84
-4 -1 51
-5 -1 62
-7 -2 76
-22 -8 202
-62 -25 529
-57 -23 504
-51 -21 465
-59 -25 545
-74 -33 702
-91 -42 874
-98 -46 969
-141 -69 1420
-239 -121 2466
-265 -139 2818
-241 -130 2647
-114 -64 1310
-101 -58 1204
-98 -58 1204
-97 -60 1235
-88 -56 1165
-88 -59 1212
-80 -55 1144
-83 -61 1247
-80 -61 1248
-73 -58 1201
-71 -59 1220
-70 -62 1274
-64 -60 1226
-61 -60 1231
-58 -60 1238
-54 -60 1235
-49 -58 1195
-46 -60 1227
-42 -59 1216
-41 -63 1286
-37 -62 1265
-32 -60 1225
-28 -58 1181
-16 -40 841
-93 -236 4735
-76 -227 4555
-66 -239 4788
-6 -40 833
-6 -53 1099
-4 -59 1212
0 -60 1236
2 -62 1265
6 -62 1274
9 -62 1273
13 -61 1239
17 -61 1250
20 -60 1230
24 -62 1256
28 -62 1261
31 -62 1265
34 -60 1221
38 -62 1259
42 -61 1245
47 -65 1311
48 -60 1221
54 -64 1293
57 -62 1260
65 -67 1361
61 -59 1189
67 -62 1254
73 -64 1298
76 -63 1275
79 -62 1263
86 -66 1323
87 -63 1280
95 -67 1343
97 -65 1307
99 -64 1283
99 -62 1243
110 -66 1333
0 0 0
347 -202 3989
359 -203 4003
348 -190 3755
346 -183 3614
364 -187 3696
363 -181 3574
342 -166 3276
366 -173 3411
369 -170 3346
355 -159 3134
359 -157 3092
363 -155 3045
375 -156 3069
385 -157 3082
389 -155 3039
382 -149 2915
375 -143 2800
392 -146 2867
408 -149 2918
423 -152 2967
429 -151 2949
439 -151 2956
450 -152 2974
451 -150 2920
440 -143 2797
439 -141 2740
441 -138 2699
455 -141 2738
464 -141 2742
464 -139 2694
461 -135 2632
468 -135 2626
427 -121 2352
367 -102 1987
344 -94 1834
347 -93 1818
345 -91 1778
367 -96 1867
351 -90 1758
355 -90 1749
406 -102 1973
397 -98 1901
369 -90 1741
284 -68 1316
238 -56 1087
210 -48 944
0 0 0
0 0 0
176 -38 756
0 0 0
83 -16 340
0 0 0
143 -29 582
133 -26 531
102 -20 401
0 0 0
58 -10 216
74 -13 274
31 -4 104
1274 -258 4853
1267 -253 4768
1293 -256 4810
1311 -257 4822
0 0 0
0 0 0
0 0 0
0 0 0
0 0 0
0 0 0
0 0 0
0 0 0
0 0 0
0 0 0
0 0 0
0 0 0
1025 -176 3269
1023 -174 3231
0 0 0
0 0 0
0 0 0
0 0 0
0 0 0
0 0 0
0 0 0
982 -155 2863
1038 -163 2998
1012 -158 2895
0 0 0
0 0 0
0 0 0
1024 -154 2822
1060 -159 2895
1067 -159 2889
1076 -159 2887
1068 -156 2839
1078 -156 2839
1084 -156 2829
1089 -156 2818
1079 -153 2767
1099 -155 2795
1067 -149 2690
1052 -146 2627
1076 -148 2666
1068 -146 2621
1066 -145 2595
1086 -146 2621
1077 -144 2578
1074 -143 2548
1088 -143 2560
1079 -141 2518
1088 -142 2519
1095 -142 2514
1087 -140 2476
1082 -138 2443
1085 -137 2430
1097 -138 2437
1114 -139 2455
1093 -136 2390
1103 -136 2392
1094 -134 2352
1097 -134 2340
1099 -133 2327
1094 -132 2299
1094 -131 2281
1094 -130 2262
1056 -125 2166
1061 -124 2160
1059 -123 2138
1061 -123 2126
1060 -122 2108
1060 -121 2092
1060 -121 2076
1057 -120 2055
1068 -120 2060
1060 -119 2030
1076 -120 2045
1065 -118 2008
1067 -117 1997
1062 -116 1972
1064 -116 1962
1061 -115 1942
1064 -114 1933
1064 -114 1919
1064 -113 1903
-488 -40 850
-479 -40 841
-475 -40 840
-467 -39 832
-464 -39 832
-456 -39 825
-449 -38 817
-445 -38 815
-473 -41 874
-464 -40 864
-485 -43 909
-515 -46 974
-874 -79 1663
-1093 -100 2095
-1087 -100 2100
-1079 -100 2100
-1069 -100 2097
-1063 -100 2102
-1054 -100 2099
-1050 -100 2107
-1041 -100 2105
-1036 -100 2111
-1021 -100 2098
-1019 -100 2108
-1008 -100 2102
-1001 -100 2105
-991 -99 2100
-984 -99 2102
-978 -99 2106
-969 -99 2102
-964 -99 2109
-958 -100 2113
-950 -99 2112
-934 -98 2093
-916 -97 2069
-908 -97 2068
-892 -96 2048
-887 -96 2053
-886 -97 2069
-877 -97 2065
-874 -97 2075
-870 -97 2082
-866 -98 2090
-865 -98 2107
-847 -97 2080
-838 -97 2076
-839 -98 2095
-819 -96 2063
-813 -96 2066
-815 -97 2089
-801 -96 2073
-786 -95 2052
-790 -97 2078
-768 -95 2039
-780 -97 2089
-777 -97 2101
-767 -97 2093
-760 -97 2092
-741 -95 2061
-731 -95 2050
-735 -96 2080
-731 -97 2090
-720 -96 2077
-727 -98 2118
-712 -97 2095
-709 -97 2107
-704 -98 2112
-699 -98 2116
-682 -96 2085
-678 -97 2094
-667 -96 2082
-651 -95 2053
-658 -96 2094
-651 -96 2094
-645 -97 2096
-634 -96 2083
-622 -95 2065
-620 -96 2079
-621 -97 2104
-608 -96 2084
-598 -95 2072
-604 -97 2114
-596 -97 2109
-588 -97 2106
-578 -96 2092
-569 -96 2083
-568 -97 2105
-565 -97 2119
-554 -97 2103
-550 -97 2112
-539 -96 2094
-540 -97 2122
-529 -97 2105
-526 -97 2120
-523 -98 2131
-514 -97 2124
-504 -97 2106
-497 -97 2104
-492 -97 2112
-486 -97 2114
-474 -96 2091
-430 -88 1920
-436 -90 1973
-425 -89 1952
-420 -89 1954
-386 -83 1823
-405 -89 1943
-410 -91 1995
-362 -82 1787
-382 -87 1912
-381 -89 1938
0 0 0
0 0 0
0 0 0
0 0 0
0 0 0
0 0 0
-775 -203 4392
-795 -212 4579
-803 -218 4710
-823 -228 4910
-10 -2 73
-19 -4 133
-14 -3 103
-18 -5 134
-17 -4 126
-11 -2 90
-11 -2 90
-11 -3 94
-12 -3 104
-7 -1 69
-8 -2 76
-7 -2 76
-1 0 26
-7 -2 80
-26 -9 229
-64 -24 551
-57 -22 504
-53 -21 480
-56 -22 518
-69 -29 654
-94 -41 903
-119 -53 1169
-117 -54 1188
-219 -105 2267
-264 -130 2806
-231 -117 2532
-110 -58 1266
-104 -56 1230
-103 -58 1272
-98 -57 1248
-90 -55 1199
-88 -55 1214
-84 -55 1207
-84 -58 1261
-78 -56 1222
-78 -58 1274
-73 -58 1261
-70 -58 1262
-70 -61 1338
-61 -56 1232
-57 -56 1217
-52 -54 1189
-50 -56 1219
-47 -57 1236
-42 -55 1209
-41 -59 1284
-37 -59 1279
-32 -56 1219
-27 -54 1173
-22 -49 1084
-99 -236 5030
-77 -216 4596
-3 -17 400
-10 -51 1118
-8 -57 1249
-4 -58 1257
-1 -60 1299
2 -56 1213
6 -57 1241
10 -59 1280
13 -58 1254
17 -58 1261
21 -59 1279
24 -60 1291
29 -61 1316
32 -60 1301
34 -57 1240
38 -58 1248
41 -57 1235
45 -58 1247
49 -58 1248
54 -60 1293
55 -57 1226
59 -57 1228
65 -60 1282
66 -57 1231
72 -59 1279
75 -58 1256
76 -57 1225
81 -58 1245
84 -57 1232
90 -59 1272
97 -61 1307
104 -63 1356
101 -59 1271
103 -58 1247
0 0 0
348 -191 4008
371 -197 4128
352 -181 3793
351 -175 3672
364 -176 3688
352 -166 3469
355 -162 3395
353 -157 3283
360 -156 3264
357 -151 3153
355 -146 3054
366 -147 3076
374 -147 3063
382 -147 3054
390 -146 3049
377 -138 2879
378 -136 2826
400 -141 2925
412 -142 2951
419 -142 2940
432 -143 2970
439 -143 2958
452 -144 2983
456 -143 2951
453 -139 2877
446 -135 2784
466 -138 2851
463 -135 2783
476 -136 2812
478 -135 2774
467 -129 2665
467 -127 2622
440 -118 2429
378 -99 2046
371 -96 1979
366 -93 1918
374 -94 1932
379 -93 1925
368 -89 1843
367 -88 1811
387 -91 1880
382 -89 1828
357 -82 1686
265 -59 1229
270 -60 1234
0 0 0
217 -46 961
0 0 0
0 0 0
122 -24 513
0 0 0
128 -25 524
0 0 0
0 0 0
125 -23 492
0 0 0
117 -21 450
141 -25 536
35 -4 122
1263 -241 4809
1267 -239 4768
1307 -244 4861
48 -7 163
0 0 0
0 0 0
0 0 0
0 0 0
0 0 0
0 0 0
0 0 0
0 0 0
0 0 0
0 0 0
0 0 0
0 0 0
1024 -166 3267
1030 -165 3254
0 0 0
0 0 0
0 0 0
0 0 0
0 0 0
0 0 0
0 0 0
1042 -156 3039
1035 -154 2990
1035 -152 2962
0 0 0
0 0 0
0 0 0
1030 -147 2838
1049 -148 2866
1072 -150 2902
1076 -150 2885
1083 -150 2879
1079 -148 2842
1078 -147 2815
1069 -144 2766
1057 -141 2710
1060 -141 2695
1069 -141 2693
1045 -137 2610
1044 -136 2584
1028 -133 2525
1087 -139 2646
1053 -134 2541
1022 -129 2446
1055 -132 2505
1053 -131 2478
1080 -134 2520
1041 -128 2410
1093 -133 2509
1132 -137 2577
1083 -131 2447
1083 -130 2426
1072 -127 2382
1065 -126 2346
1077 -126 2353
1084 -126 2350
1097 -127 2360
1088 -125 2322
1047 -120 2216
1094 -124 2298
1074 -121 2238
1093 -123 2260
1069 -119 2192
1060 -117 2158
1056 -116 2134
1057 -116 2119
1049 -114 2086
1057 -114 2085
1058 -114 2073
1062 -114 2065
1058 -112 2042
1059 -112 2027
1059 -111 2012
1068 -112 2014
1075 -112 2011
1065 -110 1978
1069 -110 1972
1063 -109 1945
1064 -108 1932
1069 -108 1928
1072 -108 1918
-487 -37 849
-486 -38 853
-472 -37 835
-476 -37 848
-475 -37 853
-454 -36 820
-452 -36 824
-462 -37 847
-487 -39 900
-474 -39 882
-481 -39 903
-514 -43 972
-885 -75 1684
-1094 -94 2099
-1085 -94 2097
-1078 -94 2099
-1070 -93 2098
-1060 -93 2095
-1056 -93 2103
-1049 -94 2106
-1038 -93 2100
-1034 -93 2108
-1023 -93 2101
-1020 -93 2111
-1011 -93 2109
-1002 -93 2107
-994 -93 2106
-987 -93 2108
-976 -93 2102
-975 -93 2117
-963 -93 2106
-953 -92 2101
-952 -93 2115
-937 -92 2100
-908 -90 2053
-911 -91 2075
-905 -91 2077
-891 -90 2064
-888 -91 2074
-880 -91 2073
-884 -92 2100
-861 -90 2061
-865 -91 2088
-854 -91 2080
-847 -91 2080
-838 -90 2076
-829 -90 2071
-818 -90 2062
-811 -90 2060
-809 -90 2074
-782 -88 2023
-793 -90 2070
-799 -91 2102
-772 -89 2052
-784 -91 2102
-771 -90 2084
-765 -90 2087
-763 -91 2103
-740 -89 2057
-735 -89 2063
-725 -89 2054
-735 -91 2101
-715 -89 2064
-721 -91 2100
-715 -91 2103
-705 -90 2095
-700 -91 2100
-688 -90 2085
-686 -90 2098
-678 -90 2096
-669 -90 2089
-656 -89 2069
-656 -90 2089
-653 -90 2100
-653 -91 2122
-636 -90 2088
-620 -89 2059
-623 -90 2091
-622 -91 2110
-615 -91 2109
-608 -91 2106
-602 -91 2107
-596 -91 2112
-586 -90 2098
-579 -90 2097
-575 -91 2108
-569 -91 2109
-563 -91 2109
-559 -91 2119
-549 -91 2109
-546 -91 2123
-539 -91 2118
-534 -91 2125
-521 -90 2099
-523 -92 2132
-513 -91 2117
-507 -91 2121
-498 -91 2112
-491 -91 2109
-488 -91 2122
-473 -89 2083
-426 -82 1905
-420 -81 1902
-409 -80 1878
-411 -82 1914
-436 -88 2060
-413 -85 1978
-393 -82 1912
-392 -83 1935
-394 -85 1975
-410 -89 2082
0 0 0
0 0 0
0 0 0
0 0 0
0 0 0
0 0 0
-844 -208 4781
-848 -212 4888
-843 -215 4944
-836 -217 4989
-8 -1 63
-20 -4 138
-16 -3 114
-33 -8 225
-15 -3 115
-16 -4 123
-15 -4 121
-12 -2 97
-14 -3 116
-12 -3 103
-13 -3 115
-7 -1 69
-7 -1 71
-7 -2 75
-28 -9 246
-51 -18 441
-59 -21 524
-48 -17 436
-56 -21 525
-79 -31 742
-84 -34 813
-101 -42 996
-120 -52 1216
-191 -85 1973
-264 -122 2802
-220 -104 2411
-105 -51 1204
-99 -50 1179
-95 -50 1174
-98 -54 1255
-95 -54 1265
-89 -52 1221
-83 -51 1189
-83 -53 1244
-78 -52 1224
-72 -51 1191
-72 -53 1239
-68 -53 1241
-64 -52 1226
-60 -52 1219
-59 -54 1266
-51 -50 1172
-49 -52 1217
-48 -54 1266
-42 -51 1201
-39 -52 1216
-37 -54 1265
-31 -51 1199
-29 -53 1223
-22 -48 1111
0 -4 134
-77 -204 4640
-7 -28 676
-11 -54 1254
-8 -56 1291
-4 -53 1235
-1 -56 1290
2 -53 1235
6 -56 1285
9 -53 1225
13 -55 1273
16 -53 1233
20 -53 1232
24 -54 1249
28 -54 1255
32 -56 1283
35 -54 1248
38 -54 1239
42 -55 1266
47 -56 1287
51 -56 1289
54 -56 1293
60 -58 1340
58 -52 1203
62 -53 1214
68 -55 1257
71 -55 1256
77 -57 1300
80 -56 1283
78 -52 1189
86 -55 1256
94 -58 1325
96 -57 1294
94 -54 1226
98 -54 1225
103 -55 1250
0 0 0
364 -188 4184
356 -178 3968
353 -171 3810
356 -167 3723
340 -155 3449
351 -155 3455
359 -155 3439
360 -151 3350
356 -145 3223
350 -139 3088
360 -139 3094
368 -139 3092
375 -139 3076
384 -139 3071
393 -139 3071
387 -133 2955
378 -127 2823
398 -131 2909
412 -134 2952
418 -133 2927
428 -133 2942
442 -135 2977
445 -133 2939
459 -135 2970
460 -133 2923
474 -135 2958
478 -133 2927
488 -134 2936
491 -132 2900
482 -128 2801
477 -124 2723
474 -121 2661
474 -119 2615
456 -113 2476
462 -113 2467
439 -105 2308
435 -103 2250
456 -106 2320
421 -97 2113
349 -78 1722
368 -82 1786
379 -83 1814
344 -74 1623
281 -59 1305
241 -50 1100
197 -40 882
192 -38 848
208 -41 910
169 -32 726
141 -26 596
0 0 0
131 -24 537
149 -27 605
0 0 0
0 0 0
93 -15 358
0 0 0
85 -13 318
10 0 25
1254 -225 4775
1276 -227 4802
10 0 24
55 -7 189
0 0 0
0 0 0
0 0 0
0 0 0
0 0 0
0 0 0
0 0 0
0 0 0
0 0 0
0 0 0
0 0 0
1013 -156 3264
1018 -155 3248
1020 -154 3221
0 0 0
0 0 0
0 0 0
0 0 0
0 0 0
0 0 0
0 0 0
0 0 0
978 -137 2825
979 -136 2801
0 0 0
0 0 0
0 0 0
1035 -139 2853
1052 -140 2873
1072 -142 2901
1078 -141 2893
1076 -140 2861
1063 -137 2800
1071 -137 2797
1086 -138 2811
1055 -133 2704
1008 -126 2562
1104 -137 2782
1079 -133 2697
1034 -127 2560
980 -119 2405
1056 -127 2570
1024 -123 2471
1038 -123 2484
1007 -119 2388
1055 -124 2484
1014 -118 2367
1034 -120 2394
1047 -120 2404
1002 -114 2280
1041 -118 2350
1023 -115 2291
1048 -117 2327
1039 -115 2290
1059 -117 2315
1075 -118 2332
1044 -114 2247
1090 -118 2327
1062 -114 2249
1054 -113 2214
1082 -115 2255
1094 -116 2262
1064 -112 2183
1057 -110 2151
1060 -110 2141
1049 -108 2102
1061 -109 2111
1057 -108 2086
1056 -107 2069
1062 -107 2064
1066 -107 2057
1065 -106 2039
1064 -105 2021
1066 -105 2010
1062 -104 1988
1066 -104 1981
1080 -104 1991
1065 -102 1949
1070 -102 1944
1072 -102 1933
1070 -101 1914
-479 -34 835
-482 -34 846
-474 -34 839
-471 -34 839
-468 -34 840
-466 -34 842
-459 -34 837
-465 -35 854
-492 -37 910
-473 -36 880
-486 -37 911
-539 -41 1019
-891 -70 1696
-1096 -87 2101
-1087 -87 2101
-1082 -87 2108
-1071 -87 2101
-1066 -87 2107
-1057 -87 2106
-1047 -87 2102
-1041 -87 2105
-1033 -87 2106
-1025 -87 2106
-1014 -86 2100
-1009 -86 2105
-1004 -87 2112
-993 -86 2106
-988 -87 2111
-980 -86 2111
-970 -86 2105
-962 -86 2105
-952 -86 2101
-948 -86 2107
-937 -86 2100
-924 -85 2089
-904 -84 2059
-908 -85 2086
-899 -85 2082
-889 -84 2076
-877 -84 2064
-877 -85 2083
-867 -84 2076
-856 -84 2067
-860 -85 2093
-852 -85 2092
-847 -85 2099
-822 -83 2053
-818 -83 2062
-798 -82 2029
-802 -83 2057
-787 -82 2036
-798 -84 2084
-790 -84 2080
-788 -84 2094
-780 -84 2092
-774 -84 2094
-770 -85 2102
-759 -84 2092
-738 -83 2053
-741 -84 2079
-732 -83 2075
-723 -83 2068
-720 -83 2077
-719 -84 2096
-711 -84 2093
-711 -85 2112
-703 -85 2110
-689 -84 2088
-683 -84 2091
-680 -84 2103
-667 -83 2081
-660 -83 2081
-649 -83 2066
-651 -84 2095
-646 -84 2101
-630 -83 2069
-621 -83 2062
-628 -84 2105
-619 -84 2100
-614 -84 2105
-607 -84 2103
-604 -85 2115
-594 -84 2104
-592 -85 2120
-586 -85 2123
-574 -84 2103
-570 -84 2113
-563 -84 2111
-558 -85 2116
-550 -84 2112
-544 -85 2115
-540 -85 2124
-534 -85 2125
-526 -85 2118
-521 -85 2126
-515 -85 2126
-506 -85 2116
-498 -84 2109
-494 -85 2123
-484 -84 2104
-480 -85 2115
-461 -82 2059
0 0 0
-421 -77 1935
0 0 0
0 0 0
0 0 0
0 0 0
0 0 0
0 0 0
0 0 0
0 0 0
0 0 0
0 0 0
0 0 0
0 0 0
0 0 0
-859 -197 4867
-862 -201 4971
-850 -202 4984
-836 -202 4990
-822 -202 4993
-14 -2 102
-19 -4 134
-24 -5 170
-20 -4 148
-10 -2 85
-11 -2 89
-13 -3 109
-17 -4 141
-12 -3 108
-8 -1 76
-7 -1 73
-6 -1 64
-8 -2 81
-30 -9 260
-56 -18 481
-54 -18 478
-51 -17 465
-61 -22 570
-85 -31 798
-94 -35 905
-97 -38 963
-110 -44 1114
-132 -55 1374
-226 -97 2403
-171 -76 1886
-101 -46 1163
-105 -50 1250
-97 -48 1202
-95 -48 1218
-96 -50 1268
-93 -51 1285
-88 -50 1260
-80 -48 1206
-82 -51 1277
-76 -50 1250
-74 -51 1279
-68 -49 1236
-63 -48 1214
-62 -50 1262
-54 -47 1168
-50 -46 1160
-44 -44 1100
-44 -47 1178
-40 -46 1155
-35 -44 1112
-35 -48 1194
-28 -44 1097
-26 -45 1138
-23 -46 1156
0 -4 141
-79 -195 4735
-5 -22 577
-10 -46 1148
-7 -47 1168
-4 -49 1210
0 -47 1175
2 -49 1211
6 -48 1190
10 -53 1310
13 -49 1224
17 -51 1263
20 -49 1208
24 -50 1241
27 -50 1243
31 -51 1252
36 -52 1283
38 -50 1228
41 -50 1234
45 -50 1242
48 -49 1213
52 -50 1234
57 -52 1273
57 -49 1197
62 -50 1225
64 -49 1196
76 -55 1339
78 -53 1305
75 -48 1193
78 -49 1201
84 -50 1236
90 -52 1262
96 -53 1296
98 -52 1272
103 -53 1291
93 -46 1125
0 0 0
0 0 0
355 -166 3951
358 -162 3856
364 -160 3809
355 -151 3594
359 -149 3540
364 -147 3486
357 -140 3323
359 -137 3250
349 -129 3077
370 -134 3182
366 -129 3071
375 -130 3074
381 -129 3049
392 -129 3062
367 -118 2803
373 -118 2786
397 -123 2903
411 -125 2946
422 -125 2958
430 -125 2951
441 -126 2969
449 -126 2968
455 -125 2947
466 -126 2963
471 -125 2937
479 -125 2936
497 -128 2990
488 -123 2884
476 -118 2765
470 -114 2680
480 -115 2693
481 -113 2653
496 -115 2691
497 -114 2652
491 -110 2579
488 -108 2528
496 -108 2528
429 -92 2153
314 -66 1544
382 -79 1856
375 -77 1796
333 -67 1569
286 -56 1327
230 -44 1047
0 0 0
0 0 0
222 -41 972
0 0 0
116 -20 485
132 -22 546
136 -23 558
100 -16 400
0 0 0
0 0 0
110 -17 427
0 0 0
0 0 0
39 -4 136
1271 -214 4840
1278 -213 4809
1305 -215 4856
11 0 26
0 0 0
0 0 0
0 0 0
0 0 0
0 0 0
0 0 0
0 0 0
0 0 0
0 0 0
0 0 0
0 0 0
0 0 0
997 -143 3182
1015 -144 3205
0 0 0
0 0 0
0 0 0
0 0 0
0 0 0
0 0 0
0 0 0
0 0 0
0 0 0
0 0 0
0 0 0
0 0 0
0 0 0
1022 -129 2819
1064 -133 2905
1069 -132 2893
1083 -133 2904
1083 -132 2878
1078 -130 2841
1072 -129 2798
1102 -131 2853
1072 -127 2748
1084 -127 2755
1064 -124 2680
1089 -126 2720
1076 -124 2664
1051 -120 2581
1055 -119 2569
1068 -120 2577
1090 -122 2610
1097 -122 2604
1084 -119 2552
1062 -116 2480
1076 -117 2491
1066 -115 2448
1091 -117 2483
1077 -115 2433
1028 -109 2303
1099 -115 2443
1054 -110 2322
1059 -110 2314
1070 -110 2321
1088 -111 2340
1083 -110 2311
1039 -105 2199
1025 -103 2152
1095 -109 2282
1100 -109 2276
1072 -106 2200
1060 -104 2159
1055 -103 2132
1056 -102 2116
1057 -102 2102
1056 -101 2084
1063 -101 2083
1059 -100 2059
1061 -100 2047
1061 -99 2031
1066 -99 2025
1070 -99 2019
1062 -97 1987
1067 -97 1983
1060 -96 1954
1066 -96 1950
1069 -96 1943
1066 -95 1922
1075 -96 1924
-478 -31 833
-487 -32 855
-485 -32 857
-468 -31 834
-461 -31 828
-463 -31 838
-463 -31 844
-472 -32 866
-475 -33 878
-498 -35 927
-481 -34 902
-516 -36 975
-889 -65 1692
-1093 -80 2096
-1087 -80 2101
-1079 -80 2101
-1071 -80 2101
-1062 -80 2100
-1058 -80 2108
-1046 -80 2101
-1041 -80 2106
-1034 -80 2108
-1015 -79 2087
-1015 -80 2102
-1010 -80 2109
-999 -80 2101
-994 -80 2107
-989 -80 2114
-979 -80 2109
-971 -80 2107
-965 -80 2112
-955 -80 2107
-954 -80 2121
-942 -80 2111
-922 -79 2085
-909 -78 2072
-902 -78 2071
-889 -77 2060
-885 -78 2066
-879 -78 2070
-876 -78 2080
-860 -77 2059
-855 -77 2066
-866 -79 2109
-841 -77 2067
-843 -78 2087
-821 -77 2052
-812 -77 2047
-812 -77 2064
-808 -77 2073
-792 -77 2050
-792 -77 2068
-791 -78 2084
-784 -78 2083
-769 -77 2063
-781 -79 2114
-762 -78 2082
-757 -78 2086
-741 -77 2060
-733 -77 2058
-734 -77 2079
-725 -77 2074
-725 -78 2093
-724 -79 2111
-718 -79 2113
-708 -78 2104
-703 -78 2108
-692 -78 2097
-683 -78 2090
-679 -78 2099
-673 -78 2102
-666 -78 2101
-651 -77 2074
-646 -77 2080
-642 -77 2087
-632 -77 2076
-625 -77 2075
-629 -78 2109
-623 -78 2113
-616 -78 2112
-609 -78 2110
-600 -78 2103
-594 -78 2104
-586 -78 2100
-583 -78 2112
-569 -77 2086
-569 -78 2111
-562 -78 2107
-557 -78 2113
-553 -79 2122
-547 -79 2125
-543 -79 2136
-534 -79 2128
-526 -78 2119
-519 -78 2118
-511 -78 2111
-503 -78 2105
-500 -78 2119
-492 -78 2111
-487 -78 2120
-479 -78 2111
0 0 0
-527 -89 2388
0 0 0
0 0 0
0 0 0
0 0 0
0 0 0
0 0 0
0 0 0
0 0 0
0 0 0
0 0 0
0 0 0
0 0 0
-776 -160 4255
-801 -168 4464
-842 -179 4775
-862 -187 4968
-851 -188 4991
-834 -187 4976
-819 -187 4977
0 0 10
-18 -3 130
-22 -4 158
-19 -3 139
-20 -4 149
-21 -4 163
-14 -3 116
-17 -3 140
-7 -1 69
-14 -3 125
-7 -1 75
-2 0 33
-7 -1 75
-32 -9 281
-60 -18 515
-67 -21 591
-50 -16 460
-53 -17 499
-79 -27 744
-94 -33 903
-100 -36 989
-111 -41 1130
-121 -47 1266
-193 -77 2057
-135 -56 1500
-99 -42 1137
-107 -47 1271
-102 -46 1257
-96 -45 1232
-83 -41 1105
-87 -44 1203
-87 -46 1255
-79 -44 1183
-77 -45 1213
-72 -44 1189
-68 -44 1180
-68 -45 1226
-63 -45 1209
-54 -41 1105
-30 -24 674
0 0 0
-10 -10 308
-9 -10 294
-12 -14 407
-14 -18 502
-14 -20 553
-7 -12 368
-7 -14 410
-1 -5 181
-93 -182 4749
-76 -175 4560
-68 -189 4942
-3 -20 568
-3 -28 770
-1 -27 734
0 -32 865
2 -41 1109
5 -33 907
8 -34 922
10 -31 857
12 -32 868
14 -29 791
20 -37 1001
21 -34 907
26 -39 1048
29 -39 1042
31 -38 1011
30 -32 872
36 -37 986
41 -38 1031
46 -41 1082
51 -43 1136
45 -35 928
53 -38 1024
61 -42 1126
64 -43 1131
66 -42 1108
75 -45 1199
78 -45 1189
78 -43 1137
90 -48 1262
96 -50 1304
97 -48 1263
101 -48 1267
94 -43 1133
0 0 0
377 -170 4338
348 -151 3876
368 -155 3964
360 -147 3766
375 -149 3801
358 -138 3521
350 -131 3350
354 -129 3290
357 -127 3238
348 -120 3070
347 -117 2984
365 -120 3065
374 -120 3067
383 -120 3066
385 -118 3009
376 -113 2871
365 -107 2728
395 -114 2886
411 -116 2945
423 -117 2962
432 -117 2967
436 -116 2937
452 -118 2982
455 -117 2946
460 -116 2925
475 -118 2965
480 -117 2937
484 -116 2911
483 -113 2855
470 -108 2727
473 -107 2700
481 -107 2697
491 -108 2707
498 -108 2704
504 -107 2694
509 -107 2678
507 -105 2625
506 -103 2580
406 -81 2035
318 -62 1566
368 -71 1786
372 -71 1783
353 -66 1666
263 -48 1216
0 0 0
243 -43 1091
198 -34 876
227 -39 995
0 0 0
131 -21 549
137 -22 570
104 -16 421
85 -12 339
118 -18 468
0 0 0
0 0 0
107 -15 411
111 -16 421
56 -7 201
1279 -201 4871
1296 -201 4879
1308 -201 4868
38 -4 127
0 0 0
0 0 0
0 0 0
0 0 0
0 0 0
0 0 0
0 0 0
0 0 0
0 0 0
0 0 0
0 0 0
0 0 0
1013 -135 3231
1050 -139 3316
0 0 0
0 0 0
0 0 0
0 0 0
0 0 0
0 0 0
0 0 0
0 0 0
0 0 0
0 0 0
0 0 0
0 0 0
0 0 0
1042 -122 2873
1059 -123 2892
1062 -123 2876
1078 -124 2891
1083 -123 2880
1086 -123 2861
1092 -122 2850
1083 -121 2804
1078 -119 2766
1082 -119 2751
1080 -118 2722
1084 -117 2709
1087 -117 2692
1072 -114 2632
1077 -114 2623
1096 -115 2646
1076 -112 2576
1092 -113 2593
1071 -110 2522
1084 -111 2531
1082 -110 2505
1104 -111 2534
1086 -109 2472
1065 -106 2405
1085 -107 2430
1077 -106 2393
1090 -106 2403
1074 -104 2348
1126 -108 2443
1098 -105 2363
1105 -105 2359
1078 -102 2283
1111 -104 2334
1095 -102 2283
1090 -101 2254
1065 -98 2186
1057 -97 2153
1052 -96 2125
1058 -96 2121
1059 -95 2106
1061 -95 2094
1060 -94 2076
1057 -93 2056
1060 -93 2046
1059 -92 2028
1067 -93 2028
1061 -92 2001
1065 -91 1994
1070 -91 1988
1070 -91 1972
1067 -90 1953
1076 -90 1955
1070 -89 1929
1071 -89 1918
-489 -29 852
-484 -29 849
-483 -29 855
-481 -29 857
-471 -29 845
-469 -29 847
-465 -29 847
-481 -30 883
-474 -30 876
-484 -31 901
-493 -32 924
-532 -34 1005
-901 -60 1716
-1094 -74 2099
-1085 -74 2098
-1078 -74 2101
-1073 -74 2106
-1064 -74 2105
-1058 -74 2108
-1050 -74 2109
-1044 -74 2112
-1033 -73 2106
-1023 -73 2103
-1013 -73 2098
-1009 -73 2105
-999 -73 2102
-992 -73 2104
-984 -73 2102
-979 -73 2109
-968 -73 2103
-962 -73 2106
-957 -73 2110
-951 -73 2116
-936 -73 2098
-920 -72 2080
-909 -72 2072
-905 -72 2080
-887 -71 2055
-892 -72 2084
-890 -72 2097
-884 -72 2100
-863 -71 2067
-859 -71 2075
-849 -71 2067
-843 -71 2070
-841 -72 2085
-825 -71 2062
-816 -71 2057
-810 -71 2060
-807 -71 2070
-799 -71 2067
-795 -71 2075
-790 -71 2081
-791 -72 2102
-776 -71 2080
-761 -71 2060
-762 -71 2080
-755 -71 2080
-741 -71 2062
-734 -70 2060
-726 -70 2057
-717 -70 2051
-725 -72 2093
-718 -72 2093
-712 -72 2097
-705 -72 2095
-700 -72 2099
-686 -71 2077
-686 -72 2098
-681 -72 2106
-671 -72 2096
-666 -72 2099
-654 -71 2085
-653 -72 2100
-646 -72 2101
-627 -70 2062
-626 -71 2078
-633 -72 2126
-623 -72 2112
-612 -71 2097
-609 -72 2111
-602 -72 2109
-594 -72 2106
-591 -72 2119
-585 -72 2119
-576 -72 2110
-571 -72 2118
-562 -72 2107
-562 -73 2132
-551 -72 2116
-547 -72 2125
-538 -72 2115
-535 -73 2130
-523 -72 2108
-515 -72 2102
-514 -72 2126
-505 -72 2114
-498 -72 2112
-493 -72 2116
-485 -72 2113
-499 -75 2203
0 0 0
0 0 0
0 0 0
0 0 0
0 0 0
0 0 0
0 0 0
0 0 0
-763 -132 3815
0 0 0
0 0 0
0 0 0
-821 -151 4362
-828 -155 4469
-769 -146 4218
-783 -151 4368
-839 -165 4756
-862 -172 4968
-850 -173 4986
-837 -173 4993
-819 -173 4977
-1 0 20
-15 -2 108
-11 -1 89
-11 -1 90
-14 -2 113
-11 -1 92
-18 -3 145
-9 -1 80
-13 -2 109
-9 -1 87
-5 0 58
-6 -1 70
-12 -2 117
-37 -9 321
-70 -19 602
-63 -18 557
-54 -15 490
-53 -16 499
-82 -25 772
-91 -29 879
-92 -30 914
-104 -35 1055
-123 -44 1284
-141 -51 1508
-125 -47 1392
-103 -40 1181
-105 -42 1244
-101 -42 1245
-99 -43 1261
-88 -40 1169
-83 -39 1148
-83 -40 1194
-84 -43 1258
-78 -42 1231
-74 -41 1210
-73 -43 1265
-69 -43 1258
-60 -39 1152
-31 -22 661
-217 -158 4502
-199 -155 4393
-189 -157 4457
-176 -157 4455
-164 -158 4471
-153 -160 4534
-138 -157 4462
-126 -158 4469
-112 -158 4462
-99 -156 4414
-87 -158 4457
-73 -156 4410
-61 -158 4457
-49 -160 4503
-36 -160 4524
-23 -161 4540
-10 -159 4493
2 -160 4506
15 -161 4519
28 -163 4586
41 -161 4517
55 -164 4593
68 -163 4581
80 -162 4543
94 -164 4589
106 -161 4506
120 -163 4576
133 -163 4550
145 -162 4526
160 -163 4568
173 -164 4586
188 -166 4621
201 -165 4608
215 -166 4628
231 -168 4680
239 -165 4588
259 -169 4703
275 -171 4750
280 -166 4605
302 -171 4746
24 -10 318
70 -34 978
94 -45 1270
91 -41 1185
95 -41 1183
98 -41 1183
0 0 0
370 -154 4254
370 -149 4118
368 -144 3964
371 -140 3877
375 -138 3803
359 -128 3532
375 -130 3587
359 -121 3343
369 -121 3347
350 -112 3090
356 -111 3059
363 -110 3042
372 -111 3049
385 -112 3080
379 -108 2961
363 -101 2769
376 -102 2808
408 -109 2983
410 -107 2933
423 -108 2963
426 -107 2923
441 -109 2966
448 -108 2956
456 -108 2951
464 -108 2947
481 -110 3002
483 -109 2958
485 -107 2919
466 -101 2753
466 -99 2702
472 -99 2691
478 -99 2683
493 -100 2718
496 -100 2694
506 -100 2706
515 -100 2707
510 -98 2642
507 -96 2585
327 -60 1634
328 -59 1617
361 -65 1754
376 -66 1799
353 -61 1667
257 -43 1190
0 0 0
0 0 0
0 0 0
0 0 0
0 0 0
154 -23 652
55 -7 219
122 -17 500
106 -15 427
0 0 0
147 -21 582
88 -11 339
0 0 0
80 -10 297
40 -4 138
15 0 42
1289 -186 4850
1296 -185 4821
1328 -187 4883
0 0 0
0 0 0
0 0 0
0 0 0
0 0 0
0 0 0
0 0 0
0 0 0
0 0 0
0 0 0
0 0 0
0 0 0
1007 -125 3214
1028 -126 3247
0 0 0
0 0 0
0 0 0
0 0 0
0 0 0
0 0 0
1002 -116 2953
1043 -119 3042
0 0 0
0 0 0
0 0 0
0 0 0
0 0 0
1048 -114 2888
1058 -115 2891
1065 -114 2884
1076 -115 2886
1086 -115 2887
1087 -114 2863
1082 -113 2827
1082 -112 2800
1081 -111 2773
1083 -110 2754
1101 -111 2774
1087 -109 2715
1083 -108 2682
1095 -108 2690
1092 -107 2659
1080 -105 2607
1081 -105 2587
1087 -105 2581
1087 -104 2558
1089 -103 2541
1088 -103 2520
1099 -103 2525
1093 -102 2490
1094 -101 2471
1095 -101 2452
1108 -101 2462
1097 -99 2418
1093 -98 2390
1122 -100 2434
1093 -97 2351
1104 -98 2357
1089 -96 2307
1092 -95 2296
1103 -96 2299
1101 -95 2278
1063 -91 2180
1055 -90 2148
1065 -90 2152
1056 -89 2116
1052 -88 2094
1059 -88 2092
1056 -87 2069
1052 -86 2046
1057 -86 2039
1065 -86 2039
1065 -86 2024
1061 -85 2002
1065 -85 1995
1070 -85 1988
1064 -84 1962
1068 -84 1955
1069 -83 1942
1068 -83 1927
1068 -83 1912
-486 -26 847
-474 -26 833
-486 -27 859
-474 -26 844
-471 -26 845
-476 -27 861
-459 -26 836
-468 -26 859
-476 -27 880
-488 -28 909
-478 -28 897
-519 -30 981
-897 -54 1709
-1096 -67 2103
-1090 -67 2108
-1081 -67 2106
-1073 -67 2106
-1063 -67 2103
-1060 -67 2113
-1050 -67 2109
-1042 -67 2109
-1034 -67 2109
-1021 -67 2099
-1016 -67 2106
-1012 -67 2113
-1000 -67 2104
-991 -66 2102
-985 -67 2106
-977 -67 2105
-968 -66 2102
-966 -67 2115
-952 -66 2101
-952 -67 2118
-945 -67 2118
-922 -66 2084
-913 -65 2082
-901 -65 2070
-899 -65 2083
-892 -65 2085
-879 -65 2072
-880 -66 2089
-869 -65 2083
-865 -65 2089
-862 -66 2099
-848 -65 2083
-830 -64 2057
-815 -64 2038
-805 -63 2031
-813 -65 2067
-807 -65 2070
-803 -65 2078
-798 -65 2083
-791 -65 2083
-789 -66 2098
-782 -65 2097
-768 -65 2079
-766 -65 2093
-765 -66 2109
-743 -64 2066
-729 -64 2048
-721 -64 2042
-727 -65 2079
-718 -65 2075
-721 -65 2102
-715 -66 2105
-711 -66 2114
-695 -65 2087
-682 -64 2069
-688 -66 2105
-684 -66 2113
-676 -66 2112
-669 -66 2109
-654 -65 2084
-654 -65 2105
-639 -65 2079
-628 -64 2063
-640 -66 2127
-629 -66 2112
-624 -66 2116
-614 -65 2105
-614 -66 2129
-605 -66 2121
-594 -66 2106
-583 -65 2090
-581 -65 2105
-580 -66 2125
-573 -66 2123
-568 -66 2130
-560 -66 2127
-554 -66 2127
-544 -66 2115
-540 -66 2123
-531 -66 2114
-523 -66 2107
-521 -66 2127
-512 -66 2116
-503 -66 2106
-501 -66 2126
-492 -66 2112
-489 -66 2129
-481 -66 2120
0 0 0
0 0 0
0 0 0
0 0 0
0 0 0
0 0 0
0 0 0
0 0 0
0 0 0
0 0 0
0 0 0
-853 -141 4459
-874 -147 4644
-830 -142 4479
-846 -147 4643
-829 -147 4621
-853 -154 4836
-863 -158 4977
-847 -158 4969
-835 -159 4986
-820 -159 4986
2 1 0
-3 0 34
-18 -2 132
-17 -2 124
-14 -2 107
-13 -2 105
-13 -2 110
-14 -2 116
-15 -2 127
-7 0 69
-1 0 26
-5 0 59
-7 -1 79
-32 -7 282
-56 -14 481
-61 -16 538
-51 -13 463
-57 -15 528
-80 -23 757
-82 -24 798
-88 -26 874
-96 -30 983
-101 -32 1057
-115 -38 1237
-102 -35 1136
-106 -38 1224
-101 -37 1209
-95 -36 1179
-98 -39 1255
-93 -39 1241
-89 -38 1224
-89 -40 1277
-79 -37 1191
-81 -40 1272
-72 -37 1182
-73 -39 1266
-67 -38 1219
-61 -36 1170
-14 -9 337
-215 -144 4458
-201 -143 4438
-188 -143 4433
-177 -144 4467
-164 -145 4473
-152 -145 4485
-139 -146 4492
-126 -146 4500
-112 -144 4439
-99 -143 4421
-87 -145 4475
-74 -145 4452
-61 -146 4479
-48 -144 4431
-36 -146 4472
-23 -145 4457
-10 -145 4461
2 -146 4468
15 -149 4560
28 -149 4575
41 -147 4509
54 -149 4548
66 -145 4437
80 -149 4539
91 -146 4445
105 -146 4458
118 -147 4476
131 -147 4474
144 -148 4492
156 -146 4453
170 -148 4486
179 -145 4408
193 -146 4433
207 -147 4459
221 -147 4469
230 -146 4409
245 -147 4444
258 -147 4454
272 -148 4467
287 -149 4505
305 -152 4579
50 -21 692
92 -40 1249
94 -39 1219
102 -41 1282
112 -44 1356
0 0 0
357 -136 4102
373 -138 4151
367 -132 3957
390 -136 4081
370 -125 3752
379 -124 3730
0 0 0
373 -116 3477
369 -111 3339
359 -106 3165
354 -102 3041
368 -103 3085
376 -103 3079
384 -103 3075
376 -98 2935
354 -90 2702
372 -93 2781
396 -97 2898
409 -98 2929
425 -100 2980
428 -99 2940
441 -100 2968
443 -99 2924
458 -100 2968
465 -100 2954
473 -100 2949
481 -100 2948
474 -97 2850
464 -93 2738
461 -91 2677
472 -91 2691
480 -91 2694
482 -90 2657
492 -91 2673
505 -92 2696
505 -90 2654
517 -91 2677
485 -84 2472
344 -58 1722
348 -58 1715
360 -59 1749
373 -61 1787
338 -54 1592
0 0 0
106 -15 474
0 0 0
0 0 0
0 0 0
0 0 0
143 -19 601
137 -18 570
141 -19 578
120 -15 486
0 0 0
0 0 0
122 -15 474
93 -11 355
77 -8 285
1259 -171 4852
1273 -171 4849
1285 -171 4837
1285 -169 4782
1303 -170 4793
0 0 0
0 0 0
0 0 0
0 0 0
0 0 0
0 0 0
0 0 0
0 0 0
0 0 0
0 0 0
0 0 0
0 0 0
1012 -116 3229
0 0 0
0 0 0
0 0 0
0 0 0
0 0 0
0 0 0
1032 -111 3070
1046 -112 3081
1055 -112 3079
1014 -106 2930
0 0 0
0 0 0
0 0 0
0 0 0
1037 -104 2860
1060 -106 2897
1071 -106 2900
1077 -106 2891
1089 -106 2895
1085 -105 2858
1090 -105 2847
1080 -103 2795
1093 -104 2805
1085 -102 2759
1089 -102 2744
1088 -101 2718
1097 -101 2718
1097 -100 2694
1085 -99 2642
1075 -97 2595
1107 -99 2650
1107 -98 2627
1086 -96 2558
1099 -96 2566
1101 -96 2550
1097 -95 2520
1093 -94 2488
1109 -95 2505
1094 -93 2451
1105 -93 2455
1100 -92 2424
1101 -92 2407
1109 -92 2407
1107 -91 2383
1095 -89 2337
1109 -90 2350
1111 -90 2334
1116 -90 2327
1110 -88 2296
1061 -84 2177
1058 -83 2155
1062 -83 2145
1055 -82 2115
1055 -82 2100
1064 -82 2100
1059 -81 2075
1057 -80 2055
1059 -80 2043
1061 -80 2032
1063 -79 2020
1066 -79 2010
1063 -78 1990
1064 -78 1978
1071 -78 1976
1066 -77 1952
1074 -78 1951
1071 -77 1932
1067 -76 1911
-487 -24 849
-479 -23 841
-483 -24 855
-473 -23 843
-483 -24 867
-467 -23 844
-462 -23 842
-483 -25 886
-466 -24 862
-490 -25 913
-491 -26 922
-517 -27 978
-919 -50 1751
-1093 -60 2097
-1086 -60 2101
-1078 -60 2101
-1069 -60 2098
-1064 -60 2106
-1060 -61 2112
-1050 -60 2109
-1038 -60 2102
-1034 -60 2109
-1027 -60 2112
-1017 -60 2108
-1008 -60 2105
-1001 -60 2106
-993 -60 2106
-984 -60 2103
-978 -60 2108
-966 -60 2099
-962 -60 2107
-957 -60 2112
-950 -60 2114
-937 -60 2103
-925 -59 2091
-906 -59 2066
-897 -58 2062
-902 -59 2091
-888 -59 2074
-887 -59 2091
-874 -59 2076
-863 -58 2068
-862 -59 2082
-851 -59 2072
-853 -59 2096
-833 -58 2065
-829 -58 2071
-811 -58 2046
-816 -59 2076
-802 -58 2059
-796 -58 2061
-799 -59 2086
-788 -59 2076
-794 -60 2111
-780 -59 2093
-774 -59 2095
-758 -58 2071
-761 -59 2099
-744 -58 2071
-732 -58 2055
-734 -59 2079
-726 -58 2078
-719 -58 2076
-715 -59 2086
-714 -59 2101
-709 -59 2106
-698 -59 2094
-685 -58 2076
-686 -59 2101
-686 -60 2120
-680 -60 2124
-668 -59 2108
-654 -59 2084
-649 -59 2090
-638 -58 2076
-630 -58 2070
-640 -60 2125
-627 -59 2105
-623 -59 2113
-615 -59 2111
-608 -59 2107
-605 -60 2120
-599 -60 2123
-590 -59 2114
-581 -59 2106
-574 -59 2103
-574 -60 2128
-567 -60 2129
-561 -60 2128
-554 -60 2127
-549 -60 2133
-543 -60 2136
-535 -60 2132
-525 -60 2116
-520 -60 2124
-510 -59 2109
-504 -59 2110
-497 -59 2110
-492 -60 2112
-484 -59 2106
-461 -57 2035
-482 -61 2157
-440 -56 1993
0 0 0
0 0 0
0 0 0
0 0 0
0 0 0
0 0 0
0 0 0
0 0 0
0 0 0
0 0 0
0 0 0
-138 -20 755
-144 -22 801
0 0 0
-872 -143 4944
-863 -144 4979
-849 -144 4982
-834 -144 4981
-817 -143 4967
-805 -144 4986
0 0 15
-16 -2 119
-14 -1 105
-12 -1 99
-15 -2 117
-12 -1 102
-14 -2 115
-15 -2 126
-7 0 67
-8 0 78
-6 0 65
-8 -1 86
-31 -6 269
-74 -17 633
-72 -17 632
-53 -12 486
-55 -13 518
-74 -19 700
-89 -24 861
-85 -23 850
-92 -26 937
-105 -31 1106
-92 -28 999
-106 -33 1176
-108 -35 1241
-106 -36 1265
-97 -34 1194
-93 -33 1187
-90 -34 1196
-85 -33 1178
-87 -35 1256
-80 -34 1205
-78 -35 1227
-78 -36 1281
-75 -36 1289
-67 -35 1225
-56 -30 1082
-10 -6 249
-217 -133 4511
-200 -130 4406
-190 -132 4489
-179 -133 4513
-167 -134 4542
-160 -140 4738
-151 -144 4870
-138 -145 4905
-121 -142 4788
-107 -142 4809
-94 -143 4838
-82 -146 4916
-67 -145 4882
-52 -143 4828
-39 -144 4833
-24 -142 4779
-11 -142 4783
2 -142 4773
16 -145 4874
30 -143 4802
44 -144 4834
58 -145 4853
70 -142 4745
83 -141 4711
97 -142 4735
110 -140 4693
124 -141 4722
136 -140 4665
150 -140 4673
162 -139 4638
175 -139 4639
185 -137 4552
196 -135 4494
207 -134 4450
219 -133 4426
234 -135 4476
246 -134 4458
260 -135 4486
269 -134 4423
283 -134 4429
305 -138 4571
57 -22 785
88 -34 1182
97 -37 1257
97 -35 1212
90 -32 1086
0 0 0
366 -128 4210
359 -121 3991
364 -119 3926
358 -114 3741
372 -115 3772
366 -110 3600
356 -104 3408
352 -100 3277
334 -92 3020
354 -95 3121
353 -92 3032
365 -93 3062
367 -92 3005
382 -93 3055
366 -87 2859
350 -82 2671
363 -83 2710
395 -89 2888
404 -89 2889
418 -90 2932
423 -89 2904
437 -91 2944
451 -92 2978
455 -91 2945
469 -92 2982
472 -91 2943
472 -89 2888
462 -86 2780
459 -84 2710
464 -83 2696
470 -83 2681
475 -83 2665
479 -82 2643
489 -82 2653
498 -83 2658
507 -83 2665
513 -83 2656
496 -79 2530
425 -66 2128
354 -54 1746
372 -56 1807
368 -55 1763
331 -48 1560
0 0 0
0 0 0
41 -4 170
29 -2 113
31 -2 123
57 -6 235
125 -15 525
140 -17 582
101 -11 408
148 -18 600
0 0 0
0 0 0
0 0 0
112 -12 430
0 0 0
16 0 48
1263 -156 4808
1299 -158 4889
1267 -153 4713
1315 -157 4834
0 0 0
0 0 0
0 0 0
0 0 0
0 0 0
0 0 0
0 0 0
0 0 0
0 0 0
0 0 0
0 0 0
0 0 0
0 0 0
1011 -105 3193
0 0 0
0 0 0
0 0 0
0 0 0
0 0 0
0 0 0
1046 -102 3083
1075 -104 3136
0 0 0
0 0 0
0 0 0
0 0 0
0 0 0
1039 -96 2865
1059 -97 2893
1065 -97 2884
1079 -97 2896
1083 -97 2880
1086 -97 2862
1081 -95 2822
1091 -96 2824
1087 -95 2788
1073 -93 2728
1087 -93 2741
1080 -92 2699
1091 -92 2704
1095 -92 2691
1085 -90 2643
1101 -91 2660
1087 -89 2603
1104 -90 2621
1100 -89 2590
1097 -88 2561
1112 -89 2575
1097 -87 2520
1096 -87 2497
1101 -86 2487
1104 -86 2473
1102 -85 2450
1107 -85 2440
1101 -84 2408
1111 -84 2411
1111 -84 2390
1105 -83 2359
1116 -83 2364
1111 -82 2335
1109 -82 2312
1111 -81 2299
1067 -78 2189
1050 -76 2139
1049 -75 2120
1057 -75 2120
1053 -75 2094
1054 -74 2081
1065 -75 2086
1060 -74 2061
1062 -74 2050
1061 -73 2033
1064 -73 2023
1068 -73 2014
1070 -73 2004
1073 -72 1993
1068 -72 1970
1068 -71 1956
1066 -71 1938
1063 -70 1917
1069 -70 1914
-488 -21 852
-486 -21 854
-477 -21 844
-479 -21 853
-470 -21 844
-465 -21 842
-462 -20 842
-485 -22 891
-478 -22 884
-478 -22 891
-492 -23 924
-523 -24 989
-939 -45 1788
-1094 -54 2101
-1087 -54 2101
-1080 -54 2104
-1072 -54 2105
-1067 -54 2110
-1056 -54 2106
-1051 -54 2111
-1041 -54 2107
-1032 -54 2106
-1023 -53 2103
-1018 -54 2109
-1011 -54 2111
-1003 -54 2110
-994 -54 2109
-984 -53 2103
-980 -54 2112
-970 -53 2106
-964 -53 2112
-954 -53 2105
-952 -54 2119
-937 -53 2103
-916 -52 2070
-922 -53 2103
-906 -53 2083
-899 -53 2084
-889 -52 2078
-873 -52 2056
-883 -53 2099
-869 -53 2083
-866 -53 2093
-856 -53 2087
-850 -53 2090
-845 -53 2094
-833 -52 2084
-809 -51 2040
-822 -53 2092
-808 -52 2073
-799 -52 2069
-790 -52 2064
-793 -53 2089
-794 -53 2112
-785 -53 2106
-773 -53 2092
-767 -53 2095
-759 -53 2092
-736 -51 2048
-737 -52 2069
-731 -52 2074
-724 -52 2071
-719 -52 2078
-718 -53 2093
-707 -52 2082
-709 -53 2108
-702 -53 2108
-696 -53 2110
-695 -54 2129
-686 -53 2123
-683 -54 2132
-667 -53 2104
-659 -53 2101
-648 -52 2086
-635 -52 2068
-634 -52 2085
-628 -52 2087
-625 -53 2099
-622 -53 2110
-620 -54 2127
-611 -53 2119
-606 -53 2124
-597 -53 2117
-589 -53 2111
-584 -53 2117
-572 -53 2099
-571 -53 2119
-569 -54 2137
-560 -54 2126
-554 -54 2128
-548 -54 2129
-536 -53 2110
-529 -53 2106
-528 -54 2128
-521 -54 2125
-510 -53 2108
-507 -54 2124
-497 -53 2110
-495 -54 2128
-484 -53 2108
-471 -52 2079
-463 -52 2070
-443 -51 2011
-446 -52 2052
-423 -50 1971
0 0 0
0 0 0
0 0 0
0 0 0
-280 -35 1408
-283 -36 1445
-244 -31 1263
-204 -26 1077
-172 -22 925
-189 -25 1029
-170 -23 941
-132 -18 748
-8 0 59
2 1 -1
-849 -129 4985
-834 -129 4980
-821 -130 4994
-803 -129 4974
-793 -130 4999
-9 0 74
-10 0 83
-15 -1 120
-15 -1 118
-14 -1 113
-16 -2 131
-7 0 72
-10 -1 93
-4 0 47
-7 0 71
-16 -2 149
-30 -5 260
-68 -14 584
-69 -14 608
-62 -13 562
-58 -13 542
-66 -15 629
-67 -15 652
-88 -21 874
-89 -22 913
-99 -26 1038
-119 -32 1280
-110 -31 1221
-107 -31 1229
-98 -29 1168
-97 -30 1201
-97 -31 1242
-94 -32 1253
-82 -28 1133
-83 -30 1197
-79 -30 1195
-78 -31 1224
-74 -31 1220
-73 -32 1254
-67 -31 1222
-55 -27 1057
-8 -4 217
-221 -122 4585
-204 -119 4497
-198 -124 4664
2 1 8
0 0 46
-15 -12 524
-21 -18 751
-20 -20 810
-15 -17 695
-15 -20 791
-12 -18 740
-10 -19 770
-8 -19 776
-5 -18 731
-3 -18 730
-1 -18 736
0 -18 723
2 -18 739
4 -18 720
7 -18 746
9 -18 715
11 -18 727
12 -16 671
13 -15 629
15 -16 636
17 -15 619
18 -15 615
20 -14 593
23 -16 638
24 -15 623
25 -15 605
16 -8 343
5 0 47
226 -132 4866
236 -130 4780
239 -125 4580
253 -125 4595
265 -125 4573
282 -126 4630
286 -123 4490
316 -130 4744
70 -25 979
92 -33 1241
98 -34 1280
98 -32 1228
0 0 0
0 0 0
0 0 0
369 -113 4101
369 -109 3971
368 -106 3840
371 -104 3761
332 -90 3265
308 -81 2938
298 -76 2772
307 -76 2779
317 -77 2793
327 -77 2812
332 -77 2778
349 -79 2854
359 -79 2866
350 -75 2729
344 -73 2626
364 -75 2714
379 -77 2770
401 -80 2870
412 -80 2885
416 -80 2859
424 -79 2854
435 -80 2868
448 -81 2899
457 -81 2902
456 -80 2844
455 -78 2787
448 -75 2695
455 -75 2685
462 -75 2680
463 -74 2640
470 -74 2638
467 -72 2575
484 -74 2628
495 -75 2646
503 -75 2644
509 -74 2635
506 -73 2580
441 -62 2210
366 -51 1806
380 -52 1847
374 -50 1791
285 -37 1342
0 0 0
0 0 0
0 0 0
28 -1 109
1104 -142 4891
85 -9 358
105 -11 437
0 0 0
100 -10 407
0 0 0
92 -9 361
147 -15 582
55 -4 205
151 -15 585
49 -3 177
11 0 29
1270 -142 4838
1290 -143 4856
6 1 8
7 1 12
0 0 0
0 0 0
0 0 0
0 0 0
0 0 0
0 0 0
0 0 0
0 0 0
0 0 0
0 0 0
0 0 0
0 0 0
0 0 0
0 0 0
0 0 0
0 0 0
0 0 0
0 0 0
0 0 0
0 0 0
1030 -92 3035
1012 -89 2951
0 0 0
0 0 0
0 0 0
0 0 0
0 0 0
1030 -87 2841
1057 -88 2889
1067 -88 2888
1080 -89 2897
1084 -88 2883
1080 -87 2846
1070 -86 2794
1098 -88 2843
1089 -86 2795
1097 -86 2790
1083 -85 2731
1080 -84 2698
1091 -84 2704
1088 -83 2674
1094 -83 2665
1084 -82 2619
1097 -82 2626
1088 -81 2583
1088 -80 2561
1093 -80 2552
1090 -79 2524
1104 -80 2536
1092 -78 2487
1100 -79 2485
