VERSION 0.7
FIELDS x y z
SIZE 4 4 4
TYPE I I I
COUNT 1 1 1
WIDTH 3606
HEIGHT 1
VIEWPOINT 0.0 0.0 0.0 1.0 0.0 0.0 0.0
POINTS 3606
DATA ascii
1114 -367 2196
1111 -364 2173
1111 -362 2157
1124 -364 2166
1134 -365 2168
1135 -363 2154
1135 -361 2137
1136 -359 2122
1135 -357 2105
1138 -356 2095
1138 -354 2080
1136 -351 2061
1138 -349 2048
1140 -348 2037
1146 -348 2032
-487 -134 838
-491 -136 851
-471 -131 823
-479 -134 843
-470 -132 833
-469 -133 838
-471 -134 848
-460 -132 834
-456 -132 832
-474 -137 871
-473 -138 877
-487 -143 909
-495 -146 931
-612 -183 1161
-1061 -319 2025
-1084 -328 2084
-1074 -327 2082
-1070 -328 2089
-1061 -327 2088
-1052 -327 2087
-1045 -326 2088
-1034 -325 2084
-1028 -325 2086
-1018 -324 2083
-1011 -324 2085
-1003 -324 2084
-996 -324 2086
-988 -323 2086
-971 -320 2067
-969 -322 2079
-966 -323 2089
-957 -322 2087
-954 -323 2098
-951 -325 2108
-940 -323 2099
-914 -316 2059
-898 -313 2039
-895 -314 2048
-886 -313 2045
-883 -314 2055
-877 -315 2059
-870 -314 2058
-858 -312 2049
-858 -315 2065
-845 -312 2052
-839 -312 2054
-835 -313 2063
-826 -313 2059
-812 -309 2041
-807 -310 2046
-808 -313 2067
-801 -313 2068
-783 -308 2038
-709 -281 1864
-742 -297 1967
-753 -304 2014
-756 -308 2042
-746 -306 2033
-737 -305 2026
-745 -311 2068
-727 -306 2036
-725 -308 2051
-724 -310 2066
-719 -310 2071
-716 -312 2083
-711 -312 2088
-710 -315 2107
-696 -312 2086
-683 -309 2067
-676 -308 2067
-665 -306 2054
-662 -308 2064
-656 -308 2068
-647 -306 2059
-638 -305 2052
-638 -308 2075
-639 -312 2100
-624 -308 2072
-614 -305 2059
-613 -308 2078
-607 -309 2081
-599 -307 2075
-595 -309 2087
-592 -311 2099
-585 -310 2098
-574 -308 2082
-569 -308 2085
-563 -308 2087
-559 -310 2097
-556 -311 2110
-547 -310 2100
-537 -308 2090
-531 -308 2092
-529 -311 2109
-516 -306 2081
-515 -310 2105
-511 -311 2115
-499 -308 2094
-492 -307 2091
-489 -309 2103
-487 -312 2124
-448 -291 1980
-415 -273 1859
-431 -287 1958
-427 -288 1965
-399 -274 1867
-415 -288 1966
0 0 0
0 0 0
0 0 0
0 0 0
0 0 0
-33 -25 181
-917 -706 4814
-903 -706 4820
-888 -706 4816
-870 -702 4795
-818 -671 4584
-731 -610 4167
-698 -592 4047
-702 -606 4144
-774 -680 4650
-801 -716 4895
-789 -719 4914
-773 -718 4906
-759 -718 4909
-747 -720 4922
-728 -715 4892
-715 -717 4904
-702 -719 4917
-688 -719 4919
-676 -721 4938
-661 -720 4930
-648 -722 4941
-631 -719 4921
-615 -717 4914
-605 -722 4947
-588 -719 4926
-580 -728 4986
-565 -727 4981
-3 -7 55
2 0 2
2 1 -1
-505 -724 4962
-493 -727 4984
-472 -718 4923
-459 -720 4935
-444 -719 4926
-430 -719 4930
-415 -718 4922
-400 -718 4921
-384 -715 4902
2 0 3
-9 -22 158
-7 -21 149
-13 -33 235
-48 -114 791
-40 -101 696
-10 -32 229
-1 -10 75
-13 -42 297
-36 -113 782
-49 -162 1115
-48 -168 1159
-50 -186 1282
-43 -173 1188
-41 -179 1235
-37 -179 1232
-34 -181 1248
-30 -181 1243
-26 -175 1207
-23 -183 1258
-19 -175 1207
-15 -178 1224
-11 -172 1187
-9 -192 1323
-6 -195 1341
-1 -176 1212
1 -179 1234
5 -181 1242
9 -185 1274
12 -180 1238
15 -173 1192
20 -191 1315
24 -188 1292
27 -184 1263
30 -180 1238
34 -181 1242
36 -172 1182
43 -192 1320
44 -178 1223
47 -177 1218
55 -191 1312
56 -183 1256
61 -186 1276
65 -187 1281
66 -181 1238
75 -195 1332
75 -186 1276
76 -180 1232
82 -185 1267
81 -175 1195
88 -183 1249
95 -189 1292
100 -191 1307
109 -201 1372
101 -179 1226
103 -177 1210
0 0 0
0 0 0
0 0 0
0 0 0
0 0 0
0 0 0
0 0 0
355 -488 3309
0 0 0
0 0 0
0 0 0
334 -414 2802
367 -444 3006
374 -442 2990
360 -415 2811
0 0 0
0 0 0
380 -410 2772
405 -429 2895
352 -364 2456
0 0 0
187 -184 1243
198 -191 1290
207 -196 1323
219 -204 1376
254 -233 1572
276 -248 1675
292 -258 1742
298 -260 1749
279 -238 1606
285 -240 1616
305 -252 1697
366 -299 2011
469 -378 2538
505 -401 2688
537 -420 2815
556 -429 2870
460 -349 2334
276 -205 1374
250 -182 1221
342 -247 1654
366 -261 1748
339 -238 1591
280 -193 1293
250 -170 1138
251 -168 1124
243 -161 1075
243 -159 1061
195 -125 834
170 -107 715
0 0 0
145 -89 595
98 -58 391
0 0 0
103 -59 400
0 0 0
0 0 0
0 0 0
49 -25 174
27 -12 87
5 0 3
10 -2 24
48 -24 163
50 -24 165
0 0 0
0 0 0
0 0 0
0 0 0
0 0 0
0 0 0
1019 -522 3408
1046 -530 3459
1061 -532 3472
0 0 0
0 0 0
0 0 0
0 0 0
0 0 0
0 0 0
0 0 0
0 0 0
0 0 0
0 0 0
0 0 0
0 0 0
0 0 0
0 0 0
0 0 0
0 0 0
0 0 0
1036 -443 2837
1064 -451 2886
1069 -449 2873
1069 -446 2848
1072 -443 2830
1064 -437 2784
1064 -433 2758
1086 -439 2791
1095 -439 2789
1025 -408 2587
1057 -417 2644
1065 -417 2641
1036 -402 2546
1103 -426 2688
1063 -407 2569
1092 -415 2617
1095 -413 2601
1113 -417 2622
1108 -412 2588
1127 -417 2612
1100 -404 2528
1100 -401 2507
1111 -402 2510
1114 -400 2497
1111 -396 2469
1113 -395 2454
1116 -393 2439
1106 -387 2398
1116 -388 2401
1123 -388 2398
1119 -383 2368
1118 -381 2348
1121 -379 2336
1122 -377 2320
1133 -378 2324
1124 -373 2287
1121 -370 2264
1119 -367 2242
1113 -362 2212
1113 -360 2195
1114 -358 2181
1113 -356 2162
1127 -358 2172
1128 -356 2157
1130 -355 2144
1136 -354 2140
1133 -351 2118
1141 -352 2117
1133 -347 2087
1131 -345 2067
1149 -348 2084
1141 -344 2055
1142 -342 2041
1144 -341 2028
-490 -132 843
-488 -132 846
-491 -134 858
-492 -135 865
-468 -129 830
-466 -129 833
-467 -130 841
-463 -130 840
-462 -131 845
-487 -138 895
-479 -137 889
-481 -138 898
-478 -139 900
-624 -182 1183
-1070 -315 2043
-1085 -322 2088
-1077 -321 2089
-1067 -321 2086
-1058 -320 2083
-1052 -320 2087
-1041 -318 2081
-1040 -320 2095
-1026 -318 2084
-1020 -319 2089
-1012 -318 2088
-1003 -317 2085
-997 -317 2089
-989 -317 2088
-967 -312 2059
-968 -315 2078
-964 -315 2085
-957 -315 2088
-952 -316 2093
-942 -315 2088
-929 -313 2076
-922 -312 2077
-903 -308 2052
-896 -308 2053
-888 -307 2051
-876 -305 2039
-867 -305 2037
-869 -308 2058
-855 -305 2043
-849 -305 2045
-849 -308 2063
-847 -309 2076
-840 -309 2076
-833 -309 2078
-814 -304 2046
-801 -302 2033
-802 -304 2052
-798 -305 2060
-774 -299 2018
-731 -284 1923
-731 -286 1939
-754 -298 2017
-748 -298 2021
-745 -299 2030
-737 -299 2028
-743 -304 2064
-737 -304 2066
-725 -301 2051
-722 -303 2062
-720 -304 2075
-712 -304 2072
-708 -305 2081
-700 -304 2079
-693 -304 2078
-683 -302 2068
-664 -297 2030
-663 -299 2047
-662 -302 2067
-657 -302 2069
-645 -299 2053
-641 -300 2062
-639 -303 2079
-635 -303 2085
-626 -302 2080
-622 -304 2089
-611 -301 2073
-607 -302 2081
-598 -301 2074
-594 -302 2083
-588 -302 2085
-581 -302 2084
-576 -302 2089
-573 -304 2103
-569 -306 2112
-556 -302 2086
-556 -305 2111
-539 -299 2072
-540 -303 2100
-533 -303 2099
-528 -304 2106
-520 -303 2101
-512 -302 2092
-508 -303 2102
-500 -302 2097
-496 -304 2109
-490 -303 2108
-478 -300 2086
-449 -286 1987
-428 -276 1918
-435 -284 1979
-430 -285 1983
-414 -278 1937
-414 -282 1963
-389 -269 1874
-379 -266 1853
0 0 0
0 0 0
0 0 0
-18 -14 103
-922 -696 4843
-907 -695 4841
-890 -693 4829
-873 -691 4814
-828 -666 4640
-738 -604 4208
-702 -584 4076
-711 -601 4196
-784 -675 4710
-796 -698 4871
-788 -704 4910
-771 -701 4894
-760 -704 4914
-745 -704 4912
-727 -700 4889
-714 -702 4901
-700 -702 4903
-686 -702 4902
-669 -699 4887
-656 -701 4900
-640 -699 4883
-628 -702 4905
-612 -700 4894
-600 -702 4907
-583 -699 4889
-571 -702 4910
-556 -701 4902
-542 -702 4909
-528 -701 4906
-512 -700 4896
-497 -698 4883
-483 -698 4885
-468 -697 4877
-452 -696 4867
-438 -695 4861
-426 -699 4890
-411 -698 4882
-396 -696 4872
-383 -698 4884
-370 -701 4907
-4 -12 89
-347 -712 4982
0 -6 49
-24 -58 413
-45 -110 780
-24 -65 459
-3 -15 116
-18 -57 406
-49 -148 1043
-55 -174 1225
-50 -170 1192
-50 -182 1278
-43 -172 1212
-39 -169 1188
-37 -176 1239
-36 -189 1326
-29 -173 1213
-27 -182 1280
-24 -184 1294
-18 -169 1187
-16 -176 1234
-11 -167 1172
-9 -180 1265
-5 -176 1235
-1 -179 1254
1 -172 1211
5 -179 1253
8 -172 1205
12 -175 1226
16 -174 1224
20 -180 1263
23 -175 1227
26 -175 1227
29 -172 1209
33 -174 1221
37 -177 1242
39 -166 1163
42 -166 1163
49 -182 1272
56 -193 1352
55 -176 1231
67 -202 1409
66 -188 1316
66 -177 1241
72 -183 1282
75 -182 1273
82 -189 1319
86 -189 1318
92 -195 1363
88 -178 1246
93 -182 1267
103 -193 1349
101 -182 1273
109 -190 1322
0 0 0
0 0 0
0 0 0
0 0 0
0 0 0
0 0 0
0 0 0
0 0 0
0 0 0
0 0 0
0 0 0
0 0 0
0 0 0
361 -428 2957
366 -424 2927
0 0 0
0 0 0
0 0 0
0 0 0
367 -380 2618
0 0 0
164 -160 1108
162 -155 1076
180 -170 1173
193 -178 1232
200 -182 1255
226 -203 1398
243 -214 1474
267 -232 1595
257 -219 1506
257 -215 1480
230 -189 1301
275 -223 1530
336 -269 1843
448 -354 2422
473 -368 2518
522 -400 2736
530 -400 2734
439 -326 2228
299 -217 1488
242 -173 1184
298 -211 1441
364 -254 1734
344 -237 1614
285 -193 1315
238 -159 1083
220 -144 982
249 -161 1101
245 -157 1067
212 -133 909
150 -92 630
0 0 0
130 -77 530
159 -94 645
145 -85 578
0 0 0
0 0 0
55 -29 202
0 0 0
61 -31 218
49 -24 171
1294 -722 4848
37 -17 123
0 0 0
0 0 0
0 0 0
0 0 0
0 0 0
0 0 0
0 0 0
0 0 0
0 0 0
1054 -524 3487
0 0 0
0 0 0
0 0 0
0 0 0
0 0 0
0 0 0
0 0 0
0 0 0
0 0 0
0 0 0
0 0 0
0 0 0
0 0 0
0 0 0
0 0 0
0 0 0
0 0 0
0 0 0
1040 -435 2849
1056 -439 2866
1073 -442 2886
1084 -443 2889
1077 -437 2845
1086 -437 2842
1077 -430 2794
1061 -420 2728
1073 -421 2732
1099 -429 2775
1104 -427 2763
1099 -422 2726
1034 -394 2543
1082 -409 2637
1072 -402 2591
1088 -406 2608
1089 -403 2589
1088 -400 2563
1112 -405 2598
1106 -401 2564
1107 -398 2545
1108 -396 2526
1111 -394 2511
1112 -392 2492
1116 -390 2480
1107 -384 2440
1109 -383 2426
1119 -384 2429
1116 -380 2403
1121 -379 2393
1120 -376 2372
1119 -374 2352
1122 -372 2338
1122 -370 2320
1135 -371 2328
1131 -368 2302
1123 -363 2268
1114 -358 2233
1106 -353 2198
1110 -352 2189
1112 -351 2178
1121 -351 2179
1124 -350 2168
1133 -351 2168
1136 -350 2157
1140 -349 2148
1140 -347 2132
1135 -343 2106
1135 -341 2091
1142 -341 2088
1138 -338 2066
1145 -338 2062
1144 -336 2045
1145 -334 2031
-477 -126 822
-470 -125 816
-481 -129 841
-478 -128 842
-474 -128 841
-469 -127 838
-466 -128 840
-466 -128 846
-470 -130 858
-482 -134 888
-465 -130 863
-465 -131 868
-486 -138 916
-648 -185 1230
-1078 -311 2059
-1082 -314 2083
-1076 -314 2087
-1068 -314 2089
-1060 -314 2088
-1052 -313 2089
-1044 -313 2089
-1035 -312 2088
-1026 -312 2085
-1017 -311 2083
-1010 -311 2084
-1003 -311 2086
-995 -310 2086
-982 -308 2075
-972 -307 2071
-970 -309 2082
-967 -310 2094
-956 -309 2087
-954 -310 2098
-947 -310 2101
-930 -306 2079
-914 -303 2059
-905 -303 2057
-892 -300 2044
-879 -298 2031
-871 -297 2028
-867 -298 2036
-864 -300 2048
-855 -299 2042
-849 -299 2045
-851 -302 2067
-841 -301 2061
-832 -300 2057
-823 -299 2053
-815 -298 2050
-804 -296 2040
-803 -298 2056
-792 -297 2046
-777 -293 2025
-731 -278 1922
-744 -286 1974
-744 -288 1991
-757 -295 2044
-738 -290 2012
-734 -291 2019
-739 -296 2053
-727 -294 2040
-712 -290 2015
-726 -298 2073
-719 -298 2073
-711 -297 2071
-713 -301 2096
-695 -296 2064
-692 -297 2076
-678 -294 2054
-664 -291 2032
-657 -290 2029
-656 -293 2049
-656 -295 2068
-648 -295 2065
-640 -294 2060
-638 -296 2076
-628 -294 2063
-627 -297 2083
-616 -294 2068
-611 -295 2073
-605 -295 2077
-599 -295 2078
-596 -297 2091
-590 -297 2092
-577 -294 2071
-577 -297 2094
-569 -296 2086
-563 -296 2091
-559 -297 2098
-550 -296 2091
-543 -296 2090
-543 -299 2114
-533 -297 2099
-523 -295 2086
-517 -295 2089
-514 -296 2101
-511 -299 2118
-503 -298 2111
-494 -296 2099
-487 -295 2097
-474 -291 2068
-450 -280 1992
-434 -274 1948
-409 -261 1859
-435 -282 2006
-425 -279 1986
-427 -285 2025
-398 -269 1915
0 0 0
0 0 0
0 0 0
0 0 0
-37 -27 203
-11 -9 71
-916 -688 4890
-899 -685 4875
-883 -684 4869
-820 -646 4600
-726 -582 4144
-701 -571 4070
-720 -597 4250
-789 -666 4742
-804 -691 4921
-793 -693 4942
-775 -691 4922
-761 -691 4924
-749 -693 4943
-733 -692 4934
-718 -691 4928
-707 -694 4952
-694 -696 4963
-680 -697 4971
-658 -689 4915
-653 -698 4983
-635 -695 4963
-618 -692 4939
-605 -694 4956
-593 -697 4976
-577 -695 4966
-564 -697 4975
-548 -695 4966
-535 -697 4979
-519 -695 4963
-501 -690 4928
-486 -690 4926
-472 -689 4922
-453 -683 4879
-441 -686 4899
-427 -686 4900
-413 -686 4905
-397 -684 4888
-384 -685 4898
-372 -691 4935
0 -4 37
-349 -702 5014
-329 -690 4930
1 0 11
-36 -88 636
-26 -67 488
-8 -27 200
-27 -78 562
-54 -158 1134
-57 -177 1270
-53 -178 1277
-47 -171 1226
-46 -179 1285
-40 -171 1227
-38 -177 1272
-34 -176 1264
-30 -173 1242
-25 -162 1161
-23 -171 1230
-20 -178 1277
-15 -170 1221
-12 -176 1264
-8 -170 1219
-4 -164 1179
-2 -190 1362
1 -171 1227
5 -175 1252
9 -173 1243
12 -173 1237
16 -173 1239
21 -192 1373
23 -173 1242
27 -179 1279
29 -166 1185
34 -173 1236
39 -181 1292
42 -180 1290
46 -179 1283
47 -168 1205
52 -175 1248
55 -171 1226
60 -176 1260
65 -182 1301
71 -188 1344
71 -177 1266
74 -175 1252
77 -175 1248
82 -178 1269
88 -181 1293
93 -184 1308
96 -183 1303
100 -183 1303
98 -172 1225
109 -185 1318
0 0 0
0 0 0
0 0 0
0 0 0
0 0 0
0 0 0
0 0 0
0 0 0
0 0 0
0 0 0
0 0 0
0 0 0
0 0 0
0 0 0
352 -399 2813
0 0 0
132 -140 994
132 -136 967
146 -148 1050
168 -168 1189
148 -144 1019
142 -136 960
157 -147 1039
162 -149 1056
177 -161 1133
180 -160 1126
190 -166 1171
185 -158 1115
208 -175 1234
205 -171 1200
221 -180 1268
206 -166 1163
214 -169 1185
233 -181 1273
331 -255 1787
327 -248 1733
411 -308 2150
457 -338 2359
316 -229 1601
269 -191 1337
281 -197 1376
261 -180 1260
323 -221 1538
294 -198 1379
233 -154 1074
232 -151 1053
237 -153 1063
228 -144 1005
233 -146 1016
215 -132 923
174 -105 733
0 0 0
122 -71 496
0 0 0
0 0 0
0 0 0
0 0 0
0 0 0
0 0 0
95 -50 351
12 -3 31
1278 -699 4790
9 -2 20
40 -18 134
0 0 0
0 0 0
0 0 0
0 0 0
0 0 0
0 0 0
0 0 0
0 0 0
0 0 0
0 0 0
0 0 0
0 0 0
0 0 0
0 0 0
0 0 0
0 0 0
0 0 0
0 0 0
0 0 0
0 0 0
0 0 0
1032 -445 2993
971 -415 2788
971 -412 2761
0 0 0
0 0 0
0 0 0
1053 -432 2885
1055 -429 2863
1076 -434 2893
1085 -435 2893
1086 -431 2868
1078 -425 2823
1090 -426 2828
1103 -428 2836
1107 -426 2820
1101 -421 2780
1095 -415 2741
1088 -409 2700
1098 -410 2701
1086 -403 2649
1106 -407 2676
1110 -406 2662
1102 -400 2621
1100 -396 2594
1104 -395 2581
1111 -394 2575
1101 -388 2532
1105 -387 2519
1110 -386 2511
1115 -385 2501
1115 -382 2481
1106 -376 2439
1113 -376 2436
1120 -376 2431
1109 -370 2388
1116 -370 2383
1121 -369 2374
1121 -367 2355
1109 -361 2313
1129 -365 2336
1117 -358 2293
1124 -358 2289
1122 -355 2266
1125 -354 2256
1117 -350 2223
1109 -345 2189
1109 -343 2173
1114 -342 2165
1123 -343 2166
1133 -344 2168
1134 -342 2155
1136 -341 2141
1139 -339 2130
1140 -338 2116
1135 -334 2092
1138 -333 2082
1135 -330 2061
1139 -330 2053
1146 -330 2050
1133 -324 2011
-488 -126 841
-487 -126 845
-473 -124 827
-479 -126 843
-471 -124 836
-464 -123 830
-476 -127 858
-472 -127 857
-467 -127 854
-483 -132 890
-482 -132 895
-478 -132 894
-496 -138 935
-671 -188 1273
-1082 -305 2068
-1082 -308 2085
-1075 -307 2087
-1067 -307 2086
-1060 -307 2088
-1052 -307 2089
-1045 -306 2091
-1036 -306 2091
-1027 -305 2088
-1017 -304 2084
-1011 -305 2088
-1003 -304 2088
-992 -303 2082
-983 -302 2078
-968 -300 2064
-973 -303 2090
-962 -302 2084
-955 -302 2084
-955 -304 2102
-944 -302 2094
-934 -301 2089
-913 -297 2059
-900 -295 2047
-901 -297 2067
-890 -296 2058
-870 -291 2028
-877 -295 2061
-869 -295 2061
-853 -292 2039
-855 -295 2061
-847 -294 2060
-846 -296 2075
-836 -295 2068
-830 -295 2070
-816 -292 2054
-804 -290 2042
-803 -292 2056
-796 -292 2057
-781 -289 2037
-714 -266 1879
-721 -271 1914
-719 -272 1927
-736 -281 1989
-735 -283 2006
-739 -287 2034
-743 -291 2064
-721 -285 2023
-726 -290 2057
-722 -290 2065
-716 -291 2067
-714 -292 2080
-710 -293 2088
-695 -290 2066
-694 -292 2082
-687 -292 2081
-671 -287 2052
-664 -287 2053
-659 -288 2057
-653 -288 2061
-642 -286 2045
-641 -288 2064
-639 -290 2079
-633 -290 2083
-626 -290 2081
-617 -288 2071
-611 -289 2076
-607 -290 2085
-603 -291 2093
-598 -291 2097
-586 -289 2081
-583 -290 2092
-573 -288 2079
-567 -289 2083
-564 -290 2094
-554 -289 2084
-549 -289 2087
-542 -289 2087
-541 -292 2109
-536 -292 2111
-525 -289 2094
-523 -292 2114
-514 -291 2105
-508 -291 2104
-501 -291 2105
-498 -292 2117
-489 -290 2105
-479 -288 2090
-445 -271 1968
-403 -249 1808
-398 -249 1811
-416 -264 1918
-410 -264 1917
-387 -253 1838
-394 -261 1900
-359 -241 1755
0 0 0
0 0 0
0 0 0
0 0 0
-86 -63 464
-84 -62 460
-45 -34 254
-88 -67 499
-761 -587 4268
-701 -550 4000
-700 -559 4068
-719 -584 4248
-799 -660 4804
-806 -678 4933
-794 -680 4949
-780 -680 4951
-762 -678 4934
-750 -680 4951
-735 -679 4945
-722 -680 4958
1 0 1
-11 -12 94
-11 -13 100
-6 -8 68
-8 -10 83
-3 -5 47
-13 -15 122
-45 -52 387
-51 -60 445
-63 -76 562
-55 -68 507
-64 -81 598
-64 -84 618
-41 -57 421
-39 -55 409
-35 -51 379
-19 -30 227
-456 -672 4908
-11 -19 149
-16 -29 221
-14 -27 203
-10 -20 154
-11 -23 176
-29 -56 416
-30 -60 449
-20 -43 324
-13 -32 242
-21 -51 379
-45 -105 774
-30 -75 558
-14 -40 303
-29 -82 603
-57 -164 1206
-53 -161 1184
-51 -167 1228
-48 -170 1250
-45 -171 1257
-41 -171 1254
-40 -181 1328
-34 -172 1261
-31 -174 1276
-26 -166 1217
-22 -164 1202
-18 -162 1188
-17 -178 1302
-12 -173 1267
-8 -168 1231
-5 -165 1207
-1 -179 1311
1 -168 1233
5 -177 1294
9 -171 1249
13 -177 1293
16 -176 1285
20 -172 1259
23 -170 1242
28 -181 1320
30 -169 1236
33 -167 1222
38 -172 1255
42 -176 1288
44 -169 1237
48 -170 1239
54 -176 1284
54 -166 1213
58 -166 1213
63 -171 1251
68 -176 1284
72 -176 1283
76 -177 1287
80 -177 1287
79 -167 1218
88 -179 1302
91 -177 1291
96 -179 1306
97 -175 1270
103 -179 1302
103 -172 1249
110 -178 1293
0 0 0
0 0 0
0 0 0
0 0 0
0 0 0
0 0 0
0 0 0
0 0 0
0 0 0
0 0 0
0 0 0
205 -236 1708
0 0 0
0 0 0
140 -149 1082
129 -134 967
127 -129 935
130 -129 930
137 -133 962
135 -129 932
138 -129 933
141 -129 932
149 -134 969
152 -135 972
162 -141 1017
159 -136 978
164 -137 988
164 -135 972
166 -134 966
177 -141 1016
177 -138 995
180 -138 993
187 -142 1016
187 -140 1003
194 -143 1025
206 -149 1067
213 -152 1091
209 -147 1053
217 -151 1078
219 -149 1068
225 -152 1083
234 -156 1113
235 -154 1100
213 -138 982
222 -141 1007
219 -137 980
223 -138 984
230 -141 1003
204 -123 876
175 -103 738
169 -99 703
145 -83 593
113 -63 453
0 0 0
0 0 0
0 0 0
0 0 0
0 0 0
0 0 0
9 -2 21
1291 -691 4839
17 -6 49
33 -14 106
0 0 0
0 0 0
0 0 0
0 0 0
0 0 0
0 0 0
0 0 0
0 0 0
0 0 0
0 0 0
0 0 0
0 0 0
0 0 0
0 0 0
0 0 0
0 0 0
0 0 0
0 0 0
0 0 0
0 0 0
0 0 0
1033 -437 2996
1040 -436 2989
1036 -431 2950
0 0 0
0 0 0
0 0 0
1054 -424 2890
1055 -420 2864
1071 -423 2881
1073 -421 2860
1084 -422 2863
1090 -421 2855
1087 -417 2822
1085 -412 2791
1091 -412 2781
1079 -404 2725
1087 -404 2723
1100 -406 2732
1089 -399 2681
1103 -401 2692
1100 -397 2662
1106 -396 2654
1105 -392 2627
1100 -388 2594
1114 -390 2606
1099 -382 2548
1098 -379 2526
1111 -381 2535
1111 -378 2514
1112 -376 2495
1107 -372 2462
1120 -373 2471
1109 -367 2427
1117 -368 2425
1120 -366 2413
1107 -359 2365
1120 -361 2373
1130 -362 2377
1119 -356 2333
1111 -351 2300
1122 -353 2303
1124 -351 2291
1127 -350 2277
1115 -344 2236
1102 -338 2193
1109 -338 2190
1110 -336 2174
1116 -336 2169
1124 -336 2168
1129 -336 2162
1131 -334 2150
1134 -333 2139
1140 -333 2134
1130 -328 2099
1133 -327 2088
1134 -325 2075
1135 -324 2061
1131 -321 2039
1133 -320 2028
1136 -318 2017
-491 -124 847
-486 -123 843
-474 -121 830
-484 -124 852
-486 -126 863
-474 -123 847
-472 -123 850
-470 -124 853
-467 -124 855
-477 -127 880
-473 -127 878
-495 -134 926
-525 -143 990
-710 -194 1347
-1083 -299 2072
-1082 -301 2085
-1076 -301 2090
-1068 -301 2090
-1057 -300 2085
-1052 -300 2091
-1039 -298 2080
-1037 -300 2093
-1028 -299 2090
-1018 -298 2086
-1015 -299 2097
-1000 -297 2082
-996 -297 2091
-981 -295 2076
-968 -293 2064
-972 -296 2090
-966 -296 2092
-959 -296 2094
-953 -296 2097
-947 -297 2103
-930 -293 2081
-912 -290 2058
-906 -290 2061
-908 -293 2083
-889 -289 2056
-879 -287 2049
-871 -287 2047
-863 -287 2047
-851 -285 2035
-848 -286 2045
-850 -289 2068
-841 -288 2063
-836 -288 2068
-821 -285 2049
-807 -283 2032
-796 -281 2023
-812 -289 2082
-790 -283 2042
-767 -277 2001
-728 -266 1917
-705 -259 1872
-731 -271 1959
-742 -277 2007
-736 -277 2009
-742 -282 2043
-733 -281 2037
-721 -279 2023
-721 -281 2042
-723 -285 2069
-715 -284 2065
-718 -288 2093
-708 -286 2083
-700 -286 2082
-693 -285 2079
-690 -287 2092
-663 -278 2030
-666 -282 2059
-661 -282 2064
-649 -280 2048
-645 -281 2056
-645 -284 2079
-636 -282 2070
-637 -286 2097
-633 -287 2105
-617 -283 2075
-610 -282 2072
-605 -283 2078
-600 -283 2083
-593 -283 2082
-585 -282 2077
-584 -285 2096
-569 -280 2067
-570 -284 2092
-564 -284 2097
-558 -284 2098
-552 -285 2101
-546 -285 2103
-541 -285 2106
-530 -283 2091
-530 -286 2117
-518 -283 2092
-511 -283 2093
-505 -283 2095
-503 -285 2111
-493 -283 2098
-488 -284 2104
-480 -283 2095
-462 -276 2048
-410 -248 1841
-423 -259 1925
-415 -258 1914
-392 -247 1835
-390 -249 1852
-369 -239 1777
-354 -233 1733
0 0 0
0 0 0
-329 -226 1684
0 0 0
0 0 0
0 0 0
0 0 0
-220 -164 1224
-740 -559 4156
-702 -539 4007
-702 -548 4076
-722 -573 4265
-800 -647 4811
-811 -667 4964
-795 -666 4955
-779 -665 4949
-762 -663 4932
-750 -666 4955
-736 -665 4953
-721 -665 4954
0 -1 17
-11 -12 100
-9 -10 84
-9 -11 88
-11 -12 100
-10 -12 98
-23 -26 202
-98 -109 820
-133 -151 1130
-115 -135 1013
-111 -133 997
-118 -145 1086
-106 -135 1011
-110 -143 1077
-119 -159 1195
-120 -166 1243
-139 -196 1470
-218 -316 2364
0 0 0
-90 -141 1060
-86 -140 1054
-85 -143 1077
-86 -150 1126
-79 -144 1079
-74 -140 1051
-69 -137 1031
-60 -125 944
-53 -115 866
-40 -93 704
-37 -90 680
-18 -50 382
-25 -70 533
-54 -151 1137
-55 -166 1245
-50 -162 1215
-45 -155 1162
-43 -162 1215
-41 -165 1234
-36 -160 1201
-35 -171 1284
-32 -176 1316
-26 -162 1217
-23 -166 1245
-19 -162 1211
-16 -170 1276
-12 -167 1249
-9 -170 1273
-5 -171 1278
-1 -175 1306
1 -176 1317
5 -163 1223
9 -174 1299
12 -164 1224
16 -171 1280
19 -161 1202
23 -170 1268
28 -175 1305
29 -162 1209
36 -180 1347
40 -180 1344
41 -168 1251
46 -172 1287
50 -172 1281
52 -168 1251
59 -178 1327
60 -170 1265
67 -180 1340
65 -163 1218
70 -167 1246
76 -174 1294
82 -179 1331
83 -171 1270
86 -170 1262
92 -175 1304
102 -187 1388
103 -181 1349
105 -177 1316
110 -180 1335
106 -167 1242
0 0 0
0 0 0
0 0 0
0 0 0
234 -321 2370
224 -297 2198
217 -280 2070
0 0 0
0 0 0
0 0 0
0 0 0
212 -240 1772
161 -176 1305
203 -218 1612
155 -161 1194
149 -152 1122
143 -142 1051
150 -146 1081
148 -142 1046
145 -135 999
146 -133 985
144 -129 954
146 -128 948
149 -128 947
154 -131 964
158 -132 970
156 -127 938
162 -131 961
163 -129 949
169 -132 969
173 -132 973
176 -132 971
182 -135 990
185 -135 988
188 -135 989
185 -131 960
198 -138 1011
201 -138 1013
203 -137 1005
210 -140 1024
223 -147 1072
214 -139 1015
207 -132 965
199 -126 916
209 -130 947
222 -137 995
205 -124 903
210 -126 915
213 -126 917
180 -105 762
163 -93 680
133 -74 543
138 -76 556
0 0 0
117 -62 456
0 0 0
0 0 0
107 -55 402
105 -53 389
38 -17 130
1283 -672 4808
31 -13 99
56 -25 190
0 0 0
0 0 0
0 0 0
0 0 0
0 0 0
0 0 0
0 0 0
0 0 0
0 0 0
0 0 0
0 0 0
0 0 0
0 0 0
0 0 0
0 0 0
0 0 0
0 0 0
0 0 0
0 0 0
0 0 0
0 0 0
976 -404 2832
1036 -425 2979
1033 -420 2940
0 0 0
0 0 0
0 0 0
1014 -399 2780
1059 -414 2878
1073 -416 2888
1069 -411 2851
1097 -418 2898
1089 -412 2852
1091 -409 2832
1101 -410 2833
1080 -399 2755
1085 -398 2742
1088 -396 2726
1092 -394 2713
1095 -392 2695
1104 -393 2696
1095 -386 2649
1094 -383 2625
1101 -383 2620
1103 -381 2602
1110 -381 2596
1100 -374 2551
1116 -377 2568
1113 -374 2540
1102 -368 2494
1110 -367 2490
1117 -367 2487
1110 -362 2450
1112 -361 2434
1110 -358 2411
1126 -360 2426
1116 -355 2386
1112 -351 2359
1119 -351 2354
1107 -345 2309
1118 -346 2315
1129 -348 2320
1114 -341 2269
1119 -340 2263
1117 -337 2240
1116 -335 2221
1109 -331 2190
1109 -329 2175
1115 -328 2168
1125 -329 2172
1127 -328 2159
1131 -327 2151
1133 -326 2138
1123 -321 2103
1129 -321 2098
1131 -320 2086
1137 -319 2081
1129 -315 2052
1129 -314 2037
1125 -311 2013
1139 -313 2023
-485 -120 836
-483 -120 839
-482 -120 844
-480 -121 846
-467 -118 829
-468 -119 838
-471 -121 850
-465 -120 844
-464 -120 849
-475 -124 876
-481 -126 893
-484 -128 906
-515 -137 971
-737 -198 1401
-1085 -293 2076
-1085 -295 2092
-1075 -294 2089
-1065 -293 2086
-1060 -294 2092
-1050 -293 2088
-1039 -292 2082
-1037 -293 2094
-1022 -291 2080
-1016 -291 2084
-1010 -291 2087
-999 -290 2082
-995 -291 2089
-977 -287 2068
-966 -286 2062
-972 -290 2089
-967 -290 2097
-957 -289 2091
-952 -290 2096
-942 -289 2091
-937 -289 2097
-925 -288 2088
-902 -282 2053
-894 -282 2050
-888 -282 2054
-883 -283 2060
-868 -280 2043
-868 -282 2060
-861 -282 2061
-851 -281 2055
-851 -283 2070
-843 -282 2068
-833 -281 2062
-830 -282 2072
-812 -278 2045
-803 -277 2041
-805 -280 2063
-794 -279 2054
-773 -273 2017
-728 -259 1916
-751 -270 1995
-741 -269 1988
-737 -269 1994
-730 -269 1994
-734 -273 2024
-732 -275 2037
-721 -273 2026
-726 -277 2057
-722 -278 2067
-719 -279 2076
-711 -279 2074
-713 -282 2099
-700 -279 2083
-697 -281 2093
-684 -278 2074
-662 -272 2029
-670 -277 2072
-658 -275 2055
-652 -275 2060
-653 -278 2082
-640 -275 2064
-638 -277 2077
-635 -278 2089
-627 -278 2086
-617 -276 2074
-609 -276 2071
-605 -277 2079
-599 -277 2080
-595 -278 2090
-585 -276 2077
-583 -278 2095
-571 -275 2073
-569 -277 2090
-562 -277 2089
-562 -280 2115
-556 -280 2115
-546 -279 2104
-540 -279 2105
-532 -278 2098
-525 -277 2097
-516 -276 2085
-509 -276 2086
-508 -278 2105
-503 -279 2115
-495 -278 2105
-487 -277 2101
-478 -276 2090
-446 -260 1976
-410 -242 1840
-431 -258 1961
-422 -257 1949
-399 -246 1870
-390 -244 1852
-387 -245 1866
-392 -252 1916
-339 -221 1684
0 0 0
0 0 0
-231 -158 1207
0 0 0
-265 -187 1425
-242 -173 1321
0 0 0
-732 -541 4113
-700 -526 4002
-701 -535 4073
-726 -564 4291
-803 -635 4831
-808 -650 4947
-795 -652 4961
-781 -652 4962
-763 -650 4946
-750 -651 4953
-735 -651 4954
-720 -650 4948
0 -1 15
-19 -19 158
-11 -12 100
-12 -13 112
-4 -5 50
-10 -11 96
-17 -19 156
-91 -99 764
-143 -159 1219
-114 -130 1002
-116 -136 1047
-118 -142 1089
-112 -139 1065
-121 -154 1183
-117 -153 1177
-121 -163 1253
-171 -236 1804
-248 -351 2683
0 0 0
-118 -181 1385
-101 -160 1226
-100 -164 1255
-88 -151 1157
-91 -162 1240
-79 -146 1124
-63 -123 945
-56 -114 875
-52 -111 851
-58 -128 986
-55 -129 992
-25 -64 499
-26 -72 555
-54 -150 1151
-53 -156 1200
-52 -162 1243
-47 -159 1218
-45 -163 1247
-41 -162 1245
-37 -160 1226
-32 -155 1188
-29 -158 1215
-26 -158 1215
-24 -169 1294
-19 -162 1241
-15 -161 1234
-13 -168 1286
-9 -164 1254
-4 -155 1188
-1 -173 1321
1 -166 1271
5 -169 1294
9 -165 1262
12 -164 1251
16 -163 1250
20 -172 1317
24 -170 1299
28 -169 1291
30 -163 1246
33 -159 1212
39 -171 1306
43 -169 1291
47 -171 1302
48 -163 1244
54 -170 1300
54 -159 1210
59 -163 1242
66 -171 1301
69 -170 1295
75 -176 1338
76 -169 1289
75 -158 1207
82 -166 1267
88 -170 1295
88 -164 1245
94 -168 1278
102 -176 1335
103 -171 1299
111 -178 1352
99 -152 1155
0 0 0
0 0 0
0 0 0
0 0 0
233 -312 2357
224 -291 2198
228 -288 2173
169 -206 1560
0 0 0
0 0 0
138 -155 1170
0 0 0
217 -234 1763
204 -215 1624
182 -187 1410
151 -151 1140
172 -168 1270
162 -155 1167
167 -157 1181
158 -145 1093
154 -138 1040
149 -131 986
149 -129 970
151 -128 962
151 -125 942
158 -128 968
158 -127 955
162 -128 961
167 -129 972
169 -129 968
172 -129 969
178 -131 983
179 -129 971
179 -128 958
187 -132 986
188 -130 975
193 -132 986
197 -132 988
202 -134 1002
198 -129 966
205 -132 984
208 -132 988
210 -132 981
213 -131 979
209 -127 947
216 -130 968
211 -125 933
219 -129 956
209 -121 896
181 -103 764
194 -109 809
105 -56 424
162 -88 658
148 -79 592
0 0 0
105 -54 405
0 0 0
0 0 0
85 -42 314
50 -23 177
1274 -653 4775
22 -8 68
90 -42 315
127 -60 447
0 0 0
0 0 0
0 0 0
0 0 0
0 0 0
0 0 0
0 0 0
0 0 0
0 0 0
0 0 0
0 0 0
0 0 0
0 0 0
0 0 0
0 0 0
0 0 0
0 0 0
0 0 0
0 0 0
0 0 0
0 0 0
1040 -418 2990
1042 -415 2968
0 0 0
0 0 0
0 0 0
1018 -392 2792
1052 -402 2859
1065 -404 2868
1079 -406 2880
1082 -404 2862
1098 -406 2877
1094 -402 2841
1082 -394 2785
1089 -394 2778
1085 -389 2744
1104 -393 2767
1090 -385 2707
1089 -382 2682
1105 -385 2698
1099 -380 2660
1086 -372 2606
1090 -371 2593
1101 -372 2598
1106 -371 2589
1106 -369 2567
1110 -367 2553
1106 -363 2524
1108 -361 2507
1104 -358 2479
1114 -358 2479
1109 -355 2449
1105 -351 2421
1119 -353 2432
1123 -352 2421
1117 -348 2388
1106 -342 2345
1120 -344 2356
1129 -345 2358
1119 -339 2318
1113 -335 2287
1118 -335 2279
1111 -330 2247
1114 -329 2236
1107 -325 2205
1109 -324 2192
1112 -323 2181
1111 -320 2161
1119 -321 2161
1125 -321 2156
1123 -318 2135
1135 -319 2141
1122 -314 2101
1123 -312 2087
1126 -312 2078
1129 -310 2067
1116 -305 2029
1135 -309 2048
1122 -303 2010
1127 -303 2002
-486 -117 838
-484 -118 842
-477 -116 835
-486 -119 858
-474 -117 842
-479 -119 857
-462 -115 832
-465 -117 846
-465 -118 852
-470 -120 867
-470 -120 873
-470 -121 881
-504 -131 952
-774 -203 1471
-1085 -286 2077
-1083 -288 2089
-1075 -287 2090
-1070 -288 2095
-1056 -286 2083
-1053 -287 2094
-1040 -285 2085
-1033 -285 2086
-1023 -284 2082
-1017 -285 2087
-1007 -284 2082
-1004 -285 2092
-990 -283 2079
-971 -279 2055
-969 -280 2068
-973 -283 2094
-965 -283 2093
-956 -282 2090
-951 -283 2096
-945 -283 2099
-928 -280 2079
-913 -277 2061
-903 -276 2057
-896 -276 2056
-887 -275 2053
-877 -274 2047
-868 -273 2043
-868 -276 2061
-854 -273 2044
-854 -275 2061
-848 -275 2065
-836 -273 2052
-834 -275 2067
-827 -275 2066
-808 -271 2037
-799 -270 2032
-800 -272 2052
-795 -273 2057
-759 -263 1982
-737 -257 1941
-761 -267 2022
-750 -266 2011
-741 -265 2005
-732 -264 2000
-728 -265 2007
-730 -268 2032
-717 -265 2014
-725 -271 2057
-728 -274 2085
-728 -276 2103
-713 -273 2080
-708 -274 2086
-703 -274 2090
-692 -272 2079
-682 -271 2070
-661 -265 2027
-664 -269 2056
-660 -270 2064
-648 -267 2047
-647 -269 2064
-642 -270 2071
-642 -272 2090
-637 -273 2096
-621 -269 2066
-612 -268 2058
-610 -270 2074
-603 -269 2072
-600 -271 2085
-594 -271 2087
-593 -273 2106
-579 -270 2081
-572 -270 2080
-570 -272 2096
-569 -274 2114
-560 -273 2108
-557 -275 2121
-548 -273 2110
-539 -272 2103
-531 -271 2097
-527 -272 2104
-518 -270 2094
-512 -271 2097
-506 -271 2101
-499 -270 2096
-492 -270 2097
-490 -273 2115
-477 -268 2083
-449 -256 1989
-432 -250 1942
-428 -251 1949
-420 -249 1938
-418 -252 1957
-398 -243 1894
-366 -227 1764
-369 -232 1805
-319 -203 1585
-251 -163 1272
-319 -209 1633
-267 -178 1391
-224 -152 1190
-274 -189 1473
-242 -170 1325
0 0 0
-716 -517 4022
-704 -517 4026
-701 -524 4077
-727 -553 4302
-803 -621 4835
-810 -638 4965
-795 -638 4964
-781 -638 4964
-764 -636 4955
-750 -637 4957
-736 -637 4961
-723 -638 4970
-7 -7 66
-16 -16 133
-17 -17 139
-7 -8 71
-8 -9 77
-12 -13 115
-21 -22 185
-97 -104 818
-129 -141 1105
-136 -152 1190
-125 -144 1128
-122 -143 1123
-116 -140 1097
-115 -143 1122
-131 -167 1306
-133 -175 1375
0 0 0
-256 -355 2774
0 0 0
-112 -167 1308
-97 -151 1183
-102 -163 1279
-88 -147 1152
-83 -144 1132
-64 -116 915
-53 -101 794
-53 -107 840
-68 -140 1099
-70 -151 1185
-55 -126 990
-27 -68 537
-20 -55 441
-50 -136 1068
-55 -158 1240
-51 -156 1226
-44 -147 1153
-45 -159 1246
-41 -161 1260
-39 -165 1290
-33 -157 1235
-31 -165 1292
-27 -160 1255
-24 -169 1325
-18 -154 1204
-16 -161 1259
-12 -156 1226
-8 -158 1237
-5 -169 1324
-1 -164 1280
1 -162 1272
5 -165 1295
9 -158 1237
12 -159 1244
17 -168 1318
20 -166 1301
24 -168 1311
26 -157 1227
32 -166 1300
35 -163 1273
39 -165 1293
42 -162 1265
46 -165 1288
52 -173 1352
53 -162 1261
57 -164 1278
64 -172 1342
65 -165 1288
69 -165 1287
70 -159 1239
77 -167 1300
83 -172 1340
87 -173 1346
84 -158 1231
88 -160 1245
93 -162 1258
98 -164 1275
99 -159 1238
108 -169 1310
0 0 0
0 0 0
0 0 0
0 0 0
0 0 0
0 0 0
225 -285 2205
209 -258 1994
173 -207 1600
0 0 0
0 0 0
0 0 0
0 0 0
204 -215 1657
196 -202 1556
176 -176 1359
155 -151 1167
163 -156 1204
176 -165 1273
162 -149 1148
154 -138 1063
152 -133 1028
153 -131 1013
155 -131 1011
155 -128 989
159 -129 997
161 -128 987
166 -130 1002
166 -128 982
171 -130 997
175 -130 1001
177 -130 996
181 -130 1001
183 -129 994
189 -132 1011
187 -128 984
191 -130 993
199 -133 1017
203 -133 1020
207 -134 1025
211 -135 1029
207 -130 995
218 -135 1033
211 -129 984
202 -122 931
219 -131 996
216 -127 965
207 -120 915
221 -126 962
214 -121 919
171 -95 723
163 -89 678
150 -81 616
133 -70 538
161 -85 644
161 -84 638
138 -70 536
0 0 0
52 -24 188
77 -37 283
38 -16 129
1288 -646 4830
50 -22 170
57 -25 196
74 -33 255
0 0 0
0 0 0
0 0 0
0 0 0
0 0 0
0 0 0
0 0 0
0 0 0
0 0 0
0 0 0
0 0 0
0 0 0
0 0 0
0 0 0
0 0 0
0 0 0
0 0 0
0 0 0
0 0 0
0 0 0
0 0 0
0 0 0
0 0 0
0 0 0
0 0 0
0 0 0
1038 -391 2848
1059 -396 2878
1070 -397 2881
1073 -395 2864
1081 -394 2859
1096 -397 2873
1106 -397 2872
1091 -389 2810
1093 -386 2789
1093 -384 2764
1089 -379 2730
1106 -382 2749
1085 -372 2674
1090 -371 2663
1093 -369 2647
1096 -368 2632
1102 -367 2624
1094 -362 2583
1098 -361 2570
1111 -362 2578
1102 -357 2538
1105 -355 2523
1100 -351 2491
1105 -350 2482
1103 -347 2456
1104 -345 2438
1118 -347 2450
1107 -341 2405
1105 -339 2382
1117 -340 2388
1115 -337 2365
1107 -333 2330
1115 -333 2329
1102 -327 2284
1116 -329 2295
1113 -326 2269
1101 -320 2229
1112 -322 2232
1106 -318 2203
1111 -317 2196
1109 -315 2176
1113 -314 2166
1113 -312 2151
1124 -313 2155
1125 -312 2139
1126 -310 2126
1118 -306 2096
1123 -306 2088
1116 -302 2059
1120 -301 2053
1126 -301 2047
1123 -298 2026
1126 -298 2017
1118 -294 1987
-486 -114 838
-480 -114 835
-478 -114 837
-482 -116 851
-480 -116 853
-476 -115 852
-473 -115 853
-454 -112 826
-462 -114 846
-479 -119 885
-472 -118 878
-472 -119 883
-507 -129 958
-811 -208 1542
-1089 -281 2085
-1082 -281 2088
-1073 -280 2087
-1067 -280 2090
-1060 -280 2093
-1049 -279 2088
-1041 -279 2087
-1036 -279 2094
-1024 -278 2085
-1017 -278 2087
-1008 -277 2085
-1003 -278 2092
-985 -275 2070
-973 -273 2061
-974 -275 2079
-974 -277 2097
-966 -277 2097
-957 -276 2092
-952 -277 2100
-946 -277 2102
-930 -274 2084
-913 -271 2063
-900 -269 2051
-893 -269 2051
-886 -269 2051
-881 -269 2057
-876 -270 2062
-868 -269 2060
-855 -267 2048
-854 -269 2062
-846 -268 2061
-840 -269 2064
-833 -268 2064
-825 -268 2061
-815 -267 2056
-804 -265 2044
-802 -267 2059
-803 -269 2078
-747 -252 1950
-738 -251 1946
-768 -264 2041
-762 -264 2045
-748 -261 2026
-749 -264 2047
-734 -260 2024
-724 -259 2015
-716 -258 2011
-729 -266 2069
-719 -264 2059
-722 -268 2088
-716 -268 2091
-706 -267 2082
-695 -265 2069
-691 -266 2076
-668 -259 2029
-651 -255 1995
-671 -265 2077
-661 -264 2068
-652 -263 2060
-646 -263 2061
-650 -267 2095
-651 -270 2122
-633 -265 2085
-628 -266 2091
-614 -263 2066
-613 -265 2083
-605 -264 2081
-599 -264 2082
-596 -266 2096
-591 -266 2099
-583 -265 2095
-574 -264 2087
-567 -264 2084
-563 -265 2095
-558 -266 2100
-552 -266 2102
-548 -267 2111
-536 -264 2089
-533 -266 2104
-528 -266 2111
-520 -266 2105
-512 -265 2100
-508 -266 2109
-502 -266 2112
-496 -266 2111
-489 -266 2111
-478 -263 2091
-441 -246 1957
-419 -237 1883
-404 -231 1841
-424 -246 1960
-418 -246 1961
-416 -249 1979
-419 -254 2019
-342 -210 1677
0 0 0
-293 -185 1480
0 0 0
0 0 0
-267 -177 1415
-251 -169 1354
-223 -152 1219
0 0 0
-694 -490 3904
-704 -505 4023
-704 -514 4094
-730 -542 4319
-808 -611 4865
-810 -624 4968
-796 -624 4971
-780 -623 4964
-765 -623 4962
-752 -624 4974
-737 -624 4971
-721 -622 4962
-4 -5 49
-16 -15 133
-10 -10 90
-5 -6 55
-14 -14 125
-10 -11 101
-19 -20 173
-100 -104 839
-131 -139 1120
-127 -138 1111
-121 -135 1090
-112 -129 1037
-111 -131 1052
-112 -136 1095
-131 -163 1308
-129 -166 1334
-172 -227 1820
-277 -376 3004
-307 -429 3426
-107 -156 1252
-99 -150 1205
-95 -149 1195
-91 -149 1196
-73 -125 1004
-54 -97 783
-64 -119 962
-76 -146 1170
-73 -147 1182
-70 -148 1190
-58 -131 1051
-31 -75 609
-22 -58 474
-52 -138 1108
-54 -152 1219
-49 -147 1183
-46 -149 1196
-44 -154 1233
-42 -159 1278
-38 -159 1273
-35 -161 1289
-30 -156 1255
-27 -158 1270
-24 -165 1326
-19 -157 1257
-17 -169 1356
-12 -160 1282
-9 -157 1261
-5 -155 1242
-1 -159 1273
1 -154 1233
5 -155 1243
9 -159 1272
13 -159 1276
16 -160 1282
20 -160 1277
24 -163 1301
27 -160 1278
30 -154 1235
36 -168 1341
38 -160 1276
43 -163 1304
46 -160 1280
49 -158 1260
53 -161 1283
59 -167 1331
59 -155 1236
62 -155 1235
68 -160 1276
71 -158 1259
77 -162 1296
82 -165 1319
80 -154 1230
90 -167 1334
93 -166 1320
100 -171 1364
95 -156 1244
104 -164 1305
106 -162 1287
0 0 0
0 0 0
0 0 0
0 0 0
0 0 0
0 0 0
0 0 0
0 0 0
0 0 0
0 0 0
0 0 0
180 -194 1537
199 -209 1655
208 -215 1696
204 -205 1618
185 -181 1432
166 -158 1252
184 -173 1364
171 -156 1233
167 -149 1181
166 -146 1152
156 -134 1058
154 -129 1022
154 -126 999
156 -126 998
155 -123 970
166 -130 1022
167 -128 1011
172 -130 1022
171 -127 999
179 -130 1026
180 -129 1015
181 -127 1001
186 -129 1014
196 -134 1050
193 -130 1020
199 -132 1033
209 -136 1067
207 -133 1043
210 -133 1041
207 -129 1009
221 -136 1064
216 -131 1024
218 -131 1021
211 -124 971
212 -123 962
219 -126 982
231 -132 1024
224 -125 976
216 -119 929
198 -107 837
186 -100 778
178 -94 732
142 -73 572
0 0 0
144 -73 566
98 -48 376
84 -40 316
0 0 0
12 -3 31
24 -9 75
5 0 3
38 -16 129
58 -25 198
43 -17 143
0 0 0
0 0 0
0 0 0
0 0 0
0 0 0
0 0 0
0 0 0
0 0 0
0 0 0
0 0 0
0 0 0
0 0 0
0 0 0
0 0 0
0 0 0
0 0 0
0 0 0
0 0 0
0 0 0
0 0 0
0 0 0
0 0 0
0 0 0
0 0 0
0 0 0
0 0 0
1044 -385 2865
1066 -390 2899
1074 -389 2893
1072 -385 2861
1087 -388 2876
1086 -384 2846
1094 -384 2843
1091 -380 2810
1087 -376 2776
1087 -373 2749
1080 -368 2709
1094 -370 2720
1108 -372 2732
1100 -366 2689
1090 -360 2641
1110 -364 2666
1100 -358 2620
1097 -355 2591
1097 -352 2568
1087 -347 2524
1111 -352 2558
1096 -344 2502
1102 -344 2497
1104 -342 2480
1091 -336 2431
1101 -337 2432
1109 -337 2431
1099 -332 2390
1108 -332 2389
1105 -329 2365
1101 -326 2336
1091 -321 2297
1097 -320 2291
1098 -318 2275
1093 -315 2247
1116 -320 2277
1104 -314 2234
1106 -313 2221
1111 -312 2215
1109 -310 2192
1103 -306 2163
1115 -308 2172
1116 -306 2157
1115 -304 2139
1110 -301 2112
1116 -301 2108
1112 -298 2084
1119 -298 2082
1112 -294 2054
1114 -293 2041
1120 -293 2036
1121 -292 2024
1129 -292 2024
1132 -291 2014
-495 -114 855
-475 -110 826
-478 -111 838
-466 -109 822
-471 -111 838
-466 -110 835
-470 -112 848
-466 -112 847
-458 -110 838
-470 -114 868
-473 -116 880
-489 -120 916
-513 -127 969
-852 -213 1621
-1089 -274 2087
-1079 -273 2082
-1074 -274 2090
-1067 -274 2091
-1062 -274 2098
-1048 -272 2086
-1040 -272 2085
-1031 -271 2084
-1025 -272 2088
-1017 -271 2089
-1008 -271 2086
-998 -270 2082
-981 -267 2062
-973 -267 2061
-981 -271 2095
-975 -271 2098
-962 -269 2088
-957 -270 2094
-951 -270 2096
-946 -270 2102
-931 -268 2087
-910 -264 2057
-906 -264 2065
-902 -265 2073
-886 -262 2053
-877 -262 2049
-874 -263 2058
-867 -262 2058
-842 -257 2018
-841 -259 2032
-842 -261 2052
-840 -262 2065
-834 -262 2067
-828 -263 2071
-808 -258 2039
-800 -257 2035
-803 -260 2060
-779 -255 2018
-759 -250 1984
-750 -249 1978
-776 -260 2064
-771 -261 2070
-773 -264 2095
-756 -260 2068
-746 -258 2057
-730 -255 2034
-731 -258 2056
-719 -256 2040
-724 -260 2074
-714 -258 2064
-713 -260 2081
-709 -262 2091
-699 -260 2080
-690 -259 2073
-679 -257 2063
-668 -255 2048
-674 -260 2089
-659 -257 2061
-647 -255 2045
-642 -255 2051
-648 -260 2090
-641 -260 2091
-633 -259 2087
-623 -257 2074
-616 -257 2073
-608 -257 2070
-600 -256 2063
-600 -259 2088
-596 -259 2094
-588 -259 2091
-584 -260 2101
-565 -254 2055
-572 -260 2103
-570 -262 2122
-560 -260 2108
-553 -260 2106
-542 -258 2090
-537 -258 2095
-531 -259 2098
-522 -257 2087
-517 -258 2095
-512 -258 2099
-506 -259 2102
-504 -261 2118
-493 -258 2102
-487 -258 2101
-475 -255 2079
-433 -236 1923
-419 -231 1883
-427 -239 1945
-434 -246 2008
-428 -246 2005
-405 -236 1927
-413 -244 1993
-377 -226 1848
-338 -206 1683
-329 -204 1664
0 0 0
0 0 0
0 0 0
-232 -153 1252
-204 -136 1119
0 0 0
-691 -476 3884
-701 -492 4009
-702 -501 4086
-733 -532 4338
-807 -596 4861
2 1 -2
-795 -608 4964
-780 -608 4965
2 1 -4
-749 -606 4950
-735 -608 4960
-723 -609 4975
-2 -2 30
-15 -14 127
-15 -14 129
-11 -11 101
-19 -19 163
-8 -8 79
-25 -25 218
-100 -102 842
-131 -136 1119
-122 -130 1073
-117 -128 1058
-113 -126 1042
-113 -131 1075
-114 -136 1117
-116 -142 1167
-128 -161 1325
0 0 0
-264 -350 2866
-335 -457 3738
0 0 0
-96 -143 1175
-90 -139 1145
-69 -111 915
-55 -93 767
-70 -121 997
-82 -147 1208
-80 -150 1237
-77 -151 1240
-73 -150 1234
-57 -125 1034
-26 -63 523
-26 -66 545
-53 -137 1131
-53 -146 1204
-52 -153 1255
-48 -153 1255
-45 -153 1259
-38 -142 1169
-36 -148 1216
-34 -151 1244
-31 -155 1276
-27 -153 1253
-23 -152 1247
-19 -154 1262
-17 -161 1319
-13 -162 1331
-8 -151 1239
-5 -149 1224
-1 -154 1266
1 -155 1270
5 -150 1229
9 -155 1270
12 -148 1216
16 -153 1251
20 -154 1265
24 -158 1294
28 -159 1301
31 -158 1292
35 -159 1304
38 -155 1266
41 -153 1251
49 -167 1366
52 -165 1352
53 -156 1278
57 -157 1288
59 -153 1248
61 -148 1214
66 -151 1236
71 -155 1270
77 -160 1309
79 -156 1275
84 -159 1297
83 -150 1223
90 -156 1272
99 -165 1343
99 -158 1288
103 -159 1293
107 -160 1302
0 0 0
0 0 0
0 0 0
0 0 0
0 0 0
0 0 0
0 0 0
0 0 0
0 0 0
0 0 0
168 -181 1469
0 0 0
173 -177 1437
187 -188 1523
211 -207 1674
200 -192 1551
186 -174 1407
182 -167 1350
172 -154 1244
181 -159 1283
165 -141 1140
152 -127 1031
152 -124 1007
152 -122 989
158 -125 1008
160 -124 1005
165 -125 1012
171 -128 1035
172 -127 1023
173 -125 1007
179 -128 1028
183 -128 1031
183 -126 1012
187 -127 1019
193 -129 1033
197 -129 1037
198 -128 1027
208 -133 1065
209 -131 1051
207 -128 1025
210 -128 1027
212 -127 1019
222 -132 1053
221 -130 1035
215 -124 992
218 -124 991
213 -119 953
226 -125 1000
221 -121 965
213 -115 916
184 -98 779
153 -79 635
158 -81 650
132 -66 531
0 0 0
124 -61 487
165 -81 646
0 0 0
71 -32 262
106 -49 393
3 1 -4
1277 -612 4793
7 0 12
5 0 3
0 0 0
0 0 0
0 0 0
0 0 0
0 0 0
0 0 0
0 0 0
0 0 0
0 0 0
0 0 0
0 0 0
0 0 0
0 0 0
0 0 0
0 0 0
0 0 0
0 0 0
0 0 0
0 0 0
0 0 0
1037 -396 3041
1076 -408 3127
0 0 0
0 0 0
0 0 0
0 0 0
0 0 0
1036 -373 2842
1056 -377 2873
1066 -378 2872
1078 -379 2879
1088 -379 2880
1085 -375 2846
1097 -377 2852
1093 -372 2815
1080 -365 2758
1087 -364 2750
1091 -363 2736
1106 -365 2750
1081 -354 2666
1103 -359 2696
1093 -353 2649
1081 -347 2597
1096 -349 2610
1080 -341 2551
1094 -343 2563
1083 -337 2516
1093 -338 2518
1089 -335 2488
1086 -331 2460
1074 -325 2413
1098 -330 2446
1106 -331 2446
1101 -327 2414
1095 -323 2382
1083 -317 2337
1071 -311 2291
1095 -317 2325
1102 -316 2321
1090 -311 2277
1094 -310 2268
1099 -310 2261
1097 -307 2238
1112 -309 2252
1103 -305 2217
1104 -303 2201
1103 -301 2182
1108 -301 2175
1115 -301 2172
1112 -298 2150
1116 -297 2140
1120 -297 2132
1118 -294 2112
1115 -292 2091
1115 -290 2076
1118 -289 2064
1120 -288 2053
1123 -287 2043
1125 -286 2032
1116 -282 2000
1121 -282 1995
-494 -111 854
-479 -108 834
-477 -108 836
-478 -109 844
-475 -109 845
-475 -110 852
-467 -109 844
-468 -109 851
-471 -111 864
-477 -113 882
-486 -116 905
-472 -113 885
-526 -127 993
-893 -218 1699
-1086 -267 2083
-1080 -267 2086
-1075 -267 2093
-1065 -267 2088
-1061 -267 2096
-1051 -267 2093
-1040 -266 2088
-1030 -265 2083
-1026 -265 2092
-1015 -264 2084
-1010 -265 2091
-997 -263 2080
-981 -261 2064
-975 -261 2067
-984 -265 2102
-972 -264 2094
-964 -263 2092
-958 -263 2096
-951 -263 2098
-947 -264 2106
-933 -262 2092
-916 -259 2072
-896 -255 2042
-895 -257 2057
-888 -257 2059
-878 -256 2052
-869 -255 2047
-862 -255 2049
-837 -249 2007
-844 -253 2041
-845 -255 2059
-832 -253 2046
-833 -255 2065
-826 -256 2067
-817 -255 2061
-798 -251 2032
-802 -254 2059
-789 -252 2043
-743 -239 1943
-770 -250 2032
-772 -253 2055
-778 -257 2089
-771 -257 2090
-761 -255 2081
-751 -254 2073
-735 -251 2047
-726 -250 2042
-719 -250 2042
-724 -254 2075
-721 -255 2087
-715 -255 2088
-707 -254 2086
-701 -254 2088
-694 -254 2087
-666 -246 2024
-657 -245 2017
-674 -254 2088
-656 -249 2052
-644 -247 2037
-643 -249 2053
-646 -253 2085
-639 -253 2083
-634 -253 2089
-618 -249 2059
-610 -249 2054
-608 -250 2069
-599 -249 2059
-600 -252 2087
-594 -253 2091
-592 -254 2106
-578 -251 2079
-573 -252 2086
-573 -254 2107
-566 -254 2107
-554 -251 2088
-548 -251 2089
-549 -255 2117
-537 -252 2094
-532 -253 2102
-527 -253 2106
-518 -252 2096
-514 -253 2110
-502 -250 2084
-500 -252 2103
-491 -251 2094
-484 -251 2090
-474 -249 2074
-448 -238 1987
-440 -237 1979
-409 -223 1865
-424 -234 1959
-412 -231 1934
-404 -230 1922
-398 -230 1920
-381 -223 1869
-322 -191 1602
-298 -180 1507
-310 -190 1593
-280 -174 1459
-270 -170 1429
-276 -177 1489
-214 -140 1173
0 0 0
-715 -482 4024
-700 -479 4005
-702 -489 4086
-736 -522 4360
-811 -585 4887
-809 -594 4966
-795 -594 4967
-779 -593 4963
-766 -594 4970
-750 -593 4963
-739 -596 4983
-723 -595 4976
-8 -8 77
-17 -15 138
-14 -13 118
-18 -17 150
-8 -9 84
-13 -13 120
-18 -18 164
-110 -109 923
-132 -134 1132
-111 -116 978
-113 -120 1017
-112 -123 1039
-107 -121 1024
-127 -146 1234
-120 -143 1205
-135 -166 1395
0 0 0
-277 -358 3004
-343 -457 3832
0 0 0
-84 -122 1030
-72 -108 917
-58 -91 774
-69 -112 948
-82 -138 1164
-82 -144 1212
-76 -140 1185
-70 -135 1142
-72 -145 1223
-53 -114 966
-19 -47 405
-27 -68 581
-52 -131 1104
-52 -139 1174
-50 -142 1198
-46 -142 1200
-43 -144 1214
-42 -152 1277
-37 -146 1234
-34 -150 1264
-32 -156 1310
-26 -148 1249
-23 -151 1272
-19 -148 1242
-16 -155 1304
-12 -149 1253
-8 -148 1246
-5 -151 1271
-1 -151 1272
1 -150 1258
5 -153 1289
9 -147 1236
12 -149 1249
15 -142 1190
20 -150 1262
24 -152 1273
25 -137 1150
31 -150 1258
35 -152 1276
38 -151 1270
43 -156 1307
46 -152 1276
48 -146 1224
50 -143 1202
58 -155 1299
59 -147 1234
65 -154 1294
69 -155 1301
72 -153 1280
78 -159 1328
77 -148 1241
82 -152 1267
89 -158 1319
96 -163 1359
98 -160 1338
103 -162 1353
104 -157 1315
100 -145 1211
0 0 0
0 0 0
0 0 0
0 0 0
0 0 0
0 0 0
0 0 0
0 0 0
0 0 0
0 0 0
0 0 0
178 -183 1520
197 -198 1640
189 -185 1536
207 -198 1641
194 -181 1501
177 -162 1342
182 -162 1344
172 -150 1242
182 -156 1291
180 -151 1250
158 -129 1068
158 -126 1046
157 -123 1022
160 -123 1019
165 -125 1033
168 -125 1033
169 -124 1022
176 -126 1042
176 -125 1029
183 -127 1048
183 -125 1030
187 -126 1035
188 -125 1026
195 -127 1045
198 -127 1048
203 -129 1057
206 -128 1054
208 -127 1045
216 -131 1071
214 -128 1047
221 -130 1066
223 -129 1061
215 -123 1007
209 -117 962
210 -117 954
214 -118 961
224 -121 990
226 -121 988
221 -116 949
172 -89 727
152 -77 633
134 -67 549
106 -51 425
150 -73 601
0 0 0
122 -57 472
0 0 0
85 -38 318
66 -28 238
1282 -607 4870
22 -7 69
4 0 0
25 -8 78
0 0 0
0 0 0
0 0 0
0 0 0
0 0 0
0 0 0
0 0 0
0 0 0
0 0 0
0 0 0
0 0 0
0 0 0
0 0 0
0 0 0
0 0 0
0 0 0
0 0 0
0 0 0
0 0 0
0 0 0
1035 -386 3038
1045 -387 3037
1036 -380 2983
0 0 0
0 0 0
0 0 0
0 0 0
1035 -364 2842
1054 -368 2866
1066 -369 2873
1074 -369 2868
1078 -367 2854
1092 -369 2865
1095 -367 2848
1085 -361 2795
1096 -362 2800
1090 -357 2758
1081 -351 2712
1074 -346 2670
1079 -346 2661
1066 -339 2606
1077 -340 2610
1100 -345 2644
1070 -333 2550
1090 -336 2575
1067 -327 2499
1092 -332 2536
1072 -324 2469
1085 -326 2480
1067 -318 2417
1106 -327 2485
1067 -314 2379
1078 -315 2383
1084 -314 2377
1050 -302 2284
1054 -301 2274
1083 -308 2319
1066 -301 2264
1085 -304 2286
1100 -307 2300
1098 -304 2277
1115 -307 2295
1101 -301 2248
1102 -299 2231
1095 -296 2201
1103 -296 2200
1103 -294 2183
1111 -294 2182
1114 -293 2170
1120 -293 2166
1116 -291 2142
1122 -290 2137
1126 -290 2129
1122 -287 2104
1126 -286 2096
1131 -286 2090
1125 -283 2063
1133 -283 2063
1132 -281 2045
1131 -279 2028
1132 -278 2015
-488 -107 844
-486 -107 847
-476 -105 835
-472 -105 834
-473 -106 841
-469 -106 842
-466 -105 841
-462 -105 841
-463 -106 849
-481 -111 889
-479 -111 891
-475 -111 891
-530 -125 1001
-932 -222 1774
-1089 -261 2089
-1081 -260 2088
-1075 -261 2093
-1064 -260 2088
-1058 -260 2092
-1047 -259 2086
-1042 -259 2092
-1030 -258 2084
-1022 -258 2084
-1016 -258 2088
-1008 -258 2087
-994 -256 2075
-985 -255 2072
-986 -257 2092
-976 -256 2087
-972 -257 2095
-963 -256 2091
-957 -257 2096
-950 -256 2097
-941 -256 2095
-929 -254 2084
-908 -250 2054
-903 -251 2059
-894 -250 2056
-881 -248 2042
-877 -249 2050
-869 -248 2047
-854 -246 2029
-838 -243 2009
-843 -246 2037
-841 -248 2052
-837 -249 2059
-837 -250 2076
-829 -250 2073
-806 -245 2035
-785 -241 2000
-795 -245 2042
-793 -247 2056
-745 -234 1948
-765 -242 2018
-773 -247 2057
-775 -249 2083
-768 -249 2081
-754 -247 2063
-753 -248 2079
-724 -241 2018
-720 -242 2025
-730 -247 2073
-734 -251 2105
-721 -248 2085
-717 -249 2096
-709 -249 2091
-697 -247 2076
-686 -245 2063
-667 -241 2028
-676 -246 2073
-673 -247 2085
