VERSION 0.7
FIELDS x y z
SIZE 4 4 4
TYPE I I I
COUNT 1 1 1
WIDTH 3576
HEIGHT 1
VIEWPOINT 0.0 0.0 0.0 1.0 0.0 0.0 0.0
POINTS 3576
DATA ascii
-764 -441 2001
-754 -439 1992
-761 -447 2031
-757 -448 2038
-753 -450 2045
-741 -447 2033
-727 -442 2012
-734 -450 2051
-720 -445 2030
-709 -442 2021
-699 -440 2010
-709 -450 2060
-701 -449 2056
-700 -452 2072
-692 -452 2070
-680 -448 2053
-675 -449 2060
-671 -450 2070
-665 -450 2070
-652 -446 2050
-653 -451 2077
-638 -445 2050
-630 -443 2044
-629 -447 2064
-622 -446 2061
-613 -445 2056
-603 -442 2043
-602 -446 2063
-592 -443 2051
-583 -441 2043
-579 -443 2053
-573 -443 2055
-571 -446 2071
-572 -452 2098
-559 -446 2073
-557 -450 2093
-550 -450 2091
-542 -448 2084
-530 -443 2063
-533 -451 2100
-526 -450 2098
-520 -450 2099
-508 -445 2077
-506 -450 2098
-499 -449 2096
-488 -445 2077
-498 -459 2146
-544 -509 2376
-671 -635 2969
-676 -648 3031
-669 -651 3044
-666 -656 3070
-655 -655 3066
-647 -655 3069
-637 -655 3071
-630 -657 3079
-621 -657 3082
-614 -660 3094
-605 -660 3094
-602 -667 3130
-591 -665 3124
-582 -665 3125
-573 -665 3125
-568 -671 3152
-556 -667 3135
-545 -666 3130
-537 -667 3135
-528 -668 3142
-518 -667 3138
-508 -666 3134
-499 -666 3134
-490 -667 3140
-482 -667 3144
-473 -668 3149
-463 -668 3148
-453 -666 3140
-445 -668 3148
-436 -668 3151
-425 -666 3139
-417 -667 3148
-406 -665 3140
-398 -667 3146
-389 -669 3156
-380 -668 3153
-371 -668 3153
-362 -670 3162
-352 -668 3153
-342 -667 3150
-334 -669 3160
-325 -669 3160
-313 -665 3141
-306 -668 3158
-296 -667 3151
-288 -669 3162
-277 -667 3152
-269 -668 3158
-259 -667 3155
-251 -670 3165
-247 -684 3235
-256 -737 3486
0 0 0
0 0 0
0 0 0
0 0 0
0 0 0
0 0 0
0 0 0
0 0 0
0 0 0
0 0 0
0 0 0
-53 -304 1439
-43 -270 1279
-41 -278 1315
-33 -254 1201
-33 -274 1298
-30 -286 1357
-26 -285 1351
-22 -279 1323
-17 -274 1299
-13 -272 1290
-10 -272 1289
-6 -282 1334
-2 -278 1316
1 -268 1269
4 -269 1275
9 -287 1357
12 -274 1298
17 -288 1362
20 -276 1305
23 -275 1300
28 -284 1341
31 -277 1312
35 -277 1311
39 -278 1312
44 -287 1354
45 -265 1253
51 -278 1312
55 -280 1320
56 -268 1267
60 -270 1276
68 -288 1360
72 -288 1359
77 -291 1372
84 -304 1434
86 -293 1384
85 -277 1304
92 -289 1362
96 -287 1353
98 -282 1329
108 -299 1408
101 -270 1269
110 -283 1331
102 -253 1191
0 0 0
0 0 0
0 0 0
0 0 0
0 0 0
0 0 0
0 0 0
381 -753 3530
368 -709 3322
0 0 0
383 -701 3282
367 -655 3067
369 -643 3008
377 -640 2994
376 -625 2919
355 -576 2694
358 -568 2652
365 -567 2646
365 -555 2591
301 -447 2088
260 -378 1766
260 -371 1729
268 -374 1745
277 -380 1772
287 -386 1798
288 -381 1774
300 -390 1817
286 -365 1699
288 -361 1678
297 -366 1702
307 -373 1731
307 -366 1697
293 -343 1593
394 -456 2116
383 -436 2021
403 -452 2096
406 -449 2079
368 -400 1851
340 -364 1685
317 -334 1545
300 -312 1440
248 -253 1169
241 -242 1117
242 -240 1109
234 -229 1057
0 0 0
0 0 0
225 -211 971
0 0 0
143 -129 594
201 -181 831
92 -80 369
140 -122 560
123 -105 484
115 -97 447
151 -127 582
0 0 0
0 0 0
63 -49 225
9 -4 21
8 -2 15
67 -50 232
79 -60 274
0 0 0
0 0 0
0 0 0
0 0 0
0 0 0
0 0 0
0 0 0
0 0 0
0 0 0
0 0 0
0 0 0
0 0 0
0 0 0
0 0 0
0 0 0
0 0 0
0 0 0
0 0 0
0 0 0
1011 -662 2960
1046 -680 3035
1067 -687 3064
0 0 0
0 0 0
0 0 0
0 0 0
0 0 0
1056 -646 2865
1063 -645 2858
1073 -646 2857
1083 -647 2857
1090 -645 2849
1092 -642 2830
1094 -638 2808
1091 -631 2777
1087 -624 2742
1069 -608 2671
1097 -620 2717
1081 -606 2654
1095 -609 2665
1078 -596 2602
1064 -584 2546
1088 -592 2582
1084 -586 2549
1110 -595 2588
1025 -546 2369
1064 -563 2439
1069 -561 2430
1086 -566 2447
1058 -547 2364
1100 -565 2439
1107 -565 2434
1097 -556 2393
1090 -549 2357
1099 -550 2358
1120 -557 2384
1115 -550 2354
1104 -541 2312
1115 -543 2316
1118 -541 2303
1113 -535 2275
1120 -535 2272
1122 -532 2257
1123 -529 2241
1110 -520 2199
1105 -515 2172
1106 -512 2157
1116 -513 2158
1122 -513 2154
1126 -512 2146
1135 -513 2146
1137 -510 2132
1127 -503 2098
1124 -498 2076
1129 -498 2069
1118 -490 2034
1125 -490 2032
1122 -486 2011
1124 -484 1999
1131 -484 1997
1109 -472 1944
-489 -193 830
-484 -192 828
-476 -190 820
-477 -191 829
-477 -192 834
-477 -194 841
-475 -194 842
-467 -192 835
-468 -193 843
-468 -195 850
-473 -198 865
-463 -195 853
-465 -197 863
-478 -204 895
-544 -233 1026
-956 -413 1816
-1087 -473 2081
-1076 -471 2076
-1069 -471 2078
-1065 -472 2087
-1053 -469 2078
-1044 -468 2076
-1037 -468 2080
-1029 -468 2080
-1018 -466 2073
-1010 -465 2074
-1010 -468 2090
-993 -464 2071
-987 -464 2076
-976 -462 2069
-953 -454 2035
-965 -463 2079
-960 -463 2083
-954 -464 2088
-945 -463 2085
-931 -459 2072
-914 -454 2049
-900 -450 2037
-894 -451 2039
-889 -451 2045
-883 -451 2048
-880 -453 2059
-870 -451 2052
-859 -449 2043
-842 -443 2020
-844 -448 2042
-838 -448 2047
-830 -447 2045
-823 -447 2046
-803 -440 2014
-795 -438 2009
-774 -430 1974
-785 -440 2020
-771 -436 2003
-765 -436 2004
-756 -434 1999
-759 -440 2027
-758 -443 2041
-751 -443 2043
-745 -443 2045
-727 -435 2013
-736 -445 2058
-723 -441 2042
-715 -440 2039
-714 -443 2054
-707 -443 2055
-700 -442 2053
-695 -443 2059
-690 -444 2065
-680 -442 2056
-673 -441 2054
-659 -436 2034
-665 -444 2072
-655 -442 2063
-646 -440 2056
-637 -438 2048
-631 -438 2050
-633 -444 2079
-628 -445 2085
-615 -440 2064
-603 -436 2046
-598 -437 2050
-590 -435 2045
-582 -434 2042
-580 -437 2055
-582 -444 2088
-573 -441 2077
-566 -441 2078
-562 -443 2086
-554 -441 2081
-552 -445 2100
-545 -445 2098
-539 -445 2101
-530 -443 2091
-524 -443 2092
-517 -442 2091
-508 -440 2082
-504 -441 2089
-501 -444 2104
-496 -446 2112
-494 -449 2131
-547 -504 2391
-662 -618 2931
-678 -642 3045
-673 -646 3065
-660 -642 3047
-653 -643 3056
-652 -652 3096
-638 -647 3075
-635 -653 3107
-631 -659 3136
-622 -659 3134
-608 -654 3114
-605 -661 3146
-597 -662 3155
-587 -661 3151
-581 -666 3173
-570 -663 3162
-559 -661 3154
-549 -661 3154
-543 -665 3174
-532 -663 3166
-522 -662 3160
-513 -663 3164
-502 -661 3155
-493 -661 3160
-486 -664 3172
-475 -663 3167
-467 -664 3176
-459 -666 3185
-447 -662 3166
-439 -664 3179
-430 -664 3177
-420 -663 3172
-410 -663 3174
-402 -665 3183
-392 -663 3176
-384 -666 3188
-373 -663 3174
-364 -664 3180
-354 -663 3174
-345 -663 3177
-336 -665 3185
-325 -661 3167
-317 -664 3181
-308 -664 3185
-300 -666 3195
-289 -663 3178
-280 -663 3181
-271 -664 3184
-262 -665 3187
-253 -667 3200
-254 -694 3328
0 0 0
0 0 0
0 0 0
0 0 0
0 0 0
0 0 0
0 0 0
0 0 0
-42 -184 884
0 0 0
0 0 0
0 0 0
-51 -287 1380
-42 -260 1250
-39 -264 1267
-36 -271 1302
-33 -276 1328
-29 -272 1308
-24 -260 1251
-22 -280 1345
-17 -269 1293
-13 -256 1230
-9 -261 1256
-6 -276 1325
-2 -276 1327
1 -282 1356
4 -268 1288
8 -268 1285
12 -274 1316
16 -277 1331
19 -267 1281
22 -252 1210
28 -280 1345
30 -259 1242
35 -270 1296
39 -272 1303
42 -270 1296
45 -260 1248
49 -265 1271
58 -293 1402
59 -279 1335
63 -277 1328
67 -279 1337
73 -288 1380
75 -280 1340
77 -272 1300
82 -275 1315
87 -279 1335
91 -279 1335
91 -270 1291
98 -278 1328
105 -285 1364
107 -281 1343
110 -278 1330
105 -257 1229
0 0 0
0 0 0
0 0 0
0 0 0
353 -750 3566
0 0 0
0 0 0
0 0 0
367 -697 3313
0 0 0
375 -676 3212
363 -638 3029
379 -651 3089
385 -645 3060
399 -654 3101
377 -603 2858
360 -564 2674
380 -583 2760
395 -594 2811
345 -507 2399
316 -454 2146
297 -417 1975
292 -403 1907
299 -405 1916
303 -403 1905
306 -399 1885
315 -404 1907
325 -410 1934
329 -407 1920
357 -435 2052
373 -447 2104
364 -428 2017
353 -409 1923
391 -446 2096
403 -453 2127
398 -440 2069
373 -406 1906
369 -396 1860
356 -375 1762
345 -359 1683
327 -335 1570
254 -255 1197
256 -254 1189
243 -238 1115
249 -241 1126
249 -237 1109
235 -221 1033
195 -180 841
186 -169 791
158 -141 659
136 -120 559
156 -136 635
0 0 0
149 -126 588
0 0 0
82 -66 311
0 0 0
0 0 0
107 -84 392
42 -30 143
1280 -1030 4758
34 -24 113
64 -47 220
0 0 0
0 0 0
0 0 0
0 0 0
0 0 0
0 0 0
0 0 0
0 0 0
0 0 0
0 0 0
0 0 0
0 0 0
0 0 0
0 0 0
0 0 0
0 0 0
0 0 0
0 0 0
0 0 0
0 0 0
0 0 0
1043 -663 2999
0 0 0
0 0 0
0 0 0
0 0 0
0 0 0
1056 -637 2866
1073 -642 2885
1075 -638 2863
1074 -632 2835
1090 -637 2851
1092 -633 2832
1086 -624 2790
1106 -631 2815
1067 -604 2692
1091 -613 2727
1092 -608 2706
1082 -598 2658
1066 -585 2596
1076 -586 2597
1074 -581 2570
998 -536 2368
1040 -554 2446
1022 -540 2383
1074 -564 2485
1080 -563 2476
1077 -557 2448
1099 -565 2480
1053 -538 2356
1091 -553 2420
1095 -551 2409
1089 -545 2377
1112 -553 2408
1113 -549 2389
1105 -541 2353
1109 -540 2342
1113 -538 2333
1114 -535 2315
1118 -533 2304
1122 -532 2295
1127 -531 2287
1117 -523 2248
1121 -522 2240
1100 -508 2180
1112 -511 2187
1109 -506 2164
1109 -503 2148
1127 -508 2166
1128 -505 2150
1129 -503 2135
1131 -501 2124
1125 -495 2096
1126 -492 2082
1122 -488 2058
1128 -487 2053
1117 -480 2019
1118 -478 2006
1129 -480 2010
1122 -474 1981
1115 -468 1954
-494 -192 839
-492 -192 842
-478 -188 824
-480 -190 833
-477 -190 835
-473 -189 834
-468 -188 832
-460 -186 823
-464 -189 837
-474 -194 862
-469 -193 858
-449 -186 829
-469 -196 872
-487 -204 912
-557 -235 1050
-989 -421 1879
-1080 -463 2069
-1075 -463 2075
-1064 -461 2069
-1059 -463 2076
-1056 -464 2085
-1045 -462 2079
-1039 -463 2085
-1028 -461 2079
-1020 -460 2079
-1012 -460 2079
-1002 -458 2075
-993 -457 2071
-987 -457 2076
-974 -454 2066
-965 -453 2063
-963 -455 2076
-961 -458 2089
-949 -455 2078
-942 -455 2081
-931 -452 2072
-917 -449 2058
-904 -446 2046
-899 -446 2051
-885 -443 2037
-887 -447 2060
-874 -444 2045
-870 -445 2055
-856 -441 2037
-845 -439 2028
-838 -439 2030
-831 -438 2031
-823 -437 2027
-819 -439 2037
-809 -437 2029
-787 -428 1991
-783 -429 1998
-778 -430 2004
-781 -435 2031
-750 -421 1967
-758 -429 2006
-760 -434 2030
-761 -438 2050
-760 -441 2068
-746 -437 2049
-734 -434 2035
-736 -438 2058
-718 -431 2027
-708 -429 2018
-718 -439 2068
-710 -438 2065
-704 -439 2068
-696 -437 2064
-687 -436 2057
-680 -435 2056
-666 -431 2036
-658 -429 2031
-661 -435 2060
-653 -434 2057
-647 -434 2060
-643 -435 2067
-628 -430 2041
-630 -436 2071
-625 -437 2076
-619 -437 2078
-607 -432 2058
-596 -429 2043
-589 -428 2043
-586 -431 2056
-581 -432 2062
-582 -437 2087
-573 -435 2078
-570 -438 2094
-564 -438 2094
-552 -434 2076
-552 -438 2100
-543 -436 2091
-538 -437 2095
-531 -437 2096
-521 -434 2081
-517 -436 2091
-506 -432 2073
-504 -436 2093
-499 -436 2097
-490 -434 2087
-493 -442 2128
-534 -486 2337
-663 -610 2935
-676 -631 3036
-655 -619 2982
-663 -635 3060
-658 -639 3080
-653 -644 3103
-653 -653 3148
-644 -653 3153
-632 -651 3142
-620 -648 3127
-622 -660 3189
-607 -654 3160
-603 -660 3191
-596 -662 3200
-593 -670 3241
-575 -660 3195
-567 -662 3203
-561 -666 3225
-553 -667 3231
-547 -672 3256
-530 -663 3210
-527 -671 3251
-513 -665 3225
-507 -670 3249
-496 -669 3243
-486 -667 3237
-475 -665 3227
-467 -668 3244
-459 -669 3249
-449 -669 3247
-440 -670 3253
-430 -669 3249
-422 -672 3263
-411 -670 3253
-399 -666 3236
-390 -666 3238
-382 -669 3253
-373 -670 3255
-362 -669 3251
-351 -666 3236
-344 -670 3258
-333 -667 3246
-324 -667 3246
-313 -664 3232
-302 -662 3222
-294 -666 3239
-286 -667 3248
-276 -668 3249
-265 -664 3233
-256 -666 3240
-257 -693 3374
0 0 0
0 0 0
0 0 0
0 0 0
0 0 0
0 0 0
0 0 0
-17 -77 376
-39 -168 822
0 0 0
0 0 0
0 0 0
-41 -233 1137
-45 -271 1320
-40 -268 1307
-34 -252 1230
-32 -262 1280
-30 -276 1346
-24 -262 1276
-22 -274 1337
-17 -266 1295
-13 -261 1272
-10 -266 1295
-6 -265 1290
-2 -268 1304
1 -274 1333
4 -263 1281
8 -271 1320
12 -258 1259
16 -273 1329
20 -272 1323
23 -258 1256
26 -252 1225
32 -271 1318
35 -267 1301
37 -252 1228
43 -272 1322
47 -269 1307
52 -279 1357
52 -259 1262
58 -270 1311
61 -264 1282
65 -265 1290
72 -279 1354
77 -281 1367
76 -266 1290
81 -269 1305
87 -276 1340
94 -285 1382
91 -265 1284
103 -289 1402
97 -261 1265
109 -283 1373
113 -281 1364
101 -243 1180
0 0 0
0 0 0
0 0 0
362 -781 3771
367 -769 3712
384 -781 3768
0 0 0
0 0 0
0 0 0
364 -665 3203
362 -643 3100
362 -628 3025
373 -632 3041
383 -633 3048
403 -652 3136
0 0 0
0 0 0
391 -591 2841
417 -618 2967
395 -572 2746
387 -549 2635
378 -526 2524
366 -499 2392
365 -489 2344
364 -478 2293
360 -465 2226
366 -463 2217
393 -489 2339
407 -498 2381
430 -517 2472
422 -499 2383
419 -488 2329
401 -459 2189
388 -436 2083
393 -435 2077
385 -419 2000
377 -405 1929
381 -403 1919
373 -388 1848
367 -376 1792
372 -376 1788
333 -332 1576
264 -258 1228
262 -253 1203
234 -223 1058
243 -228 1080
234 -217 1028
235 -215 1018
149 -133 630
101 -87 417
136 -118 560
171 -147 696
0 0 0
0 0 0
0 0 0
0 0 0
0 0 0
127 -101 478
71 -54 256
28 -18 90
16 -9 46
82 -61 287
0 0 0
74 -53 252
0 0 0
0 0 0
0 0 0
0 0 0
0 0 0
0 0 0
0 0 0
0 0 0
0 0 0
0 0 0
0 0 0
0 0 0
0 0 0
0 0 0
0 0 0
0 0 0
0 0 0
0 0 0
0 0 0
0 0 0
0 0 0
0 0 0
0 0 0
0 0 0
0 0 0
0 0 0
1053 -627 2861
1067 -630 2872
1075 -630 2867
1078 -626 2848
1084 -624 2836
1092 -624 2832
1084 -614 2785
1087 -611 2768
1064 -594 2685
1084 -600 2713
1037 -570 2572
1055 -576 2594
1093 -592 2663
1044 -561 2523
1059 -565 2536
1045 -553 2482
1096 -576 2580
1074 -561 2508
1054 -546 2439
1096 -564 2516
1092 -558 2486
1103 -559 2490
1093 -550 2447
1107 -553 2457
1113 -553 2450
1115 -550 2434
1110 -544 2403
1106 -538 2376
1121 -542 2389
1117 -536 2362
1121 -535 2350
1119 -530 2327
1130 -532 2333
1115 -521 2281
1124 -522 2282
1116 -515 2248
1111 -510 2221
1108 -505 2198
1116 -505 2196
1107 -498 2160
1118 -500 2165
1115 -496 2143
1128 -499 2152
1121 -492 2123
1123 -490 2110
1125 -488 2097
1109 -478 2052
1122 -481 2060
1118 -476 2037
1121 -475 2027
1121 -472 2011
1120 -469 1994
1117 -465 1975
1130 -468 1983
-492 -188 836
-480 -185 823
-489 -189 844
-483 -188 840
-475 -186 831
-479 -189 845
-467 -185 829
-471 -188 843
-467 -187 843
-467 -188 849
-485 -197 888
-469 -192 865
-481 -198 894
-491 -203 921
-565 -235 1067
-1022 -429 1943
-1082 -457 2073
-1078 -458 2081
-1072 -458 2085
-1062 -457 2082
-1050 -455 2076
-1044 -455 2079
-1041 -457 2090
-1027 -453 2077
-1020 -453 2080
-1012 -453 2081
-999 -450 2070
-992 -450 2073
-984 -449 2072
-972 -447 2063
-958 -443 2050
-958 -446 2066
-961 -451 2089
-952 -450 2086
-947 -451 2093
-932 -446 2075
-911 -440 2047
-901 -438 2040
-893 -437 2039
-885 -436 2038
-885 -440 2056
-870 -435 2038
-862 -435 2036
-857 -435 2042
-848 -434 2037
-849 -438 2058
-839 -436 2050
-838 -439 2066
-819 -432 2036
-790 -420 1984
-789 -423 1998
-800 -433 2045
-791 -431 2039
-780 -428 2028
-762 -422 1999
-758 -423 2008
-755 -425 2019
-748 -424 2016
-761 -435 2071
-742 -429 2040
-724 -422 2009
-734 -431 2054
-719 -426 2033
-708 -423 2022
-708 -427 2041
-715 -435 2081
-704 -432 2067
-698 -432 2070
-696 -435 2085
-681 -429 2060
-671 -427 2051
-659 -424 2035
-662 -430 2066
-659 -432 2077
-651 -430 2072
-642 -429 2066
-634 -428 2064
-632 -431 2077
-621 -427 2062
-620 -431 2082
-610 -428 2070
-596 -423 2046
-590 -423 2047
-585 -424 2052
-576 -422 2045
-576 -427 2069
-574 -430 2086
-571 -432 2097
-560 -429 2083
-558 -432 2100
-545 -427 2074
-541 -428 2084
-537 -430 2095
-529 -429 2089
-526 -432 2104
-520 -432 2104
-506 -425 2074
-506 -431 2102
-497 -429 2092
-492 -430 2098
-495 -437 2137
-550 -493 2408
-685 -621 3036
-687 -631 3086
-676 -630 3080
-669 -632 3090
-669 -641 3136
-658 -639 3127
-649 -640 3133
-646 -646 3163
-636 -645 3162
-628 -646 3169
-615 -643 3152
-613 -651 3192
-603 -651 3192
-596 -653 3203
-587 -654 3211
-579 -655 3217
-568 -654 3212
-558 -654 3211
-553 -658 3235
-541 -655 3221
-534 -658 3238
-524 -658 3237
-513 -657 3230
-504 -657 3233
-493 -655 3224
-483 -654 3221
-475 -656 3231
-464 -654 3222
-454 -654 3223
-447 -657 3236
-436 -655 3230
-428 -657 3240
-417 -656 3232
-408 -657 3237
-400 -658 3244
-389 -656 3238
-382 -660 3257
-372 -659 3251
-361 -657 3241
-349 -653 3222
-342 -658 3246
-332 -655 3233
-322 -656 3236
-313 -656 3241
-304 -657 3242
-294 -655 3236
-285 -656 3241
-275 -656 3238
-267 -658 3252
-256 -656 3238
-252 -671 3313
0 0 0
0 0 0
0 0 0
0 0 0
0 0 0
-42 -152 754
-28 -111 550
-29 -119 593
0 0 0
-46 -207 1027
0 0 0
0 0 0
0 0 0
-42 -251 1244
-40 -261 1291
-34 -249 1233
-33 -270 1336
-27 -247 1222
-27 -278 1377
-21 -257 1272
-17 -258 1277
-13 -258 1275
-10 -271 1338
-6 -256 1265
-2 -255 1263
1 -275 1362
4 -255 1262
8 -245 1213
12 -264 1308
16 -270 1336
19 -248 1226
23 -262 1293
27 -261 1291
31 -258 1274
35 -262 1294
37 -252 1244
42 -263 1298
48 -272 1344
51 -268 1325
54 -263 1296
62 -284 1399
65 -280 1382
65 -263 1298
73 -277 1368
77 -278 1372
83 -286 1409
85 -278 1368
83 -261 1284
91 -274 1347
97 -279 1373
97 -267 1316
102 -270 1327
106 -271 1335
106 -261 1285
117 -279 1371
0 0 0
0 0 0
358 -785 3850
0 0 0
358 -739 3621
0 0 0
0 0 0
371 -704 3447
352 -650 3179
362 -650 3180
365 -639 3125
369 -631 3083
378 -631 3086
390 -635 3101
401 -639 3118
371 -578 2821
387 -589 2876
383 -571 2783
414 -604 2945
422 -603 2940
432 -605 2949
438 -602 2930
447 -602 2932
448 -592 2879
455 -590 2868
456 -581 2825
470 -587 2854
483 -593 2881
501 -605 2938
505 -600 2909
515 -601 2916
508 -583 2826
487 -550 2664
462 -513 2486
467 -510 2470
478 -514 2488
505 -536 2591
478 -500 2414
454 -467 2254
365 -369 1781
384 -383 1846
376 -369 1782
364 -353 1701
298 -284 1369
264 -248 1195
237 -219 1055
0 0 0
122 -107 519
131 -114 552
94 -80 386
97 -82 395
147 -124 599
0 0 0
113 -92 443
129 -105 503
0 0 0
141 -112 536
90 -69 333
86 -65 313
47 -33 163
35 -24 118
46 -32 156
68 -48 233
0 0 0
0 0 0
0 0 0
0 0 0
0 0 0
0 0 0
0 0 0
0 0 0
0 0 0
0 0 0
0 0 0
0 0 0
0 0 0
0 0 0
0 0 0
0 0 0
0 0 0
0 0 0
0 0 0
0 0 0
0 0 0
0 0 0
0 0 0
0 0 0
0 0 0
0 0 0
0 0 0
1048 -615 2847
1054 -613 2836
1075 -620 2867
1085 -621 2869
1075 -611 2816
1083 -610 2811
1077 -602 2769
1067 -592 2720
1082 -595 2732
1069 -584 2677
1032 -559 2561
1014 -545 2494
1083 -578 2640
1051 -557 2540
1078 -567 2583
1089 -568 2588
1106 -573 2606
1081 -556 2525
1095 -559 2535
1097 -556 2518
1109 -558 2524
1113 -556 2513
1102 -547 2468
1114 -549 2474
1118 -547 2463
1113 -541 2432
1120 -541 2428
1112 -534 2391
1117 -532 2381
1108 -524 2343
1115 -524 2339
1105 -516 2299
1122 -520 2315
1129 -520 2311
1123 -514 2282
1119 -509 2255
1114 -504 2227
1111 -499 2205
1117 -499 2199
1107 -491 2163
1117 -493 2165
1115 -489 2145
1120 -488 2138
1120 -485 2122
1126 -485 2116
1125 -481 2099
1118 -475 2069
1109 -469 2037
1115 -469 2033
1113 -465 2013
1111 -461 1995
1113 -460 1984
1143 -469 2021
1145 -468 2011
-495 -187 842
-488 -185 835
-487 -186 841
-485 -186 843
-478 -185 838
-482 -187 852
-461 -180 821
-470 -185 842
-467 -185 843
-469 -186 853
-469 -187 859
-465 -187 859
-450 -182 837
-478 -195 897
-584 -239 1102
-1046 -432 1991
-1083 -451 2077
-1076 -450 2079
-1071 -451 2085
-1062 -450 2085
-1056 -451 2089
-1042 -448 2078
-1038 -449 2086
-1031 -449 2087
-1020 -447 2082
-1008 -444 2073
-1003 -445 2080
-990 -442 2068
-983 -442 2070
-973 -441 2066
-959 -437 2053
-963 -442 2079
-959 -443 2086
-949 -442 2082
-944 -442 2086
-925 -437 2063
-914 -435 2055
-900 -431 2040
-900 -434 2057
-882 -429 2033
-881 -431 2048
-868 -428 2034
-864 -429 2043
-848 -424 2022
-848 -427 2038
-852 -433 2065
-837 -429 2048
-830 -428 2047
-822 -428 2047
-785 -412 1973
-787 -416 1993
-785 -418 2006
-785 -421 2024
-757 -410 1970
-760 -415 1996
-762 -419 2020
-757 -420 2025
-758 -424 2046
-755 -426 2056
-738 -420 2028
-719 -413 1996
-720 -417 2017
-715 -417 2021
-703 -414 2006
-706 -420 2036
-710 -425 2066
-704 -426 2071
-692 -422 2054
-695 -428 2084
-687 -427 2080
-680 -426 2079
-664 -421 2053
-666 -426 2078
-659 -425 2078
-651 -425 2076
-641 -422 2066
-629 -418 2047
-632 -424 2078
-627 -425 2085
-619 -424 2081
-610 -423 2074
-597 -417 2049
-593 -419 2059
-589 -421 2070
-582 -420 2068
-579 -423 2080
-575 -424 2088
-572 -426 2102
-558 -421 2074
-555 -424 2090
-548 -423 2085
-548 -428 2112
-538 -425 2101
-527 -421 2081
-521 -422 2084
-515 -422 2088
-513 -425 2105
-506 -425 2103
-493 -419 2077
-489 -420 2084
-498 -434 2150
-574 -507 2513
-695 -621 3080
-694 -629 3122
-687 -631 3134
-680 -634 3146
-670 -633 3144
-667 -638 3172
-655 -637 3165
-650 -641 3186
-639 -639 3179
-632 -641 3190
-620 -639 3181
-615 -644 3205
-605 -643 3204
-598 -646 3218
-589 -647 3223
-577 -644 3211
-571 -647 3227
-561 -647 3226
-553 -649 3237
-541 -646 3225
-533 -647 3231
-524 -648 3238
-513 -646 3229
-503 -646 3229
-494 -647 3235
-484 -646 3227
-476 -648 3238
-467 -649 3245
-457 -648 3240
-446 -646 3233
-436 -646 3232
-427 -647 3236
-419 -648 3244
-409 -647 3240
-399 -647 3240
-390 -648 3245
-380 -648 3245
-371 -648 3244
-363 -650 3257
-351 -647 3240
-341 -646 3237
-333 -648 3249
-323 -647 3243
-314 -648 3248
-304 -647 3241
-294 -647 3243
-284 -645 3232
-275 -647 3243
-265 -646 3240
-256 -647 3244
-251 -658 3297
0 0 0
0 0 0
0 0 0
0 0 0
0 0 0
-32 -115 581
-27 -104 525
-24 -100 503
-37 -156 784
0 0 0
0 0 0
0 0 0
-42 -228 1147
-44 -260 1306
-37 -239 1200
-38 -272 1364
-30 -240 1208
-28 -254 1274
-25 -261 1309
-22 -264 1326
-16 -247 1239
-13 -252 1268
-9 -254 1277
-5 -248 1245
-2 -259 1302
1 -267 1339
5 -255 1280
8 -250 1256
13 -272 1367
16 -264 1326
20 -263 1321
23 -253 1270
27 -252 1263
32 -270 1353
36 -267 1339
39 -261 1310
45 -276 1381
48 -270 1353
51 -265 1330
55 -264 1321
57 -255 1279
63 -267 1338
70 -278 1393
75 -282 1413
73 -259 1296
74 -251 1254
84 -270 1352
87 -267 1335
97 -286 1431
95 -267 1337
98 -265 1323
103 -269 1342
108 -271 1354
105 -256 1276
115 -270 1347
0 0 0
0 0 0
360 -779 3877
369 -773 3847
385 -784 3901
381 -753 3744
376 -722 3590
378 -706 3507
365 -664 3296
370 -656 3256
363 -627 3113
370 -623 3091
386 -635 3149
386 -620 3074
401 -629 3119
403 -619 3065
0 0 0
405 -595 2948
411 -591 2922
426 -600 2970
434 -599 2963
443 -600 2963
451 -599 2960
468 -610 3012
476 -609 3004
483 -607 2995
490 -605 2981
498 -603 2971
512 -610 3005
517 -606 2982
528 -608 2992
523 -593 2915
514 -573 2816
491 -538 2644
441 -475 2332
482 -511 2510
578 -605 2969
547 -564 2766
536 -544 2668
417 -416 2039
394 -388 1898
385 -373 1828
382 -365 1786
320 -301 1473
278 -258 1261
250 -228 1113
232 -209 1021
171 -151 738
156 -136 663
141 -120 588
138 -116 567
175 -146 714
122 -99 486
0 0 0
0 0 0
0 0 0
0 0 0
131 -101 491
121 -92 446
11 -5 27
14 -7 37
11 -5 27
1320 -996 4798
0 0 0
0 0 0
0 0 0
0 0 0
0 0 0
0 0 0
0 0 0
0 0 0
0 0 0
0 0 0
0 0 0
0 0 0
0 0 0
0 0 0
0 0 0
0 0 0
0 0 0
0 0 0
0 0 0
0 0 0
0 0 0
0 0 0
0 0 0
0 0 0
0 0 0
0 0 0
0 0 0
1055 -610 2867
1055 -605 2841
1064 -605 2839
1068 -603 2824
1087 -608 2848
1084 -602 2815
1094 -603 2815
1068 -584 2722
1092 -592 2760
1107 -596 2773
1084 -579 2691
1100 -583 2708
1079 -567 2631
1100 -574 2660
1089 -564 2611
1083 -557 2575
1100 -562 2593
1111 -563 2596
1113 -561 2580
1098 -549 2524
1105 -548 2518
1089 -536 2459
1106 -541 2477
1107 -538 2460
1102 -532 2429
1111 -533 2429
1117 -532 2423
1112 -526 2391
1104 -518 2355
1107 -516 2342
1114 -516 2338
1106 -509 2302
1106 -506 2284
1092 -496 2238
1102 -498 2241
1098 -493 2215
1103 -492 2207
1100 -487 2183
1109 -488 2186
1108 -485 2165
1114 -484 2161
1113 -481 2142
1115 -479 2130
1120 -478 2122
1122 -476 2110
1112 -469 2075
1114 -467 2064
1122 -467 2062
1115 -462 2034
1119 -461 2025
1125 -460 2021
1135 -462 2025
1143 -463 2023
1128 -454 1981
-496 -184 844
-477 -178 819
-484 -182 835
-480 -181 836
-480 -183 842
-472 -181 834
-462 -178 822
-469 -182 841
-464 -181 839
-467 -183 850
-472 -186 865
-491 -195 907
-479 -191 893
-498 -200 934
-602 -243 1138
-1058 -431 2014
-1083 -444 2077
-1072 -442 2074
-1067 -443 2079
-1059 -442 2080
-1051 -442 2080
-1042 -441 2078
-1035 -441 2080
-1027 -440 2081
-1017 -439 2076
-1013 -440 2085
-998 -436 2071
-995 -438 2080
-982 -435 2070
-970 -433 2060
-960 -431 2057
-966 -437 2085
-964 -439 2099
-952 -437 2089
-943 -435 2086
-925 -430 2063
-906 -424 2038
-900 -425 2041
-892 -424 2041
-886 -424 2044
-877 -423 2040
-874 -425 2050
-868 -425 2053
-853 -421 2034
-842 -418 2026
-839 -420 2035
-836 -422 2046
-834 -424 2060
-820 -420 2042
-800 -413 2011
-776 -404 1968
-775 -407 1983
-781 -413 2015
-766 -409 1995
-767 -412 2016
-753 -408 1996
-746 -407 1995
-756 -417 2043
-757 -420 2062
-735 -412 2022
-720 -407 2001
-725 -413 2033
-719 -413 2034
-714 -414 2041
-715 -418 2063
-707 -418 2060
-706 -421 2076
-688 -414 2045
-688 -417 2063
-681 -417 2064
-671 -415 2054
-659 -412 2039
-665 -419 2078
-658 -419 2078
-650 -417 2072
-638 -414 2057
-632 -414 2056
-630 -417 2073
-620 -414 2062
-614 -415 2065
-607 -414 2064
-601 -414 2067
-594 -414 2065
-593 -418 2085
-585 -416 2080
-577 -415 2075
-576 -418 2093
-566 -416 2081
-562 -418 2091
-551 -414 2073
-547 -416 2086
-543 -418 2094
-537 -418 2096
-533 -420 2108
-524 -418 2098
-516 -417 2093
-511 -418 2099
-502 -415 2088
-495 -415 2087
-492 -417 2099
-504 -433 2181
-580 -505 2542
-689 -607 3058
-695 -620 3125
-687 -621 3131
-676 -620 3128
-671 -624 3149
-664 -626 3160
-660 -632 3188
-649 -630 3181
-639 -629 3179
-631 -631 3190
-622 -631 3191
-616 -635 3209
-606 -635 3212
-599 -638 3226
-591 -639 3235
-579 -636 3221
-569 -636 3220
-563 -640 3239
-554 -640 3244
-542 -638 3234
-533 -639 3239
-525 -640 3244
-514 -639 3241
-504 -638 3238
-495 -638 3238
-485 -639 3241
-476 -639 3245
-466 -638 3239
-456 -638 3241
-447 -638 3242
-439 -641 3254
-429 -639 3248
-417 -637 3236
-409 -639 3249
-399 -639 3246
-390 -639 3247
-380 -639 3247
-370 -637 3239
-360 -637 3238
-352 -638 3246
-342 -639 3249
-333 -638 3248
-323 -637 3244
-313 -638 3246
-304 -638 3246
-295 -639 3253
-284 -637 3242
-275 -638 3248
-266 -638 3248
-256 -637 3244
-252 -652 3317
0 0 0
0 0 0
0 0 0
0 0 0
0 0 0
0 0 0
-19 -75 384
-24 -99 506
0 0 0
0 0 0
0 0 0
0 0 0
0 0 0
-41 -239 1222
-40 -254 1296
-33 -236 1206
-32 -249 1271
-28 -254 1297
-24 -250 1276
-20 -247 1259
-17 -251 1281
-13 -247 1258
-10 -253 1290
-6 -253 1291
-2 -258 1315
1 -240 1224
5 -254 1294
8 -235 1197
13 -266 1355
16 -255 1298
20 -253 1288
24 -262 1334
26 -239 1216
31 -253 1288
34 -244 1243
39 -259 1319
43 -255 1300
46 -255 1298
52 -264 1344
52 -248 1262
55 -245 1247
59 -243 1238
65 -254 1293
66 -244 1239
71 -250 1272
77 -256 1302
88 -279 1418
85 -259 1313
90 -262 1327
91 -253 1284
101 -269 1366
105 -271 1375
105 -259 1313
109 -259 1315
110 -253 1283
0 0 0
372 -820 4141
0 0 0
351 -725 3659
0 0 0
0 0 0
369 -698 3522
0 0 0
369 -662 3337
380 -664 3345
363 -618 3116
366 -608 3060
384 -622 3130
389 -616 3099
403 -623 3137
0 0 0
0 0 0
404 -585 2942
415 -587 2951
426 -591 2967
437 -594 2984
444 -593 2974
456 -596 2990
460 -591 2963
476 -600 3008
484 -599 2998
489 -594 2973
507 -605 3026
511 -600 2999
517 -597 2983
529 -600 2999
528 -590 2944
506 -555 2769
481 -520 2592
416 -442 2204
508 -531 2648
567 -584 2911
571 -580 2887
542 -543 2700
0 0 0
406 -393 1956
386 -369 1833
382 -360 1789
331 -307 1526
287 -262 1300
246 -221 1097
0 0 0
209 -182 903
202 -173 860
156 -131 652
142 -118 585
118 -96 476
0 0 0
136 -108 536
0 0 0
110 -85 421
125 -96 474
80 -59 294
66 -47 236
5 0 4
24 -15 76
45 -30 153
0 0 0
0 0 0
0 0 0
0 0 0
0 0 0
0 0 0
0 0 0
0 0 0
0 0 0
0 0 0
0 0 0
0 0 0
0 0 0
0 0 0
0 0 0
0 0 0
0 0 0
0 0 0
0 0 0
0 0 0
0 0 0
0 0 0
0 0 0
0 0 0
0 0 0
0 0 0
0 0 0
0 0 0
1045 -596 2843
1053 -595 2837
1070 -600 2855
1077 -599 2850
1083 -597 2837
1074 -588 2790
1088 -591 2802
1091 -588 2783
1070 -572 2704
1091 -579 2735
1081 -569 2684
1093 -571 2691
1085 -562 2648
1088 -560 2633
1095 -560 2628
1095 -555 2603
1083 -545 2554
1092 -546 2553
1097 -544 2544
1103 -543 2535
1107 -541 2523
1098 -533 2483
1108 -534 2485
1101 -527 2448
1097 -522 2418
1105 -522 2417
1119 -525 2426
1098 -512 2363
1106 -512 2360
1106 -509 2342
1107 -505 2324
1093 -496 2277
1100 -496 2274
1106 -495 2268
1086 -483 2209
1098 -485 2216
1095 -481 2193
1102 -481 2188
1101 -478 2171
1109 -478 2169
1111 -476 2157
1119 -477 2155
1119 -474 2139
1125 -473 2134
1118 -467 2104
1117 -464 2086
1120 -463 2076
1132 -465 2082
1134 -463 2070
1127 -457 2042
1138 -459 2047
1135 -455 2025
1137 -454 2015
1138 -451 2000
-485 -177 826
-489 -180 839
-480 -178 829
-489 -182 852
-478 -179 838
-477 -180 844
-463 -176 825
-467 -178 838
-464 -178 838
-469 -181 855
-480 -186 880
-477 -186 883
-469 -184 875
-498 -197 935
-628 -250 1188
-1071 -429 2040
-1082 -437 2077
-1075 -437 2081
-1069 -437 2084
-1064 -438 2091
-1054 -436 2087
-1045 -435 2085
-1037 -435 2085
-1023 -432 2075
-1022 -434 2087
-1010 -432 2079
-1003 -432 2081
-987 -428 2064
-978 -427 2062
-962 -423 2046
-957 -423 2051
-963 -429 2082
-956 -429 2083
-955 -431 2096
-941 -428 2083
-925 -424 2065
-901 -416 2028
-895 -416 2032
-898 -421 2056
-884 -417 2040
-876 -416 2038
-876 -419 2055
-862 -415 2040
-857 -416 2045
-851 -416 2048
-848 -418 2059
-845 -420 2070
-833 -417 2057
-820 -414 2044
-784 -399 1972
-773 -396 1960
-804 -415 2057
-784 -409 2026
-779 -409 2030
-773 -409 2032
-760 -405 2015
-747 -402 2001
-762 -413 2058
-763 -418 2081
-743 -410 2046
-717 -399 1993
-729 -410 2046
-723 -409 2047
-714 -408 2040
-715 -412 2065
-702 -408 2045
-708 -415 2083
-699 -414 2076
-687 -411 2063
-681 -411 2065
-665 -405 2036
-656 -403 2030
-660 -409 2062
-658 -412 2077
-651 -412 2076
-635 -406 2047
-631 -407 2055
-633 -412 2084
-626 -412 2082
-616 -410 2073
-605 -406 2056
-601 -408 2066
-598 -410 2079
-591 -410 2079
-581 -407 2067
-584 -414 2100
-571 -409 2078
-568 -411 2091
-561 -411 2090
-554 -410 2086
-553 -414 2108
-540 -409 2084
-534 -409 2085
-527 -409 2085
-522 -410 2090
-517 -411 2098
-507 -408 2083
-507 -413 2109
-496 -409 2092
-492 -411 2100
-499 -422 2157
-581 -498 2546
-691 -600 3069
-693 -609 3117
-687 -612 3133
-679 -614 3142
-673 -616 3158
-665 -618 3166
-656 -619 3172
-650 -622 3190
-638 -619 3178
-628 -619 3175
-622 -622 3192
-616 -626 3212
-604 -623 3201
-598 -627 3221
-587 -625 3214
-577 -625 3213
-570 -627 3227
-561 -628 3232
-552 -629 3237
-544 -631 3245
-534 -630 3245
-523 -628 3235
-514 -629 3242
-506 -631 3251
-495 -629 3241
-486 -629 3243
-475 -629 3241
-466 -629 3243
-458 -631 3254
-445 -627 3233
-437 -628 3239
-428 -629 3245
-419 -630 3250
-410 -630 3252
-399 -628 3244
-390 -628 3245
-380 -628 3244
-371 -630 3252
-362 -630 3255
-352 -629 3251
-341 -627 3239
-332 -627 3241
-323 -629 3249
-315 -631 3263
-303 -626 3238
-295 -630 3254
-286 -631 3262
-275 -629 3250
-265 -628 3245
-257 -629 3253
-257 -653 3376
0 0 0
-296 -813 4204
-304 -873 4514
0 0 0
0 0 0
0 0 0
-19 -76 397
-24 -96 502
-34 -142 738
0 0 0
0 0 0
0 0 0
0 0 0
-36 -210 1087
-38 -239 1237
-34 -240 1241
-31 -242 1253
-28 -247 1282
-24 -240 1246
-20 -239 1239
-17 -247 1278
-13 -246 1273
-9 -239 1239
-6 -244 1262
-2 -244 1263
1 -248 1285
5 -245 1269
9 -261 1352
12 -249 1289
15 -240 1241
20 -249 1287
24 -251 1299
27 -245 1267
32 -256 1325
36 -258 1332
40 -262 1354
43 -256 1323
44 -238 1232
52 -262 1352
53 -245 1266
56 -244 1260
65 -268 1382
68 -263 1357
70 -255 1314
70 -240 1239
73 -240 1237
79 -248 1277
89 -265 1369
92 -263 1355
90 -248 1277
95 -251 1295
99 -251 1294
104 -255 1311
112 -263 1355
100 -227 1170
0 0 0
0 0 0
370 -776 3981
365 -743 3811
366 -722 3703
0 0 0
0 0 0
367 -666 3411
366 -646 3310
374 -643 3293
350 -586 2997
371 -607 3104
378 -602 3081
388 -605 3094
396 -604 3085
396 -589 3009
0 0 0
400 -569 2906
413 -577 2943
426 -583 2971
432 -579 2950
447 -587 2990
451 -581 2961
463 -585 2979
471 -584 2974
479 -584 2969
494 -591 3004
499 -586 2979
511 -590 2999
520 -591 3000
530 -593 3007
530 -582 2953
494 -534 2707
476 -506 2564
356 -371 1880
0 0 0
576 -586 2963
573 -574 2902
550 -543 2741
0 0 0
408 -389 1965
382 -359 1813
385 -357 1800
341 -312 1572
282 -254 1279
258 -228 1152
239 -209 1051
246 -212 1069
0 0 0
0 0 0
163 -134 673
0 0 0
172 -137 692
0 0 0
0 0 0
133 -102 514
0 0 0
0 0 0
65 -46 236
1277 -967 4813
6 -1 8
39 -25 130
61 -41 209
0 0 0
0 0 0
0 0 0
0 0 0
0 0 0
0 0 0
0 0 0
0 0 0
0 0 0
0 0 0
0 0 0
0 0 0
0 0 0
0 0 0
0 0 0
0 0 0
0 0 0
0 0 0
0 0 0
0 0 0
0 0 0
0 0 0
0 0 0
0 0 0
0 0 0
0 0 0
0 0 0
1043 -586 2838
1064 -593 2869
1065 -588 2845
1086 -595 2873
1080 -587 2832
1066 -575 2771
1073 -574 2764
1101 -584 2810
1090 -574 2758
1094 -572 2742
1089 -565 2706
1095 -564 2698
1094 -559 2673
1101 -558 2666
1092 -550 2622
1104 -551 2627
1108 -549 2614
1093 -538 2557
1104 -540 2561
1111 -539 2556
1103 -532 2516
1098 -525 2484
1099 -522 2466
1103 -520 2453
1105 -518 2438
1106 -515 2421
1092 -505 2371
1087 -499 2339
1089 -496 2325
1091 -494 2311
1072 -483 2253
1103 -493 2299
1070 -475 2212
1099 -485 2254
1100 -482 2239
1106 -482 2234
1101 -477 2206
1093 -470 2173
1108 -473 2184
1108 -470 2167
1113 -470 2161
1122 -471 2162
1121 -467 2143
1124 -466 2133
1123 -463 2115
1135 -465 2122
1125 -458 2086
1137 -460 2092
1131 -455 2066
1138 -455 2063
1141 -454 2053
1143 -452 2041
1137 -447 2014
1142 -446 2008
-491 -177 837
-490 -177 841
-486 -177 841
-483 -177 841
-477 -176 837
-477 -177 844
-477 -178 849
-479 -180 860
-466 -176 844
-476 -181 867
-489 -187 898
-484 -186 896
-470 -182 876
-503 -196 946
-662 -260 1253
-1078 -426 2056
-1079 -429 2073
-1075 -430 2081
-1068 -430 2084
-1059 -429 2083
-1049 -427 2078
-1044 -428 2085
-1035 -427 2083
-1029 -428 2088
-1021 -427 2088
-1008 -425 2077
-1001 -424 2079
-991 -423 2076
-987 -424 2084
-963 -417 2049
-966 -421 2071
-964 -423 2084
-958 -423 2087
-952 -423 2091
-939 -420 2079
-922 -416 2059
-915 -416 2060
-898 -411 2039
-893 -412 2046
-886 -411 2046
-881 -412 2050
-865 -407 2030
-859 -408 2034
-848 -406 2026
-839 -404 2020
-843 -409 2048
-838 -410 2055
-829 -409 2049
-811 -403 2021
-782 -391 1967
-799 -403 2027
-794 -404 2034
-791 -406 2043
-770 -398 2007
-753 -392 1980
-762 -400 2022
-752 -398 2014
-751 -401 2031
-753 -406 2054
-738 -401 2032
-723 -396 2010
-718 -397 2015
-715 -399 2025
-729 -410 2085
-713 -405 2059
-710 -407 2070
-708 -409 2086
-696 -406 2070
-686 -404 2061
-683 -406 2073
-667 -400 2045
-645 -390 1996
-662 -405 2071
-654 -403 2065
-648 -404 2068
-633 -398 2043
-635 -403 2069
-632 -405 2081
-624 -404 2077
-612 -401 2059
-606 -401 2062
-600 -401 2066
-599 -405 2085
-585 -399 2058
-577 -398 2053
-579 -404 2085
-574 -405 2088
-568 -405 2091
-562 -405 2093
-559 -408 2107
-549 -405 2094
-540 -403 2083
-537 -405 2099
-530 -405 2099
-526 -407 2109
-519 -406 2104
-510 -404 2097
-504 -405 2099
-495 -402 2089
-491 -404 2096
-505 -420 2185
-597 -504 2616
-699 -598 3106
-698 -605 3143
-684 -601 3125
-680 -605 3147
-669 -604 3143
-662 -606 3155
-658 -611 3183
-648 -610 3180
-641 -613 3196
-629 -611 3184
-621 -612 3189
-613 -613 3200
-608 -618 3226
-594 -613 3199
-589 -618 3228
-579 -617 3223
-570 -618 3230
-564 -621 3247
-552 -619 3237
-543 -620 3244
-534 -620 3243
-523 -619 3240
-515 -621 3251
-504 -619 3240
-493 -618 3232
-484 -618 3234
-475 -619 3241
-466 -620 3246
-456 -619 3244
-447 -620 3246
-437 -619 3242
-428 -619 3245
-420 -621 3256
-409 -620 3250
-400 -621 3254
-389 -618 3241
-380 -619 3248
-370 -619 3247
-361 -619 3250
-352 -620 3255
-342 -619 3246
-332 -619 3247
-323 -619 3250
-313 -618 3245
-304 -619 3247
-294 -619 3250
-284 -617 3242
-275 -618 3244
-266 -618 3248
-257 -620 3257
-257 -645 3387
-293 -762 4003
-297 -805 4229
-291 -823 4319
-315 -930 4881
0 0 0
-24 -87 463
-12 -51 271
-20 -82 436
-26 -107 566
-44 -187 985
0 0 0
0 0 0
0 0 0
-40 -226 1192
-37 -233 1226
-35 -239 1261
-31 -238 1253
-27 -234 1234
-22 -226 1191
-21 -250 1314
-17 -244 1285
-13 -242 1271
-9 -244 1285
-6 -255 1340
-2 -239 1258
1 -242 1275
5 -258 1357
8 -240 1262
11 -224 1176
16 -253 1329
20 -253 1332
24 -253 1329
27 -246 1295
31 -242 1272
35 -248 1303
37 -237 1245
41 -239 1258
46 -245 1285
47 -230 1210
53 -241 1266
58 -247 1297
63 -253 1329
64 -241 1264
67 -242 1267
73 -247 1296
75 -242 1270
86 -265 1386
87 -257 1346
83 -234 1228
94 -253 1326
99 -256 1341
101 -252 1318
107 -257 1343
100 -231 1206
99 -220 1153
0 0 0
384 -820 4273
373 -772 4021
0 0 0
355 -691 3596
386 -730 3799
0 0 0
356 -636 3307
366 -635 3305
363 -615 3196
364 -600 3119
361 -581 3020
376 -591 3070
388 -595 3091
405 -607 3151
0 0 0
386 -553 2869
405 -568 2945
417 -573 2969
427 -575 2979
435 -574 2970
441 -570 2950
454 -576 2981
464 -577 2985
470 -574 2969
484 -581 3000
491 -579 2991
500 -579 2988
510 -580 2992
519 -581 2997
523 -576 2968
523 -566 2918
505 -538 2768
425 -444 2288
0 0 0
458 -464 2388
559 -560 2875
585 -577 2963
552 -536 2750
0 0 0
420 -395 2026
378 -350 1795
384 -351 1796
318 -286 1465
262 -231 1186
250 -217 1114
244 -210 1074
234 -198 1015
0 0 0
0 0 0
0 0 0
0 0 0
152 -120 612
164 -128 653
96 -72 370
0 0 0
0 0 0
123 -91 464
0 0 0
16 -8 47
1289 -950 4802
24 -14 74
61 -40 207
0 0 0
0 0 0
0 0 0
0 0 0
0 0 0
0 0 0
0 0 0
0 0 0
0 0 0
0 0 0
0 0 0
0 0 0
0 0 0
0 0 0
0 0 0
0 0 0
0 0 0
0 0 0
0 0 0
0 0 0
0 0 0
0 0 0
0 0 0
0 0 0
0 0 0
0 0 0
0 0 0
1033 -571 2811
1063 -583 2868
1072 -583 2864
1081 -583 2862
1085 -581 2848
1086 -577 2824
1084 -571 2794
1100 -575 2808
1092 -567 2764
1089 -560 2731
1084 -554 2697
1096 -556 2702
1078 -542 2633
1092 -545 2645
1081 -536 2597
1095 -539 2608
1093 -534 2580
1099 -533 2572
1092 -526 2535
1083 -517 2491
1097 -521 2503
1085 -512 2456
1098 -514 2463
1083 -503 2411
1096 -506 2419
1081 -495 2366
1052 -479 2283
1049 -474 2259
1062 -477 2268
1046 -467 2216
1105 -490 2322
1077 -474 2247
1073 -469 2219
1106 -481 2271
1105 -477 2250
1103 -473 2228
1099 -469 2203
1096 -464 2179
1103 -464 2176
1111 -465 2176
1112 -462 2160
1119 -463 2158
1129 -464 2161
1127 -460 2141
1124 -456 2117
1136 -458 2124
1133 -454 2102
1134 -452 2088
1138 -451 2080
1138 -448 2063
1140 -446 2051
1137 -443 2031
1141 -442 2024
1148 -442 2020
-497 -176 848
-492 -176 846
-478 -171 828
-480 -173 837
-466 -169 819
-474 -173 840
-469 -172 837
-465 -172 835
-469 -174 849
-463 -173 845
-470 -177 863
-481 -182 890
-473 -180 882
-492 -189 926
-695 -268 1317
-1080 -420 2060
-1080 -423 2077
-1076 -424 2084
-1068 -423 2085
-1059 -422 2083
-1051 -422 2085
-1043 -421 2085
-1035 -421 2084
-1024 -419 2079
-1022 -421 2092
-1011 -419 2084
-1001 -418 2080
-989 -416 2073
-982 -416 2075
-970 -413 2066
-966 -414 2072
-958 -414 2074
-955 -415 2083
-949 -416 2087
-943 -416 2090
-921 -409 2059
-905 -405 2038
-904 -407 2055
-887 -403 2033
-878 -401 2028
-875 -403 2039
-868 -403 2040
-860 -402 2038
-859 -405 2054
-844 -401 2035
-839 -401 2041
-832 -401 2041
-815 -396 2017
-812 -397 2027
-776 -382 1952
-782 -389 1986
-792 -397 2030
-782 -395 2022
-781 -398 2037
-765 -393 2013
-755 -391 2006
-757 -395 2030
-753 -396 2037
-755 -401 2062
-736 -394 2030
-724 -391 2015
-716 -390 2010
-715 -393 2028
-711 -394 2034
-714 -399 2064
-707 -399 2063
-701 -399 2065
-701 -402 2085
-687 -398 2066
-681 -398 2068
-671 -396 2056
-664 -396 2056
-665 -400 2080
-660 -401 2086
-647 -397 2067
-634 -393 2048
-636 -398 2073
-631 -399 2082
-623 -397 2075
-617 -398 2077
-603 -393 2054
-602 -396 2074
-598 -398 2082
-592 -398 2085
-582 -396 2072
-576 -395 2073
-573 -398 2088
-571 -401 2102
-558 -396 2079
-553 -397 2087
-546 -397 2085
-542 -398 2095
-534 -397 2088
-529 -398 2094
-523 -398 2098
-512 -394 2077
-509 -397 2093
-500 -395 2084
-499 -399 2104
-495 -401 2117
-505 -414 2186
-604 -502 2649
-688 -579 3056
-698 -595 3145
-691 -597 3156
-678 -594 3141
-671 -597 3155
-664 -599 3167
-655 -599 3171
-646 -599 3173
-640 -602 3191
-626 -598 3169
-623 -604 3201
-614 -605 3207
-607 -607 3218
-598 -608 3226
-587 -607 3220
-580 -609 3233
-570 -609 3232
-560 -608 3230
-552 -610 3239
-542 -609 3236
-533 -609 3238
-524 -610 3242
-513 -609 3239
-503 -608 3235
-494 -609 3239
-485 -610 3246
-475 -609 3242
-466 -610 3245
-456 -610 3244
-447 -610 3246
-437 -610 3247
-427 -608 3241
-417 -609 3242
-408 -609 3246
-399 -610 3249
-390 -611 3254
-379 -607 3236
-370 -609 3245
-361 -610 3252
-351 -610 3250
-342 -609 3250
-332 -609 3249
-322 -608 3244
-313 -609 3250
-304 -611 3257
-294 -609 3247
-285 -609 3249
-275 -609 3251
-265 -608 3243
-258 -613 3273
-263 -648 3459
-263 -675 3601
-275 -734 3918
-290 -806 4301
-311 -903 4819
-16 -56 305
-18 -67 362
-17 -64 347
-16 -65 353
-25 -105 563
0 0 0
0 0 0
-33 -160 857
0 0 0
-37 -209 1119
-38 -234 1253
-33 -226 1209
-31 -238 1271
-28 -240 1281
-23 -225 1202
-19 -228 1221
-17 -245 1308
-13 -243 1300
-9 -241 1289
-5 -231 1235
-2 -234 1250
1 -248 1324
5 -244 1304
8 -241 1288
12 -241 1290
16 -242 1291
20 -243 1298
23 -237 1266
28 -247 1318
32 -249 1329
34 -237 1267
39 -245 1305
44 -252 1346
48 -252 1345
49 -239 1274
55 -248 1325
55 -231 1233
60 -237 1264
65 -242 1292
67 -236 1256
71 -237 1263
78 -247 1315
85 -257 1367
87 -253 1345
89 -247 1316
91 -242 1287
96 -245 1303
97 -237 1261
104 -246 1307
98 -222 1178
93 -203 1081
0 0 0
0 0 0
368 -748 3960
350 -691 3657
0 0 0
0 0 0
372 -672 3555
0 0 0
0 0 0
368 -614 3244
353 -573 3023
379 -601 3173
371 -573 3024
387 -585 3083
391 -577 3041
386 -558 2939
0 0 0
396 -547 2880
413 -559 2942
429 -569 2995
433 -562 2957
442 -563 2962
451 -564 2963
462 -567 2978
472 -569 2985
475 -562 2948
496 -576 3019
495 -565 2960
508 -569 2983
517 -570 2985
528 -572 2994
526 -560 2931
502 -526 2754
353 -362 1896
0 0 0
0 0 0
566 -558 2910
572 -555 2894
581 -556 2898
0 0 0
414 -383 1998
367 -335 1743
385 -347 1805
314 -278 1447
277 -242 1258
255 -219 1140
266 -225 1172
239 -199 1035
229 -188 978
169 -136 708
0 0 0
0 0 0
0 0 0
140 -107 555
0 0 0
147 -110 570
0 0 0
0 0 0
70 -48 253
44 -29 151
29 -17 94
50 -32 169
0 0 0
0 0 0
0 0 0
0 0 0
0 0 0
0 0 0
0 0 0
0 0 0
0 0 0
0 0 0
0 0 0
0 0 0
0 0 0
0 0 0
0 0 0
0 0 0
0 0 0
0 0 0
0 0 0
0 0 0
0 0 0
0 0 0
0 0 0
0 0 0
0 0 0
0 0 0
0 0 0
0 0 0
1042 -568 2838
1060 -573 2860
1069 -573 2857
1079 -574 2859
1091 -575 2863
1082 -566 2815
1070 -555 2757
1083 -558 2767
1096 -560 2776
1085 -550 2722
1081 -544 2690
1093 -546 2694
1072 -531 2621
1080 -531 2618
1096 -535 2634
1100 -533 2620
1075 -517 2538
1067 -509 2497
1093 -518 2538
1077 -507 2480
1091 -510 2491
1038 -482 2350
1064 -490 2388
1033 -472 2299
1043 -474 2303
1054 -476 2309
1047 -469 2275
1044 -465 2249
1085 -480 2320
1070 -470 2268
1077 -470 2265
1092 -474 2279
1088 -469 2253
1108 -474 2276
1120 -476 2282
1119 -473 2263
1119 -470 2244
1095 -457 2179
1113 -462 2198
1107 -456 2169
1109 -454 2156
1117 -455 2155
1127 -456 2157
1137 -457 2160
1133 -453 2136
1136 -451 2126
1134 -448 2106
1131 -444 2084
1132 -442 2070
1137 -441 2063
1140 -440 2054
1143 -438 2043
1137 -434 2018
1144 -434 2015
-483 -168 824
-482 -169 828
-487 -172 844
-479 -170 837
-475 -169 834
-476 -171 844
-470 -170 838
-469 -170 843
-464 -170 841
-471 -173 861
-483 -179 888
-468 -174 867
-494 -185 921
-503 -190 946
-736 -280 1394
-1085 -415 2071
-1079 -415 2076
-1071 -415 2077
-1065 -415 2081
-1055 -414 2078
-1049 -414 2081
-1043 -415 2085
-1034 -414 2083
-1024 -413 2081
-1020 -413 2088
-1011 -412 2085
-998 -410 2076
-992 -410 2080
-988 -411 2088
-968 -406 2062
-966 -408 2074
-963 -409 2084
-957 -409 2087
-950 -410 2091
-945 -410 2096
-923 -404 2065
-904 -398 2039
-895 -397 2036
-895 -400 2051
-873 -393 2019
-874 -396 2038
-871 -397 2047
-866 -399 2054
-853 -395 2040
-858 -401 2069
-844 -397 2054
-836 -396 2052
-831 -397 2057
-818 -394 2043
-775 -376 1953
-778 -380 1976
-782 -386 2005
-780 -388 2019
-770 -386 2009
-749 -378 1972
-750 -382 1994
-751 -386 2015
-760 -394 2058
-748 -391 2045
-737 -388 2033
-738 -392 2055
-734 -393 2063
-727 -393 2061
-710 -387 2034
-711 -391 2055
-708 -393 2068
-704 -395 2077
-694 -392 2067
-690 -393 2074
-679 -391 2063
-663 -385 2034
-661 -388 2049
-662 -392 2073
-659 -394 2083
-645 -389 2062
-635 -387 2052
-633 -390 2065
-627 -390 2067
-621 -390 2071
-614 -390 2070
-607 -389 2067
-603 -391 2076
-602 -394 2097
-587 -388 2067
-570 -381 2031
-579 -391 2085
-568 -388 2070
-570 -394 2100
-561 -392 2094
-554 -391 2090
-547 -391 2090
-539 -390 2084
-535 -391 2092
-525 -389 2082
-524 -392 2100
-516 -391 2095
-511 -392 2102
-503 -391 2097
-494 -388 2083
-491 -392 2102
-504 -407 2182
-604 -494 2650
-695 -575 3089
-694 -582 3127
-686 -584 3134
-679 -586 3149
-671 -587 3156
-664 -589 3170
-654 -588 3165
-647 -591 3180
-642 -594 3200
-627 -589 3173
-622 -594 3201
-614 -596 3210
-606 -597 3215
-596 -596 3212
-585 -595 3206
-581 -601 3240
-571 -600 3238
-563 -602 3248
-552 -601 3242
-543 -601 3247
-533 -601 3245
-525 -602 3251
-514 -601 3245
-502 -598 3233
-494 -600 3244
-483 -598 3233
-475 -600 3246
-466 -600 3247
-456 -599 3241
-446 -599 3243
-436 -598 3237
-427 -600 3245
-418 -600 3246
-407 -598 3238
-399 -600 3251
-387 -596 3230
-379 -599 3244
-370 -599 3248
-360 -599 3247
-352 -601 3254
-341 -599 3244
-332 -600 3252
-323 -600 3254
-312 -598 3242
-304 -601 3257
-294 -600 3253
-285 -600 3252
-275 -599 3248
-266 -601 3261
-258 -605 3281
-266 -647 3507
-263 -665 3605
-274 -720 3903
-285 -782 4242
-307 -880 4771
-21 -69 382
-24 -84 459
-10 -41 228
-14 -58 319
-32 -128 700
0 0 0
-36 -161 876
-41 -194 1057
0 0 0
-41 -226 1227
-38 -227 1234
-35 -236 1283
-31 -232 1262
-29 -241 1311
-23 -227 1233
-22 -246 1339
-15 -217 1179
-12 -222 1205
-9 -230 1252
-6 -237 1289
-2 -228 1238
1 -223 1209
5 -237 1287
8 -237 1289
12 -237 1289
15 -226 1227
19 -230 1250
23 -232 1257
27 -239 1294
32 -245 1327
33 -223 1210
37 -225 1219
44 -249 1350
45 -234 1266
47 -225 1219
59 -261 1415
58 -239 1295
63 -245 1326
64 -236 1276
69 -238 1288
75 -247 1338
77 -241 1302
78 -233 1261
83 -237 1280
87 -237 1282
93 -242 1310
101 -255 1378
102 -246 1329
109 -253 1365
102 -229 1235
103 -223 1204
0 0 0
0 0 0
373 -748 4025
362 -702 3776
0 0 0
0 0 0
0 0 0
369 -638 3428
367 -619 3323
0 0 0
384 -614 3293
364 -568 3048
376 -572 3066
388 -577 3091
396 -576 3087
0 0 0
0 0 0
391 -532 2845
412 -549 2935
420 -549 2933
436 -557 2978
443 -556 2968
449 -552 2948
456 -551 2941
467 -554 2954
484 -563 3004
486 -555 2961
493 -553 2946
501 -553 2944
517 -561 2983
524 -559 2972
515 -540 2873
460 -474 2521
0 0 0
0 0 0
484 -476 2525
555 -539 2856
594 -567 3007
534 -502 2660
0 0 0
407 -371 1964
380 -341 1807
383 -339 1794
308 -268 1420
290 -249 1317
246 -208 1100
224 -186 985
206 -169 892
234 -190 1002
178 -141 747
156 -122 646
157 -121 640
0 0 0
0 0 0
0 0 0
110 -80 424
98 -70 370
105 -74 390
41 -27 143
4 0 1
17 -9 50
30 -17 96
59 -38 202
108 -71 376
0 0 0
0 0 0
0 0 0
0 0 0
0 0 0
0 0 0
0 0 0
0 0 0
0 0 0
0 0 0
0 0 0
0 0 0
0 0 0
0 0 0
0 0 0
0 0 0
0 0 0
0 0 0
0 0 0
0 0 0
0 0 0
0 0 0
0 0 0
0 0 0
0 0 0
0 0 0
1057 -567 2879
1062 -565 2866
1070 -565 2863
1079 -565 2860
1086 -564 2852
1081 -557 2813
1095 -559 2823
1086 -551 2776
1085 -546 2750
1090 -544 2738
1094 -542 2723
1093 -537 2696
1081 -528 2645
1077 -522 2612
1070 -514 2571
1073 -512 2557
1086 -514 2566
1056 -496 2473
1098 -513 2552
1087 -504 2503
1050 -483 2397
1052 -481 2382
1061 -481 2383
1073 -483 2390
1043 -467 2304
1051 -467 2304
1065 -470 2315
1078 -473 2324
1094 -476 2339
1092 -473 2317
1109 -477 2333
1103 -471 2302
1111 -471 2301
1123 -473 2308
1116 -467 2275
1128 -469 2282
1122 -464 2251
1112 -457 2215
1106 -452 2185
1110 -450 2176
1110 -448 2159
1119 -449 2160
1124 -448 2152
1127 -446 2142
1127 -443 2125
1132 -443 2119
1137 -442 2112
1136 -439 2095
1140 -438 2087
1141 -436 2072
1138 -432 2051
1138 -430 2036
1137 -427 2018
1136 -424 2002
-485 -166 828
-481 -166 828
-477 -166 827
-482 -168 842
-470 -165 826
-476 -168 843
-468 -166 836
-467 -167 840
-471 -169 853
-472 -171 862
-487 -177 896
-466 -171 865
-493 -182 920
-508 -188 956
-780 -292 1479
-1082 -407 2066
-1078 -408 2076
-1072 -409 2079
-1059 -406 2071
-1056 -408 2081
-1049 -408 2082
-1041 -407 2084
-1033 -407 2083
-1028 -407 2089
-1017 -406 2084
-1009 -405 2083
-1000 -404 2080
-993 -404 2083
-981 -402 2073
-965 -398 2057
-960 -399 2063
-964 -403 2088
-955 -402 2085
-947 -402 2085
-943 -403 2092
-925 -398 2070
-912 -395 2057
-897 -392 2042
-879 -386 2017
-892 -395 2064
-875 -390 2042
-863 -388 2030
-857 -388 2032
-865 -394 2070
-843 -387 2033
-846 -392 2059
-837 -390 2054
-825 -388 2042
-813 -385 2032
-784 -375 1977
-788 -379 2003
-782 -379 2006
-777 -380 2012
-756 -373 1974
-753 -374 1985
-747 -374 1986
-745 -376 1999
-757 -386 2050
-751 -386 2054
-735 -381 2028
-732 -383 2039
-723 -381 2032
-720 -383 2043
-716 -384 2050
-714 -387 2066
-704 -384 2056
-699 -385 2063
-695 -386 2069
-690 -387 2077
-675 -382 2050
-666 -381 2043
-664 -383 2060
-663 -386 2075
-655 -385 2071
-646 -384 2066
-637 -382 2058
-632 -383 2065
-631 -386 2083
-621 -384 2072
-612 -382 2063
-606 -382 2064
-600 -382 2067
-595 -384 2075
-592 -385 2085
-582 -383 2073
-578 -385 2084
-572 -385 2086
-564 -383 2079
-557 -383 2077
-552 -384 2085
-545 -384 2084
-543 -387 2102
-536 -386 2100
-528 -385 2095
-524 -387 2104
-514 -384 2090
-514 -388 2114
-507 -387 2112
-496 -384 2093
-494 -387 2112
-499 -397 2165
-590 -475 2593
-693 -565 3084
-689 -569 3107
-691 -579 3160
-668 -567 3099
-664 -571 3123
-664 -580 3168
-655 -580 3171
-643 -578 3161
