VERSION 0.7
FIELDS x y z
SIZE 4 4 4
TYPE I I I
COUNT 1 1 1
WIDTH 3648
HEIGHT 1
VIEWPOINT 0.0 0.0 0.0 1.0 0.0 0.0 0.0
POINTS 3648
DATA ascii
-291 362 1115
-290 365 1127
-287 365 1127
-281 362 1119
-279 363 1124
-276 364 1126
-271 362 1122
-269 364 1127
-262 360 1116
-259 360 1117
-256 360 1118
-251 358 1114
-248 359 1117
-244 358 1114
-240 357 1110
-237 358 1115
-234 358 1114
-231 358 1118
-227 357 1114
-224 358 1119
-222 360 1124
-217 357 1117
-214 359 1123
-209 356 1115
-207 357 1119
-203 357 1117
-197 352 1104
-198 359 1127
-194 358 1123
-191 359 1126
-188 361 1134
-184 360 1130
-180 358 1126
-178 360 1131
-175 362 1138
-171 360 1132
-168 361 1137
-164 360 1135
-159 356 1123
-159 363 1146
-153 359 1131
-151 360 1137
-148 362 1142
-144 361 1140
-142 364 1150
-137 360 1138
-135 363 1146
-131 361 1142
-127 360 1139
-124 362 1146
-120 361 1142
-119 366 1160
-111 354 1121
-104 340 1078
-97 329 1041
-88 311 983
-82 299 948
-79 298 944
-75 292 926
-71 290 919
-66 281 891
-64 281 891
-61 283 895
-58 279 883
-56 281 890
-50 269 852
-49 276 876
-48 283 897
-45 280 887
-42 277 880
-38 270 855
-36 276 877
-35 286 910
-31 278 883
-29 284 903
-27 287 913
-24 286 909
-22 289 918
-19 296 939
-17 307 978
-15 323 1028
-13 335 1067
-10 343 1094
-7 353 1124
-4 353 1125
0 355 1132
2 355 1131
5 353 1124
9 356 1136
12 355 1132
15 353 1125
19 351 1120
22 354 1128
26 355 1133
29 355 1131
32 352 1121
36 355 1132
39 357 1138
43 357 1136
46 357 1139
49 355 1132
53 355 1130
56 356 1134
60 357 1137
63 357 1139
66 356 1134
70 357 1137
73 358 1139
76 356 1132
80 356 1134
83 357 1136
87 357 1136
90 357 1137
94 359 1142
97 357 1136
102 362 1151
104 356 1132
107 355 1130
111 357 1136
114 357 1134
118 358 1138
121 357 1135
124 357 1134
127 354 1126
132 359 1139
135 359 1141
137 355 1128
141 355 1127
146 359 1139
148 357 1134
152 358 1136
156 359 1140
159 357 1134
163 360 1141
166 359 1137
170 359 1138
173 359 1136
176 357 1132
180 359 1138
183 359 1136
186 357 1130
190 358 1133
192 356 1125
198 360 1139
199 356 1125
203 358 1130
208 360 1135
211 359 1135
215 361 1138
218 360 1134
221 359 1131
224 358 1129
229 361 1137
231 358 1128
234 358 1126
239 360 1131
243 361 1134
247 362 1137
250 360 1132
252 359 1126
257 361 1133
259 359 1126
265 362 1136
267 361 1131
269 358 1123
275 362 1134
276 359 1123
279 358 1120
284 360 1127
290 363 1133
290 359 1121
292 357 1112
298 360 1124
303 362 1126
305 360 1120
310 361 1125
314 362 1126
315 360 1117
320 361 1122
323 361 1122
327 361 1120
332 363 1124
335 363 1124
340 364 1126
340 360 1115
345 362 1120
349 363 1121
352 362 1118
358 364 1124
363 366 1129
365 364 1122
369 365 1124
374 366 1126
376 365 1121
379 365 1119
384 366 1124
385 364 1115
393 368 1126
399 370 1132
399 367 1122
402 367 1119
408 369 1125
414 371 1130
416 369 1124
417 367 1117
426 372 1129
425 368 1118
431 370 1123
435 371 1123
441 372 1128
441 369 1117
444 369 1114
451 371 1121
452 370 1114
456 370 1115
461 371 1117
465 371 1116
469 372 1116
474 372 1117
474 370 1109
482 374 1118
489 376 1124
487 372 1110
493 373 1114
496 373 1110
500 373 1110
504 374 1110
507 373 1108
513 375 1111
520 378 1118
525 378 1118
528 378 1117
533 379 1118
543 383 1129
548 384 1130
548 381 1120
557 385 1129
563 387 1132
565 386 1128
570 387 1130
568 382 1116
579 388 1129
584 388 1129
582 385 1117
591 388 1126
591 386 1117
601 390 1127
600 387 1117
608 389 1122
613 390 1123
617 390 1121
616 387 1110
621 388 1112
625 388 1110
626 386 1103
634 389 1109
636 388 1105
638 387 1099
637 384 1088
647 388 1098
649 386 1093
-599 366 994
-592 363 989
-588 363 991
-588 365 998
-585 365 1000
-583 366 1004
-577 365 1002
-567 360 991
-569 364 1003
-563 362 1000
-568 368 1017
-558 363 1007
-554 363 1006
-554 365 1014
-548 363 1012
-549 366 1021
-548 368 1027
-551 372 1041
-554 376 1056
-555 379 1066
-559 384 1081
-548 379 1069
-535 373 1053
-515 361 1020
-508 358 1015
-503 357 1013
-497 355 1009
-496 357 1016
-494 358 1020
-494 361 1028
-494 363 1037
-487 360 1030
-484 361 1033
-483 362 1038
-474 358 1029
-471 358 1031
-469 359 1035
-463 357 1030
-461 358 1033
-458 358 1036
-461 363 1051
-468 371 1078
-466 372 1082
-456 367 1068
-445 361 1051
-442 361 1054
-438 361 1054
-430 357 1043
-428 358 1049
-427 360 1055
-424 360 1057
-420 360 1057
-418 361 1060
-415 361 1063
-412 361 1064
-407 360 1063
-406 362 1069
-402 361 1069
-397 360 1066
-392 358 1062
-390 360 1069
-382 356 1057
-382 359 1067
-379 359 1068
-376 359 1071
-373 360 1073
-370 360 1075
-371 364 1088
-365 361 1080
-363 362 1085
-360 363 1087
-356 362 1087
-355 365 1096
-349 363 1090
-347 363 1094
-339 359 1081
-340 363 1095
-335 362 1091
-331 361 1090
-332 365 1105
-328 365 1103
-322 362 1095
-318 362 1096
-316 363 1100
-312 362 1098
-309 363 1102
-303 360 1093
-301 361 1098
-298 361 1100
-296 363 1105
-294 365 1114
-289 363 1107
-287 364 1112
-281 362 1106
-277 361 1103
-276 364 1114
-269 359 1100
-268 362 1109
-265 362 1109
-261 362 1111
-257 361 1109
-255 363 1115
-247 356 1096
-247 360 1108
-242 359 1105
-238 357 1101
-236 360 1109
-232 359 1108
-229 358 1106
-227 360 1113
-223 361 1115
-219 359 1110
-216 359 1110
-212 359 1111
-209 360 1114
-204 357 1105
-202 359 1112
-198 358 1111
-195 359 1113
-192 358 1112
-189 359 1115
-185 358 1113
-183 360 1118
-180 362 1125
-177 361 1125
-173 360 1121
-168 358 1116
-166 361 1126
-163 360 1123
-159 360 1123
-155 359 1120
-153 361 1128
-148 358 1119
-147 363 1134
-142 360 1124
-139 360 1125
-137 363 1134
-133 362 1132
-128 359 1122
-125 358 1119
-123 361 1132
-119 362 1135
-116 363 1137
-109 352 1102
-104 345 1081
-95 326 1020
-87 310 971
-83 305 955
-77 295 926
-74 294 921
-71 292 914
-70 298 934
-66 295 926
-64 296 928
-56 274 861
-53 273 855
-53 285 894
-51 289 906
-45 270 846
-41 263 827
-39 266 836
-41 290 912
-37 284 893
-34 281 883
-32 287 902
-28 280 879
-27 287 902
-24 287 901
-22 291 914
-19 295 928
-17 308 970
-15 319 1004
-13 334 1052
-10 343 1080
-7 352 1109
-4 354 1117
0 355 1118
2 356 1123
5 352 1109
9 354 1117
12 354 1117
15 354 1117
19 354 1116
22 354 1116
25 355 1119
29 355 1119
32 354 1116
36 357 1125
39 358 1130
42 356 1122
46 357 1126
49 356 1124
52 356 1124
56 359 1132
59 357 1125
63 359 1132
66 357 1124
69 357 1126
73 357 1125
76 356 1124
79 356 1123
83 357 1124
86 358 1128
90 357 1126
93 358 1128
96 357 1124
100 358 1127
102 355 1117
107 358 1128
110 358 1126
114 360 1132
116 357 1123
120 357 1122
124 358 1128
127 357 1124
130 357 1123
134 358 1126
137 357 1122
141 358 1126
144 359 1128
148 361 1133
151 360 1130
154 359 1127
159 361 1133
161 359 1127
163 356 1116
168 358 1122
171 357 1121
175 358 1124
180 361 1133
181 358 1120
183 355 1111
190 361 1131
192 358 1122
196 360 1127
197 357 1116
203 361 1129
206 359 1123
209 359 1123
212 359 1120
217 361 1127
219 359 1120
222 359 1119
226 359 1118
231 362 1128
233 359 1118
238 361 1124
241 361 1122
244 360 1119
246 358 1114
251 360 1120
255 361 1121
259 362 1123
264 364 1131
266 362 1123
269 361 1120
269 357 1107
277 363 1124
279 361 1118
282 361 1116
286 361 1116
288 360 1112
294 363 1120
297 362 1118
300 362 1117
303 362 1114
307 362 1115
312 363 1119
312 360 1108
318 362 1113
322 363 1115
324 361 1109
328 362 1111
333 363 1114
333 360 1103
339 363 1111
342 362 1108
344 361 1103
353 366 1118
356 366 1116
355 362 1104
361 364 1109
364 364 1107
364 361 1097
374 367 1116
377 366 1111
383 369 1120
386 368 1117
386 365 1106
392 367 1110
395 367 1110
403 371 1120
403 368 1110
408 369 1112
413 370 1114
416 369 1112
418 368 1107
423 370 1111
428 370 1112
430 370 1109
436 372 1114
441 373 1116
446 374 1119
444 369 1102
450 372 1109
452 370 1104
458 372 1109
465 375 1114
467 374 1110
466 370 1099
474 373 1106
481 376 1114
486 377 1116
483 372 1098
487 373 1100
492 373 1100
498 375 1105
502 375 1103
510 379 1113
512 377 1107
510 374 1094
522 380 1112
527 381 1113
529 380 1108
533 380 1108
537 380 1107
545 383 1113
547 382 1108
553 384 1112
559 385 1115
564 386 1115
562 382 1104
567 383 1104
572 384 1105
581 387 1114
585 387 1112
585 385 1103
587 384 1099
602 391 1118
602 389 1110
609 391 1113
605 386 1098
606 384 1091
620 391 1107
618 388 1097
625 389 1100
628 389 1097
625 384 1083
635 388 1092
635 386 1085
642 388 1087
643 386 1081
-595 367 986
-585 363 977
-587 366 988
-584 366 990
-587 370 1002
-581 368 1000
-575 367 997
-572 367 1000
-565 365 995
-563 365 998
-557 364 996
-552 363 995
-555 367 1007
-549 365 1005
-547 366 1008
-544 366 1012
-548 371 1027
-548 373 1035
-550 377 1047
-553 381 1060
-548 381 1060
-551 385 1073
-541 380 1062
-515 365 1020
-503 358 1003
-499 358 1004
-497 359 1008
-488 355 999
-488 357 1006
-491 362 1022
-489 363 1026
-488 365 1032
-481 362 1026
-474 359 1019
-474 361 1026
-465 357 1015
-464 359 1023
-464 361 1032
-455 357 1021
-458 361 1035
-461 366 1050
-487 390 1121
-473 382 1098
-454 369 1062
-443 363 1045
-435 359 1037
-434 361 1043
-431 361 1044
-426 360 1043
-426 362 1051
-421 362 1050
-417 360 1047
-413 360 1048
-412 362 1054
-403 357 1042
-401 358 1045
-396 357 1043
-397 360 1055
-392 359 1052
-392 362 1062
-390 363 1065
-386 362 1065
-377 357 1050
-374 358 1054
-374 360 1063
-372 362 1067
-369 362 1070
-366 363 1074
-365 365 1081
-358 361 1071
-357 363 1077
-350 359 1067
-348 361 1074
-347 364 1083
-346 366 1089
-340 363 1082
-337 364 1086
-334 364 1086
-332 365 1092
-327 363 1087
-325 365 1092
-321 364 1091
-320 366 1099
-314 364 1093
-310 363 1092
-307 364 1093
-302 361 1088
-299 362 1089
-296 362 1091
-292 362 1092
-290 363 1095
-287 364 1099
-283 363 1096
-279 363 1097
-276 363 1098
-272 361 1095
-267 360 1092
-265 361 1095
-263 363 1102
-259 362 1099
-254 361 1096
-251 361 1098
-247 360 1096
-243 358 1089
-241 360 1098
-238 361 1102
-233 359 1095
-229 357 1090
-226 357 1091
-224 359 1098
-221 359 1099
-217 360 1101
-215 361 1104
-210 359 1099
-207 359 1102
-204 360 1104
-200 359 1101
-197 360 1104
-194 360 1106
-191 360 1106
-188 362 1112
-186 363 1116
-181 361 1110
-177 360 1107
-174 359 1107
-171 360 1109
-167 358 1105
-164 359 1107
-161 360 1110
-157 359 1108
-154 360 1111
-151 359 1110
-147 360 1111
-144 360 1114
-140 358 1109
-138 362 1119
-134 359 1112
-131 361 1119
-127 360 1114
-124 359 1113
-121 360 1117
-120 366 1136
-115 363 1127
-108 351 1089
-101 340 1056
-93 322 999
-86 310 961
-81 302 935
-77 296 918
-73 292 907
-71 295 914
-66 287 891
-65 293 911
-57 271 840
-58 284 882
-52 268 833
-51 277 860
-51 289 898
-46 278 863
-44 282 876
-40 274 851
-38 279 868
-36 283 879
-36 298 926
-31 281 873
-29 287 893
-27 295 918
-24 288 898
-21 291 906
-19 295 918
-17 306 955
-15 321 1000
-13 335 1044
-10 342 1066
-7 350 1093
-4 358 1117
0 355 1109
2 358 1116
5 357 1115
9 355 1108
12 358 1116
15 356 1111
19 357 1114
22 357 1115
25 355 1108
29 357 1115
32 355 1109
35 356 1111
38 354 1105
42 355 1108
45 354 1105
48 356 1111
52 357 1115
55 356 1113
59 358 1116
62 357 1114
65 358 1117
69 358 1119
72 357 1115
76 359 1119
79 360 1123
82 356 1112
85 356 1109
88 356 1110
92 358 1116
95 356 1110
99 359 1118
102 356 1111
105 357 1114
108 356 1108
112 358 1115
116 359 1119
120 360 1120
123 360 1121
125 356 1110
129 357 1113
133 359 1116
137 362 1126
140 359 1116
142 357 1109
145 356 1108
150 359 1117
153 360 1118
156 359 1115
160 359 1115
164 361 1120
166 357 1109
170 360 1117
174 360 1117
176 358 1111
180 358 1111
184 361 1119
187 360 1115
192 362 1122
194 359 1112
197 359 1110
202 362 1119
203 357 1104
208 360 1114
211 360 1114
215 361 1114
219 363 1120
222 361 1116
224 359 1108
227 358 1105
233 362 1116
235 360 1109
239 361 1113
242 361 1111
247 362 1115
250 362 1113
253 361 1111
255 360 1107
259 360 1107
261 359 1102
265 360 1105
268 359 1102
274 363 1113
276 361 1107
279 360 1103
284 362 1107
287 362 1107
290 361 1103
295 363 1109
296 361 1101
303 365 1114
306 364 1109
307 362 1102
311 362 1102
315 363 1104
320 365 1109
324 365 1110
326 363 1102
330 363 1103
331 361 1094
335 362 1097
338 361 1093
342 362 1096
349 366 1106
351 364 1099
354 364 1099
356 362 1092
360 363 1094
365 364 1097
367 363 1091
372 365 1096
379 368 1106
380 366 1099
385 367 1101
390 368 1104
393 369 1103
397 369 1104
402 370 1104
407 371 1109
405 367 1093
411 369 1099
413 368 1094
418 369 1097
423 370 1098
425 369 1094
430 370 1097
438 373 1106
437 370 1094
441 371 1095
445 371 1096
447 369 1089
454 372 1097
457 372 1094
463 374 1099
462 370 1087
472 375 1101
474 374 1096
478 375 1096
486 378 1104
483 373 1090
488 374 1091
494 376 1094
496 374 1089
499 374 1087
504 376 1090
510 377 1092
519 381 1103
518 378 1093
527 381 1101
526 378 1090
534 381 1098
536 380 1094
541 381 1095
547 383 1098
552 384 1100
554 383 1094
564 387 1107
564 385 1097
573 388 1105
574 386 1099
580 388 1102
587 390 1106
591 390 1104
592 389 1098
591 385 1088
598 387 1092
600 387 1088
612 392 1101
609 387 1087
614 388 1088
615 387 1081
619 387 1080
627 390 1086
625 386 1074
631 387 1076
640 391 1084
643 390 1081
-594 369 982
-590 369 983
-582 366 978
-585 370 990
-582 370 993
-579 371 996
-576 371 997
-568 368 991
-562 366 988
-556 364 985
-554 365 989
-555 368 999
-553 369 1002
-545 366 996
-538 363 990
-541 367 1004
-540 369 1011
-537 369 1013
-545 377 1036
-549 382 1052
-549 385 1060
-547 386 1066
-539 382 1057
-520 371 1028
-498 358 993
-494 357 993
-490 357 994
-487 357 996
-485 358 999
-483 359 1004
-484 362 1014
-483 364 1020
-481 365 1024
-474 362 1018
-469 360 1014
-465 361 1016
-464 362 1022
-458 360 1017
-450 356 1008
-452 360 1021
-457 367 1041
-460 372 1057
-471 383 1091
-471 386 1100
-445 368 1050
-432 360 1027
-428 360 1029
-427 361 1034
-423 361 1035
-423 363 1042
-417 361 1039
-418 365 1049
-413 364 1047
-406 360 1039
-402 360 1039
-402 363 1048
-397 361 1043
-394 361 1045
-390 360 1044
-389 362 1052
-384 361 1050
-381 361 1052
-375 358 1043
-373 360 1050
-368 358 1046
-367 360 1052
-365 361 1057
-364 364 1066
-360 363 1065
-357 363 1066
-354 364 1070
-349 362 1064
-347 364 1070
-345 365 1075
-341 365 1075
-338 364 1075
-334 363 1073
-329 362 1070
-326 363 1073
-323 363 1075
-325 369 1093
-319 366 1086
-315 365 1085
-311 364 1082
-309 365 1087
-303 362 1077
-300 363 1080
-294 360 1073
-292 361 1077
-291 364 1087
-288 365 1090
-286 366 1094
-281 364 1090
-278 364 1091
-273 362 1085
-270 362 1086
-267 363 1089
-265 365 1096
-260 363 1089
-258 364 1093
-254 363 1094
-249 361 1087
-246 361 1088
-242 360 1086
-241 364 1097
-235 359 1085
-231 359 1083
-228 359 1085
-225 360 1089
-222 360 1091
-219 361 1093
-215 360 1090
-211 359 1087
-210 361 1096
-204 358 1085
-201 358 1086
-199 360 1093
-195 359 1091
-192 359 1091
-189 360 1095
-186 361 1097
-182 360 1096
-180 361 1101
-177 361 1101
-173 361 1101
-169 359 1096
-165 358 1093
-162 358 1093
-159 359 1095
-156 361 1102
-152 358 1096
-150 361 1103
-146 360 1102
-142 359 1097
-140 361 1106
-137 361 1107
-134 362 1111
-130 361 1108
-127 362 1110
-124 361 1109
-121 363 1113
-118 364 1117
-114 364 1117
-107 351 1078
-100 337 1036
-92 321 985
-85 310 952
-80 300 920
-77 298 915
-72 290 892
-71 297 912
-66 287 883
-64 290 892
-58 276 847
-56 277 852
-55 284 874
-51 281 863
-49 284 874
-47 286 880
-43 278 856
-41 283 871
-37 272 838
-38 300 925
-34 289 889
-32 293 904
-30 295 909
-25 280 862
-24 289 892
-21 292 899
-19 295 909
-17 307 946
-15 319 985
-12 335 1035
-10 343 1061
-7 352 1089
-4 356 1098
0 355 1098
2 356 1101
5 356 1100
9 355 1097
12 355 1097
15 356 1100
19 357 1103
22 352 1089
25 356 1100
28 352 1089
32 357 1103
35 355 1096
38 358 1105
42 358 1106
44 352 1087
48 355 1096
51 356 1101
55 358 1106
58 358 1107
62 359 1110
65 358 1107
68 358 1105
72 358 1106
75 359 1110
78 357 1102
82 358 1107
85 358 1104
88 358 1106
91 357 1102
95 361 1113
98 359 1108
102 360 1110
105 358 1105
108 357 1101
112 360 1109
115 357 1102
118 358 1103
121 357 1100
125 359 1105
129 360 1109
132 359 1106
136 361 1111
139 360 1109
142 360 1108
146 361 1111
149 360 1107
152 359 1105
156 361 1112
159 360 1108
161 358 1102
165 359 1103
168 358 1100
172 359 1102
175 360 1104
179 360 1104
182 360 1106
186 360 1105
190 361 1108
192 360 1102
194 357 1095
199 360 1103
203 360 1103
205 359 1099
207 357 1091
213 361 1103
215 359 1098
220 362 1107
222 360 1099
229 365 1113
228 359 1095
234 363 1106
235 359 1093
240 361 1100
243 361 1098
246 361 1098
248 359 1091
253 360 1095
257 362 1100
259 359 1092
264 361 1098
268 362 1100
271 362 1097
272 359 1089
278 362 1097
280 360 1090
286 363 1099
288 361 1093
292 363 1097
297 364 1101
299 363 1096
302 363 1095
308 366 1103
307 360 1086
312 363 1092
317 365 1098
320 364 1094
324 365 1096
327 365 1094
332 366 1098
334 364 1091
341 368 1103
343 367 1098
345 365 1093
350 366 1095
351 364 1088
356 366 1091
360 366 1092
364 367 1093
367 367 1092
369 365 1086
373 366 1088
377 366 1086
384 369 1095
386 368 1090
392 370 1097
393 369 1091
397 368 1089
400 369 1089
405 370 1092
408 370 1090
412 370 1089
417 371 1093
416 367 1079
423 370 1087
429 373 1093
432 372 1090
433 370 1084
436 370 1081
437 368 1075
443 370 1079
449 372 1083
454 373 1085
457 373 1084
462 373 1085
465 373 1083
469 373 1083
471 373 1079
479 376 1088
481 375 1083
485 375 1083
492 378 1089
494 377 1084
496 375 1079
501 376 1081
505 377 1081
508 376 1078
513 378 1080
522 381 1089
527 383 1092
530 382 1089
528 378 1075
537 382 1085
539 381 1081
545 383 1085
549 383 1083
554 384 1085
556 383 1080
564 386 1087
568 386 1085
574 388 1090
581 390 1093
576 384 1076
587 389 1087
583 384 1072
594 389 1084
595 387 1077
601 389 1081
608 390 1084
609 389 1077
610 387 1072
617 389 1076
615 386 1064
623 388 1069
635 393 1082
631 389 1068
640 392 1075
-597 375 987
-589 372 980
-574 364 963
-578 369 977
-575 370 981
-570 368 979
-565 367 977
-562 367 980
-562 369 987
-550 364 973
-553 368 987
-544 364 978
-541 364 981
-537 364 981
-535 365 984
-534 366 990
-536 370 1003
-540 375 1017
-539 376 1023
-540 379 1033
-544 384 1049
-537 382 1044
-533 382 1045
-519 375 1027
-499 362 995
-491 359 986
-489 360 991
-482 357 983
-481 359 990
-482 362 1001
-482 364 1008
-478 364 1009
-477 365 1015
-473 364 1014
-468 364 1013
-463 362 1009
-458 361 1008
-457 363 1014
-449 358 1004
-449 361 1012
-456 370 1039
-461 376 1059
-478 393 1108
-454 376 1062
-442 369 1042
-433 365 1031
-424 359 1017
-424 362 1027
-418 360 1021
-417 361 1027
-414 362 1029
-412 363 1035
-408 362 1033
-405 362 1034
-402 363 1036
-397 361 1033
-394 361 1035
-393 363 1042
-387 361 1035
-386 363 1044
-383 363 1045
-377 361 1038
-372 359 1036
-370 361 1041
-367 360 1041
-363 360 1041
-361 361 1046
-359 362 1049
-357 363 1054
-353 363 1055
-350 363 1055
-348 365 1061
-343 362 1055
-343 366 1067
-340 366 1068
-330 359 1048
-329 362 1058
-328 365 1067
-325 364 1067
-320 363 1063
-321 368 1079
-316 365 1073
-311 363 1068
-307 363 1066
-306 365 1074
-301 363 1070
-295 361 1063
-295 364 1073
-293 365 1079
-290 366 1081
-284 363 1074
-282 364 1077
-277 362 1074
-273 361 1070
-271 363 1078
-270 366 1086
-265 363 1079
-264 367 1090
-256 360 1071
-255 363 1080
-251 363 1081
-247 362 1078
-243 360 1074
-240 360 1075
-238 362 1082
-235 362 1083
-230 360 1077
-226 359 1073
-223 360 1079
-221 362 1083
-218 362 1084
-214 361 1081
-210 360 1081
-206 359 1078
-204 361 1086
-199 357 1074
-196 358 1076
-194 361 1087
-191 360 1084
-187 359 1082
-184 361 1087
-182 362 1091
-179 363 1094
-175 362 1093
-174 366 1105
-169 363 1098
-164 360 1087
-161 361 1090
-160 364 1102
-155 361 1091
-151 358 1084
-148 361 1092
-144 358 1084
-142 360 1092
-139 362 1097
-134 359 1088
-132 360 1093
-129 362 1099
-126 362 1099
-122 361 1097
-119 362 1099
-117 364 1106
-113 362 1100
-105 349 1061
-98 335 1017
-90 319 970
-84 309 938
-79 300 911
-76 299 909
-68 279 848
-68 288 876
-66 291 884
-61 280 852
-60 286 870
-58 289 879
-54 285 868
-52 288 876
-48 282 859
-45 278 847
-42 276 841
-39 273 830
-36 266 811
-34 269 819
-32 276 841
-29 271 825
-27 276 842
-27 302 922
-23 289 883
-21 290 886
-19 297 905
-16 305 932
-14 320 979
-12 333 1019
-10 345 1054
-7 354 1084
-3 357 1092
0 358 1095
2 356 1088
5 357 1092
9 358 1096
12 358 1095
15 358 1095
18 356 1091
22 356 1089
25 356 1089
28 358 1096
31 355 1087
35 354 1084
38 356 1088
41 356 1089
44 355 1087
48 358 1096
51 356 1089
55 359 1098
58 357 1093
61 357 1093
65 359 1097
68 359 1098
71 357 1092
74 359 1097
77 357 1093
81 357 1090
84 358 1095
87 358 1093
91 359 1096
94 358 1096
97 356 1089
101 358 1095
104 360 1100
107 358 1095
110 358 1093
114 359 1095
117 358 1093
121 362 1103
124 358 1092
128 361 1101
130 358 1091
134 360 1097
137 359 1095
141 360 1098
144 359 1093
148 361 1100
152 363 1106
154 361 1098
157 360 1095
160 359 1093
164 361 1097
168 361 1097
171 361 1098
175 362 1101
179 363 1103
182 363 1102
183 359 1090
186 358 1086
192 363 1101
194 360 1091
198 361 1095
202 362 1097
205 361 1094
208 361 1093
212 363 1099
215 361 1093
218 361 1093
222 362 1094
226 363 1098
228 361 1091
230 359 1085
234 361 1089
238 361 1088
242 363 1093
244 360 1084
246 359 1080
251 361 1088
255 362 1089
259 363 1092
264 365 1096
265 362 1088
269 362 1087
270 360 1079
276 363 1089
279 362 1086
283 363 1088
287 364 1089
291 365 1091
292 362 1084
298 366 1093
300 364 1086
305 365 1090
308 365 1087
312 365 1088
316 366 1090
318 365 1087
320 363 1079
325 365 1084
328 365 1083
332 366 1086
334 364 1078
341 368 1089
341 364 1079
344 364 1076
348 364 1076
353 366 1080
358 368 1087
362 368 1087
364 367 1081
366 366 1077
372 368 1083
372 364 1070
378 367 1078
382 368 1080
387 369 1082
391 370 1084
392 367 1074
400 372 1088
401 369 1078
405 370 1081
411 372 1085
412 370 1078
418 372 1083
420 371 1079
422 370 1073
429 373 1082
431 371 1076
432 370 1071
434 369 1066
439 370 1068
446 372 1074
451 374 1078
454 373 1075
460 376 1080
457 370 1064
467 376 1079
467 373 1068
473 375 1073
478 376 1075
483 377 1078
487 378 1078
487 375 1069
492 376 1070
494 375 1065
501 378 1072
506 378 1073
513 381 1080
515 380 1075
520 381 1077
525 382 1076
525 379 1069
534 383 1077
535 382 1072
533 378 1060
547 385 1079
551 385 1078
557 387 1080
558 385 1073
566 388 1081
568 387 1077
576 390 1083
575 387 1073
575 385 1065
580 385 1065
587 387 1069
591 388 1069
598 390 1074
600 389 1069
601 388 1063
602 386 1056
610 388 1061
613 388 1059
616 388 1056
624 391 1062
630 392 1063
631 390 1057
-595 377 983
-591 376 983
-578 371 969
-571 368 964
-567 367 965
-563 367 966
-564 370 974
-555 366 967
-553 367 971
-550 367 972
-546 366 973
-543 367 976
-540 367 977
-539 369 984
-534 368 983
-533 369 988
-527 367 985
-531 372 999
-528 372 1001
-530 376 1014
-533 380 1026
-528 379 1026
-525 379 1027
-518 377 1022
-501 367 998
-490 361 983
-482 358 976
-484 361 986
-479 360 985
-479 363 993
-479 365 1001
-473 363 997
-475 367 1008
-468 364 1002
-464 364 1003
-457 360 995
-455 362 1000
-449 359 994
-442 357 989
-445 361 1003
-451 369 1026
-451 372 1035
-469 389 1084
-464 387 1082
-452 381 1064
-432 366 1025
-422 361 1012
-417 360 1009
-415 360 1012
-413 361 1016
-409 361 1016
-407 362 1021
-406 364 1027
-399 360 1018
-395 360 1019
-394 362 1025
-391 362 1026
-387 362 1027
-384 361 1026
-383 364 1035
-378 362 1032
-378 365 1040
-369 360 1027
-368 362 1033
-366 363 1039
-363 363 1039
-359 362 1038
-356 363 1041
-353 363 1041
-351 364 1046
-346 362 1043
-345 365 1050
-342 365 1052
-338 364 1051
-337 367 1059
-331 363 1050
-327 363 1050
-327 367 1063
-323 365 1059
-320 366 1062
-318 368 1069
-313 365 1062
-309 365 1062
-305 363 1058
-301 363 1058
-299 365 1064
-298 367 1071
-291 363 1061
-289 364 1065
-288 366 1072
-283 364 1067
-281 366 1073
-277 365 1071
-274 366 1073
-269 363 1067
-267 365 1074
-262 363 1067
-258 362 1066
-254 361 1063
-254 365 1075
-249 364 1072
-246 364 1073
-243 364 1074
-239 362 1069
-236 362 1071
-231 361 1067
-229 362 1072
-225 361 1068
-221 360 1066
-218 360 1068
-215 360 1069
-212 361 1073
-208 361 1071
-204 359 1067
-202 360 1070
-198 359 1070
-195 359 1070
-191 359 1069
-189 360 1074
-187 362 1081
-184 363 1082
-179 360 1074
-177 362 1080
-173 360 1075
-170 362 1083
-168 364 1087
-163 361 1079
-160 361 1080
-156 359 1076
-154 361 1082
-150 361 1083
-148 362 1086
-144 361 1081
-141 362 1085
-138 363 1088
-134 362 1087
-132 363 1090
-128 363 1091
-123 358 1077
-122 363 1091
-120 367 1105
-115 363 1093
-111 361 1088
-103 346 1042
-96 331 995
-89 317 954
-83 308 928
-79 302 908
-76 301 905
-73 299 899
-66 284 854
-65 291 876
-62 290 874
-59 287 864
-57 291 877
-53 284 855
-50 279 841
-49 287 865
-46 288 867
-42 276 833
-40 278 839
-37 279 840
-35 279 841
-32 281 847
-30 284 856
-29 295 890
-25 283 855
-24 296 893
-21 291 880
-18 295 892
-16 306 926
-14 320 966
-12 328 993
-9 341 1033
-6 351 1061
-3 358 1084
0 358 1085
2 356 1078
5 358 1086
9 360 1089
12 355 1074
15 359 1088
18 357 1081
22 357 1080
25 358 1084
28 356 1079
31 358 1086
35 359 1087
38 356 1078
41 360 1092
45 360 1092
48 358 1084
51 360 1092
54 356 1079
58 360 1089
61 359 1087
64 358 1084
67 359 1088
71 359 1086
74 360 1091
77 357 1081
80 359 1087
83 357 1081
87 361 1094
91 362 1096
93 359 1085
96 358 1083
100 359 1086
103 358 1082
107 361 1092
111 362 1093
113 359 1086
117 361 1092
119 358 1082
123 360 1087
126 358 1082
130 361 1091
134 362 1092
136 359 1082
140 361 1088
142 358 1079
147 361 1089
149 359 1083
154 362 1092
157 362 1090
159 360 1085
163 361 1086
167 362 1090
168 358 1079
173 362 1088
176 361 1085
180 361 1085
183 361 1086
186 360 1081
190 361 1085
193 362 1087
197 363 1088
199 360 1079
202 359 1077
205 360 1080
209 361 1081
213 362 1086
217 363 1086
221 365 1092
224 364 1088
226 362 1082
230 363 1086
232 360 1076
235 360 1075
239 361 1077
243 362 1081
246 362 1079
248 360 1074
255 365 1086
258 364 1085
261 365 1085
264 364 1083
265 361 1073
269 362 1075
273 363 1077
277 363 1078
280 363 1077
282 361 1071
287 363 1075
291 364 1079
294 364 1077
296 362 1070
301 364 1075
305 364 1076
309 365 1077
312 365 1078
314 364 1071
319 366 1077
322 365 1075
324 363 1068
329 365 1074
330 363 1064
335 365 1070
339 365 1071
345 368 1079
350 370 1083
354 370 1082
355 368 1075
358 367 1072
365 371 1082
364 367 1070
368 367 1070
371 367 1068
374 367 1066
378 367 1066
385 370 1075
391 374 1084
394 373 1081
395 370 1071
396 368 1065
400 369 1066
404 370 1067
411 373 1074
413 371 1069
416 371 1068
420 371 1067
426 374 1073
428 372 1068
434 375 1074
431 369 1057
439 373 1067
443 373 1067
445 372 1062
454 377 1075
456 376 1070
458 374 1064
461 375 1064
465 374 1062
469 375 1062
471 374 1057
479 378 1068
482 377 1065
482 374 1056
492 379 1069
495 379 1066
497 378 1062
500 377 1058
507 380 1065
512 381 1067
515 381 1064
521 383 1069
522 381 1061
527 382 1063
531 382 1062
540 386 1072
540 384 1063
536 378 1047
548 384 1061
554 386 1065
563 390 1074
560 385 1059
566 387 1063
573 389 1067
573 387 1060
583 391 1070
582 388 1059
588 390 1063
589 388 1055
586 384 1042
603 392 1065
604 390 1058
606 390 1054
615 393 1062
615 391 1054
618 390 1050
623 391 1050
619 386 1036
-596 381 982
-584 375 970
-578 374 968
-568 370 959
-567 371 964
-556 366 953
-556 368 961
-551 367 959
-554 371 972
-542 365 957
-541 367 964
-534 364 959
-540 370 977
-536 369 976
-530 368 973
-529 369 979
-527 370 984
-526 372 989
-527 375 998
-529 378 1010
-525 378 1010
-519 376 1008
-515 376 1008
-508 373 1002
-506 374 1007
-493 367 988
-485 363 980
-475 358 968
-475 361 976
-476 364 986
-472 363 985
-470 364 989
-468 365 993
-465 365 996
-464 367 1002
-455 363 991
-454 364 996
-448 362 992
-443 361 990
-442 362 995
-447 369 1016
-463 385 1060
-458 383 1058
-458 386 1068
-451 383 1060
-429 367 1017
-420 363 1007
-417 363 1007
-415 364 1011
-412 364 1013
-410 365 1019
-403 362 1010
-404 365 1020
-398 363 1014
-394 362 1015
-390 361 1013
-386 361 1012
-383 361 1014
-382 363 1022
-380 364 1026
-376 363 1024
-374 364 1029
-372 366 1033
-366 363 1027
-361 362 1024
-359 363 1028
-358 365 1035
-356 365 1038
-350 363 1031
-348 365 1038
-342 362 1031
-343 365 1042
-339 365 1041
-336 365 1042
-333 366 1046
-326 362 1036
-325 364 1042
-321 362 1040
-317 363 1041
-316 365 1048
-315 367 1055
-312 367 1057
-307 365 1051
-301 362 1045
-301 366 1056
-295 363 1049
-292 364 1051
-290 364 1054
-286 364 1054
-286 367 1064
-282 366 1062
-277 365 1058
-274 365 1060
-270 364 1058
-267 365 1060
-267 369 1073
-261 365 1063
-257 363 1059
-255 365 1065
-250 363 1058
-248 364 1064
-242 361 1056
-239 361 1057
-236 361 1057
-234 363 1063
-230 362 1062
-227 362 1061
-223 361 1058
-221 363 1066
-216 361 1060
-212 359 1055
-208 358 1052
-207 362 1064
-205 363 1069
-201 362 1067
-197 361 1062
-194 362 1066
-190 360 1063
-186 358 1056
-185 361 1067
-181 360 1064
-177 360 1063
-174 360 1063
-171 361 1067
-167 359 1061
-165 362 1071
-163 363 1076
-158 360 1068
-156 361 1072
-152 362 1072
-150 363 1078
-147 364 1081
-144 364 1081
-140 364 1080
-137 362 1077
-134 365 1084
-130 363 1079
-127 363 1080
-124 364 1084
-120 361 1075
-117 363 1080
-114 364 1085
-109 357 1064
-103 348 1036
-94 329 980
-87 314 937
-82 306 911
-78 303 904
-76 306 912
-71 297 885
-65 281 838
-65 291 868
-63 295 878
-58 285 850
-54 276 822
-54 290 865
-51 286 854
-48 285 850
-45 283 843
-43 288 860
-39 277 826
-36 270 805
-35 285 852
-31 272 813
-30 287 857
-29 295 881
-26 295 882
-22 279 833
-21 296 886
-18 297 890
-16 308 921
-14 318 952
-12 331 993
-9 340 1018
-6 351 1052
-3 359 1076
0 358 1074
2 356 1068
5 358 1073
9 357 1072
12 357 1072
15 356 1069
18 357 1071
21 358 1074
25 361 1082
28 357 1071
31 359 1076
34 359 1077
38 358 1073
41 358 1073
44 360 1079
47 356 1067
51 362 1084
54 360 1080
57 360 1079
60 360 1080
64 361 1082
67 361 1082
70 358 1073
73 360 1081
76 358 1074
80 359 1077
83 361 1081
86 358 1073
90 360 1079
93 359 1077
96 360 1078
99 359 1076
102 358 1071
106 361 1082
109 359 1074
112 360 1078
116 360 1078
119 360 1078
122 361 1079
125 359 1075
128 358 1071
133 363 1084
136 364 1086
139 362 1080
141 359 1072
145 361 1077
148 360 1075
152 361 1077
155 362 1080
158 360 1073
161 360 1073
164 360 1073
169 362 1078
171 360 1074
175 362 1079
178 361 1076
182 362 1078
184 361 1073
188 361 1072
192 363 1079
194 361 1073
198 362 1074
202 362 1076
205 363 1078
207 361 1070
211 362 1074
214 362 1072
220 367 1086
220 360 1065
224 362 1072
229 365 1079
230 360 1065
236 365 1079
237 362 1070
241 362 1070
244 363 1070
248 363 1071
250 361 1063
254 362 1067
261 367 1081
261 363 1069
265 364 1070
268 363 1068
272 365 1072
274 363 1065
277 362 1063
284 367 1077
285 363 1065
290 366 1071
293 366 1071
298 367 1075
300 365 1069
303 366 1069
306 365 1067
308 363 1060
314 366 1069
317 367 1069
319 364 1061
321 364 1059
327 367 1067
332 368 1070
333 366 1062
337 366 1062
339 365 1058
343 366 1060
348 367 1062
352 368 1064
356 368 1065
361 370 1069
363 370 1066
366 368 1061
368 368 1059
373 369 1062
378 371 1066
382 371 1067
387 373 1071
388 371 1063
392 371 1063
396 372 1064
401 373 1066
399 368 1051
409 375 1069
409 371 1057
411 370 1053
419 374 1065
420 372 1058
425 373 1060
428 373 1057
432 373 1058
435 373 1057
441 375 1061
443 374 1056
446 374 1055
452 376 1058
457 377 1062
458 375 1055
459 373 1047
466 376 1054
470 376 1054
473 376 1051
476 376 1049
483 378 1056
489 380 1060
491 379 1055
495 380 1057
501 382 1061
502 380 1054
507 381 1054
509 380 1051
514 381 1052
516 380 1047
527 386 1063
530 385 1059
531 383 1052
535 384 1053
538 383 1049
544 385 1054
548 385 1052
552 386 1052
560 389 1058
559 385 1048
569 390 1058
568 386 1048
570 386 1045
574 386 1044
584 391 1054
586 389 1049
585 386 1039
591 388 1043
599 391 1048
602 390 1045
600 387 1034
610 391 1044
612 390 1039
614 389 1034
623 392 1041
-593 382 977
-587 381 975
-577 377 966
-562 369 948
-556 367 944
-553 367 946
-548 366 945
-548 368 952
-544 367 952
-534 363 942
-539 368 958
-532 366 953
-533 369 963
-526 366 958
-524 367 962
-522 368 965
-519 368 968
-520 371 976
-522 374 988
-518 374 988
-518 376 996
-510 373 989
-506 372 988
-500 371 986
-496 370 984
-491 368 983
-481 363 971
-477 363 971
-473 362 971
-471 363 974
-469 364 979
-468 365 983
-465 366 986
-463 367 990
-459 367 991
-451 362 980
-447 362 980
-443 361 980
-441 362 985
-439 363 987
-439 366 996
-463 388 1059
-463 391 1068
-467 397 1088
-453 388 1064
-429 371 1017
-419 365 1003
-415 364 1001
-414 366 1007
-407 363 999
-405 364 1005
-403 365 1007
-397 363 1003
-396 365 1010
-390 362 1003
-385 360 999
-384 362 1007
-381 362 1007
-377 362 1008
-377 364 1016
-371 362 1011
-372 366 1022
-366 363 1016
-359 360 1007
-360 363 1019
-356 363 1018
-351 361 1015
-351 364 1023
-346 362 1020
-345 364 1027
-341 364 1027
-336 361 1020
-336 366 1033
-332 365 1032
-328 363 1028
-326 365 1034
-325 367 1041
-319 364 1035
-317 366 1039
-315 367 1045
-314 369 1051
-307 365 1041
-302 363 1035
-301 366 1045
-297 364 1040
-296 368 1052
-290 364 1041
-287 364 1044
-284 364 1043
-282 366 1050
-277 363 1043
-276 367 1054
-272 365 1050
-268 364 1047
-265 365 1051
-260 363 1045
-259 365 1052
-256 365 1054
-252 364 1051
-249 365 1055
-244 362 1047
-245 368 1064
-238 363 1051
-235 363 1053
-231 361 1048
-230 365 1059
-224 362 1050
-221 361 1049
-219 363 1055
-215 361 1051
-212 362 1052
-208 361 1049
-206 363 1056
-202 362 1055
-199 361 1053
-195 361 1052
-192 361 1052
-189 362 1056
-186 362 1057
-181 358 1047
-180 362 1058
-175 359 1052
-173 361 1057
-169 360 1055
-167 361 1058
-163 360 1055
-160 360 1057
-158 363 1065
-154 361 1060
-151 362 1063
-148 362 1064
-143 359 1055
-142 363 1067
-138 360 1059
-135 363 1068
-133 365 1074
-129 362 1067
-126 364 1074
-122 362 1068
-120 364 1073
-117 366 1080
-114 366 1079
-107 353 1041
-102 347 1023
-93 329 969
-85 311 918
-82 308 908
-77 302 892
-74 299 883
-67 284 838
-64 282 832
-65 295 870
-61 289 854
-56 280 826
-54 281 831
-53 288 852
-49 278 822
-47 285 842
-44 281 830
-42 284 840
-41 289 855
-38 287 849
-35 286 847
-33 289 854
-29 279 824
-28 292 863
-25 289 856
-23 292 864
-20 294 872
-18 301 891
-16 305 905
-14 319 946
-11 329 977
-9 339 1006
-6 350 1040
-3 359 1067
0 358 1063
2 359 1065
5 359 1067
9 357 1060
12 358 1062
15 358 1064
18 357 1061
21 356 1058
24 355 1056
28 360 1068
31 359 1068
34 358 1064
37 358 1064
41 359 1066
44 359 1065
47 359 1065
50 359 1067
53 359 1065
57 360 1068
60 361 1071
63 361 1073
66 360 1068
70 360 1070
73 359 1065
76 359 1065
79 361 1071
82 360 1067
86 361 1072
88 358 1062
92 359 1066
95 360 1068
98 360 1067
103 364 1079
105 359 1066
108 359 1065
111 358 1061
115 360 1066
118 360 1066
122 362 1071
125 362 1071
127 359 1062
130 359 1062
134 360 1067
138 363 1074
140 360 1065
144 362 1069
147 362 1069
151 363 1074
153 360 1064
156 359 1059
160 361 1066
164 362 1069
167 361 1065
171 364 1074
174 364 1072
176 360 1062
179 360 1061
184 364 1072
186 361 1063
188 359 1056
192 361 1061
197 362 1066
200 363 1067
203 362 1062
206 362 1063
209 362 1062
214 365 1071
218 365 1071
218 360 1057
223 362 1062
226 362 1061
230 364 1065
231 361 1056
236 363 1062
240 364 1065
241 360 1053
246 363 1061
250 365 1065
255 366 1069
258 366 1068
261 366 1067
261 362 1055
265 362 1053
269 363 1056
273 364 1060
276 364 1058
281 366 1064
284 366 1063
285 363 1054
288 362 1050
294 366 1059
298 367 1063
300 365 1057
303 365 1056
306 365 1053
311 367 1060
314 367 1058
316 365 1053
321 366 1056
325 368 1059
327 366 1054
331 367 1055
332 364 1047
339 368 1056
341 367 1051
343 365 1046
349 369 1056
351 367 1050
354 367 1049
360 370 1056
363 369 1054
367 370 1055
370 369 1052
374 370 1053
378 370 1053
382 372 1056
384 370 1051
388 371 1051
391 371 1050
393 369 1043
398 371 1048
404 373 1053
410 375 1059
409 371 1046
415 374 1053
415 371 1043
420 372 1046
426 374 1051
425 371 1040
434 376 1052
437 375 1050
445 379 1059
443 375 1047
450 378 1054
449 373 1040
455 376 1047
460 377 1048
459 374 1038
467 378 1047
470 378 1045
472 376 1040
477 377 1041
482 378 1044
489 382 1052
491 380 1046
495 381 1047
497 380 1042
505 383 1050
508 383 1047
513 384 1050
517 384 1049
517 382 1040
525 385 1048
527 384 1043
533 386 1048
533 383 1038
537 384 1039
541 384 1037
549 387 1045
550 385 1038
556 387 1042
560 388 1042
562 386 1037
567 387 1037
574 389 1042
579 390 1043
578 387 1033
591 394 1049
591 392 1041
595 392 1040
595 389 1032
603 392 1038
606 392 1035
608 391 1031
611 390 1027
619 393 1033
-591 385 973
-590 386 979
-571 376 954
-559 370 941
-550 366 933
-550 368 940
-542 365 934
-541 367 940
-534 364 935
-535 367 944
-531 366 943
-526 365 942
-529 369 955
-522 367 949
-517 366 948
-516 367 953
-514 368 958
-515 371 967
-517 374 977
-516 376 984
-508 373 976
-508 375 984
-500 371 975
-493 369 971
-493 371 978
-490 371 981
-478 365 964
-472 362 959
-468 362 960
-467 363 965
-463 362 964
-466 367 979
-462 367 978
-454 363 970
-449 361 966
-452 367 982
-445 364 976
-439 361 971
-441 365 983
-437 364 982
-435 365 986
-442 374 1010
-464 396 1071
-450 387 1048
-434 375 1019
-426 371 1009
-413 363 986
-408 361 984
-409 365 995
-401 361 985
-400 362 990
-395 361 987
-394 363 993
-393 365 1001
-389 364 999
-385 363 998
-384 365 1005
-378 362 998
-377 365 1006
-372 363 1003
-370 364 1005
-371 368 1018
-365 365 1011
-359 363 1006
-357 364 1011
-353 363 1009
-349 362 1008
-349 366 1018
-346 366 1019
-340 362 1011
-339 365 1020
-337 367 1025
-332 364 1018
-328 363 1018
-328 366 1028
-322 364 1021
-321 366 1027
-316 364 1024
-316 367 1034
-312 367 1034
-312 370 1044
-304 365 1031
-303 367 1037
-300 368 1039
-295 366 1035
-292 365 1035
-287 364 1031
-285 365 1035
-280 363 1030
-278 364 1034
-276 366 1040
-274 367 1045
-270 366 1043
-267 367 1045
-265 367 1048
-259 365 1040
-256 365 1041
-253 364 1040
-248 362 1036
-248 367 1051
-244 365 1045
-240 365 1045
-237 365 1045
-233 363 1040
-229 362 1040
-226 363 1043
-222 361 1038
-220 363 1044
-217 363 1044
-212 360 1035
-210 361 1041
-206 361 1042
-203 361 1041
-200 361 1041
-195 358 1033
-193 359 1038
-193 365 1056
-188 362 1046
-186 365 1056
-182 363 1051
-180 365 1056
-174 360 1044
-171 360 1043
-170 364 1055
-166 362 1050
-163 364 1056
-159 362 1050
-157 364 1057
-154 364 1057
-151 365 1061
-147 362 1054
-144 363 1056
-142 366 1064
-138 365 1062
-134 362 1056
-130 361 1053
-128 362 1056
-125 363 1059
-121 363 1058
-118 362 1057
-115 364 1063
-113 368 1074
-106 354 1035
-99 342 1000
-92 328 958
-85 312 912
-81 308 899
-77 304 887
-70 289 843
-72 306 895
-66 292 855
-62 287 838
-60 286 837
-59 292 855
-53 279 817
-50 274 803
-49 284 832
-45 276 808
-44 285 833
-43 289 846
-39 283 829
-36 275 805
-35 289 846
-31 279 817
-29 278 816
-27 285 837
-24 282 828
-23 298 874
-21 307 900
-18 298 873
-16 308 903
-14 320 940
-11 333 977
-9 339 995
-6 350 1029
-3 358 1052
0 359 1055
2 359 1055
5 359 1055
8 357 1050
12 357 1050
15 360 1058
18 357 1052
21 357 1051
24 357 1050
27 358 1053
31 359 1057
34 359 1056
37 359 1056
40 360 1060
43 360 1058
47 360 1058
50 358 1054
53 360 1059
56 360 1057
59 358 1054
63 361 1062
65 358 1052
69 361 1062
72 360 1057
75 359 1056
79 362 1064
82 360 1059
85 361 1062
88 361 1060
91 360 1057
95 362 1062
97 359 1055
101 361 1061
105 363 1066
108 364 1068
110 359 1054
114 361 1060
117 362 1061
121 362 1062
123 358 1051
126 360 1055
130 360 1056
134 363 1065
136 361 1056
140 362 1060
143 361 1058
147 364 1064
150 364 1065
153 362 1058
158 365 1069
159 361 1056
161 359 1051
166 362 1058
168 360 1051
173 364 1062
175 362 1057
178 361 1054
181 361 1053
185 363 1057
189 364 1060
193 366 1065
194 361 1051
198 361 1052
202 364 1059
206 365 1060
208 362 1052
213 367 1066
214 362 1052
218 363 1056
222 364 1056
225 364 1057
227 362 1050
232 365 1057
234 363 1052
238 365 1056
240 362 1048
243 362 1048
246 362 1047
251 364 1053
254 364 1051
255 361 1042
260 364 1049
264 364 1050
268 365 1050
270 364 1048
273 364 1047
278 366 1053
281 365 1048
285 366 1050
286 364 1044
289 363 1042
293 364 1043
298 366 1050
299 363 1039
304 366 1047
309 367 1050
313 368 1053
314 365 1043
317 366 1044
322 368 1048
326 368 1047
325 364 1035
331 366 1042
333 365 1036
338 367 1042
342 367 1043
346 369 1045
347 366 1038
352 368 1041
356 368 1041
361 370 1046
363 369 1042
368 371 1046
372 371 1045
377 373 1050
378 371 1044
381 371 1041
385 371 1041
389 372 1042
389 368 1031
400 375 1051
400 373 1042
401 370 1035
406 372 1038
411 374 1042
413 372 1036
417 373 1037
419 371 1032
426 375 1041
428 374 1037
435 377 1043
439 377 1044
442 377 1041
443 375 1035
449 377 1040
452 377 1037
455 377 1037
459 377 1035
466 380 1043
463 375 1028
471 378 1036
479 382 1046
481 381 1042
488 384 1047
485 379 1031
488 378 1029
493 380 1033
501 383 1040
505 383 1039
513 387 1049
509 381 1031
516 384 1037
518 383 1034
522 384 1032
526 384 1032
529 383 1029
531 383 1025
542 388 1037
545 387 1035
546 386 1029
552 387 1032
559 390 1039
556 385 1024
564 389 1031
570 390 1033
568 387 1022
575 389 1026
579 389 1025
584 390 1026
589 391 1028
595 393 1030
594 390 1020
605 395 1032
604 392 1023
613 395 1030
614 394 1025
-590 387 969
-581 384 962
-573 380 956
-564 376 948
-548 368 929
-547 369 933
-539 366 927
-540 369 936
-533 366 931
-530 367 933
-530 369 940
-524 367 937
-525 370 946
-518 367 941
-511 364 935
-511 367 944
-510 368 949
-510 370 956
-508 371 960
-506 372 963
-511 378 981
-504 375 974
-501 376 978
-491 370 966
-485 368 961
-481 368 961
-476 366 959
-469 363 952
-468 365 959
-462 363 954
-462 365 962
-455 362 954
-455 365 963
-452 365 965
-449 364 965
-447 366 971
-441 364 966
-436 362 963
-433 362 965
-431 362 967
-433 367 980
-435 372 994
-459 394 1057
-446 387 1037
-454 396 1065
-423 373 1002
-412 365 984
-407 364 981
-402 362 977
-400 363 982
-397 363 983
-392 362 980
-390 362 983
-386 362 983
-386 364 990
-382 363 989
-378 363 990
-376 364 994
-370 361 987
-369 363 993
-368 365 1000
-365 365 1001
-360 363 997
-357 363 998
-350 360 988
-350 363 1000
-347 363 1001
-347 367 1011
-343 366 1010
-339 365 1008
-337 365 1011
-333 365 1010
-329 364 1008
-328 366 1016
-324 366 1016
-320 364 1013
-319 367 1021
-315 366 1018
-312 366 1019
-309 366 1021
-306 367 1023
-305 370 1033
-300 367 1027
-296 366 1024
-294 367 1028
-288 364 1021
-282 361 1013
-281 363 1020
-280 366 1028
-277 365 1028
-274 366 1030
-273 369 1039
-267 366 1031
-265 366 1033
-262 367 1037
-258 367 1036
-255 367 1036
-251 365 1034
-248 366 1035
-246 366 1038
-244 368 1044
-240 368 1044
-236 366 1038
-231 364 1033
-228 363 1033
-226 365 1038
-222 364 1037
-218 363 1033
-214 361 1028
-210 360 1026
-210 365 1040
-203 359 1025
-201 361 1031
-199 363 1037
-195 360 1030
-192 361 1033
-190 364 1042
-185 360 1032
-183 361 1035
-180 363 1040
-178 364 1043
-173 360 1034
-171 364 1044
-168 363 1042
-164 362 1039
-163 367 1056
-159 364 1047
-155 362 1041
-151 362 1041
-149 363 1046
-147 365 1053
-142 362 1042
-139 362 1045
-136 364 1049
-133 362 1045
-129 362 1045
-127 363 1048
-124 364 1052
-120 362 1047
-118 366 1057
-115 366 1060
-111 364 1053
-105 354 1025
-98 340 983
-90 322 933
-84 311 900
-75 291 841
-74 296 857
-70 291 843
-71 304 881
-65 289 835
-62 288 833
-59 287 830
-57 289 838
-54 287 833
-51 285 826
-50 289 837
-47 287 833
-43 278 806
-41 283 820
-40 292 847
-35 275 796
-35 291 846
-32 285 828
-30 290 841
-26 282 820
-24 286 829
-23 296 860
-19 288 837
-18 300 872
-16 307 892
-14 320 931
-11 333 969
-9 344 1000
-6 350 1019
-3 360 1047
0 358 1042
2 361 1051
5 360 1047
9 362 1053
12 361 1053
15 358 1043
18 360 1049
21 358 1041
24 359 1047
27 360 1048
30 358 1041
34 359 1047
37 360 1048
40 360 1048
43 358 1042
47 361 1053
50 362 1055
53 360 1049
56 361 1052
59 358 1042
62 359 1045
65 360 1048
69 361 1051
72 360 1047
75 362 1054
78 359 1046
81 360 1047
85 361 1051
87 360 1047
91 361 1051
94 362 1053
97 362 1052
100 360 1048
104 362 1053
107 363 1055
111 363 1056
113 362 1052
116 361 1048
119 361 1047
122 361 1048
126 361 1047
129 361 1049
133 363 1054
136 364 1055
139 362 1051
141 360 1044
145 360 1045
148 361 1046
152 363 1052
155 363 1053
158 361 1045
162 363 1052
164 362 1047
168 362 1048
171 362 1048
176 366 1058
177 362 1045
181 364 1052
184 364 1051
186 361 1042
189 361 1041
194 364 1051
198 365 1053
200 364 1049
205 367 1056
207 364 1049
209 362 1041
213 364 1046
218 366 1054
218 362 1039
221 361 1038
226 364 1046
229 364 1045
232 363 1041
236 364 1044
239 364 1042
242 364 1043
244 362 1035
249 364 1041
252 364 1041
256 365 1044
260 367 1048
262 365 1041
265 364 1038
268 365 1039
272 366 1042
272 361 1028
280 367 1045
283 367 1043
284 364 1035
287 364 1033
292 365 1037
296 367 1041
298 365 1034
301 365 1035
303 364 1030
308 365 1034
311 366 1034
315 366 1033
319 367 1037
322 367 1035
327 368 1038
329 367 1034
334 370 1040
337 369 1037
341 370 1040
344 369 1036
345 367 1028
350 369 1035
355 371 1038
360 373 1043
360 370 1033
366 372 1038
367 369 1030
374 373 1039
377 373 1038
378 371 1032
383 373 1036
383 369 1025
390 373 1034
390 369 1024
395 372 1029
402 374 1036
405 374 1035
409 375 1034
411 374 1032
413 373 1027
419 375 1032
421 374 1028
426 376 1031
431 377 1034
434 376 1031
435 375 1025
442 377 1031
444 376 1027
446 375 1022
451 377 1026
456 378 1028
460 379 1029
459 375 1016
466 378 1023
467 376 1017
471 377 1018
479 380 1026
483 380 1026
486 381 1025
488 380 1021
496 383 1028
502 385 1033
505 384 1030
508 384 1027
510 383 1023
515 384 1026
517 383 1021
518 381 1014
521 381 1013
530 385 1021
534 385 1021
533 382 1011
541 386 1019
543 384 1014
549 386 1017
552 386 1016
556 386 1015
565 390 1024
565 388 1016
565 385 1007
578 392 1022
580 391 1019
588 394 1025
587 391 1015
588 390 1010
600 395 1022
599 392 1013
599 389 1004
607 393 1011
-587 389 965
-578 385 956
-574 384 957
-563 379 945
-549 372 929
-536 366 915
-536 367 921
-532 367 921
-530 368 925
-526 367 926
-523 367 927
-520 367 929
-516 367 929
-516 369 936
-511 368 935
-510 369 941
-509 371 946
-508 372 951
-508 374 958
-498 369 946
-506 377 969
-503 378 972
-500 378 975
-497 378 975
-486 372 962
-481 371 960
-472 366 950
-466 364 945
-463 364 947
-456 361 941
-455 363 946
-455 365 954
-455 368 962
-449 365 957
-444 364 954
-438 362 951
-438 364 958
-435 364 959
-430 362 955
-428 363 960
-431 369 975
-432 372 987
-441 382 1015
-458 400 1063
-449 396 1053
-420 373 994
-408 365 974
-404 364 972
-400 363 971
-396 362 970
-395 365 977
-391 363 975
-392 367 987
-385 364 979
-379 361 973
-378 364 980
-374 363 979
-373 364 983
-368 363 981
-367 364 986
-364 364 987
-362 366 994
-357 364 990
-356 366 994
-350 363 989
-348 365 994
-344 364 992
-343 366 998
-338 364 995
-337 365 1000
-332 364 997
-330 365 1002
-328 367 1006
-325 366 1006
-325 370 1017
-317 364 1002
-314 365 1005
-310 364 1003
-308 364 1006
-304 364 1005
-303 367 1014
-301 367 1017
-298 367 1017
-296 369 1022
-291 367 1017
-288 367 1019
-286 368 1023
-280 365 1016
-278 366 1020
-277 369 1027
-271 365 1018
-269 367 1023
-266 368 1027
-264 368 1029
-258 365 1020
-255 365 1022
-253 366 1026
-250 367 1028
-248 368 1032
-243 366 1026
-240 366 1028
-238 368 1034
-232 363 1021
-229 364 1023
-225 363 1022
-222 363 1022
-218 362 1020
-216 364 1025
-213 363 1025
-209 362 1021
-208 364 1029
-204 363 1026
-201 363 1027
-196 361 1021
-194 362 1025
-190 361 1023
-188 363 1030
-183 360 1021
-181 362 1026
-178 362 1029
-176 363 1032
-172 361 1026
-169 362 1030
-167 365 1040
-163 364 1035
-161 366 1043
-157 364 1038
-155 367 1045
-150 363 1034
-147 362 1033
-144 363 1036
-141 363 1035
-138 363 1037
-135 364 1041
-131 362 1035
-129 364 1040
-126 364 1042
-123 365 1044
-120 366 1047
-117 365 1046
-114 368 1053
-110 363 1041
-103 352 1007
-96 336 962
-88 320 917
-84 314 899
-80 312 895
-76 307 880
-72 298 855
-68 296 848
-63 282 809
-63 296 849
-59 289 829
-57 290 832
-53 283 812
-49 275 788
-46 273 783
-46 284 816
-42 277 795
-40 279 801
-39 288 827
-35 276 792
-34 286 823
-31 283 813
-29 291 836
-25 275 790
-24 281 809
-22 297 855
-20 296 853
-18 301 867
-15 306 882
-13 318 915
-11 335 966
-9 343 989
-6 352 1015
-3 359 1034
0 360 1037
2 359 1036
5 360 1039
9 361 1042
12 360 1039
15 360 1040
18 358 1033
21 361 1042
24 358 1033
27 360 1039
30 359 1037
34 362 1044
37 359 1037
40 362 1044
43 362 1043
46 360 1037
49 361 1042
52 360 1039
56 361 1042
59 363 1047
62 363 1046
65 360 1038
68 361 1040
71 360 1037
75 364 1049
77 359 1036
81 364 1048
84 363 1045
87 361 1040
90 361 1040
94 364 1049
97 363 1045
100 362 1042
103 362 1042
106 363 1045
109 362 1041
113 365 1051
115 361 1038
118 361 1037
122 362 1041
124 361 1037
129 363 1044
132 363 1044
