VERSION 0.7
FIELDS x y z
SIZE 4 4 4
TYPE I I I
COUNT 1 1 1
WIDTH 4055
HEIGHT 1
VIEWPOINT 0.0 0.0 0.0 1.0 0.0 0.0 0.0
POINTS 4055
DATA ascii
-812 -71 4943
-800 -71 4956
-784 -71 4949
-769 -71 4942
-756 -71 4958
-741 -71 4953
-726 -71 4949
-713 -72 4957
-701 -72 4980
-685 -72 4969
-671 -72 4966
-656 -72 4968
-641 -72 4959
-626 -72 4958
-610 -72 4947
-597 -72 4958
-585 -73 4982
-571 -73 4980
-556 -73 4975
-541 -73 4969
-524 -73 4945
-512 -73 4972
-499 -73 4985
-483 -73 4972
-469 -73 4973
-452 -73 4948
-439 -73 4962
-426 -74 4979
-410 -73 4958
-396 -73 4955
-382 -74 4966
-368 -74 4969
-353 -74 4953
-339 -74 4959
-324 -74 4952
-312 -74 4984
-19 -4 367
-77 -20 1398
-79 -21 1497
-76 -22 1533
-68 -21 1459
-63 -20 1443
-60 -21 1461
-57 -21 1489
-52 -21 1473
-45 -20 1406
-41 -20 1398
-36 -19 1372
-32 -20 1385
-28 -19 1358
-24 -19 1363
-20 -20 1378
-16 -19 1354
-13 -20 1399
-9 -20 1385
-4 -19 1357
-1 -20 1385
2 -20 1368
6 -20 1402
10 -20 1375
14 -19 1343
18 -19 1348
23 -20 1400
26 -20 1376
29 -19 1297
35 -21 1412
36 -19 1299
40 -19 1315
44 -19 1322
48 -19 1328
56 -21 1417
57 -20 1361
63 -20 1392
67 -21 1408
72 -21 1416
75 -21 1403
80 -21 1411
87 -22 1470
89 -21 1437
93 -21 1429
100 -22 1476
104 -22 1461
107 -22 1447
113 -22 1467
116 -22 1451
122 -22 1477
125 -22 1467
129 -22 1464
136 -23 1493
137 -22 1452
143 -22 1470
150 -23 1506
157 -23 1524
156 -22 1472
163 -23 1499
167 -23 1493
180 -24 1574
258 -35 2211
333 -45 2793
344 -45 2809
340 -43 2712
336 -42 2624
335 -41 2555
343 -41 2556
355 -42 2589
363 -42 2591
358 -40 2507
257 -28 1753
163 -16 1084
156 -15 1018
165 -16 1053
169 -16 1062
174 -16 1071
177 -16 1073
176 -16 1044
178 -16 1037
185 -16 1064
184 -16 1040
187 -16 1036
191 -16 1044
199 -16 1068
203 -17 1074
205 -17 1068
206 -16 1056
212 -17 1072
213 -16 1060
220 -17 1077
220 -17 1061
221 -16 1052
209 -15 977
203 -14 937
208 -15 946
217 -15 973
209 -14 925
219 -15 958
204 -14 880
216 -14 918
223 -15 936
238 -16 988
245 -16 1004
236 -15 956
262 -17 1048
234 -15 922
231 -14 901
150 -8 574
27 0 89
1273 -85 4848
22 0 68
128 -6 462
206 -12 746
0 0 0
0 0 0
0 0 0
0 0 0
1006 -62 3494
1036 -63 3559
1039 -63 3533
1039 -62 3494
1044 -62 3473
1036 -61 3409
0 0 0
0 0 0
0 0 0
0 0 0
0 0 0
0 0 0
0 0 0
0 0 0
0 0 0
0 0 0
0 0 0
0 0 0
0 0 0
0 0 0
0 0 0
0 0 0
0 0 0
1050 -53 2894
1058 -53 2891
1062 -53 2875
1071 -53 2873
1079 -53 2870
1068 -52 2814
1074 -52 2804
1088 -52 2817
1046 -50 2682
1073 -51 2729
1086 -51 2737
1055 -49 2637
1069 -50 2648
1070 -49 2629
1085 -50 2641
1090 -50 2632
1086 -49 2600
1061 -48 2518
1103 -49 2598
1090 -49 2545
1080 -48 2501
1092 -48 2509
1092 -48 2487
1100 -48 2485
1091 -47 2446
1109 -48 2465
1111 -47 2450
1097 -46 2400
1101 -46 2389
1101 -46 2370
1096 -46 2340
1105 -46 2341
1097 -45 2306
1109 -45 2312
1098 -45 2272
1063 -43 2182
1053 -42 2144
1049 -42 2120
1054 -42 2113
1056 -42 2101
1049 -41 2072
1058 -41 2072
1054 -41 2050
1059 -41 2044
1058 -41 2026
1062 -41 2019
1065 -41 2010
1064 -40 1992
1062 -40 1975
1066 -40 1966
1068 -40 1956
1072 -40 1948
1067 -39 1925
1071 -39 1918
-496 -7 866
-496 -7 872
-480 -7 850
-489 -7 873
-489 -7 878
-485 -7 878
-468 -7 853
-469 -7 861
-493 -8 912
-516 -8 963
-573 -9 1077
-982 -18 1858
-1096 -20 2090
-1091 -20 2096
-1090 -20 2110
-1080 -20 2106
-1072 -20 2107
-1063 -20 2104
-1057 -20 2108
-1049 -20 2109
-1039 -20 2105
-1029 -20 2100
-1024 -20 2106
-1018 -21 2111
-1011 -21 2112
-999 -20 2104
-993 -21 2107
-986 -21 2110
-977 -21 2107
-968 -21 2105
-964 -21 2113
-955 -21 2110
-951 -21 2118
-936 -21 2102
-921 -20 2083
-907 -20 2069
-904 -20 2080
-894 -20 2072
-892 -21 2086
-888 -21 2093
-882 -21 2098
-870 -21 2086
-863 -21 2087
-856 -21 2087
-849 -21 2087
-854 -21 2118
-815 -20 2039
-801 -20 2021
-799 -20 2034
-817 -21 2098
-807 -21 2091
-801 -21 2094
-797 -21 2100
-788 -21 2096
-782 -21 2099
-778 -21 2108
-765 -21 2092
-757 -21 2088
-742 -21 2065
-744 -21 2091
-738 -21 2094
-726 -21 2078
-721 -21 2084
-720 -21 2101
-714 -21 2105
-707 -21 2104
-706 -21 2121
-695 -21 2109
-683 -21 2093
-684 -22 2116
-674 -21 2105
-660 -21 2085
-646 -21 2061
-645 -21 2078
-637 -21 2075
-641 -22 2109
-639 -22 2124
-626 -22 2104
-620 -22 2106
-611 -22 2097
-612 -22 2123
-600 -22 2104
-601 -22 2132
-589 -22 2111
-581 -22 2106
-569 -22 2088
-567 -22 2104
-569 -22 2137
-559 -22 2123
-555 -22 2132
-542 -22 2108
-536 -22 2110
-532 -22 2120
-526 -22 2124
-518 -22 2116
-514 -22 2126
-507 -22 2123
-499 -22 2120
-498 -23 2143
-483 -22 2104
-403 -19 1783
-423 -20 1895
-430 -21 1954
-431 -21 1985
-420 -21 1962
-437 -22 2067
0 0 0
0 0 0
0 0 0
-972 -55 4859
-965 -55 4900
-947 -55 4882
-931 -55 4873
-918 -55 4883
-908 -56 4905
-886 -55 4867
-864 -55 4823
-838 -54 4759
-847 -56 4890
-837 -56 4915
-824 -56 4926
-811 -56 4934
-799 -57 4954
-785 -57 4954
-767 -57 4934
-753 -57 4933
-739 -57 4941
-726 -57 4950
-713 -57 4960
-698 -57 4957
-684 -57 4959
-671 -58 4968
-655 -58 4958
-639 -58 4952
-626 -58 4959
-612 -58 4961
-597 -58 4958
-582 -58 4951
-569 -58 4962
-555 -58 4970
-539 -58 4956
-525 -58 4957
-510 -58 4949
-496 -58 4955
-483 -59 4967
-468 -59 4968
-452 -59 4946
-438 -59 4954
-425 -59 4960
-409 -59 4951
-395 -59 4950
-381 -59 4957
-366 -59 4950
-352 -59 4953
-338 -59 4951
-324 -59 4950
-311 -60 4970
-6 0 158
-80 -16 1451
-81 -17 1544
-76 -17 1537
-68 -16 1454
-60 -15 1383
-60 -16 1465
-54 -16 1425
-50 -16 1432
-41 -14 1274
-39 -15 1339
-40 -17 1520
-30 -14 1274
-24 -13 1211
-24 -16 1384
-19 -15 1311
-16 -16 1375
-12 -16 1380
-8 -16 1381
-3 -13 1197
0 -13 1194
2 -15 1310
6 -15 1328
10 -15 1331
14 -15 1284
17 -15 1303
22 -15 1322
26 -16 1346
30 -16 1347
30 -14 1188
37 -15 1320
40 -15 1305
40 -13 1171
44 -14 1214
54 -16 1371
55 -15 1297
59 -15 1312
62 -15 1300
63 -14 1234
78 -17 1463
69 -14 1211
76 -15 1267
94 -18 1504
102 -19 1573
103 -18 1508
111 -19 1569
107 -17 1445
122 -19 1592
123 -19 1543
126 -19 1527
137 -20 1602
135 -19 1528
137 -18 1500
140 -18 1489
148 -19 1531
156 -19 1563
162 -20 1580
159 -19 1508
164 -19 1505
173 -19 1553
183 -20 1599
281 -31 2408
347 -38 2910
355 -38 2900
334 -35 2665
336 -34 2620
348 -35 2652
341 -33 2544
325 -31 2368
330 -31 2352
0 0 0
163 -13 1106
144 -11 956
149 -12 971
153 -12 975
157 -12 984
160 -12 985
162 -12 981
166 -12 987
169 -12 987
169 -12 966
177 -12 995
179 -12 991
179 -12 977
185 -12 993
190 -12 1004
193 -12 1003
196 -12 1004
199 -12 1003
205 -13 1019
205 -13 1001
208 -13 1002
215 -13 1022
210 -12 982
209 -12 963
217 -12 989
212 -12 953
212 -12 939
214 -12 934
203 -11 874
224 -12 954
196 -10 823
221 -12 917
201 -10 822
220 -11 889
230 -12 918
235 -12 928
156 -7 604
143 -6 544
74 -2 270
1276 -71 4858
26 0 84
138 -6 500
212 -10 768
0 0 0
0 0 0
0 0 0
0 0 0
1009 -52 3506
1028 -52 3532
1034 -52 3515
1021 -51 3431
1035 -51 3442
1043 -51 3432
0 0 0
0 0 0
0 0 0
0 0 0
0 0 0
0 0 0
0 0 0
0 0 0
0 0 0
0 0 0
0 0 0
0 0 0
0 0 0
0 0 0
0 0 0
0 0 0
0 0 0
1051 -44 2898
1057 -44 2887
1065 -44 2883
1056 -44 2834
1071 -44 2848
1065 -43 2805
1066 -43 2784
1065 -43 2757
1023 -41 2625
1124 -45 2859
1060 -42 2671
1036 -41 2589
1051 -41 2604
1073 -42 2637
1051 -40 2560
1060 -40 2559
1055 -40 2526
1069 -40 2537
1090 -41 2566
1086 -40 2535
1076 -40 2491
1085 -40 2492
1080 -40 2460
1096 -40 2476
1090 -39 2442
1104 -40 2454
1096 -39 2417
1100 -39 2405
1089 -38 2362
1095 -39 2358
1095 -38 2338
1106 -38 2344
1108 -38 2328
1105 -38 2304
1089 -37 2254
1057 -36 2169
1058 -36 2154
1044 -35 2110
1054 -35 2113
1052 -35 2093
1048 -35 2069
1063 -35 2084
1056 -35 2053
1056 -34 2038
1064 -34 2039
1056 -34 2007
1063 -34 2007
1060 -34 1985
1068 -34 1986
1073 -34 1979
1065 -33 1950
1070 -33 1945
1067 -33 1926
1069 -33 1915
-510 -4 890
-496 -4 871
-489 -4 866
-487 -4 868
-486 -4 873
-478 -4 865
-473 -4 862
-479 -4 880
-483 -5 894
-498 -5 928
-645 -7 1211
-1079 -13 2041
-1101 -14 2099
-1091 -14 2096
-1085 -14 2100
-1081 -14 2107
-1072 -14 2106
-1064 -14 2107
-1054 -14 2103
-1045 -14 2100
-1038 -14 2102
-1036 -14 2114
-1024 -14 2106
-1020 -14 2115
-1007 -14 2104
-1000 -14 2106
-993 -14 2108
-988 -14 2113
-978 -14 2109
-971 -14 2111
-962 -14 2107
-955 -14 2109
-951 -14 2118
-937 -14 2104
-923 -14 2088
-904 -14 2062
-897 -14 2064
-893 -14 2071
-894 -14 2090
-888 -14 2095
-885 -14 2105
-869 -14 2082
-861 -14 2081
-853 -14 2080
-846 -14 2080
-847 -14 2100
-823 -14 2059
-808 -14 2040
-829 -15 2109
-818 -14 2100
-802 -14 2079
-801 -14 2092
-797 -15 2102
-790 -15 2102
-779 -15 2091
-772 -15 2091
-770 -15 2105
-755 -15 2084
-736 -14 2049
-746 -15 2095
-732 -15 2077
-725 -15 2077
-716 -15 2070
-713 -15 2082
-714 -15 2103
-703 -15 2090
-702 -15 2109
-690 -15 2092
-687 -15 2105
-687 -15 2125
-672 -15 2101
-660 -15 2085
-648 -15 2067
-643 -15 2072
-637 -15 2075
-635 -15 2090
-630 -15 2094
-629 -15 2114
-623 -15 2115
-616 -15 2114
-611 -16 2121
-606 -16 2126
-598 -16 2121
-589 -16 2112
-584 -16 2120
-570 -15 2092
-570 -16 2115
-563 -16 2115
-557 -16 2117
-550 -16 2114
-546 -16 2125
-536 -16 2112
-534 -16 2129
-523 -16 2109
-521 -16 2128
-515 -16 2132
-511 -16 2143
-500 -16 2123
-495 -16 2128
-478 -16 2084
-407 -13 1800
-425 -14 1905
-490 -17 2221
-423 -15 1945
-463 -17 2161
-427 -16 2022
0 0 0
0 0 0
0 0 0
-976 -41 4881
-969 -41 4921
-946 -41 4879
-934 -41 4891
-918 -41 4882
-905 -41 4890
-886 -41 4868
-859 -40 4797
-843 -40 4787
-850 -42 4911
-836 -42 4911
-822 -42 4913
-810 -42 4930
-795 -42 4927
-783 -42 4944
-766 -42 4928
-752 -42 4933
-739 -43 4942
-726 -43 4948
-711 -43 4946
-697 -43 4951
-684 -43 4958
-669 -43 4954
-654 -43 4956
-640 -43 4954
-627 -43 4967
-611 -43 4956
-598 -44 4968
-582 -44 4954
-567 -44 4948
-553 -44 4952
-540 -44 4962
-523 -44 4945
-512 -44 4969
-496 -44 4962
-482 -44 4963
-468 -44 4968
-452 -44 4946
-439 -45 4966
-425 -45 4962
-410 -45 4958
-395 -45 4950
-381 -45 4952
-366 -45 4951
-353 -45 4957
-338 -45 4956
-324 -45 4960
-310 -45 4964
0 1 39
-85 -13 1539
-84 -13 1608
-76 -13 1531
-68 -12 1464
-62 -12 1430
-58 -12 1422
-49 -11 1294
-51 -12 1467
-43 -11 1357
0 0 0
0 0 0
0 0 0
0 0 0
0 0 0
0 0 0
0 0 0
0 0 0
0 0 0
0 0 0
0 0 0
0 0 0
7 -13 1542
0 0 0
0 0 0
17 -11 1283
0 0 0
0 0 0
0 0 0
0 0 0
0 0 0
0 0 0
53 -14 1579
0 0 0
0 0 0
0 0 0
0 0 0
0 0 0
0 0 0
0 0 0
0 0 0
0 0 0
0 0 0
0 0 0
0 0 0
136 -18 1928
144 -19 1962
132 -16 1726
134 -16 1690
139 -16 1692
139 -15 1628
137 -15 1553
137 -14 1497
137 -13 1452
143 -14 1470
158 -15 1580
156 -14 1516
151 -13 1426
165 -14 1522
166 -14 1488
211 -18 1846
322 -28 2768
366 -31 3068
355 -30 2904
336 -27 2682
333 -26 2596
336 -26 2557
0 0 0
0 0 0
0 0 0
0 0 0
150 -9 1013
147 -9 976
146 -9 948
151 -9 962
155 -9 969
153 -9 942
160 -9 968
164 -9 970
168 -9 977
170 -9 975
173 -9 975
176 -9 972
176 -9 960
185 -9 993
186 -9 980
193 -10 1004
194 -9 992
199 -10 1005
198 -9 981
207 -10 1014
208 -10 1003
207 -9 984
212 -10 991
216 -10 998
215 -9 980
210 -9 943
216 -9 958
217 -9 948
218 -9 939
203 -8 862
218 -9 915
171 -6 706
193 -7 787
178 -7 714
214 -8 852
0 0 0
158 -5 612
181 -6 695
48 0 169
7 1 12
20 0 59
153 -5 555
217 -8 785
0 0 0
0 0 0
0 0 0
0 0 0
0 0 0
1021 -41 3509
1033 -41 3510
1027 -41 3454
1044 -41 3472
1043 -41 3433
0 0 0
0 0 0
0 0 0
0 0 0
0 0 0
0 0 0
0 0 0
0 0 0
0 0 0
0 0 0
0 0 0
0 0 0
0 0 0
0 0 0
0 0 0
0 0 0
0 0 0
1051 -36 2896
1055 -36 2881
1061 -36 2872
1070 -36 2870
1074 -36 2855
1074 -35 2830
1060 -35 2768
1046 -34 2708
1064 -34 2729
1004 -32 2551
1049 -33 2643
1021 -32 2550
1059 -33 2623
1055 -33 2591
1055 -33 2568
1036 -32 2501
1049 -32 2512
1046 -32 2483
1052 -32 2477
1038 -31 2424
1031 -31 2388
1065 -32 2445
1087 -32 2476
1082 -32 2443
1081 -32 2422
1079 -31 2397
1096 -32 2417
1064 -31 2326
1095 -31 2376
1074 -31 2312
1093 -31 2335
1091 -31 2311
1091 -31 2293
1103 -31 2300
1078 -30 2230
1051 -29 2157
1051 -29 2140
1060 -29 2142
1054 -28 2113
1057 -28 2104
1061 -28 2095
1052 -28 2061
1051 -28 2044
1062 -28 2050
1059 -28 2028
1068 -28 2030
1061 -28 2003
1069 -28 2002
1059 -27 1969
1060 -27 1956
1069 -27 1958
1066 -27 1938
1066 -27 1924
1064 -27 1905
-513 -2 896
-496 -2 873
-486 -2 861
-484 -2 863
-488 -2 876
-478 -2 865
-478 -2 872
-486 -2 893
-486 -2 900
-501 -2 933
-654 -3 1228
-1087 -7 2056
-1097 -7 2091
-1095 -7 2104
-1086 -7 2101
-1078 -7 2102
-1075 -7 2111
-1063 -7 2105
-1055 -7 2106
-1049 -7 2110
-1041 -7 2108
-1031 -7 2105
-1022 -7 2103
-1018 -7 2112
-1009 -7 2109
-1000 -7 2106
-990 -7 2101
-985 -7 2108
-980 -7 2113
-971 -7 2112
-963 -8 2110
-957 -8 2113
-949 -8 2113
-938 -8 2105
-914 -7 2069
-902 -7 2058
-901 -8 2074
-903 -8 2095
-896 -8 2095
-878 -8 2071
-886 -8 2107
-876 -8 2100
-869 -8 2102
-851 -8 2074
-854 -8 2100
-841 -8 2087
-833 -8 2084
-818 -8 2064
-822 -8 2093
-816 -8 2096
-803 -8 2080
-803 -8 2099
-793 -8 2092
-782 -8 2080
-779 -8 2091
-782 -8 2120
-770 -8 2106
-762 -8 2103
-739 -8 2057
-734 -8 2064
-738 -8 2094
-718 -8 2057
-715 -8 2068
-717 -9 2092
-718 -9 2116
-707 -9 2103
-707 -9 2123
-699 -9 2122
-695 -9 2129
-681 -9 2108
-670 -9 2095
-665 -9 2101
-649 -9 2070
-645 -9 2079
-641 -9 2086
-632 -9 2079
-628 -9 2090
-626 -9 2105
-621 -9 2110
-619 -9 2124
-609 -9 2112
-604 -9 2120
-596 -9 2115
-594 -9 2131
-580 -9 2106
-573 -9 2103
-566 -9 2103
-565 -10 2123
-557 -10 2118
-551 -10 2120
-544 -10 2118
-538 -10 2119
-534 -10 2129
-525 -10 2119
-522 -10 2133
-517 -10 2139
-504 -10 2111
-500 -10 2123
-494 -10 2126
-480 -10 2094
-414 -8 1831
-447 -9 2002
-422 -9 1918
-444 -10 2045
-438 -10 2043
-456 -10 2157
0 0 0
0 0 0
0 0 0
-4 1 29
-966 -27 4906
-946 -27 4880
-931 -27 4878
-916 -27 4874
-900 -27 4867
-886 -27 4870
-861 -27 4806
-839 -26 4768
-848 -27 4898
-837 -27 4918
-823 -28 4921
-809 -28 4926
-798 -28 4943
-781 -28 4931
-765 -28 4922
-754 -28 4947
-739 -28 4940
-725 -28 4945
-709 -28 4937
-696 -28 4941
-683 -29 4951
-669 -29 4958
-653 -29 4949
-641 -29 4962
-624 -29 4945
-611 -29 4953
-595 -29 4945
-584 -29 4969
-568 -29 4963
-553 -29 4956
-538 -29 4947
-526 -30 4967
-511 -30 4964
-495 -30 4946
-482 -30 4964
-468 -30 4969
-454 -30 4966
-438 -30 4950
-424 -30 4959
-409 -30 4951
-395 -30 4953
-380 -31 4948
-366 -31 4951
-352 -31 4953
-338 -31 4958
-323 -31 4949
-310 -31 4960
-3 0 108
-84 -8 1522
-80 -8 1522
-75 -8 1519
-68 -8 1452
-58 -7 1341
-54 -7 1321
-46 -6 1228
-44 -7 1255
-41 -7 1282
-46 -9 1554
-41 -9 1560
-44 -11 1835
0 0 0
-30 -10 1669
-25 -9 1633
0 0 0
0 0 0
0 0 0
-7 -11 1802
-1 -9 1490
3 -11 1774
7 -10 1697
12 -10 1713
18 -11 1749
24 -11 1847
29 -11 1831
0 0 0
0 0 0
0 0 0
0 0 0
55 -11 1825
0 0 0
0 0 0
71 -12 1839
0 0 0
0 0 0
93 -13 1967
0 0 0
0 0 0
0 0 0
0 0 0
0 0 0
0 0 0
0 0 0
0 0 0
159 -14 2164
150 -13 1971
159 -13 2007
145 -12 1765
139 -11 1628
143 -10 1616
141 -10 1542
148 -10 1571
151 -10 1556
150 -10 1496
153 -10 1488
161 -10 1524
166 -10 1526
174 -10 1560
202 -12 1772
286 -17 2452
338 -21 2834
353 -21 2887
329 -19 2625
336 -19 2623
322 -18 2457
0 0 0
0 0 0
0 0 0
0 0 0
154 -7 1046
144 -6 954
147 -6 955
149 -6 951
154 -6 963
156 -6 961
160 -6 967
164 -6 970
167 -6 975
171 -6 978
173 -6 972
176 -6 973
179 -6 978
188 -7 1007
194 -7 1025
194 -7 1009
198 -7 1011
202 -7 1016
206 -7 1022
209 -7 1022
205 -7 989
209 -7 993
207 -6 967
209 -6 963
206 -6 937
210 -6 941
206 -6 912
210 -6 919
193 -5 830
162 -4 683
195 -5 818
189 -5 780
193 -5 788
0 0 0
93 -1 362
0 0 0
0 0 0
167 -4 637
43 0 152
27 0 88
23 0 73
123 -2 445
152 -3 545
0 0 0
0 0 0
0 0 0
0 0 0
0 0 0
0 0 0
1054 -32 3583
1027 -30 3453
1031 -30 3429
999 -29 3286
0 0 0
0 0 0
0 0 0
0 0 0
0 0 0
0 0 0
0 0 0
0 0 0
0 0 0
0 0 0
0 0 0
0 0 0
0 0 0
0 0 0
0 0 0
0 0 0
921 -24 2563
1051 -27 2898
1061 -27 2900
1065 -27 2882
1075 -27 2883
1087 -27 2890
1082 -27 2851
1066 -26 2783
1065 -26 2756
1075 -26 2759
1074 -26 2732
1067 -26 2689
1059 -25 2646
1033 -25 2560
1092 -26 2682
1079 -25 2627
1014 -24 2448
1048 -24 2509
1066 -25 2532
1032 -24 2430
1091 -25 2548
1044 -24 2418
1110 -25 2548
1020 -23 2322
1042 -23 2353
1069 -24 2394
1038 -23 2307
1079 -24 2379
1026 -22 2242
1046 -23 2269
1064 -23 2290
1077 -23 2299
1063 -23 2252
1098 -23 2308
1100 -23 2293
1072 -23 2218
1058 -22 2171
1057 -22 2153
1056 -22 2134
1060 -22 2126
1064 -22 2117
1064 -22 2102
1064 -22 2085
1058 -22 2058
1062 -21 2050
1060 -21 2030
1058 -21 2011
1067 -21 2014
1062 -21 1989
1061 -21 1971
1063 -21 1961
1063 -21 1946
1065 -21 1935
1067 -21 1925
1070 -21 1916
-503 0 878
-506 0 889
-489 0 867
-500 0 892
-487 0 874
-480 0 869
-484 0 883
-486 0 892
-477 0 883
-499 0 930
-657 0 1234
-1087 0 2057
-1100 0 2098
-1096 0 2105
-1090 0 2109
-1082 0 2110
-1077 0 2117
-1065 0 2108
-1055 0 2105
-1053 0 2117
-1039 -1 2104
-1030 -1 2104
-1022 -1 2103
-1016 -1 2107
-1007 -1 2105
-1001 -1 2108
-993 -1 2107
-990 -1 2119
-981 -1 2115
-969 -1 2106
-961 -1 2106
-957 -1 2114
-949 -1 2113
-933 -1 2094
-915 -1 2070
-908 -1 2073
-895 -1 2060
-892 -1 2069
-893 -1 2088
-882 -1 2081
-878 -1 2087
-871 -1 2090
-866 -1 2093
-860 -1 2098
-848 -1 2085
-843 -2 2092
-818 -1 2048
-827 -2 2087
-824 -2 2097
-822 -2 2112
-807 -2 2092
-802 -2 2096
-789 -2 2080
-789 -2 2100
-781 -2 2098
-776 -2 2104
-769 -2 2103
-758 -2 2092
-736 -2 2050
-735 -2 2065
-739 -2 2097
-716 -2 2050
-724 -2 2094
-721 -2 2103
-718 -2 2117
-707 -2 2105
-704 -2 2117
-691 -2 2096
-687 -2 2104
-681 -2 2109
-672 -3 2100
-664 -3 2098
-648 -3 2066
-644 -3 2075
-644 -3 2096
-634 -3 2086
-634 -3 2109
-628 -3 2112
-618 -3 2100
-616 -3 2114
-611 -3 2121
-601 -3 2109
-593 -3 2104
-591 -3 2121
-583 -3 2117
-579 -3 2124
-570 -3 2115
-565 -3 2123
-555 -3 2109
-551 -3 2119
-544 -3 2117
-536 -3 2110
-533 -3 2127
-525 -3 2118
-520 -4 2126
-511 -4 2115
-505 -4 2118
-502 -4 2131
-491 -4 2110
-486 -4 2120
-461 -4 2037
-460 -4 2061
-440 -3 1998
-435 -4 2001
-438 -4 2043
-451 -4 2133
-429 -4 2058
0 0 0
0 0 0
-11 1 64
-976 -12 4955
-946 -12 4880
-932 -12 4882
-915 -12 4871
-902 -13 4875
-884 -13 4859
-861 -13 4808
-835 -12 4741
-854 -13 4934
-840 -13 4936
-828 -13 4953
-811 -13 4940
-800 -14 4961
-785 -14 4957
-770 -14 4955
-755 -14 4950
-739 -14 4944
-728 -14 4962
-713 -14 4963
-701 -14 4979
-686 -14 4976
-673 -14 4987
-654 -14 4955
-642 -15 4972
-629 -15 4986
-613 -15 4975
-598 -15 4967
-585 -15 4980
-572 -15 4998
-558 -15 5000
-540 -15 4967
-526 -15 4973
-512 -15 4976
-496 -16 4960
-482 -16 4965
-467 -16 4961
-454 -16 4971
-440 -16 4980
-424 -16 4962
-409 -16 4948
-395 -16 4948
-381 -16 4953
-365 -16 4940
-351 -16 4939
-337 -17 4946
-324 -17 4953
-312 -17 4992
-13 0 270
-87 -4 1565
-81 -4 1552
-70 -3 1417
-65 -3 1394
-58 -3 1337
-52 -3 1294
-48 -3 1272
-43 -3 1233
-41 -3 1281
-38 -3 1304
-42 -4 1574
-40 -5 1685
-36 -5 1699
-29 -5 1614
-24 -5 1622
-20 -5 1621
-16 -5 1716
-12 -5 1765
-6 -5 1693
-1 -5 1581
3 -5 1613
7 -5 1549
12 -5 1590
16 -5 1572
20 -5 1521
27 -5 1661
27 -4 1422
35 -5 1617
42 -6 1718
40 -4 1451
48 -5 1592
48 -4 1423
57 -5 1564
68 -6 1734
72 -6 1714
74 -5 1655
81 -6 1700
87 -6 1720
0 0 0
109 -7 1937
106 -6 1797
0 0 0
0 0 0
0 0 0
0 0 0
153 -8 2092
162 -8 2121
162 -8 2053
160 -7 1946
158 -7 1854
141 -6 1601
138 -5 1513
136 -5 1444
133 -5 1363
146 -5 1458
137 -5 1331
147 -5 1390
158 -5 1449
156 -5 1399
178 -6 1556
0 0 0
298 -11 2496
0 0 0
304 -10 2424
309 -10 2407
0 0 0
0 0 0
0 0 0
0 0 0
0 0 0
185 -5 1258
148 -3 978
146 -3 949
155 -3 988
155 -3 968
158 -3 974
158 -3 954
166 -3 987
178 -4 1040
170 -3 971
174 -3 977
179 -3 993
193 -4 1050
213 -4 1147
225 -5 1191
261 -6 1361
242 -5 1243
234 -5 1183
224 -4 1112
210 -4 1025
208 -4 1000
210 -4 998
208 -4 975
205 -3 946
208 -3 945
209 -3 937
212 -3 940
211 -3 922
204 -3 880
214 -3 910
173 -2 725
157 -2 646
144 -1 583
0 0 0
0 0 0
0 0 0
0 0 0
131 -1 497
38 0 133
6 1 8
49 0 171
115 -1 414
131 -1 469
0 0 0
0 0 0
0 0 0
0 0 0
0 0 0
0 0 0
0 0 0
1045 -21 3512
1054 -21 3507
0 0 0
0 0 0
0 0 0
0 0 0
0 0 0
0 0 0
0 0 0
0 0 0
0 0 0
0 0 0
0 0 0
1029 -19 3031
1055 -19 3077
0 0 0
0 0 0
0 0 0
0 0 0
933 -16 2594
1044 -18 2878
1063 -18 2904
1063 -18 2877
1076 -18 2886
1081 -18 2873
1079 -18 2843
1078 -18 2814
1085 -18 2808
1074 -18 2755
1065 -18 2708
1081 -18 2724
1105 -18 2760
1066 -17 2641
1076 -17 2642
1066 -17 2597
1090 -17 2632
1073 -17 2569
1086 -17 2578
1049 -16 2470
1018 -16 2376
1062 -17 2459
1041 -16 2390
1061 -16 2415
1090 -17 2462
1101 -17 2468
1040 -16 2310
1078 -16 2377
1059 -16 2315
1035 -15 2244
1007 -15 2165
1057 -16 2257
1043 -15 2210
1030 -15 2164
1094 -16 2282
1088 -16 2250
1082 -16 2221
1079 -16 2197
1066 -15 2154
1086 -16 2179
1080 -16 2149
1084 -16 2141
1073 -15 2104
1074 -15 2089
1075 -15 2075
1069 -15 2048
1070 -15 2035
1069 -15 2016
1068 -15 2000
1071 -15 1990
1067 -15 1968
1067 -15 1955
1070 -15 1946
1061 -14 1914
1064 -14 1905
-505 3 882
-495 3 869
-495 3 877
-487 3 869
-487 3 876
-475 3 861
-486 3 887
-461 3 847
-490 3 908
-488 3 911
-667 4 1253
-1089 5 2060
-1102 6 2100
-1094 5 2101
-1087 5 2103
-1082 5 2111
-1070 5 2103
-1067 5 2113
-1058 5 2111
-1049 5 2109
-1040 5 2108
-1032 5 2107
-1029 5 2117
-1016 5 2107
-1012 5 2116
-1003 5 2112
-995 5 2112
-985 5 2109
-979 5 2111
-971 5 2112
-966 5 2116
-956 5 2113
-953 5 2123
-936 4 2102
-927 4 2098
-911 4 2079
-903 4 2078
-895 4 2075
-886 4 2072
-881 4 2077
-871 4 2070
-878 4 2105
-867 4 2098
-853 4 2081
-853 4 2099
-842 4 2090
-830 4 2078
-827 4 2088
-824 4 2099
-821 4 2108
-803 4 2081
-802 4 2097
-796 4 2098
-788 4 2096
-778 3 2089
-774 3 2098
-765 3 2093
-763 3 2106
-737 3 2054
-724 3 2036
-734 3 2082
-717 3 2054
-720 3 2081
-719 3 2100
-710 3 2092
-710 3 2114
-702 3 2110
-695 3 2110
-685 3 2101
-688 3 2128
-677 3 2116
-664 3 2097
-645 3 2059
-651 3 2098
-639 3 2082
-634 3 2085
-630 2 2096
-629 2 2114
-619 2 2102
-617 2 2120
-609 2 2114
-605 2 2122
-597 2 2118
-591 2 2121
-579 2 2101
-575 2 2111
-567 2 2107
-565 2 2122
-554 2 2106
-551 2 2120
-546 2 2125
-540 2 2128
-531 2 2119
-525 2 2118
-524 2 2140
-512 2 2119
-503 2 2108
-500 2 2122
-493 2 2122
-488 2 2129
-478 1 2113
-459 1 2057
-442 1 2005
-448 1 2061
-466 1 2174
-412 1 1951
-435 1 2089
0 0 0
0 0 0
0 0 0
-14 1 81
-935 1 4822
-928 1 4863
-911 1 4848
-904 1 4887
-881 1 4841
-856 1 4780
-818 0 4649
-857 0 4949
0 1 8
-836 0 4998
-2 1 27
-8 1 64
1 1 3
2 1 -3
2 1 -4
-1 1 23
-735 0 5013
-4 1 47
1 1 5
1 1 6
0 1 17
-1 1 30
0 1 21
-3 1 41
-9 1 95
-7 1 84
-10 1 110
-21 1 205
-19 1 196
-10 1 114
-5 1 69
-518 -1 5035
-497 -1 4966
-482 -1 4967
-476 -1 5051
-2 1 49
-3 1 65
-428 -2 5007
-409 -2 4956
-393 -2 4933
-379 -2 4933
-366 -2 4945
-352 -2 4949
-338 -2 4952
-324 -2 4963
0 1 33
-47 0 837
-77 0 1393
-77 0 1479
-70 0 1417
-56 0 1221
-55 0 1276
-50 0 1231
-45 0 1207
-42 0 1207
-36 0 1135
-42 0 1441
-38 0 1451
-37 0 1561
-28 0 1384
-26 0 1445
-24 0 1578
-18 0 1525
-15 0 1591
-11 0 1705
-6 0 1676
-1 0 1431
3 0 1584
7 0 1677
12 0 1563
16 0 1566
21 0 1638
24 0 1472
32 0 1688
34 0 1552
39 0 1584
39 0 1392
46 0 1493
52 0 1560
53 0 1459
58 0 1481
66 -1 1567
69 -1 1541
67 0 1404
86 -1 1701
79 0 1479
86 -1 1519
99 -1 1675
106 -1 1712
111 -1 1710
126 -1 1857
138 -2 1956
147 -2 2007
152 -2 1988
160 -2 2020
157 -2 1909
155 -1 1826
157 -1 1783
147 -1 1615
140 -1 1486
142 -1 1458
134 -1 1333
128 -1 1237
144 -1 1357
138 -1 1264
148 -1 1318
150 -1 1302
146 -1 1235
0 0 0
0 0 0
0 0 0
0 0 0
0 0 0
0 0 0
0 0 0
0 0 0
0 0 0
0 0 0
182 -1 1212
160 0 1039
157 0 1003
158 0 991
167 -1 1024
174 -1 1050
193 -1 1147
175 -1 1022
176 -1 1010
174 -1 982
180 -1 999
212 -1 1156
316 -2 1706
377 -3 2009
415 -4 2178
416 -4 2147
371 -3 1885
317 -2 1581
267 -2 1313
267 -2 1291
193 -1 918
210 -1 984
210 -1 967
204 -1 926
209 -1 939
217 -1 960
212 -1 926
185 0 794
206 -1 874
162 0 676
187 0 774
174 0 708
0 0 0
105 0 413
143 0 556
88 0 334
109 0 411
3 1 0
24 1 75
46 0 160
98 0 352
0 0 0
0 0 0
0 0 0
0 0 0
0 0 0
0 0 0
0 0 0
0 0 0
0 0 0
0 0 0
0 0 0
0 0 0
0 0 0
0 0 0
0 0 0
0 0 0
0 0 0
0 0 0
0 0 0
0 0 0
1051 -10 3126
1053 -10 3103
1057 -10 3083
1013 -9 2928
0 0 0
0 0 0
0 0 0
902 -8 2507
1052 -9 2900
1057 -9 2887
1070 -10 2896
1070 -10 2869
1083 -10 2878
1090 -10 2872
1072 -9 2799
1071 -9 2772
1088 -10 2791
1083 -9 2755
1078 -9 2717
1088 -9 2718
1085 -9 2688
1099 -10 2700
1081 -9 2632
1093 -9 2639
1085 -9 2597
1094 -9 2598
1082 -9 2548
1077 -9 2515
1102 -9 2551
1093 -9 2509
1094 -9 2492
1134 -10 2562
1061 -9 2377
1069 -9 2376
1092 -9 2407
1054 -9 2305
1130 -9 2452
1074 -9 2311
1065 -9 2273
1086 -9 2299
1085 -9 2279
1092 -9 2276
1086 -9 2248
1087 -9 2232
1083 -9 2206
1079 -9 2181
1086 -9 2177
1096 -9 2182
1099 -9 2169
1091 -9 2137
1091 -9 2121
1096 -9 2116
1092 -9 2092
1090 -9 2072
1095 -9 2065
1084 -9 2030
1075 -9 1999
1072 -8 1977
1074 -8 1966
1067 -8 1939
1075 -8 1940
1071 -8 1917
-504 6 880
-498 6 876
-499 6 883
-491 6 876
-486 6 873
-484 6 877
-472 6 862
-474 6 871
-484 6 895
-517 6 964
-659 8 1238
-1088 12 2059
-1101 12 2100
-1097 12 2108
-1089 12 2107
-1079 12 2105
-1077 12 2116
-1065 12 2108
-1058 12 2110
-1047 12 2105
-1040 12 2107
-1032 12 2107
-1025 12 2110
-1020 12 2116
-1011 12 2113
-1001 11 2108
-995 11 2112
-984 11 2105
-976 11 2106
-968 11 2105
-962 11 2109
-957 11 2115
-952 11 2120
-935 11 2099
-915 11 2071
-905 11 2065
-891 11 2051
-893 11 2073
-889 11 2078
-881 11 2077
-880 11 2092
-878 11 2105
-860 10 2080
-854 10 2084
-846 10 2082
-841 10 2086
-839 10 2099
-829 10 2093
-818 10 2084
-813 10 2087
-806 10 2089
-796 10 2081
-793 10 2091
-788 10 2096
-788 10 2116
-772 10 2092
-770 10 2105
-760 10 2098
-744 10 2072
-737 9 2071
-737 10 2091
-730 9 2092
-720 9 2083
-716 9 2091
-708 9 2087
-701 9 2087
-702 9 2111
-694 9 2105
-692 9 2122
-683 9 2113
-673 9 2104
-661 9 2088
-648 9 2068
-649 9 2092
-637 9 2075
-637 9 2095
-631 9 2099
-626 9 2104
-619 9 2103
-619 9 2125
-609 9 2114
-605 9 2122
-594 8 2108
-590 8 2117
-579 8 2101
-570 8 2092
-570 8 2118
-568 8 2134
-554 8 2104
-553 8 2126
-543 8 2112
-534 8 2104
-530 8 2115
-525 8 2120
-515 8 2104
-511 8 2115
-506 8 2123
-497 8 2110
-494 8 2127
-483 8 2104
-484 8 2139
-485 8 2170
-477 8 2167
-455 7 2096
-458 8 2136
-457 8 2165
-475 8 2281
-462 8 2250
0 0 0
0 0 0
0 0 0
-919 15 4742
-920 15 4820
-907 15 4827
-905 15 4895
-878 15 4827
-848 14 4738
-823 14 4676
-865 15 4998
-5 1 41
-7 1 58
-10 1 76
-16 1 114
-4 1 43
-8 1 65
-10 1 79
0 1 17
-10 1 84
-9 1 78
-10 1 89
-1 1 25
-3 1 40
-3 1 44
-7 1 76
-13 1 124
-30 2 262
-39 2 341
-43 2 387
-42 2 390
-40 2 385
-47 2 456
-40 2 406
0 1 30
-499 12 4992
-483 12 4977
-474 12 5035
-52 2 601
-60 3 703
-21 2 272
-414 12 5006
-396 11 4966
-382 11 4973
-367 11 4958
-353 11 4972
-341 11 5005
0 1 49
-41 2 691
-77 4 1325
-73 4 1337
-71 4 1354
-63 3 1276
-51 3 1122
-48 3 1121
-48 3 1190
-46 3 1222
-41 3 1181
-32 3 1023
-36 3 1246
-37 3 1410
-32 3 1386
-30 4 1459
-26 4 1475
-21 3 1396
-16 3 1396
-15 4 1649
-10 4 1586
-4 3 1390
-1 3 1475
3 3 1459
7 3 1401
11 3 1481
15 3 1427
20 3 1503
23 3 1414
27 3 1398
30 3 1382
36 3 1443
41 3 1466
44 3 1443
49 3 1473
52 3 1427
58 3 1484
60 3 1423
63 3 1404
67 3 1395
77 3 1508
74 3 1372
85 3 1511
92 3 1548
99 3 1596
103 3 1584
107 3 1574
112 3 1574
123 3 1672
126 3 1650
137 3 1731
152 3 1854
154 3 1813
145 3 1641
151 3 1657
145 2 1537
137 2 1412
130 2 1295
135 2 1308
121 2 1133
127 2 1165
132 2 1180
127 2 1104
138 2 1167
130 2 1074
138 2 1110
0 0 0
0 0 0
0 0 0
0 0 0
0 0 0
0 0 0
0 0 0
0 0 0
191 2 1271
169 2 1104
163 2 1042
164 2 1025
168 1 1034
200 2 1211
0 0 0
227 2 1330
184 1 1057
175 1 984
180 1 998
217 1 1183
0 0 0
421 2 2245
458 2 2404
443 2 2290
460 1 2342
407 1 2035
290 1 1426
0 0 0
244 1 1161
210 1 985
211 1 976
209 1 950
218 1 980
197 1 869
193 1 843
195 1 838
212 1 900
120 1 495
223 1 924
129 1 520
157 1 631
136 1 535
0 0 0
0 0 0
119 1 449
44 1 157
14 1 37
20 1 61
71 1 250
0 0 0
0 0 0
0 0 0
0 0 0
0 0 0
0 0 0
0 0 0
0 0 0
0 0 0
0 0 0
0 0 0
0 0 0
0 0 0
0 0 0
0 0 0
0 0 0
0 0 0
0 0 0
0 0 0
0 0 0
1016 0 3021
1068 0 3147
1062 0 3098
1039 0 3001
0 0 0
0 0 0
0 0 0
1009 0 2806
1050 -1 2894
1063 -1 2902
1065 -1 2882
1077 -1 2888
1082 -1 2876
1081 -1 2849
1084 -1 2831
1083 -1 2803
1075 -1 2756
1079 -1 2744
1085 -1 2733
1074 -1 2683
1090 -1 2699
1081 -1 2656
1102 -1 2683
1092 -1 2636
1080 -1 2585
1086 -1 2579
1090 -1 2567
1096 -1 2558
1080 -1 2500
1079 -1 2478
1097 -2 2499
1094 -2 2472
1105 -2 2475
1092 -2 2426
1072 -2 2363
1089 -2 2381
1094 -2 2373
1090 -2 2346
1092 -2 2332
1092 -2 2313
1088 -2 2287
1093 -2 2279
1101 -2 2278
1101 -2 2260
1098 -2 2236
1098 -2 2220
1097 -2 2200
1098 -2 2184
1107 -2 2186
1100 -2 2156
1106 -2 2151
1105 -2 2132
1100 -2 2106
1107 -2 2104
1098 -2 2072
1107 -2 2074
1097 -2 2039
1098 -2 2025
1080 -2 1977
1099 -2 1998
1094 -2 1974
1084 -2 1941
-508 9 887
-497 9 873
-498 9 881
-486 9 867
-480 9 862
-475 9 859
-465 8 847
-475 9 873
-483 9 894
-503 9 938
-658 12 1237
-1091 19 2064
-1101 19 2099
-1095 19 2104
-1087 19 2105
-1082 19 2111
-1072 19 2107
-1064 19 2107
-1056 19 2106
-1048 18 2108
-1041 18 2109
-1036 18 2115
-1026 18 2112
-1018 18 2111
-1009 18 2109
-1002 18 2111
-994 18 2111
-987 18 2112
-982 18 2119
-970 18 2108
-964 18 2112
-959 18 2118
-949 18 2114
-938 18 2106
-915 17 2071
-914 17 2087
-911 17 2095
-900 17 2089
-888 17 2077
-885 17 2087
-879 17 2090
-869 17 2084
-873 17 2112
-858 17 2094
-856 17 2105
-835 17 2073
-832 17 2083
-828 17 2089
-822 17 2094
-814 16 2090
-809 16 2097
-798 16 2087
-800 16 2111
-783 16 2084
-777 16 2087
-774 16 2098
-773 16 2114
-756 16 2088
-744 16 2072
-743 16 2089
-731 16 2074
-724 16 2074
-723 16 2092
-719 16 2099
-711 16 2096
-709 16 2109
-700 16 2103
-690 15 2095
-689 16 2113
-684 16 2119
-674 15 2108
-664 15 2097
-644 15 2056
-650 15 2096
-639 15 2083
-633 15 2084
-634 15 2109
-623 15 2095
-621 15 2110
-610 15 2096
-607 15 2109
-604 15 2119
-595 15 2111
-591 15 2122
-587 15 2132
-575 15 2113
-568 15 2111
-565 15 2123
-557 14 2116
-547 14 2102
-546 14 2124
-538 14 2119
-529 14 2111
-525 14 2118
-518 14 2117
-511 14 2115
-506 14 2123
-502 14 2134
-493 14 2122
-490 14 2135
-497 14 2197
-535 16 2393
-566 17 2569
-572 17 2631
-599 18 2793
-591 18 2795
-600 18 2879
-578 18 2815
-601 19 2968
-605 19 3033
-615 19 3129
-634 20 3273
-690 22 3616
-693 22 3689
-719 23 3889
-678 22 3729
-623 21 3483
-596 20 3388
-625 22 3614
-634 22 3730
-624 22 3740
-587 21 3581
-586 21 3641
-555 21 3509
-573 21 3691
-582 22 3823
-601 23 4023
-615 24 4201
-616 24 4290
-605 24 4301
-634 26 4606
-610 25 4524
-601 26 4558
-600 26 4650
-590 26 4677
0 0 0
0 0 0
0 0 0
-32 3 304
-43 3 405
-46 3 443
-4 1 63
-509 27 4952
-494 26 4945
-478 26 4927
-467 26 4965
0 0 0
0 0 0
-14 2 201
-416 26 5040
-396 26 4969
-383 26 4988
-368 26 4973
-360 26 5061
-22 3 358
-47 5 758
-64 6 1064
-72 7 1244
-72 7 1307
-68 7 1304
-60 7 1232
-48 6 1043
-42 6 976
-46 6 1149
-46 7 1220
-40 6 1160
-32 6 1027
-31 6 1078
-33 7 1281
-29 7 1264
-26 7 1302
-23 7 1305
-19 7 1312
-16 7 1353
-11 7 1275
-7 7 1260
-4 7 1330
0 7 1398
3 6 1196
7 7 1362
10 7 1320
14 7 1365
17 7 1275
21 6 1247
26 7 1330
31 7 1402
34 7 1361
36 7 1300
42 7 1371
48 7 1416
47 6 1286
55 7 1406
58 7 1372
60 7 1335
64 6 1320
67 6 1311
69 6 1287
74 6 1304
81 7 1360
83 6 1332
90 7 1375
93 6 1365
103 7 1447
111 7 1499
119 7 1556
129 7 1616
127 7 1532
137 7 1604
140 7 1583
150 7 1650
137 7 1456
149 7 1538
133 6 1329
140 6 1362
132 6 1238
127 5 1162
122 5 1082
112 5 971
113 5 949
114 4 937
106 4 844
106 4 832
113 4 868
107 4 799
0 0 0
0 0 0
0 0 0
0 0 0
0 0 0
191 5 1273
163 5 1064
156 4 994
144 4 900
170 5 1046
0 0 0
0 0 0
260 6 1524
190 5 1088
181 4 1020
187 4 1036
217 5 1185
277 6 1495
0 0 0
415 8 2178
422 8 2178
448 8 2281
0 0 0
249 5 1220
258 5 1247
0 0 0
190 4 888
189 4 872
200 4 910
187 4 839
175 3 774
162 3 701
161 3 688
148 3 623
162 3 677
193 3 796
173 3 702
167 3 670
163 3 646
142 3 552
126 2 484
71 2 263
24 1 78
1289 14 4906
16 1 46
70 2 245
0 0 0
0 0 0
0 0 0
0 0 0
0 0 0
0 0 0
0 0 0
1023 10 3475
1032 10 3468
1051 10 3495
0 0 0
0 0 0
0 0 0
0 0 0
0 0 0
0 0 0
0 0 0
0 0 0
0 0 0
1054 8 3165
1059 8 3149
1063 8 3130
1058 8 3086
1044 8 3015
0 0 0
0 0 0
0 0 0
993 7 2763
1044 7 2877
1060 7 2895
1068 7 2891
1079 7 2894
1084 7 2880
1086 7 2861
1072 7 2797
1088 7 2815
1078 6 2765
1095 6 2784
1079 6 2719
1082 6 2703
1084 6 2685
1094 6 2687
1087 6 2646
1098 6 2652
1098 6 2629
1098 6 2606
1101 6 2593
1101 5 2570
1098 5 2543
1092 5 2508
1089 5 2480
1091 5 2464
1108 5 2482
1107 5 2461
1106 5 2438
1092 5 2388
1100 5 2387
1107 5 2382
1096 5 2341
1098 4 2325
1101 4 2313
1105 4 2303
1103 4 2282
1112 4 2282
1108 4 2256
1090 4 2202
1099 4 2204
1105 4 2199
1105 4 2183
1106 4 2168
1105 4 2148
1111 4 2144
1103 4 2113
1109 4 2108
1109 4 2092
1111 3 2080
1106 3 2055
1111 3 2050
1105 3 2024
1101 3 2000
1100 3 1984
1108 3 1983
-504 12 880
-505 12 887
-496 12 879
-486 12 867
-500 12 899
-474 11 858
-475 11 867
-475 11 874
-514 12 951
-505 12 943
-656 16 1232
-1087 25 2057
-1102 26 2101
-1097 26 2107
-1089 26 2109
-1078 25 2103
-1074 25 2110
-1066 25 2110
-1054 25 2103
-1048 25 2108
-1041 25 2109
-1033 25 2110
-1024 25 2108
-1021 25 2117
-1007 25 2104
-1002 25 2111
-994 25 2111
-986 25 2110
-979 24 2112
-968 24 2105
-968 24 2122
-959 24 2118
-950 24 2115
-935 24 2100
-914 24 2069
-904 23 2064
-916 24 2108
-891 23 2068
-892 23 2086
-880 23 2076
-878 23 2087
-875 23 2098
-866 23 2094
-858 23 2093
-845 23 2079
-840 23 2085
-823 23 2060
-827 23 2087
-822 23 2094
-813 23 2089
-809 23 2096
-804 23 2101
-796 23 2100
-784 23 2087
-779 22 2091
-776 23 2103
-770 22 2105
-756 22 2088
-747 22 2082
-729 22 2050
-736 22 2090
-720 22 2063
-721 22 2086
-716 22 2089
-713 22 2102
-706 22 2101
-702 22 2111
-698 22 2117
-692 22 2120
-679 22 2101
-675 22 2110
-662 21 2092
-644 21 2055
-650 21 2096
-640 21 2084
-638 21 2100
-623 21 2073
-624 21 2099
-617 21 2097
-615 21 2112
-608 21 2112
-601 21 2110
-593 21 2103
-590 21 2119
-585 21 2124
-578 21 2121
-570 21 2116
-565 21 2124
-558 21 2122
-546 21 2102
-544 21 2116
-535 20 2106
-533 21 2127
-524 20 2116
-517 20 2114
-513 20 2123
-504 20 2115
-499 20 2121
-497 20 2137
-495 21 2158
-524 22 2315
-605 25 2709
-657 28 2977
-655 28 3011
-651 28 3037
-648 28 3063
-641 28 3073
-641 29 3117
-636 29 3138
-628 29 3148
-617 29 3137
-615 29 3175
-608 29 3189
-599 29 3195
-596 29 3227
-585 29 3219
-574 29 3211
-565 29 3216
-556 29 3215
-550 29 3237
-540 29 3238
-530 29 3234
-517 28 3210
-510 28 3228
-500 28 3226
-494 28 3245
-485 28 3250
-476 28 3256
-465 28 3244
-455 28 3240
-448 28 3259
-436 28 3241
-429 28 3260
-420 28 3265
-408 28 3241
-395 27 3217
-386 27 3216
-378 27 3232
-369 27 3232
-359 27 3231
-351 27 3240
-339 27 3213
-340 28 3317
-348 29 3493
-338 29 3490
-313 28 3336
-292 27 3207
-279 26 3174
-272 26 3198
-270 27 3279
-333 34 4188
-385 40 5014
-370 40 5011
-2 2 75
-48 7 744
-64 9 1018
-62 9 1030
-66 10 1153
-60 10 1096
-58 10 1122
-54 10 1111
-38 8 842
-33 7 796
-38 8 970
-36 8 970
-37 9 1086
-30 8 977
-30 9 1051
-31 10 1210
-29 11 1268
-24 10 1201
-19 9 1127
-16 10 1160
-13 10 1164
-10 10 1148
-7 10 1193
-3 9 1131
0 10 1220
3 10 1230
6 10 1190
10 10 1204
13 10 1207
17 10 1249
20 10 1174
23 10 1180
29 10 1309
30 10 1192
32 9 1134
40 10 1284
39 9 1159
45 10 1236
48 10 1212
57 11 1349
56 10 1228
62 10 1285
61 9 1193
68 10 1262
72 10 1270
71 9 1190
81 10 1292
83 10 1263
88 10 1287
91 10 1272
92 10 1243
99 10 1290
108 10 1351
123 11 1487
117 10 1369
125 11 1415
118 10 1287
123 10 1300
136 10 1393
126 9 1251
118 9 1144
120 9 1127
118 8 1077
111 8 983
102 7 878
97 6 814
97 6 789
97 6 774
109 7 853
99 6 755
94 6 700
93 5 675
77 5 547
0 0 0
0 0 0
0 0 0
181 9 1207
157 8 1022
154 7 979
153 7 957
166 7 1022
210 9 1270
247 10 1476
278 11 1634
224 9 1289
212 8 1198
222 9 1235
271 10 1485
300 11 1621
0 0 0
339 12 1774
428 14 2207
383 13 1947
0 0 0
243 8 1190
279 9 1347
204 7 968
194 6 908
185 6 850
200 6 908
180 6 804
180 6 792
138 5 597
171 5 734
187 6 792
165 5 690
153 5 631
185 5 754
136 4 543
0 0 0
139 4 544
147 4 566
73 3 271
1273 29 4904
1287 29 4896
7 1 12
19 1 58
30 2 95
0 0 0
0 0 0
0 0 0
0 0 0
0 0 0
1031 20 3539
1014 20 3445
1036 20 3482
1038 20 3450
1052 20 3460
0 0 0
0 0 0
0 0 0
0 0 0
0 0 0
0 0 0
0 0 0
0 0 0
1056 18 3171
1061 18 3154
1061 17 3124
1067 17 3111
1044 17 3015
0 0 0
0 0 0
0 0 0
995 15 2766
1048 16 2888
1053 16 2875
1065 16 2881
1073 16 2877
1078 16 2864
1083 15 2852
1069 15 2791
1088 15 2815
1093 15 2803
1087 15 2764
1085 15 2734
1075 14 2686
1086 14 2689
1089 14 2673
1090 14 2655
1092 14 2637
1093 14 2616
1089 14 2586
1088 13 2561
1092 13 2550
1081 13 2503
1106 13 2539
1106 13 2518
1104 13 2494
1102 13 2469
1101 13 2446
1100 12 2425
1108 12 2423
1105 12 2397
1097 12 2360
1099 12 2347
1106 12 2343
1109 12 2330
1115 12 2325
1107 11 2290
1111 11 2280
1115 11 2270
1095 11 2213
1100 11 2205
1100 11 2189
1106 11 2184
1114 11 2184
1121 11 2180
1121 11 2164
1118 10 2142
1113 10 2116
1117 10 2107
1122 10 2102
1121 10 2084
1114 10 2055
1118 10 2047
1108 10 2014
1113 10 2009
1109 9 1985
-500 15 873
-491 14 862
-491 14 870
-506 15 902
-496 15 892
-482 14 873
-467 14 852
-474 14 871
-478 14 886
-480 14 895
-649 19 1220
-1087 32 2056
-1104 32 2105
-1098 32 2109
-1086 32 2103
-1079 32 2104
-1072 32 2107
-1063 32 2106
-1055 32 2106
-1050 32 2111
-1041 32 2109
-1033 32 2109
-1023 31 2106
-1019 31 2113
-1012 31 2116
-1001 31 2109
-995 31 2114
-986 31 2111
-976 31 2107
-973 31 2115
-965 31 2115
-956 31 2113
-953 31 2123
-942 31 2115
-909 30 2057
-915 30 2088
-902 30 2075
-894 30 2074
-892 30 2087
-887 30 2093
-872 30 2075
-873 30 2094
-859 29 2077
-863 30 2104
-851 30 2094
-839 29 2083
-824 29 2062
-830 29 2095
-824 29 2099
-817 29 2099
-812 29 2103
-802 29 2096
-796 29 2099
-787 29 2096
-774 29 2078
-776 29 2104
-759 28 2076
-755 29 2084
-748 28 2083
-736 28 2070
-725 28 2058
-722 28 2068
-714 28 2065
-714 28 2084
-713 28 2103
-710 28 2114
-707 28 2125
-694 28 2106
-694 28 2126
-680 28 2105
-673 28 2105
-663 28 2094
-649 27 2071
-648 28 2089
-634 27 2066
-635 27 2089
-630 27 2096
-630 28 2117
-627 28 2130
-610 27 2094
-608 27 2112
-605 28 2126
-603 28 2140
-592 27 2127
-582 27 2114
-572 27 2100
-572 27 2124
-563 27 2116
-560 27 2128
-548 27 2109
-540 27 2101
-540 27 2127
-531 27 2118
-527 27 2129
-515 27 2105
-509 27 2109
-506 27 2120
-496 26 2108
-496 27 2134
-508 28 2213
-554 30 2446
-646 35 2889
-675 37 3063
-675 38 3102
-659 37 3074
-661 38 3126
-650 38 3119
-648 38 3155
-636 38 3140
-630 38 3156
-619 38 3149
-610 38 3154
-605 38 3174
-594 38 3168
-588 38 3184
-579 38 3187
-567 38 3176
-558 38 3177
-550 38 3181
-543 38 3196
-533 38 3192
-522 37 3184
-514 37 3194
-504 37 3191
-497 37 3203
-486 37 3198
-476 37 3194
-468 37 3198
-458 37 3194
-448 37 3188
-440 37 3198
-430 37 3198
-422 37 3209
-411 37 3197
-403 37 3202
-393 37 3201
-383 36 3194
-375 36 3201
-365 36 3197
-356 36 3200
-347 36 3200
-337 36 3202
-330 36 3219
-322 36 3230
-312 36 3223
-301 36 3207
-291 36 3206
-281 36 3199
-272 36 3202
-264 36 3209
-266 37 3353
-381 54 4961
-373 55 5050
-12 3 211
-57 10 879
-57 11 909
-59 12 992
-52 11 919
-54 12 1000
-53 12 1038
-49 12 1014
-28 8 643
-12 4 324
-20 7 545
-23 8 645
-36 12 1067
-31 11 993
-24 10 873
-27 12 1050
-23 12 1038
-22 13 1120
-18 12 1076
-16 12 1107
-12 12 1070
-9 12 1065
-5 12 1035
-3 12 1064
0 12 1087
3 12 1099
6 12 1104
9 12 1079
12 12 1113
15 12 1061
17 11 1000
21 12 1077
25 12 1105
28 12 1104
32 13 1143
35 12 1120
36 12 1046
42 12 1143
41 11 1025
45 11 1042
50 12 1092
54 12 1105
61 13 1190
64 13 1177
62 12 1084
65 12 1072
76 13 1212
75 12 1133
82 13 1193
87 13 1219
86 12 1151
87 12 1120
94 12 1169
104 13 1250
99 12 1146
117 14 1322
121 14 1316
114 13 1206
121 13 1242
121 13 1208
121 12 1169
118 12 1107
116 11 1059
112 10 991
94 9 807
86 8 721
84 8 687
93 8 743
84 7 652
91 8 688
75 6 556
80 6 575
88 7 623
56 5 382
38 3 248
54 4 350
0 0 0
0 0 0
162 11 1032
179 11 1124
212 13 1311
230 14 1396
268 16 1600
233 13 1362
271 15 1564
247 14 1400
255 14 1420
243 13 1328
277 15 1492
0 0 0
0 0 0
0 0 0
328 16 1662
237 12 1179
223 11 1092
261 12 1262
0 0 0
183 9 852
172 8 792
168 8 763
129 6 571
181 8 797
162 7 705
153 7 655
169 7 715
196 8 819
157 7 646
111 5 445
122 5 486
137 6 539
124 5 481
146 6 563
51 3 184
1267 43 4878
3 1 -2
1294 43 4866
77 3 271
0 0 0
0 0 0
0 0 0
0 0 0
0 0 0
0 0 0
1029 31 3532
1009 30 3426
1024 30 3442
1035 30 3442
1042 30 3428
0 0 0
0 0 0
0 0 0
0 0 0
0 0 0
0 0 0
0 0 0
0 0 0
1068 28 3206
1049 27 3119
1059 27 3117
1054 26 3075
1060 26 3061
0 0 0
0 0 0
0 0 0
1019 24 2834
1041 24 2869
1059 25 2891
1069 25 2894
1076 24 2886
1079 24 2868
1086 24 2859
1077 24 2810
1080 24 2795
1076 23 2759
1067 23 2711
1087 23 2739
1076 23 2688
1076 22 2666
1089 22 2675
1087 22 2645
1094 22 2640
1085 22 2597
1088 21 2582
1083 21 2549
1091 21 2546
1097 21 2538
1091 21 2504
1091 21 2485
1094 20 2471
1104 20 2473
1096 20 2434
1097 20 2418
1103 20 2411
1104 20 2393
1102 19 2370
1109 19 2367
1111 19 2354
1107 19 2325
1105 19 2303
1108 19 2291
1116 19 2290
1111 18 2262
1094 18 2210
1098 18 2202
1106 18 2201
1109 18 2189
1113 18 2180
1120 18 2179
1121 17 2163
1120 17 2146
1118 17 2124
1126 17 2125
1128 17 2112
1116 17 2074
1126 17 2077
1123 17 2056
1131 16 2056
1127 16 2032
1118 16 2002
-516 18 900
-495 17 869
-490 17 868
-506 18 903
-488 17 877
-477 17 864
-470 17 857
-475 17 873
-490 18 907
-505 18 941
-657 23 1234
-1097 39 2075
-1106 39 2110
-1096 39 2107
-1086 39 2103
-1075 39 2097
-1073 39 2110
-1065 39 2109
-1054 38 2103
-1048 38 2108
-1038 38 2103
-1034 38 2112
-1028 38 2116
-1021 38 2118
-1011 38 2114
-1005 38 2117
-995 38 2113
-993 38 2125
-981 38 2117
-972 38 2113
-961 37 2107
-959 37 2118
-947 37 2110
-944 37 2120
-920 37 2083
-907 36 2070
-911 37 2096
-898 36 2082
-878 36 2054
-882 36 2081
-882 36 2097
-871 36 2090
-866 36 2094
-855 36 2085
-847 36 2084
-836 36 2076
-822 35 2057
-836 36 2110
-827 36 2105
-812 35 2086
-815 36 2113
-808 36 2113
-794 35 2094
-793 36 2110
-784 35 2105
-781 35 2116
-768 35 2102
-761 35 2100
-747 35 2081
-730 34 2053
-733 35 2082
-731 35 2095
-708 34 2048
-723 35 2112
-717 35 2113
-709 35 2110
-703 35 2114
-695 35 2109
-693 35 2125
-681 34 2109
-675 34 2109
-662 34 2092
-648 34 2069
-646 34 2083
-640 34 2085
-637 34 2096
-626 33 2082
-629 34 2113
-623 34 2117
-611 34 2097
-609 34 2115
-606 34 2129
-597 34 2120
-586 33 2105
-575 33 2089
-571 33 2098
-576 34 2141
-564 33 2118
-559 33 2126
-550 33 2117
-545 33 2122
-539 33 2124
-531 33 2117
-523 33 2113
-518 33 2118
-514 33 2129
-503 33 2110
-504 33 2139
-495 33 2131
-511 34 2228
-561 38 2480
-661 45 2958
-682 47 3094
-673 47 3092
-669 47 3120
-658 47 3110
-656 47 3146
-647 47 3147
-640 47 3162
-630 47 3156
-622 47 3166
-613 47 3167
-600 47 3148
-593 47 3160
-584 47 3166
-577 47 3177
-568 47 3177
-559 47 3181
-551 47 3191
-542 47 3190
-533 47 3197
-523 47 3191
-512 47 3183
-505 47 3197
-496 47 3199
-487 47 3202
-476 46 3192
-469 47 3206
-459 46 3202
-449 46 3200
-440 46 3199
-431 46 3203
-421 46 3201
-411 46 3197
-402 46 3199
-394 46 3205
-383 46 3195
-375 46 3201
-366 46 3212
-356 46 3202
-347 46 3207
-338 45 3204
-329 46 3215
-318 45 3199
-310 45 3206
-301 45 3207
-291 45 3201
-282 45 3207
-272 45 3197
-264 45 3207
-263 46 3312
-371 67 4837
-10 3 169
-37 9 561
-59 13 903
-51 12 828
-45 11 761
-51 13 895
-50 14 931
-54 15 1044
-46 14 959
-20 7 469
-8 4 234
-1 3 107
-10 6 341
-23 10 698
-21 11 707
-18 10 673
-25 14 982
-23 15 1028
-20 15 1015
-17 15 1024
-13 14 987
-10 14 972
-8 14 1001
-5 14 958
-2 14 985
0 15 1029
3 14 960
6 15 1028
8 13 950
11 14 993
15 15 1065
17 14 1027
19 13 940
21 13 926
26 14 1001
28 13 959
29 13 927
33 14 970
38 14 1008
41 14 1034
44 14 1023
46 14 1003
48 14 980
47 13 913
54 14 996
58 14 1005
63 14 1043
65 14 1020
75 15 1137
65 13 941
73 14 1013
79 14 1062
87 15 1122
97 16 1203
98 16 1182
97 15 1121
94 14 1055
111 16 1204
107 15 1125
107 15 1095
110 15 1086
109 14 1047
115 14 1081
102 13 928
103 12 916
99 12 852
86 10 719
84 10 685
84 9 667
78 8 602
76 8 571
67 7 494
77 8 553
48 5 328
36 4 236
27 3 170
55 5 357
63 6 404
0 0 0
0 0 0
0 0 0
0 0 0
309 24 1881
204 16 1215
219 16 1279
213 16 1226
255 18 1441
0 0 0
219 15 1195
0 0 0
231 16 1224
0 0 0
247 16 1267
274 18 1386
230 15 1143
212 13 1036
219 14 1056
182 11 864
164 10 762
187 11 859
176 10 796
142 9 631
142 8 623
159 9 691
165 9 709
151 9 638
183 10 763
149 8 611
169 9 686
149 8 595
130 7 510
140 7 544
143 7 550
77 4 284
11 1 27
1264 57 4810
1301 58 4894
13 1 33
0 0 0
0 0 0
0 0 0
0 0 0
0 0 0
0 0 0
1015 41 3486
1024 41 3477
1025 40 3443
1038 40 3452
1040 40 3420
0 0 0
0 0 0
0 0 0
0 0 0
0 0 0
0 0 0
0 0 0
0 0 0
1001 35 3004
1048 36 3115
1055 36 3105
1054 36 3074
1039 35 3000
0 0 0
0 0 0
0 0 0
1009 32 2805
1052 33 2899
1049 33 2865
1060 33 2868
1069 33 2866
1076 33 2859
1081 33 2847
1072 32 2798
1075 32 2782
1081 32 2771
1080 31 2746
1076 31 2711
1071 31 2675
1072 30 2654
1088 31 2671
1072 30 2610
1086 30 2621
1097 30 2626
1086 29 2578
1093 29 2571
1097 29 2560
1093 29 2530
1102 29 2529
1086 28 2474
1099 28 2482
1104 28 2474
1098 28 2438
1109 28 2445
1105 27 2417
1110 27 2408
1105 27 2377
1109 27 2366
1103 26 2336
1103 26 2318
1114 26 2322
1110 26 2296
1117 26 2292
1104 25 2247
1105 25 2232
1106 25 2216
1102 25 2193
1111 25 2193
1113 25 2180
1119 25 2176
1131 25 2182
1128 24 2161
1136 24 2160
1117 24 2107
1127 24 2110
1131 24 2102
1124 23 2074
1127 23 2064
1128 23 2049
1128 23 2036
1135 23 2033
-509 21 889
-503 20 885
-494 20 874
-484 20 863
-492 20 883
-478 20 866
-484 20 883
-472 20 867
-493 21 913
-487 21 909
-652 27 1225
-1085 45 2053
-1106 46 2109
-1095 46 2104
-1087 46 2104
-1081 46 2109
-1073 45 2110
-1065 45 2109
-1058 45 2112
-1048 45 2108
-1038 45 2104
-1032 45 2108
-1027 45 2113
-1016 45 2108
-1012 45 2116
-1006 45 2120
-991 44 2104
-990 44 2119
-981 44 2117
-972 44 2114
-965 44 2114
-956 44 2112
-949 44 2114
-935 43 2098
-911 43 2062
-917 43 2093
-902 43 2075
-895 43 2076
-887 43 2074
-882 43 2080
-872 42 2075
-871 43 2088
-866 43 2094
-851 42 2077
-848 42 2086
-839 42 2081
-842 42 2107
-828 42 2091
-821 42 2091
-813 42 2088
-808 42 2094
-797 42 2084
-794 42 2094
-785 42 2090
-770 41 2067
-778 42 2108
-769 42 2105
-759 41 2096
-739 41 2059
-733 41 2060
-738 41 2096
-727 41 2084
-716 40 2071
-722 41 2108
-715 41 2107
-703 41 2093
-698 41 2098
-693 41 2103
-686 41 2103
-680 41 2106
-672 40 2101
-663 40 2094
-648 40 2069
-644 40 2077
-648 40 2111
-635 40 2090
-624 40 2075
-627 40 2109
-620 40 2105
-618 40 2122
-607 40 2107
-603 40 2117
-597 40 2120
-590 40 2116
-575 39 2086
-577 40 2118
-568 40 2108
-562 40 2114
-557 40 2117
-551 40 2121
-542 39 2111
-539 39 2124
-531 39 2118
-526 39 2124
-522 39 2134
-515 39 2131
-509 39 2133
-498 39 2114
-496 39 2136
-513 41 2239
-562 45 2480
-662 54 2961
-685 56 3108
-677 56 3111
-671 56 3126
-658 56 3110
-653 56 3131
-647 57 3151
-638 56 3151
-630 57 3160
-619 56 3150
-609 56 3147
-604 56 3168
-596 57 3179
-586 56 3176
-578 56 3183
-569 56 3186
-559 56 3184
-549 56 3179
-542 56 3191
-531 56 3186
-523 56 3193
-514 56 3195
-503 56 3184
-494 56 3188
-486 56 3195
-475 56 3187
-467 56 3196
-459 56 3204
-449 56 3198
-439 55 3196
-431 55 3204
-421 55 3199
-412 55 3203
-403 55 3206
-393 55 3199
-384 55 3199
-376 55 3210
-365 55 3199
-357 55 3213
-346 55 3193
-337 55 3200
-328 55 3200
-319 55 3203
-309 54 3200
-300 54 3203
-292 54 3210
-282 54 3207
-273 54 3210
-264 54 3216
-259 55 3269
-361 79 4706
-33 9 488
-51 13 749
-49 14 760
-47 14 761
-37 12 643
-39 13 703
-44 15 826
-48 16 938
-46 17 961
-21 9 504
-226 83 5025
-1 3 107
-4 4 179
-22 12 687
-20 12 665
-6 6 281
-21 15 868
-21 16 941
-20 18 1034
-15 16 926
-13 17 958
-10 16 911
-8 17 968
-5 18 1032
-2 16 931
0 17 971
3 17 1021
5 16 934
9 18 1044
11 16 940
14 17 990
17 16 970
18 16 914
22 16 940
22 14 833
25 15 869
27 14 847
33 16 955
33 15 887
35 15 875
42 16 979
42 15 914
46 16 941
48 15 914
54 17 991
49 14 841
56 16 924
62 16 974
63 16 954
70 17 1009
71 16 988
77 17 1031
79 17 1016
84 17 1037
84 17 1005
91 17 1053
95 18 1069
93 17 1004
109 19 1147
105 18 1070
107 17 1056
114 18 1097
108 17 1012
94 14 847
93 14 816
95 13 812
90 13 752
89 12 726
76 10 599
72 9 552
62 8 463
68 9 495
54 7 383
48 6 329
39 5 255
49 6 323
46 6 295
33 4 199
758 76 5010
767 76 4972
0 0 0
0 0 0
0 0 0
0 0 0
0 0 0
190 17 1091
199 18 1125
192 17 1067
0 0 0
193 16 1034
185 16 975
195 16 1014
198 16 1011
197 16 990
175 14 866
215 17 1051
195 15 937
183 14 868
188 14 878
167 12 767
177 13 802
161 12 719
142 10 623
174 12 755
141 10 602
156 11 659
185 12 773
139 9 572
172 11 701
167 11 670
87 6 337
152 10 593
126 8 484
39 3 137
1271 72 4893
13 2 36
1293 72 4863
12 2 29
90 6 317
0 0 0
0 0 0
0 0 0
0 0 0
0 0 0
0 0 0
1014 51 3442
1036 51 3481
1065 52 3540
0 0 0
0 0 0
0 0 0
0 0 0
0 0 0
0 0 0
0 0 0
0 0 0
0 0 0
0 0 0
0 0 0
1048 45 3086
1051 45 3063
1015 43 2929
0 0 0
0 0 0
0 0 0
1041 42 2894
1045 42 2879
1061 42 2898
1062 42 2873
1074 42 2879
1070 41 2843
1083 41 2853
